1.223233387633361341e-01,2.319694203153364498e+01,8.606161090347226761e+00,6.827978934948940315e-02,-6.506826920157517957e-01,-7.562723746616634157e-01,6.189387831852476438e+02
4.675945088497261426e-01,2.390442939069304984e+01,8.647539299656093803e+00,4.549834587863233609e-02,-6.411810361812139147e-01,-7.660383667694151688e-01,6.236783071238893399e+02
7.813420725392568045e-01,2.457675866376062856e+01,8.685271583196332301e+00,2.268484160439874012e-02,-6.312275709347532349e-01,-7.752645688099218946e-01,6.284178310625310360e+02
1.059327083864608499e+00,2.521175753236938633e+01,8.719237704067660744e+00,-1.446481696357194405e-04,-6.208293098582324809e-01,-7.839444796008617766e-01,6.331573550011727320e+02
1.297251290088452080e+00,2.580734462535263773e+01,8.749317651532624751e+00,-2.297403687270948777e-02,-6.099935799404084813e-01,-7.920719828778322036e-01,6.378968789398144281e+02
1.490757872224827807e+00,2.636153053556683901e+01,8.775391648458818139e+00,-4.578723799985228576e-02,-5.987280164153377937e-01,-7.996413516035859592e-01,6.426364028784561242e+02
1.635432192383734273e+00,2.687241882705128049e+01,8.797340158750335704e+00,-6.856817644485094232e-02,-5.870405573837030877e-01,-8.066472520031930937e-01,6.473759268170978203e+02
1.726802547896607365e+00,2.733820703243753414e+01,8.815043894768109567e+00,-9.130079982523266191e-02,-5.749394382208429244e-01,-8.130847473222829747e-01,6.521154507557395164e+02
1.760340932180010087e+00,2.775718764052216514e+01,8.828383824738780916e+00,-1.139690897913022416e-01,-5.624331857754130137e-01,-8.189493013057277393e-01,6.568549746943812124e+02
1.756902220086135058e+00,2.779982746436333230e+01,8.829418903496021542e+00,-1.365570733112788926e-01,-5.495306123627570205e-01,-8.242367813943090038e-01,6.573997440653656668e+02
1.663265366912487275e+00,2.812250023818800670e+01,8.833728803738871704e+00,-1.274469298960957397e-01,-5.614845621569974909e-01,-8.176126017314686578e-01,6.621392680040073628e+02
1.511440273928357003e+00,2.839708098745667542e+01,8.832245740609849349e+00,-1.183024063436339396e-01,-5.732870373063989611e-01,-8.107678542595123661e-01,6.668787919426490589e+02
1.306635776956429407e+00,2.862332564304750804e+01,8.823673305179728032e+00,-1.091259692407070409e-01,-5.849348543643680953e-01,-8.037043853170948715e-01,6.716183158812907550e+02
1.054037123754176797e+00,2.880086791292568549e+01,8.806715521535114277e+00,-9.992009377630907407e-02,-5.964248715877966678e-01,-7.964241002143218617e-01,6.763578398199324511e+02
7.588049177969121706e-01,2.892921972231669514e+01,8.780076927510398477e+00,-9.068726307459380742e-02,-6.077539897807163749e-01,-7.889289627163270646e-01,6.810973637585741471e+02
4.260740652280307073e-01,2.900777166764547133e+01,8.742462655395847548e+00,-8.142996752626903423e-02,-6.189191531287009385e-01,-7.812209945144223955e-01,6.858368876972158432e+02
6.095272503702096889e-02,2.903579348420024075e+01,8.692578512618046815e+00,-7.215070411804382078e-02,-6.299173500216334043e-01,-7.733022746817158621e-01,6.905764116358575393e+02
-3.314787374743290438e-01,2.901243452747933915e+01,8.629131062388953666e+00,-6.285197576030736311e-02,-6.407456138646167032e-01,-7.651749391133411127e-01,6.953159355744992354e+02
-7.461687938773170492e-01,2.893672426817837007e+01,8.550827704319768685e+00,-5.353629061321676236e-02,-6.514010238768168648e-01,-7.568411799514466187e-01,7.000554595131409314e+02
-1.036498676798445873e+00,2.884950588090669754e+01,8.487474367023269295e+00,-4.420616141137288790e-02,-6.618807058780226127e-01,-7.483032449950962617e-01,7.032395558749495876e+02
-1.482016639504618150e+00,2.866458971622808605e+01,8.376095738964545845e+00,1.365550604983759540e-02,-6.678787726296324667e-01,-7.441434486883694577e-01,7.079790798135912837e+02
-1.936660316894054157e+00,2.842419998405787496e+01,8.246412550002256481e+00,7.147072443104518502e-02,-6.716052098330976827e-01,-7.374526274107080503e-01,7.127186037522329798e+02
-2.395492799141671458e+00,2.812693281873700002e+01,8.097136128363958463e+00,1.290428494390807868e-01,-6.730473432853781857e-01,-7.282535387526783976e-01,7.174581276908746759e+02
-2.853610834064942203e+00,2.777126695993220906e+01,7.926979014700733295e+00,1.861760636882715536e-01,-6.722002682502269399e-01,-7.165774715092344538e-01,7.221976516295163719e+02
-3.306145850192069968e+00,2.735556432407415528e+01,7.734655042425136351e+00,2.426760427114278418e-01,-6.690668661334859824e-01,-7.024641392533697015e-01,7.269371755681580680e+02
-3.748264976084882072e+00,2.687807058913339731e+01,7.518879417988899583e+00,2.983506158911671258e-01,-6.636577946740653822e-01,-6.859615452534402191e-01,7.316766995067997641e+02
-4.176528318704677112e+00,2.633813784897307286e+01,7.279294356667435295e+00,3.530104200638737311e-01,-6.559914516875359203e-01,-6.671258191975478757e-01,7.364162234454414602e+02
-4.590209931313224523e+00,2.573748747977020201e+01,7.017394660625656755e+00,4.064695435737881168e-01,-6.460939124858591232e-01,-6.460210262804452208e-01,7.411557473840831562e+02
-4.989887673875789353e+00,2.507904827916126322e+01,6.735602070471443881e+00,4.585461585872255830e-01,-6.339988411862393924e-01,-6.227189493023485012e-01,7.458952713227248523e+02
-5.376068915488342093e+00,2.436575353425485702e+01,6.436339559093696927e+00,5.090631395168727646e-01,-6.197473762108314244e-01,-5.972988445207573216e-01,7.506347952613665484e+02
-5.749190543275371823e+00,2.360053982791155391e+01,6.122031181013742440e+00,5.578486654533403311e-01,-6.033879903667385136e-01,-5.698471720855740053e-01,7.553743192000082445e+02
-6.109618979160599039e+00,2.278634584522843909e+01,5.795101921686289792e+00,6.047368045555253646e-01,-5.849763259821311179e-01,-5.404573019741847340e-01,7.601138431386499406e+02
-6.457650204509016056e+00,2.192611118032890616e+01,5.457977546756994869e+00,6.495680784126560692e-01,-5.645750056590818078e-01,-5.092291964264330506e-01,7.648533670772916366e+02
-6.793509792638360523e+00,2.102277514355823484e+01,5.113084451283689269e+00,6.921900044589479606e-01,-5.422534192865847702e-01,-4.762690699592759258e-01,7.695928910159333327e+02
-7.117352949197769618e+00,2.007927556918551204e+01,4.762849508928291620e+00,7.324576145963856977e-01,-5.180874880379102709e-01,-4.416890281171244603e-01,7.743324149545750288e+02
-7.429264560410910434e+00,1.909854762371224268e+01,4.409699921126428279e+00,7.702339482619721123e-01,-4.921594061546810672e-01,-4.056066861861541972e-01,7.790719388932167249e+02
-7.729259249180411295e+00,1.808352261488807144e+01,4.056063066241772042e+00,8.053905182626125425e-01,-4.645573613955675807e-01,-3.681447691689904711e-01,7.838114628318584209e+02
-8.017281439049931180e+00,1.703712680153411441e+01,3.704366348712203827e+00,8.378077477933316697e-01,-4.353752351000361176e-01,-3.294306943798992471e-01,7.885509867705001170e+02
-8.087233788619242247e+00,1.675955017077929199e+01,3.614707801463713732e+00,8.673753771524143064e-01,-4.047122828869025857e-01,-2.895961380797259510e-01,7.897730006978659958e+02
-8.341806318575724077e+00,1.565455406767451585e+01,3.272456294510030617e+00,8.844612722830924589e-01,-3.862567316616170032e-01,-2.617861628798860973e-01,7.945125246365076919e+02
-8.584282193128242255e+00,1.452456766670520771e+01,2.937624787855579456e+00,9.003036722233734857e-01,-3.672581321868849114e-01,-2.336081379613107467e-01,7.992520485751493879e+02
-8.814378235814228191e+00,1.337249543043184374e+01,2.612639613836280628e+00,9.148803045891087393e-01,-3.477431948270222062e-01,-2.051016789901349557e-01,8.039915725137910840e+02
-9.031741422918692308e+00,1.220123172248356092e+01,2.299926488631646393e+00,9.281706764455763814e-01,-3.277393557921455258e-01,-1.763068633085838055e-01,8.087310964524327801e+02
-9.236091489704358892e+00,1.101428036270982957e+01,2.000883085710327691e+00,9.401561031050443829e-01,-3.072747385734710401e-01,-1.472641736036814086e-01,8.134706203910744762e+02
-9.427345076176749217e+00,9.816378339265634523e+00,1.714851673298392498e+00,9.508197343853512784e-01,-2.863781144140151169e-01,-1.180144410073462741e-01,8.182101443297161723e+02
-9.605445600834260134e+00,8.612879751485836621e+00,1.440146431414927930e+00,9.601465782915304947e-01,-2.650788618695779641e-01,-8.859878770726069275e-02,8.229496682683578683e+02
-9.770211565651068852e+00,7.409135151526562879e+00,1.175080832932517083e+00,9.681235220872961289e-01,-2.434069255167170542e-01,-5.905856914898278964e-02,8.276891922069995644e+02
-9.921336597660062040e+00,6.210489436665189267e+00,9.179677488939373964e-01,9.747393507268468094e-01,-2.213927738656019939e-01,-2.943531591033666378e-02,8.324287161456412605e+02
-1.005838950438129054e+01,5.022279742233076050e+00,6.671195538569854033e-01,9.799847626211228846e-01,-1.990673565367568065e-01,2.293246704245827268e-04,8.371682400842829566e+02
-1.011615450307752972e+01,4.452026918708051895e+00,5.475556410930574325e-01,9.838523827163714319e-01,-1.764620607617201353e-01,2.989364703084251493e-02,8.394713424112674147e+02
-1.021633809653209291e+01,3.297081215320390779e+00,3.050505200472874989e-01,9.818248429396234656e-01,-1.688513791716009793e-01,-8.664403925833666364e-02,8.442108663499091108e+02
-1.030084293637102810e+01,2.165245055052701595e+00,6.511538257535436081e-02,9.664021779850007210e-01,-1.589370437448897611e-01,-2.019996200792210650e-01,8.489503902885508069e+02
-1.036909966911644787e+01,1.060673250076352492e+00,-1.724324744681663413e-01,9.377948041547946589e-01,-1.468543170436573675e-01,-3.145992925399677120e-01,8.536899142271925029e+02
-1.042053766048905672e+01,-1.286939736297576520e-02,-4.072739272156258861e-01,8.963930161330769808e-01,-1.327680448175481420e-01,-4.229068536970562175e-01,8.584294381658341990e+02
-1.045449587708398020e+01,-1.051628029252379193e+00,-6.390900202080138648e-01,8.427616619957027932e-01,-1.168704070137170092e-01,-5.254446583946419391e-01,8.631689621044758951e+02
-1.047022295344670262e+01,-2.051859263404229416e+00,-8.675619860341906575e-01,7.776324370277283293e-01,-9.937829590967754700e-02,-6.208137781856506443e-01,8.679084860431175912e+02
-1.046687726925816975e+01,-3.009832724131638493e+00,-1.092371264961477850e+00,7.018939014738586613e-01,-8.053035713194435508e-02,-7.077130863949567807e-01,8.726480099817592873e+02
-1.044352703662479342e+01,-3.921832571877916340e+00,-1.313199524556548203e+00,6.165793583688075064e-01,-6.058373391769218685e-02,-7.849570090257619315e-01,8.773875339204009833e+02
-1.043135453728677753e+01,-4.139404397112774525e+00,-1.367814440249926822e+00,5.228527567646904517e-01,-3.981055902215244885e-02,-8.514916993925154554e-01,8.785825676994058995e+02
-1.035786138197997097e+01,-4.951320259479808250e+00,-1.580341621472824087e+00,6.541223213070496145e-01,4.005756349613938394e-02,-7.553260093331038982e-01,8.833220916380475956e+02
-1.026362406057536347e+01,-5.710529372989325836e+00,-1.789556128221682529e+00,7.638983764633390239e-01,1.186094401593294489e-01,-6.343414468110414317e-01,8.880616155766892916e+02
-1.014955310501059849e+01,-6.414641257247556183e+00,-1.996524744726428713e+00,8.485738655272347941e-01,1.932639834612494001e-01,-4.925133779314085913e-01,8.928011395153309877e+02
-1.001649835496926499e+01,-7.061238810524169907e+00,-2.202314393372898582e+00,9.053664881524593477e-01,2.615681657396397575e-01,-3.345020430468203521e-01,8.975406634539726838e+02
-9.990093161411765621e+00,-7.161351864339279061e+00,-2.237389207926185453e+00,9.324101183680427729e-01,3.212776181294293432e-01,-1.654994358121557874e-01,8.983496677306200127e+02
-9.814009732859311441e+00,-7.686429011080209150e+00,-2.443194374057153340e+00,9.024741333769674689e-01,3.869242862826847151e-01,-1.892829502882723558e-01,9.030891916692617087e+02
-9.621117408323000220e+00,-8.149530700788808701e+00,-2.650362922584789338e+00,8.673296910587532382e-01,4.503378833207464238e-01,-2.119740499541137302e-01,9.078287156079034048e+02
-9.415425036108421963e+00,-8.550012830640104866e+00,-2.860640458355117488e+00,8.271796215179170186e-01,5.111524329408612122e-01,-2.334417787030197144e-01,9.125682395465451009e+02
-9.202037352585643148e+00,-8.887751512478805793e+00,-3.075998623489800021e+00,7.822556428653983929e-01,5.690169586619638897e-01,-2.535622408015182905e-01,9.173077634851867970e+02
-8.986052103756382081e+00,-9.162500946382406752e+00,-3.298408740874990475e+00,7.328170239653615248e-01,6.235975091894851996e-01,-2.722193158450957884e-01,9.220472874238284930e+02
-8.772558980326996547e+00,-9.373893552606682888e+00,-3.529841691163078998e+00,6.791490882330740719e-01,6.745790855422184595e-01,-2.893053288501799547e-01,9.267868113624701891e+02
-8.566638553715845816e+00,-9.521440117434217143e+00,-3.772267789795072712e+00,6.215615671121776931e-01,7.216674588303125804e-01,-3.047216716189753427e-01,9.315263353011118852e+02
-8.373361213056377039e+00,-9.604529952913612334e+00,-4.027656664049427349e+00,5.603868127249854725e-01,7.645908682030244652e-01,-3.183793717943314006e-01,9.362658592397535813e+02
-8.358088993283924850e+00,-9.606004677702884464e+00,-4.050894322424690941e+00,4.959778800001288235e-01,8.031015891743332746e-01,-3.301996063228149758e-01,9.366738776834386044e+02
-8.199077575398264983e+00,-9.556689686415037244e+00,-4.336430811634741644e+00,6.543211482984159222e-01,7.475389232939827489e-01,-1.142251857107496049e-01,9.414134016220803005e+02
-8.062562460081419857e+00,-9.441092380588340660e+00,-4.639035690146021018e+00,7.637179802244292715e-01,6.360566961290160526e-01,1.102938166543302734e-01,9.461529255607219966e+02
-7.950772187129113711e+00,-9.261703709510273441e+00,-4.961673829414023906e+00,8.159849746260149361e-01,4.769943301693260196e-01,3.265622914112157882e-01,9.508924494993636927e+02
-7.860050753972208426e+00,-9.028066138152970765e+00,-5.309304599575629169e+00,8.072123125470731519e-01,2.822504605661555477e-01,5.184023147936450693e-01,9.556319734380053887e+02
-7.838674013616477865e+00,-8.948627675565234085e+00,-5.417486770575446364e+00,7.380562252748333885e-01,6.639286554166087817e-02,6.714633241949657938e-01,9.569899367144379312e+02
-7.775495590731235751e+00,-8.636502801283993946e+00,-5.828834163128707502e+00,7.088764684238597624e-01,1.110568728292385815e-01,6.965332178038251554e-01,9.617294606530796273e+02
-7.717169640069045933e+00,-8.301099709670612725e+00,-6.278781682209605641e+00,6.772334879655780293e-01,1.553349654256038215e-01,7.191827662604650673e-01,9.664689845917213233e+02
-7.661092701314577980e+00,-7.973845845793056775e+00,-6.744015144000723438e+00,6.432372242231521042e-01,1.990733036670560563e-01,7.393332760887982857e-01,9.709448363749478403e+02
-7.596090668423916448e+00,-7.625090553872809984e+00,-7.279692491265588039e+00,6.167852855459071693e-01,2.292196682250898510e-01,7.530154415550148750e-01,9.756843603135895364e+02
-7.521497879724431179e+00,-7.281597670257744959e+00,-7.856839024890887480e+00,5.892257835604347571e-01,2.589544131696995266e-01,7.653454042946854496e-01,9.804238842522312325e+02
-7.511298792086226861e+00,-7.241956083624240037e+00,-7.930299913834080172e+00,5.606081950569186123e-01,2.882241565902199376e-01,7.763010287123879305e-01,9.809881345987362238e+02
-7.413758160619679849e+00,-6.920539849086722484e+00,-8.581813868345486540e+00,5.395407836093176757e-01,2.691170957276514675e-01,7.977905311584043702e-01,9.857276585373779199e+02
-7.303288231591494650e+00,-6.608868049138247436e+00,-9.254980569542304636e+00,5.177877722508151814e-01,2.496680664839693586e-01,8.182662644167165711e-01,9.904671824760196159e+02
-7.180133448819143283e+00,-6.304021060775942153e+00,-9.933508083564408508e+00,4.953768021495362217e-01,2.299017822813797518e-01,8.377022110468805849e-01,9.952067064146613120e+02
-7.044718310376794079e+00,-6.003697276171677366e+00,-1.060122688254708478e+01,4.723363503945519626e-01,2.098433595947809538e-01,8.560736747073027786e-01,9.999462303533030081e+02
-6.898079754050697510e+00,-5.707453305731778670e+00,-1.124528777821066861e+01,4.486956938278862106e-01,1.895182860518736800e-01,8.733573115221535677e-01,1.004685754291944704e+03
-6.741829391297695651e+00,-5.416691119262596388e+00,-1.185911415087576337e+01,4.244848718593671744e-01,1.689523880611808193e-01,8.895311597284504268e-01,1.009425278230586400e+03
-6.577776544490962607e+00,-5.133400240292290029e+00,-1.243920543140225554e+01,3.997346483140145068e-01,1.481717980102854604e-01,9.045746675694896766e-01,1.014164802169228096e+03
-6.407772312975010820e+00,-4.859530099735567710e+00,-1.298206314043970977e+01,3.744764723602169720e-01,1.272029210757774365e-01,9.184687193993450460e-01,1.018904326107869792e+03
-6.241218899024132405e+00,-4.607875924287673897e+00,-1.346042460653146122e+01,3.487424385681142103e-01,1.060724016868854480e-01,9.311956599653927746e-01,1.023424978356343786e+03
-6.062050039589546913e+00,-4.352157947083648004e+00,-1.391519829077958015e+01,2.911871107146886684e-01,3.715756214118161316e-02,9.559431898018876383e-01,1.028164502294985596e+03
-5.877660267904023961e+00,-4.101369929902173972e+00,-1.431704493380938636e+01,2.311059418689568601e-01,-3.207958112639551496e-02,9.723985520901448076e-01,1.032904026233627292e+03
-5.687352781629299692e+00,-3.852253171173865898e+00,-1.465972642299703566e+01,1.690200905701636502e-01,-1.010384495334521460e-01,9.804190128200085397e-01,1.037643550172268988e+03
-5.490356580388144003e+00,-3.601565365268732943e+00,-1.493700831710822285e+01,1.054681033824012015e-01,-1.691208787094179156e-01,9.799350016979887501e-01,1.042383074110910684e+03
-5.285717412122563630e+00,-3.348641213664765193e+00,-1.514457791077480664e+01,4.100124407211346717e-02,-2.357363063626860267e-01,9.709507154568722820e-01,1.047122598049552380e+03
-5.208231882072815289e+00,-3.256565188255239551e+00,-1.519463837584284782e+01,-2.382128748120260209e-02,-3.003068942421815435e-01,9.535440815884095311e-01,1.048850609055448558e+03
-4.986997077706146975e+00,-3.009227747408274034e+00,-1.526266553450223995e+01,-4.461530043994619416e-02,-2.569134353164866935e-01,9.654030048189455870e-01,1.053590132994090254e+03
-4.755409090197015409e+00,-2.773817818954028347e+00,-1.526248737176097414e+01,-6.529973220510000564e-02,-2.128890020835910168e-01,9.748908747951378073e-01,1.058329656932731950e+03
-4.512516750181425174e+00,-2.557429416124109789e+00,-1.519556007040759127e+01,-8.582378653666904167e-02,-1.683417088056569366e-01,9.819843923066220448e-01,1.063069180871373646e+03
-4.290962749994309711e+00,-2.391282800436275391e+00,-1.508166591726903860e+01,-1.061370609245718966e-01,-1.233809533876171483e-01,9.866661363561575193e-01,1.067196175604796281e+03
-4.025677558904440900e+00,-2.232263630878314142e+00,-1.489288240960158127e+01,-8.744392963267193231e-02,-1.136432325960155115e-01,9.896649811148190423e-01,1.071935699543437977e+03
-3.750778554777527418e+00,-2.111444188956206780e+00,-1.465388051273556869e+01,-6.871116837121769849e-02,-1.038540050754186844e-01,9.922152593870455783e-01,1.076675223482079673e+03
-3.467777653075770683e+00,-2.035229697081613942e+00,-1.437272072980517024e+01,-4.994726626917372209e-02,-9.401770702787409784e-02,9.943158156980079765e-01,1.081414747420721369e+03
-3.178326970707007426e+00,-2.009995327824252165e+00,-1.405746617566015466e+01,-3.116072654996588850e-02,-8.413879596974858932e-02,9.959656982664557567e-01,1.086154271359363065e+03
-2.884218596259119582e+00,-2.042083863350797390e+00,-1.371618207490398866e+01,-1.236006268616180077e-02,-7.422174871580732025e-02,9.971641594329599956e-01,1.090893795298004761e+03
-2.587384345037686550e+00,-2.137803357923210523e+00,-1.335693525983364616e+01,6.446205450268602775e-03,-6.427105935482160803e-02,9.979106559979360469e-01,1.095633319236646457e+03
-2.524109628412662953e+00,-2.172369197027058885e+00,-1.327839349899144494e+01,2.524955544058136298e-02,-5.429123721739855662e-02,9.982048494676603045e-01,1.096637862826583387e+03
-2.225059002392667740e+00,-2.404175334110754569e+00,-1.290028907452700579e+01,4.156984327333981821e-02,-2.135832633176815848e-02,9.989062869066792638e-01,1.101377386765225083e+03
-1.927306991573797479e+00,-2.703701669353827608e+00,-1.251764878237274559e+01,5.783394932916060410e-02,1.160344192871794189e-02,9.982577795518137176e-01,1.106116910703866779e+03
-1.631715917435505148e+00,-3.067407083157962511e+00,-1.213412167824522747e+01,7.401989525620714105e-02,4.454952490718645103e-02,9.962602044306537730e-01,1.110856434642508475e+03
-1.339069240581927556e+00,-3.491739772351097226e+00,-1.175335686095936438e+01,9.010580832962017395e-02,7.743540118953225193e-02,9.929162612946221822e-01,1.115595958581150171e+03
-1.050071518502853296e+00,-3.973138571271375152e+00,-1.137900324550567177e+01,1.060699509877758712e-01,1.102166307249217991e-01,9.882304689719042523e-01,1.120335482519791867e+03
-7.653483719399726271e-01,-4.508034273307403694e+00,-1.101470933613632752e+01,1.218907501861378473e-01,1.428489148365356953e-01,9.822091592651033265e-01,1.125075006458433563e+03
-5.259490893560818670e-01,-5.007298090480926334e+00,-1.071526731757368900e+01,1.375468265293913195e-01,1.752881560418832474e-01,9.748604684046178193e-01,1.129121868167976345e+03
-2.503854212524470046e-01,-5.638522779974251442e+00,-1.038155204438920620e+01,8.757882145251406902e-02,1.419530485931322361e-01,9.859905080815150047e-01,1.133861392106618041e+03
2.062970080773005033e-02,-6.311859299940406842e+00,-1.006678105742459373e+01,3.728398824526636679e-02,1.080881901446785337e-01,9.934409128733617811e-01,1.138600916045259737e+03
2.902629229396329058e-01,-7.020249713065314090e+00,-9.770029154068263111e+00,-1.314997981169989567e-02,7.381995974390349879e-02,9.971838805222087432e-01,1.143340439983901433e+03
5.629975752849004644e-01,-7.755553304825576255e+00,-9.488846657585741085e+00,-6.353487042525206296e-02,3.927624156274542311e-02,9.972054437716173503e-01,1.148079963922543129e+03
8.434992635416062035e-01,-8.509734548048990987e+00,-9.220782911982986718e+00,-1.136826545390144244e-01,4.585947739511318441e-03,9.935055224503072102e-01,1.152819487861184825e+03
1.136614961329645901e+00,-9.274866155040477622e+00,-8.963386434925238788e+00,-1.634061878962592418e-01,-3.012146261130105307e-02,9.860979237612462756e-01,1.157559011799826521e+03
1.447372082650932201e+00,-1.004313211774882930e+01,-8.714205070694429622e+00,-2.125199093030676056e-01,-6.471646642926544291e-02,9.750102907772041361e-01,1.162298535738468217e+03
1.761144036001369040e+00,-1.076106448369109003e+01,-8.485418169769255670e+00,-2.608405329908591308e-01,-9.906995997921072550e-02,9.602839993341963920e-01,1.166753985703076978e+03
2.120717194064661637e+00,-1.151396710182501693e+01,-8.244861493485338144e+00,-2.235018881650905342e-01,-8.790199155448357587e-03,9.746628331817847046e-01,1.171493509641718674e+03
2.503936525715086514e+00,-1.225207192175102122e+01,-8.002867118239477051e+00,-1.839837957497065524e-01,8.157526878447596275e-02,9.795373593818974545e-01,1.176233033580360370e+03
2.906629094362441545e+00,-1.297219908305939384e+01,-7.754541002167521846e+00,-1.426716111873865545e-01,1.711452583110998349e-01,9.748600473501202179e-01,1.180972557519002066e+03
3.324700813824787105e+00,-1.367107380218613777e+01,-7.494989490035852242e+00,-9.996818432077994587e-02,2.590463414501085748e-01,9.606765090838927934e-01,1.185712081457643762e+03
3.754137253295049437e+00,-1.434532771545245744e+01,-7.219319618297681984e+00,-5.628993116807001762e-02,3.444213645748988029e-01,9.371250542345779255e-01,1.190451605396285458e+03
4.191004433420054909e+00,-1.499150023254449060e+01,-6.922639420117015163e+00,-1.206277344158271196e-02,4.264378064851320760e-01,9.044353413582005841e-01,1.195191129334927155e+03
4.631449613446225300e+00,-1.560603990031927957e+01,-6.600058230346259158e+00,3.228201460838114184e-02,5.042958962997792227e-01,8.629261385012346741e-01,1.199930653273568851e+03
5.071702069386745393e+00,-1.618530577682272664e+01,-6.246686990443254928e+00,7.631201154049893631e-02,5.772364120340839344e-01,8.130022149522132535e-01,1.204670177212210547e+03
5.508073863165567019e+00,-1.672556881540460694e+01,-5.857638553313339713e+00,1.195978652675814546e-01,6.445480838397281698e-01,7.551503944529271983e-01,1.209409701150852243e+03
5.770301304463933967e+00,-1.702788691230969675e+01,-5.597191658135694858e+00,1.617174796971458384e-01,7.055745297363416046e-01,6.899348083319588598e-01,1.212292251195785866e+03
6.196648186634215349e+00,-1.747939842694805179e+01,-5.129010953664078443e+00,6.185277033865384938e-02,7.432499600232224113e-01,6.661469295322577366e-01,1.217031775134427562e+03
6.619303589159083678e+00,-1.788399517955685170e+01,-4.621584747020782480e+00,-3.875156828999429953e-02,7.720373894944654314e-01,6.343930841174880708e-01,1.221771299073069258e+03
7.040570180017479807e+00,-1.823917967898144354e+01,-4.075735023557388814e+00,-1.388925050209728063e-01,7.915925799816196928e-01,5.950529887038474852e-01,1.226510823011710954e+03
7.396275665374669295e+00,-1.849597938519724138e+01,-3.583602293839779573e+00,-2.373725497158666875e-01,8.016816862585106618e-01,5.485970712253951387e-01,1.230512537557586711e+03
7.816312518538842014e+00,-1.875033357167723835e+01,-2.966394038169981151e+00,-2.023430954694427075e-01,8.296855415394258637e-01,5.202664450756629977e-01,1.235252061496228407e+03
8.232164882826143781e+00,-1.895786586485791858e+01,-2.318376989453926562e+00,-1.667442749879564923e-01,8.553547315908452964e-01,4.904718441454649636e-01,1.239991585434870103e+03
8.640910026321853010e+00,-1.912121821736256067e+01,-1.643235749474953877e+00,-1.306762547384102413e-01,8.786170308822474073e-01,4.592971037212987828e-01,1.244731109373511799e+03
9.039618703053367454e+00,-1.924278863481128710e+01,-9.450323389120823814e-01,-9.424052109920350029e-02,8.994069851920417635e-01,4.268299417404201601e-01,1.249470633312153495e+03
9.134654771170234611e+00,-1.926240674147372545e+01,-7.686155272991550547e-01,-5.753959499378942521e-02,9.176660956532159963e-01,3.931617121384595737e-01,1.250636107496832665e+03
9.507242891085553538e+00,-1.930146004761123635e+01,-3.521436759864460947e-02,-9.627781691526657304e-02,9.399391079157987106e-01,3.274798549239044121e-01,1.255375631435474361e+03
9.863707735248407715e+00,-1.930276718021752913e+01,7.099649660509668170e-01,-1.344084403522463333e-01,9.562802988298692020e-01,2.597313250890354586e-01,1.260115155374116057e+03
1.020112741153258895e+01,-1.926798616123405594e+01,1.461729311130959497e+00,-1.716908291238316842e-01,9.665865430583112650e-01,1.903436733227267252e-01,1.264854679312757753e+03
1.051653776631743575e+01,-1.919870445686963478e+01,2.214885094267518006e+00,-2.078897002329408994e-01,9.707928006527200004e-01,1.197547942196317133e-01,1.269594203251399449e+03
1.080693300461791750e+01,-1.909643826028016989e+01,2.964238653999502038e+00,-2.427766086489313579e-01,9.688725274387219866e-01,4.841016286004337643e-02,1.274333727190041145e+03
1.106926631497843871e+01,-1.896263178237861524e+01,3.704596563550334842e+00,-2.761313889345366479e-01,9.608378424797539008e-01,-2.323997643408246688e-02,1.279073251128682841e+03
1.130045049909438504e+01,-1.879865655083582254e+01,4.430765953588974071e+00,-3.077435446226383098e-01,9.467394515678753120e-01,-9.474345142947245002e-02,1.283812775067324537e+03
1.149735860612508098e+01,-1.860581071733255953e+01,5.137554834964891626e+00,-3.374135765779209817e-01,9.266663272260090567e-01,-1.656490154726177055e-01,1.288552299005966233e+03
1.165682457166175112e+01,-1.838531837312250872e+01,5.819772421401959939e+00,-3.649542419632648693e-01,9.007451472411005522e-01,-2.355091951395531791e-01,1.293291822944607929e+03
1.177564386131365914e+01,-1.813832887296552698e+01,6.472229452136214256e+00,-3.901917358682575054e-01,8.691394952700415288e-01,-3.038831140791655172e-01,1.298031346883249626e+03
1.185057411887542500e+01,-1.786591616749019451e+01,7.089738514482469611e+00,-4.129667881447156574e-01,8.320488285602903877e-01,-3.703392752347687833e-01,1.302770870821891322e+03
1.187833581903821667e+01,-1.756907814404400270e+01,7.667114366314633500e+00,-4.331356685285485675e-01,7.897072192955523207e-01,-4.344582838907079525e-01,1.307510394760533018e+03
1.187313223357860892e+01,-1.749908653728450503e+01,7.783526033629466490e+00,-4.505710937053435949e-01,7.423818775044692675e-01,-4.958354943632634626e-01,1.308545226280693896e+03
1.179708918221029457e+01,-1.715613849858096884e+01,8.270249189935206857e+00,-4.325679786036499830e-01,7.015212720664332213e-01,-5.663486988816637258e-01,1.313284750219335592e+03
1.167204403125017542e+01,-1.679415390331267588e+01,8.709036379452603782e+00,-4.115516728343035502e-01,6.557739973468627026e-01,-6.329168073222820601e-01,1.318024274157977288e+03
1.149989636717442387e+01,-1.641791412584844778e+01,9.098401696802056904e+00,-3.876685725510617964e-01,6.054587207937227600e-01,-6.950761219256188506e-01,1.322763798096618984e+03
1.128242343970751627e+01,-1.603223995919447731e+01,9.436862306543185142e+00,-3.610850428976103976e-01,5.509259287258632121e-01,-7.523936555110757318e-01,1.327503322035260680e+03
1.102127984780923065e+01,-1.564198952929992537e+01,9.722938535159922679e+00,-3.319862591850128997e-01,4.925554850294058262e-01,-8.044701472894597583e-01,1.332242845973902376e+03
1.071799723950949357e+01,-1.525205620536881845e+01,9.955153962898023678e+00,-3.005749170782878177e-01,4.307539852765981947e-01,-8.509428437866993766e-01,1.336982369912544073e+03
1.037398402560815747e+01,-1.486736650635522849e+01,1.013203551545073466e+01,-2.670698207710636707e-01,3.659519246857514951e-01,-8.914880255236748985e-01,1.341721893851185769e+03
9.990525107256093662e+00,-1.449287800381900659e+01,1.025211355548830028e+01,-2.317043589753051969e-01,2.986006996347361220e-01,-9.258232618644618439e-01,1.346461417789827465e+03
9.688829196206638628e+00,-1.423653177473846654e+01,1.029635204374056556e+01,-1.947248793330370042e-01,2.291694635977901684e-01,-9.537093783342652786e-01,1.349845436408356136e+03
9.228081276582541292e+00,-1.389720625219686845e+01,1.029893796683370866e+01,-1.304229617314389966e-01,2.208078674440203393e-01,-9.665566391698915405e-01,1.354584960346997832e+03
8.730681908358880250e+00,-1.358153883778397031e+01,1.024075053261434398e+01,-6.555115113623866119e-02,2.114814068290295779e-01,-9.751803223742036009e-01,1.359324484285639528e+03
8.197373235895646815e+00,-1.329418633545164141e+01,1.012343244599235881e+01,-3.929029692426138352e-04,2.012308338487554527e-01,-9.795427490065077292e-01,1.364064008224281224e+03
7.880552398796668356e+00,-1.315280977954404484e+01,1.002902202233966200e+01,6.476707605836715120e-02,1.901009377850844395e-01,-9.796248564155457528e-01,1.366700001627259780e+03
7.275361248950794391e+00,-1.293284117740489236e+01,9.815557032751838662e+00,-1.202435858672540048e-01,1.803110722340109662e-01,-9.762312212215477070e-01,1.371439525565901477e+03
6.637457379765601573e+00,-1.274401924006551035e+01,9.568647701923909565e+00,-3.011254806148828123e-01,1.643299827841133987e-01,-9.393173594067406595e-01,1.376179049504543173e+03
5.969624850146397321e+00,-1.258360090743180315e+01,9.300052734466822457e+00,-4.716678226182586253e-01,1.427064005029191063e-01,-8.701507618580639480e-01,1.380918573443184869e+03
5.645541418766068631e+00,-1.252197890338195307e+01,9.169651868456641708e+00,-6.260148404288520263e-01,1.161827943315421469e-01,-7.711063336946214486e-01,1.383125740893989814e+03
4.924307047269702586e+00,-1.241541005063897707e+01,8.885375887658025107e+00,-4.469850053540631585e-01,1.302541119969272687e-01,-8.850063679414962303e-01,1.387865264832631510e+03
4.182946434066817432e+00,-1.232919434279674675e+01,8.602570580446254667e+00,-2.477411376777316210e-01,1.384349498073834950e-01,-9.588837746955011232e-01,1.392604788771273206e+03
3.427360779094068111e+00,-1.225947475888376204e+01,8.327155238562578887e+00,-3.729364043717988547e-02,1.403553427899224826e-01,-9.893975753626359504e-01,1.397344312709914902e+03
2.663531326095616603e+00,-1.220252974136566415e+01,8.065048685100761006e+00,1.748404087044193034e-01,1.359284426191601225e-01,-9.751678265669595502e-01,1.402083836648556598e+03
1.897518208544709761e+00,-1.215477451818902921e+01,7.822168906103067698e+00,3.790676525868807989e-01,1.253544461058823112e-01,-9.168380323720659586e-01,1.406823360587198295e+03
1.135459287053422806e+00,-1.211276240972934382e+01,7.604432682195507276e+00,5.661523026511525725e-01,1.091115420464654068e-01,-8.170460461903144012e-01,1.411562884525839991e+03
3.835689783370806460e-01,-1.207318612053508744e+01,7.417755220279493855e+00,7.276338170426087659e-01,8.793428570589237325e-02,-6.803047770622392409e-01,1.416302408464481687e+03
-3.518629241997324186e-01,-1.203287901576051944e+01,7.268049785297176157e+00,8.562095168812656754e-01,6.278037905755888548e-02,-5.127980959479064849e-01,1.421041932403123383e+03
-6.768373369160604058e-01,-1.201400125752045156e+01,7.219064746703473645e+00,9.460648355884715421e-01,3.478735945969800569e-02,-3.221011742999410066e-01,1.423200303365853415e+03
-8.751064286338628984e-01,-1.200206508740842715e+01,7.200992062591957676e+00,9.584251285748234261e-01,4.122986713302411593e-02,-2.823461898588668362e-01,1.424565034103077778e+03
-1.536059084365167138e+00,-1.195665494436947895e+01,7.182317944772716345e+00,8.803426709584317722e-01,2.203736698326359475e-02,-4.738239505839414445e-01,1.429304558041719474e+03
-2.165206897759005322e+00,-1.190108157364681674e+01,7.202892141105552426e+00,7.642918896699688602e-01,1.894418120125308932e-03,-6.448661245293564326e-01,1.434044081980361170e+03
-2.756818210294031513e+00,-1.183060245046248760e+01,7.253351253229433304e+00,6.152779431530575049e-01,-1.833023449670067792e-02,-7.880958413628759152e-01,1.438783605919002866e+03
-3.304647797413061028e+00,-1.174030959785396355e+01,7.322329107785060742e+00,4.397276501586359077e-01,-3.776432237443680395e-02,-8.973357507880354023e-01,1.443523129857644562e+03
-3.802328842788852636e+00,-1.162543393588938834e+01,7.398458370886222824e+00,2.452123119725135303e-01,-5.556967293165824412e-02,-9.678744409829299622e-01,1.448262653796286259e+03
-4.228895247358722465e+00,-1.148622119017982435e+01,7.468093490682395696e+00,4.012117611809233597e-02,-7.097835857130116444e-02,-9.966696362596492165e-01,1.452845841268543381e+03
-4.606732683388511163e+00,-1.130916571477820121e+01,7.527606963782467631e+00,2.064842279658814506e-01,-9.370392420627281227e-02,-9.739516611154076520e-01,1.457585365207185077e+03
-4.913962219079945903e+00,-1.109583540474737973e+01,7.571752319790151731e+00,3.669192286992864482e-01,-1.137393131735113111e-01,-9.232722503408486991e-01,1.462324889145826774e+03
-5.142920912352991536e+00,-1.084364695022709135e+01,7.600371343194550988e+00,5.168202445334900696e-01,-1.305093295859836022e-01,-8.460863725005770553e-01,1.467064413084468470e+03
-5.285023563407046154e+00,-1.055711474507305070e+01,7.613228962547839096e+00,6.518837563236904442e-01,-1.435325212647471094e-01,-7.446099539894819319e-01,1.471714136304197154e+03
-5.343610548310730124e+00,-1.022701473671906669e+01,7.611172801235088770e+00,6.349942060806050836e-01,-1.000853201640159729e-01,-7.660047564616201399e-01,1.476453660242838851e+03
-5.315664029945669000e+00,-9.862144850286862052e+00,7.594477455780315189e+00,6.164342068656536444e-01,-5.637483835162032664e-02,-7.853844575727467747e-01,1.481193184181480547e+03
-5.275147496479547726e+00,-9.719428425056616305e+00,7.583380885712991848e+00,5.962525754967288316e-01,-1.251604388007775299e-02,-8.026980844930199366e-01,1.482896858624605102e+03
-5.081086123627656548e+00,-9.292888448589915029e+00,7.538432579877597739e+00,5.192356874939494382e-01,5.817360651971904134e-02,-8.526477187778083167e-01,1.487636382563246798e+03
-4.811299488961989113e+00,-8.840548608964761357e+00,7.479261123275152912e+00,4.352487942856334557e-01,1.280823424949998623e-01,-8.911517270442105287e-01,1.492375906501888494e+03
-4.474118825266884869e+00,-8.365959735772500849e+00,7.405784813296306446e+00,3.454192988925391949e-01,1.962717430737757063e-01,-9.176932553001641013e-01,1.497115430440530190e+03
-4.077931967583426243e+00,-7.872482957785745583e+00,7.317922831099231473e+00,2.509530298090542066e-01,2.618264672236589319e-01,-9.319160251282507801e-01,1.501854954379171886e+03
-3.631181745213677647e+00,-7.363288810178407751e+00,7.215595246715003519e+00,1.531180558407019277e-01,3.238665398333598344e-01,-9.336291155227524063e-01,1.506594478317813582e+03
-3.568800550297353436e+00,-7.296248650440102068e+00,7.200680217414664241e+00,5.322766570566696970e-02,3.815591630838749415e-01,-9.228095256714123895e-01,1.507199925270739413e+03
-3.043180270198237558e+00,-6.757969948777533098e+00,7.068911922492119082e+00,2.959856185797279243e-02,3.264946921340206032e-01,-9.447344288962489234e-01,1.511939449209381110e+03
-2.483134387093448581e+00,-6.212050514493978604e+00,6.920362520181333466e+00,5.848963170023460147e-03,2.701010276743865957e-01,-9.628131825421308854e-01,1.516678973148022806e+03
-1.895468365033261549e+00,-5.662710266104067358e+00,6.752806586640505593e+00,-1.792444493147205345e-02,2.126077507353601737e-01,-9.769721892659138929e-01,1.521418497086664502e+03
-1.287072102819210473e+00,-5.114015234535137289e+00,6.564019875195251430e+00,-4.162488019065611194e-02,1.542489183315769730e-01,-9.871538079450838943e-01,1.526158021025306198e+03
-6.649186356029029854e-01,-4.569876174093005616e+00,6.351779455044935574e+00,-6.515585740140798776e-02,9.526211090381887792e-02,-9.933165882386646439e-01,1.530897544963947894e+03
-3.594517190910581084e-01,-4.308241642222603751e+00,6.236261349739275595e+00,-8.842158107816339152e-02,3.588746543198997885e-02,-9.954354393037767590e-01,1.533202039012903697e+03
2.695793196529219782e-01,-3.778894770024732619e+00,5.971691788499258635e+00,-8.728383035880797614e-02,4.110066211663890995e-02,-9.953342496165105135e-01,1.537941562951545393e+03
8.949319855041275584e-01,-3.263393995178980322e+00,5.678275141076225552e+00,-8.614359385513602196e-02,4.631268703562217703e-02,-9.952047106930274056e-01,1.542681086890187089e+03
1.510142433015236874e+00,-2.765869793221168660e+00,5.354173219622429869e+00,-8.500090385911010515e-02,5.152339257212213558e-02,-9.950468261792007052e-01,1.547420610828828785e+03
2.108916046037228043e+00,-2.290565501809909588e+00,4.997675963213168870e+00,-8.385579273405978362e-02,5.673263114737887164e-02,-9.948606005447003797e-01,1.552160134767470481e+03
2.679258665220922264e+00,-1.845901657511122451e+00,4.610871540699561066e+00,-8.270829291075462719e-02,6.194025522333826417e-02,-9.946460390482825265e-01,1.556853654352434432e+03
3.227757776709555326e+00,-1.426762999166113488e+00,4.186814972015723946e+00,-1.919325519909673150e-01,1.900566265898793669e-03,-9.814052594798168272e-01,1.561593178291076129e+03
3.747887066212278295e+00,-1.040381747773134746e+00,3.734603291048421259e+00,-2.981415288385956264e-01,-5.816897396023822803e-02,-9.527465556226610843e-01,1.566332702229717825e+03
4.240466664907995842e+00,-6.892648347283046872e-01,3.261875894050262126e+00,-3.996666785413171552e-01,-1.173246713764084515e-01,-9.091201612278186905e-01,1.571072226168359521e+03
4.706251501975198259e+00,-3.759406369073816645e-01,2.776273451534447823e+00,-4.949130402249444782e-01,-1.746371890982774677e-01,-8.512114512857141824e-01,1.575811750107001217e+03
5.145931107206145327e+00,-1.029578622616914296e-01,2.285437432811498137e+00,-5.823842932496391400e-01,-2.292061470017663360e-01,-7.799301745371303163e-01,1.580551274045642913e+03
5.560129421039510689e+00,1.271155671297915513e-01,1.797009630488736853e+00,-6.607062637450406006e-01,-2.801742663371637465e-01,-6.963961613415760032e-01,1.585290797984284609e+03
5.949404612022604510e+00,3.116936344573317808e-01,1.318631684954831185e+00,-7.286485123033354938e-01,-3.267408372339750122e-01,-6.019217314589265788e-01,1.590030321922926305e+03
6.314248901714067941e+00,4.481733499312682278e-01,8.579446088715236840e-01,-7.851436637787011508e-01,-3.681742975765184278e-01,-4.979910780655157909e-01,1.594769845861568001e+03
6.648712734817904924e+00,5.323850137720609332e-01,4.306727411760409296e-01,-8.293041755875354415e-01,-4.038237256807276077e-01,-3.862369517938097907e-01,1.599420980298763425e+03
6.965862136762343226e+00,5.649223658772288825e-01,2.814348569660109906e-02,-9.064442000767557461e-01,-2.701883575451117792e-01,-3.245846015987330357e-01,1.604160504237405121e+03
7.259645107490651839e+00,5.415167443798331037e-01,-3.339227983670424171e-01,-9.585572391844686679e-01,-1.290930880113546064e-01,-2.539704585883130195e-01,1.608900028176046817e+03
7.530289736987852756e+00,4.595088625689203177e-01,-6.478923288058183738e-01,-9.842044580524140773e-01,1.556643868158704563e-02,-1.763441826014955083e-01,1.613639552114688513e+03
7.777264578632564707e+00,3.149347600860766816e-01,-9.068038895538672595e-01,-9.826777405544420141e-01,1.597961720344684422e-01,-9.384903634458560684e-02,1.618379076053330209e+03
7.999507720195888183e+00,1.051786889230665184e-01,-1.107943958182581401e+00,-9.540192390810964262e-01,2.996139288511275311e-01,-8.762710900342843626e-03,1.623118599991971905e+03
8.197139322949398732e+00,-1.658053220259222971e-01,-1.255082427626682540e+00,-8.990202108057140373e-01,4.311593389798332177e-01,7.656555997333212848e-02,1.627858123930613601e+03
8.199812871117559965e+00,-1.707711522289412920e-01,-1.256581612065313713e+00,-8.191991725392069323e-01,5.508004282669475282e-01,1.597798608479828741e-01,1.627930488279329211e+03
8.352851964872815671e+00,-5.462100539133550869e-01,-1.309214041402525508e+00,-8.549644900464410391e-01,5.045582234809314892e-01,1.202277832988469103e-01,1.632670012217970907e+03
8.483288255847536874e+00,-9.668369405460063293e-01,-1.321308069042755662e+00,-8.864704756671241137e-01,4.558023799128996800e-01,8.007675215651151313e-02,1.637409536156612603e+03
8.592651230472203139e+00,-1.424858692644208391e+00,-1.299549034631922950e+00,-9.135601735931458967e-01,4.047757920488332939e-01,3.952679338741355020e-02,1.642149060095254299e+03
8.682637716973221842e+00,-1.912522735385605133e+00,-1.250624385171048791e+00,-9.360986288127379762e-01,3.517326662961003936e-01,-1.220079910729078522e-03,1.646888584033895995e+03
8.755111511640540911e+00,-2.422119825331542131e+00,-1.181223258490324168e+00,-9.539735593064906372e-01,2.969372546744963870e-01,-4.196087380315819543e-02,1.651628107972537691e+03
8.812102987050392855e+00,-2.945986832147720502e+00,-1.098036066644181519e+00,-9.670959153261242669e-01,2.406625384868112394e-01,-8.249262469102858208e-02,1.656367631911179387e+03
8.855808682265744025e+00,-3.476509515092111702e+00,-1.007754079246796719e+00,-9.754003229736607494e-01,1.831888685198679034e-01,-1.226134103310430740e-01,1.661107155849821083e+03
8.886922012141287297e+00,-4.006090837987724917e+00,-9.172666558651393354e-01,-9.788454098736896203e-01,1.248025685430192988e-01,-1.621233556705064249e-01,1.665846679788462779e+03
8.895744858441258174e+00,-4.264396999160563695e+00,-8.755198875381230428e-01,-9.774140113168773292e-01,6.579450905343095513e-02,-2.008256284922138868e-01,1.668192500195069670e+03
8.897297222208392142e+00,-4.772786549255510380e+00,-8.029082317064608620e-01,-9.913861081720379831e-01,3.142145133064046247e-02,-1.271388096475955520e-01,1.672932024133711366e+03
8.877953532344617926e+00,-5.260874157038500698e+00,-7.485603548922150630e-01,-9.986103471483583904e-01,-3.165469293809915815e-03,-5.258663681356807312e-02,1.677671548072353062e+03
8.833987379417697738e+00,-5.720765898546247286e+00,-7.199564635544321023e-01,-9.990375602603803751e-01,-3.773084096684697214e-02,2.232345913920410346e-02,1.682411072010994758e+03
8.761842272199618975e+00,-6.144483080916215201e+00,-7.245751598872042232e-01,-9.926648405684826981e-01,-7.203939869627064285e-02,9.708161171706068682e-02,1.687150595949636454e+03
8.658132357527637879e+00,-6.523965077100767118e+00,-7.698929760209015649e-01,-9.795355619096602906e-01,-1.058576253570941844e-01,1.711789885087179330e-01,1.691890119888278150e+03
8.556177397877986479e+00,-6.766383604371308813e+00,-8.386728582210568606e-01,-9.597390838128750934e-01,-1.389553408098522513e-01,2.441112538597042803e-01,1.695395039387796714e+03
8.477336631965519231e+00,-6.889899555912431417e+00,-9.048930060858083602e-01,-9.468826543340735924e-01,-1.788950639424656541e-01,2.672223699080237824e-01,1.697554481633690330e+03
8.270096920592541423e+00,-7.102280289794131285e+00,-1.101917323774836976e+00,-9.738354171820273741e-01,-9.898311020216571388e-02,2.045603190655415626e-01,1.702294005572332026e+03
8.032635629154276202e+00,-7.256868964505285291e+00,-1.344522706178663984e+00,-9.900380802594777041e-01,-1.797850571296142827e-02,1.396401552856375294e-01,1.707033529510973722e+03
7.770671205067332110e+00,-7.356305513113297501e+00,-1.624573857819392009e+00,-9.953117902328908473e-01,6.322455345201653809e-02,7.317852187621257110e-02,1.711773053449615418e+03
7.489854249846797707e+00,-7.403350155654960574e+00,-1.933933149496758652e+00,-9.895983334089528682e-01,1.437296814263384348e-01,5.909077005474734808e-03,1.716512577388257114e+03
7.195766552886832201e+00,-7.400882240283554125e+00,-2.264461124892503285e+00,-9.729607781120949150e-01,2.226481965107141026e-01,-6.142560415362166570e-02,1.721252101326898810e+03
7.144685367779016971e+00,-7.392758203745336765e+00,-2.322602849789973778e+00,-9.455827787075175017e-01,2.991089301178729842e-01,-1.280822256789596603e-01,1.722050196206074588e+03
6.835404463403675912e+00,-7.300500646674382921e+00,-2.677875097604682342e+00,-9.966482093153258282e-01,2.009867184413835495e-02,7.928675966761758453e-02,1.726789720144716284e+03
6.524817373444593116e+00,-7.166500466273467929e+00,-3.036813361125151101e+00,-9.246708310589653035e-01,-2.613930304938583693e-01,2.768673649916907342e-01,1.731529244083357980e+03
6.217356114446821458e+00,-6.997586916295729154e+00,-3.391728616354716674e+00,-7.385365950720895745e-01,-5.106140980081755876e-01,4.402668970680115312e-01,1.736268768021999676e+03
5.916994390847468033e+00,-6.801875148557492423e+00,-3.735083155619141948e+00,-4.612250201362884106e-01,-6.967964151655834382e-01,5.493125127029956367e-01,1.741008291960641372e+03
5.627525777160523823e+00,-6.587563988989595387e+00,-4.059339988048209058e+00,-1.269721988888478093e-01,-7.969544911010658650e-01,5.905417849932301788e-01,1.745747815899283069e+03
5.585693595082699581e+00,-6.553572440744671823e+00,-4.104542377525786101e+00,2.229560273094732814e-01,-7.987232276283273702e-01,5.588647560310783247e-01,1.746463670349502991e+03
5.323276209460097164e+00,-6.322604669308392822e+00,-4.374502052022775089e+00,-1.713933987611341303e-01,-8.199262589866942452e-01,5.462080489019556229e-01,1.751203194288144687e+03
5.079360262687760752e+00,-6.091055452906958045e+00,-4.609157052128037613e+00,-5.389847301761025999e-01,-7.131210842581245934e-01,4.482764546832352370e-01,1.755942718226786383e+03
4.859050526714673524e+00,-5.867650119765881023e+00,-4.803707412413768196e+00,-8.224289013688181882e-01,-4.949822509166991735e-01,2.803591865279838613e-01,1.760682242165428079e+03
4.671027520324827265e+00,-5.661804956183620341e+00,-4.958817627155505114e+00,-9.774740835087009083e-01,-1.995660232828347369e-01,6.867181678188077898e-02,1.765421766104069775e+03
4.607576082821243091e+00,-5.584733073056241892e+00,-5.009819957038837757e+00,-9.799144646404837067e-01,1.270066560666229249e-01,-1.537366296746737471e-01,1.767459462774772419e+03
4.507664493100791425e+00,-5.439339027971727525e+00,-5.094395957676661979e+00,-8.103625865342762857e-01,-4.292963652631672788e-01,3.987669859930360050e-01,1.772198986713414115e+03
4.502182157211576552e+00,-5.426860367411309838e+00,-5.100667801213494279e+00,-1.193565900716849343e-01,-7.093547238671591426e-01,6.946710589441000838e-01,1.772761650686703206e+03
4.513691002772735494e+00,-5.366632526843789996e+00,-5.124831819880875550e+00,-5.537009888787070011e-01,-5.235155435960954229e-01,6.475682902434677368e-01,1.777501174625344902e+03
4.586534163987057156e+00,-5.354624757610946695e+00,-5.125775480504205284e+00,-8.632354190845494823e-01,-2.196705549400246316e-01,4.544969290667646433e-01,1.782240698563986598e+03
4.609652849365865279e+00,-5.361002370439960529e+00,-5.122866096310965567e+00,-9.781876584242776840e-01,1.336904576564136027e-01,1.589772513249026464e-01,1.783047247139391402e+03
4.807287785960672188e+00,-5.446807176988384569e+00,-5.088757162506087894e+00,-9.664083038632608202e-01,9.383596273469914373e-02,2.392651297648827613e-01,1.787786771078033098e+03
