1.586730025272407696e+00,2.317644866297433026e+01,8.861460366896139362e+00,-8.572214763844965280e-02,-7.578676847149754536e-01,-6.467505592328072206e-01,6.047202113693225556e+02
2.066548696784454187e+00,2.386658261153948857e+01,8.851131210356985690e+00,-1.081955338314855714e-01,-7.464409715126621991e-01,-6.565954633601376322e-01,6.094597353079642517e+02
2.501515832648072202e+00,2.451231102164997111e+01,8.833077293690354992e+00,-1.305896613128131600e-01,-7.344674558659213259e-01,-6.659593806164314511e-01,6.141992592466059477e+02
2.886742166660813069e+00,2.511442782041918775e+01,8.809617281547724943e+00,-1.528881256117297915e-01,-7.219559088135472091e-01,-6.748354516288508353e-01,6.189387831852476438e+02
3.217341156652311351e+00,2.567383099475094355e+01,8.783070167328959954e+00,-1.750745923320113639e-01,-7.089154955012427761e-01,-6.832171743720851786e-01,6.236783071238893399e+02
3.488429827635330049e+00,2.619152257854611676e+01,8.755755128706303125e+00,-1.971328091151048068e-01,-6.953557684691019647e-01,-6.910984089303637834e-01,6.284178310625310360e+02
3.695129615134243650e+00,2.666860862893046402e+01,8.729991383162550633e+00,-2.190466175432654872e-01,-6.812866606554889293e-01,-6.984733819943766964e-01,6.331573550011727320e+02
3.832567208672225334e+00,2.710629919152357203e+01,8.708098043533176735e+00,-2.407999649739379910e-01,-6.667184781224283485e-01,-7.053366910898186681e-01,6.378968789398144281e+02
3.895875395371954042e+00,2.750590825475125811e+01,8.692393973544859875e+00,-2.623769162967261592e-01,-6.516618925078241364e-01,-7.116833085344612675e-01,6.426364028784561242e+02
3.880193903579659764e+00,2.786885369321741734e+01,8.685197643374239718e+00,-2.837616656043572272e-01,-6.361279332100221451e-01,-7.175085851208575782e-01,6.473759268170978203e+02
3.780670246465596573e+00,2.819665720013447086e+01,8.688826985233040645e+00,-3.049385477691036184e-01,-6.201279793104295113e-01,-7.228082535219861882e-01,6.521154507557395164e+02
3.595930908244505897e+00,2.849048473925852676e+01,8.704124355952055581e+00,-3.258920499161994666e-01,-6.036737512400920380e-01,-7.275784314173379119e-01,6.568549746943812124e+02
3.565134289462374539e+00,2.852041484673501515e+01,8.707075615343539354e+00,-3.466068227858592476e-01,-5.867773021963197388e-01,-7.318156243371564118e-01,6.573997440653656668e+02
3.218933613193277310e+00,2.874749987498856285e+01,8.741132879052138094e+00,-3.087882929982008196e-01,-5.989494912474420119e-01,-7.388553965692601366e-01,6.621392680040073628e+02
2.802795057896752873e+00,2.894125430288260148e+01,8.780754130918399625e+00,-2.704670725654116370e-01,-6.101466098345584843e-01,-7.446923372529471452e-01,6.668787919426490589e+02
2.325693185636001026e+00,2.910108694644148386e+01,8.822355041482367710e+00,-2.317055458392144052e-01,-6.203504302586561048e-01,-7.493169447592349375e-01,6.716183158812907550e+02
1.796567866106268063e+00,2.922620208195920455e+01,8.862351149838513464e+00,-1.925668138429424969e-01,-6.295443417436209499e-01,-7.527216909210796558e-01,6.763578398199324511e+02
1.224322540733852493e+00,2.931560008153801178e+01,8.897158086856361336e+00,-1.531145915745810993e-01,-6.377133774652994358e-01,-7.549010332797871925e-01,6.810973637585741471e+02
6.178224912670968738e-01,2.936807807122137248e+01,8.923191798413204978e+00,-1.134131043120089749e-01,-6.448442389068599345e-01,-7.558514241020305446e-01,6.858368876972158432e+02
-1.410688705144090040e-02,2.938223061166931416e+01,8.936868768614429470e+00,-7.352698308863991894e-02,-6.509253175007109204e-01,-7.555713161525822175e-01,6.905764116358575393e+02
-6.626818076252314338e-01,2.935645040131741013e+01,8.934606242986481206e+00,-3.352115950913969744e-02,-6.559467135218607359e-01,-7.540611652134066034e-01,6.953159355744992354e+02
-1.319161809864321411e+00,2.928892900195882731e+01,8.912822451632276710e+00,6.539239924038596150e-03,-6.599002522020349648e-01,-7.513234293450061774e-01,7.000554595131409314e+02
-1.760029959511202113e+00,2.921350823065677105e+01,8.882897993103162193e+00,4.658899980176688799e-02,-6.627794970383545925e-01,-7.473625648911779162e-01,7.032395558749495876e+02
-2.408842063227509378e+00,2.905467674054192884e+01,8.812604664981694924e+00,9.624274331678796257e-02,-6.722465806719982728e-01,-7.340435062951661260e-01,7.079790798135912837e+02
-3.042620921020815494e+00,2.884827587145570149e+01,8.713227092858273792e+00,1.456334982074081186e-01,-6.798767348318521808e-01,-7.187186581930024021e-01,7.127186037522329798e+02
-3.652799847647665299e+00,2.859176734344045911e+01,8.581189280627247840e+00,1.946263034676391501e-01,-6.856491103328271608e-01,-7.014298963537822784e-01,7.174581276908746759e+02
-4.230863434954388325e+00,2.828241542532264674e+01,8.412917258496518613e+00,2.430872855585417824e-01,-6.895479343760937407e-01,-6.822244629138152217e-01,7.221976516295163719e+02
-4.768349240254641686e+00,2.791728778620198526e+01,8.204839305733171884e+00,2.908840242079994698e-01,-6.915625536406516671e-01,-6.611548372833885301e-01,7.269371755681580680e+02
-5.259821643258606017e+00,2.749452491506292162e+01,7.955465079020938468e+00,3.378859142381959169e-01,-6.916874633860946586e-01,-6.382785927434867501e-01,7.316766995067997641e+02
-5.705808066693466074e+00,2.701469780604939430e+01,7.667464611214225734e+00,3.839645224325070605e-01,-6.899223224881337879e-01,-6.136582391253780910e-01,7.364162234454414602e+02
-6.109771095243889505e+00,2.647967193998555757e+01,7.345589239561725492e+00,4.289939384670283240e-01,-6.862719543659484556e-01,-5.873610520029488580e-01,7.411557473840831562e+02
-6.475117200774521464e+00,2.589138211766316999e+01,6.994592404326748003e+00,4.728511189481881538e-01,-6.807463337989465568e-01,-5.594588888644733693e-01,7.458952713227248523e+02
-6.805196206347875254e+00,2.525183148465184502e+01,6.619229353022292983e+00,5.154162236167371125e-01,-6.733605596690377393e-01,-5.300279927660374035e-01,7.506347952613665484e+02
-7.103300756820160267e+00,2.456309054923244162e+01,6.224256844562050972e+00,5.565729427997981871e-01,-6.641348137029339238e-01,-4.991487840029936729e-01,7.553743192000082445e+02
-7.372665796043300190e+00,2.382729619353299455e+01,5.814432853335839368e+00,5.962088152165652133e-01,-6.530943053272053600e-01,-4.669056403685274970e-01,7.601138431386499406e+02
-7.616468050734389372e+00,2.304665067792397792e+01,5.394516273230133940e+00,6.342155352695627579e-01,-6.402692027867261659e-01,-4.333866665995598222e-01,7.648533670772916366e+02
-7.837825521027911080e+00,2.222342063877205831e+01,4.969266621620454849e+00,6.704892489820862833e-01,-6.256945507146352004e-01,-3.986834536397299011e-01,7.695928910159333327e+02
-8.039796977737889705e+00,2.135993607964816832e+01,4.543443743330909612e+00,7.049308377734134767e-01,-6.094101743789206438e-01,-3.628908283769951004e-01,7.743324149545750288e+02
-8.225381466375306871e+00,2.045858935607036599e+01,4.121807514559939989e+00,7.374461892965755716e-01,-5.914605708671053508e-01,-3.261065945394003851e-01,7.790719388932167249e+02
-8.397517817933065842e+00,1.952183415385619369e+01,3.709117546787165320e+00,7.679464545987690904e-01,-5.718947875061755060e-01,-2.884312654567145473e-01,7.838114628318584209e+02
-8.559084166452292308e+00,1.855218446117231323e+01,3.310132890677598194e+00,7.963482909018038125e-01,-5.507662878497388004e-01,-2.499677894178559956e-01,7.885509867705001170e+02
-8.597487255078497981e+00,1.829411867939769820e+01,3.211794469053209422e+00,8.225740893392282649e-01,-5.281328055983599556e-01,-2.108212683742660409e-01,7.897730006978659958e+02
-8.735643192545024860e+00,1.726354477037187607e+01,2.850967285067524060e+00,8.336934996428522204e-01,-5.174415237838151382e-01,-1.928922448225967867e-01,7.945125246365076919e+02
-8.869760205716985979e+00,1.620581289644576017e+01,2.514586460074160534e+00,8.443465438017626612e-01,-5.064607889668931717e-01,-1.748553207779005303e-01,7.992520485751493879e+02
-9.002515857209873573e+00,1.512362918447233362e+01,2.207406723769196777e+00,8.545272630701814531e-01,-4.951967434796116230e-01,-1.567205854773432439e-01,8.039915725137910840e+02
-9.136525027294915446e+00,1.401975562319514168e+01,1.934180984887902577e+00,8.642299628660465860e-01,-4.836556880953409299e-01,-1.384981828509921353e-01,8.087310964524327801e+02
-9.274339467776739454e+00,1.289700900340323386e+01,1.699660035462218888e+00,8.734492159512345921e-01,-4.718440785049967112e-01,-1.201983058509061425e-01,8.134706203910744762e+02
-9.417388651756327889e+00,1.175717087563072027e+01,1.504600184911571104e+00,8.821798654647762250e-01,-4.597685217082201903e-01,-1.018311907534726890e-01,8.182101443297161723e+02
-9.564953006739685293e+00,1.059986615741084037e+01,1.341771142893963153e+00,8.904170278051626308e-01,-4.474357723201257131e-01,-8.340711143758657020e-02,8.229496682683578683e+02
-9.715271095893919906e+00,9.423604664371495687e+00,1.199948540103312977e+00,8.981560953601469555e-01,-4.348527287956730492e-01,-6.493637364185114724e-02,8.276891922069995644e+02
-9.866614788221475862e+00,8.226854769249476007e+00,1.067906697809941852e+00,9.053927390825217136e-01,-4.220264295737560789e-01,-4.642930920399031963e-02,8.324287161456412605e+02
-1.001728961764275283e+01,7.008043956429328425e+00,9.344193271997877082e-01,9.121229109104415089e-01,-4.089640491431539293e-01,-2.789627028567152542e-02,8.371682400842829566e+02
-1.008765142764416112e+01,6.404187484568746314e+00,8.641033544345343431e-01,9.183428460309428498e-01,-3.956728940325239807e-01,-9.347623585947003808e-03,8.394713424112674147e+02
-1.022540450298019543e+01,5.136387582125018447e+00,6.998452526073559721e-01,9.236673823156215102e-01,-3.644910891421330179e-01,-1.182489441083296039e-01,8.442108663499091108e+02
-1.035857159097247937e+01,3.842345864344618445e+00,5.062359766906612268e-01,9.171133921782969045e-01,-3.286218679725547154e-01,-2.256295498778759234e-01,8.489503902885508069e+02
-1.048557860864826630e+01,2.520353327656605913e+00,2.720528254028438120e-01,8.987651644533438677e-01,-2.885265153415972339e-01,-3.301085111152171625e-01,8.536899142271925029e+02
-1.060295810454661414e+01,1.172960443006078712e+00,-8.560846016295236421e-03,8.688586623574910961e-01,-2.447206639632762970e-01,-4.303422143788313003e-01,8.584294381658341990e+02
-1.070329292675700827e+01,-1.887824183837321368e-01,-3.307317314406312270e-01,8.277784887867231101e-01,-1.977676634467955830e-01,-5.250416410128949662e-01,8.631689621044758951e+02
-1.077695365792231286e+01,-1.549711729850552722e+00,-6.842204064074240977e-01,7.760529402976370505e-01,-1.482713357408093902e-01,-6.129889435004028941e-01,8.679084860431175912e+02
-1.081396481942059395e+01,-2.894882666070368149e+00,-1.058785494944510797e+00,7.143472133769973587e-01,-9.686821016429747466e-02,-6.930531066236720328e-01,8.726480099817592873e+02
-1.080400672094471304e+01,-4.209574910829396721e+00,-1.444184307284051894e+00,6.434548503378770823e-01,-4.421933784905381082e-02,-7.642044920944829345e-01,8.773875339204009833e+02
-1.078601526052420922e+01,-4.530459650562817409e+00,-1.541995814759841599e+00,5.642875347981890499e-01,8.998209176339460463e-03,-8.255280796577468827e-01,8.785825676994058995e+02
-1.064783734153400374e+01,-5.751522766841869583e+00,-1.927667866258328200e+00,6.825750045408114364e-01,1.418605433756432721e-01,-7.169134880931726794e-01,8.833220916380475956e+02
-1.044382582096402068e+01,-6.907316542595246744e+00,-2.307656085753412523e+00,7.712103522893650753e-01,2.685602176080442716e-01,-5.771550935760531020e-01,8.880616155766892916e+02
-1.016851203782837310e+01,-7.980667444855670922e+00,-2.678269455289647549e+00,8.263431419328326477e-01,3.835932199928113184e-01,-4.123242090356388223e-01,8.928011395153309877e+02
-9.823402612777661247e+00,-8.957722018150340304e+00,-3.035620713656178360e+00,8.455783266009062604e-01,4.819623540239661996e-01,-2.295813208584579213e-01,8.975406634539726838e+02
-9.753674107895214718e+00,-9.106950882311505069e+00,-3.093802204314448190e+00,8.280802899856117838e-01,5.593943174650760630e-01,-3.686503662744109594e-02,8.983496677306200127e+02
-9.295058226296786685e+00,-9.875959593527573688e+00,-3.415541140753398430e+00,7.747908961090506086e-01,6.298134290381393052e-01,-5.506461576986696610e-02,9.030891916692617087e+02
-8.808761557374761964e+00,-1.053609782441665388e+01,-3.714498687480550121e+00,7.152025758076036022e-01,6.951122421575898214e-01,-7.281652532953160339e-02,9.078287156079034048e+02
-8.317815565236548636e+00,-1.108199574782322649e+01,-3.986201111130695196e+00,6.497997731919786801e-01,7.547598915977036249e-01,-8.997644578114724623e-02,9.125682395465451009e+02
-7.845123737282603926e+00,-1.150775635989130485e+01,-4.226176374645016054e+00,5.791142018907430300e-01,8.082714548463763027e-01,-1.064048704211601748e-01,9.173077634851867970e+02
-7.413457096619920250e+00,-1.180695765900356164e+01,-4.429954415607501694e+00,5.037205224707558271e-01,8.552118940981234818e-01,-1.219682394529916364e-01,9.220472874238284930e+02
-7.045449728790845079e+00,-1.197265488310037362e+01,-4.593067424406454435e+00,4.242316707974273515e-01,8.951995927538788367e-01,-1.365400257288808539e-01,9.267868113624701891e+02
-6.763594323092325666e+00,-1.199738280515401634e+01,-4.711050122253363170e+00,3.412938752944494891e-01,9.279094576980221332e-01,-1.500017633273244277e-01,9.315263353011118852e+02
-6.590237728781294102e+00,-1.187315808659772998e+01,-4.779440039069899449e+00,2.555814035867505774e-01,9.530755621472098982e-01,-1.622440106091193046e-01,9.362658592397535813e+02
-6.586088260413834661e+00,-1.184989990383018821e+01,-4.780909068415741814e+00,1.677910812070621260e-01,9.704933075933829256e-01,-1.731672399265820339e-01,9.366738776834386044e+02
-6.659604751817354895e+00,-1.143926963579322553e+01,-4.754207962828073342e+00,3.710095063688629846e-01,9.283283075036997678e-01,2.359024527277486794e-02,9.414134016220803005e+02
-6.830974724676496912e+00,-1.090008576483973890e+01,-4.705606711247858343e+00,5.438833191906701225e-01,8.102360062677782526e-01,2.184182896513178762e-01,9.461529255607219966e+02
-7.071805655754238806e+00,-1.026066386472205494e+01,-4.664710338370482212e+00,6.722733058427475816e-01,6.258750931032821541e-01,3.953820558460533485e-01,9.508924494993636927e+02
-7.354366513477147649e+00,-9.549933366228408715e+00,-4.661123386335069618e+00,7.456785482791403741e-01,3.903243063716223538e-01,5.400078133625628718e-01,9.556319734380053887e+02
-7.441644409230475432e+00,-9.333178010224726151e+00,-4.677738872803399062e+00,7.580952810204490966e-01,1.228491617120613111e-01,6.404667269748611780e-01,9.569899367144379312e+02
-7.752748740822656082e+00,-8.550814428624207153e+00,-4.819303413595909191e+00,7.587082945046973448e-01,1.175217882247239498e-01,6.407404724393049866e-01,9.617294606530796273e+02
-8.051062071091324768e+00,-7.768345592427723822e+00,-5.077677452223117172e+00,7.592994330594389218e-01,1.121910276302575393e-01,6.409957442560743068e-01,9.664689845917213233e+02
-8.303368721601357194e+00,-7.060765417997465931e+00,-5.470552392630087191e+00,7.598686798583861313e-01,1.068570312470290135e-01,6.412325351402774487e-01,9.709448363749478403e+02
-8.521334765321141091e+00,-6.374490078348672206e+00,-6.074110307975578493e+00,7.389867247627434077e-01,1.189995335464757442e-01,6.631257283674777403e-01,9.756843603135895364e+02
-8.671247967085232489e+00,-5.775037788017848506e+00,-6.874952306275607938e+00,7.173193719223441844e-01,1.310155591269262232e-01,6.843141397884056065e-01,9.804238842522312325e+02
-8.679493610208627530e+00,-5.715486487269287430e+00,-6.993206131426114247e+00,6.948896400789813521e-01,1.428923425691214222e-01,7.047752595887087912e-01,9.809881345987362238e+02
-8.655504497755751814e+00,-5.313612589586393042e+00,-8.146153182281151928e+00,6.562028038457015100e-01,1.401890600826718181e-01,7.414464968268671408e-01,9.857276585373779199e+02
-8.515623541424803378e+00,-4.997311914284998657e+00,-9.377777821574873940e+00,6.156466072395724298e-01,1.370864125366977326e-01,7.760055222039471401e-01,9.904671824760196159e+02
-8.249986002315672806e+00,-4.752980076986180080e+00,-1.058006364665549981e+01,5.733365842360395037e-01,1.335932386705780406e-01,8.083538876982975241e-01,9.952067064146613120e+02
-7.889962869262597600e+00,-4.582270390891755696e+00,-1.167382947202914245e+01,5.293932645962012851e-01,1.297194896585768253e-01,8.383994426297287639e-01,9.999462303533030081e+02
-7.498202051856526218e+00,-4.495940933732570421e+00,-1.264375417137556568e+01,4.839418305712044344e-01,1.254762007655583766e-01,8.660565961089266018e-01,1.004685754291944704e+03
-7.127002574744930818e+00,-4.495895746989194031e+00,-1.350414557870251109e+01,4.371117603578860700e-01,1.208754599154198139e-01,8.912465608045668786e-01,1.009425278230586400e+03
-6.793545103410218111e+00,-4.564988902351125866e+00,-1.426264537213397787e+01,3.890364593251208203e-01,1.159303732627944561e-01,9.138975773409918624e-01,1.014164802169228096e+03
-6.497024506130248511e+00,-4.676822477712656578e+00,-1.492356508117049607e+01,3.398528800593357269e-01,1.106550278659108183e-01,9.339451186884826228e-01,1.018904326107869792e+03
-6.248087782043471705e+00,-4.799327526377654252e+00,-1.546497167005213491e+01,2.897011323093245938e-01,1.050644515667010365e-01,9.513320739648049029e-01,1.023424978356343786e+03
-6.020727544834119982e+00,-4.918638576161207254e+00,-1.594351434105681875e+01,2.424645545741023756e-01,7.643138788028863706e-02,9.671438273178589728e-01,1.028164502294985596e+03
-5.824552835132640105e+00,-5.002906826246868555e+00,-1.633724700146728281e+01,1.944275713260123772e-01,4.754601753719768509e-02,9.797628772932430730e-01,1.032904026233627292e+03
-5.656475497625120141e+00,-5.025906920576526993e+00,-1.665050372090760433e+01,1.457487556909978776e-01,1.850369287144218791e-02,9.891475691533607728e-01,1.037643550172268988e+03
-5.512831027964538499e+00,-4.961481021216699538e+00,-1.688762356768915041e+01,9.658879917185875241e-02,-1.059971580270953687e-02,9.952669239438898252e-01,1.042383074110910684e+03
-5.387946162855817178e+00,-4.794906176356311001e+00,-1.705172127902114099e+01,4.710998140271102641e-02,-3.966813654011186463e-02,9.981007407034578893e-01,1.047122598049552380e+03
-5.346834065122727075e+00,-4.698707914995225110e+00,-1.708528504375297530e+01,-2.524365332592049156e-03,-6.860561277904914101e-02,9.976396631408157578e-01,1.048850609055448558e+03
-5.239107429390910120e+00,-4.350934659259094950e+00,-1.710491771279885498e+01,-4.787024916252768936e-03,-5.551923529667997931e-02,9.984451406412221397e-01,1.053590132994090254e+03
-5.127268340156551751e+00,-3.935963156352611847e+00,-1.705142337012512854e+01,-7.048836532111615351e-03,-4.242303292416962912e-02,9.990738712161015833e-01,1.058329656932731950e+03
-5.001982209138271962e+00,-3.473752158870708762e+00,-1.692424620908929001e+01,-9.309400355155445644e-03,-2.931932070777967109e-02,9.995257437724169858e-01,1.063069180871373646e+03
-4.873945991725187277e+00,-3.047040266023901989e+00,-1.674891283328690150e+01,-1.156831678004129407e-02,-1.621041501681720620e-02,9.998006783639542538e-01,1.067196175604796281e+03
-4.697217804458852619e+00,-2.548190335165392284e+00,-1.647286553446000212e+01,4.313673267985100764e-03,-4.651757608681956341e-02,9.989071565128122554e-01,1.071935699543437977e+03
-4.485488696698658906e+00,-2.058931542121909875e+00,-1.612467693968449822e+01,2.019060628754945977e-02,-7.677023264902982369e-02,9.968433531861917718e-01,1.076675223482079673e+03
-4.239501160069007568e+00,-1.595159326677631384e+00,-1.571314268487481236e+01,3.604388274462680397e-02,-1.069329442976871547e-01,9.936116866942247272e-01,1.081414747420721369e+03
-3.963129027687472661e+00,-1.171163231332830845e+00,-1.525017348451028099e+01,5.185493083418885041e-02,-1.369703760144989346e-01,9.892159431779582457e-01,1.086154271359363065e+03
-3.660555301162349728e+00,-8.011475945241816055e-01,-1.474768324362564442e+01,6.760522821853648390e-02,-1.668473395287792815e-01,9.836612721889801403e-01,1.090893795298004761e+03
-3.336271446882331571e+00,-4.992263986123039454e-01,-1.421758831625038511e+01,8.327632370792351080e-02,-1.965288345057426556e-01,9.769541806615641422e-01,1.095633319236646457e+03
-3.263975606416667841e+00,-4.515694923848538878e-01,-1.410145751023125626e+01,9.884985885811536921e-02,-2.259800895153385447e-01,9.691025252989161620e-01,1.096637862826583387e+03
-2.909306881170734549e+00,-3.122849346379755198e-01,-1.354294186698367675e+01,1.093743570173399265e-01,-2.162620221691577138e-01,9.701886351516741946e-01,1.101377386765225083e+03
-2.544639034917022702e+00,-2.720814053449177039e-01,-1.298318530582068142e+01,1.198762797083653270e-01,-2.064993233783374571e-01,9.710745115545212913e-01,1.106116910703866779e+03
-2.175449461818982577e+00,-3.447402929381862546e-01,-1.243410737165100777e+01,1.303534603480369369e-01,-1.966940072518794380e-01,9.717599718396789932e-01,1.110856434642508475e+03
-1.808153895702874658e+00,-5.386512886913860099e-01,-1.190540968482686246e+01,1.408037374545093035e-01,-1.868480966795964260e-01,9.722448746429149802e-01,1.115595958581150171e+03
-1.450581568504260677e+00,-8.515094371616267477e-01,-1.140235808868280643e+01,1.512249550904770923e-01,-1.769636229154408213e-01,9.725291199269087139e-01,1.120335482519791867e+03
-1.111105098539580061e+00,-1.275565777978177495e+00,-1.092799957083464157e+01,1.616149633058457658e-01,-1.670426251604344992e-01,9.726126490017908965e-01,1.125075006458433563e+03
-8.431193808053671912e-01,-1.725839002915487308e+00,-1.054999125662347481e+01,1.719716185791880514e-01,-1.570871501439826956e-01,9.724954445372854250e-01,1.129121868167976345e+03
-5.623955159240112689e-01,-2.348969520851682535e+00,-1.014175336494375479e+01,1.401045399983560924e-01,-1.813137704537495232e-01,9.733930524265871354e-01,1.133861392106618041e+03
-3.228802722567907235e-01,-3.060209263154389348e+00,-9.770893474947527579e+00,1.080128447937738906e-01,-2.052496954016235775e-01,9.727300693891917094e-01,1.138600916045259737e+03
-1.322845981804404991e-01,-3.851162490752736201e+00,-9.440450460697373813e+00,7.574798208047568704e-02,-2.288565513379857141e-01,9.705075590212137726e-01,1.143340439983901433e+03
1.855414930647680122e-03,-4.713273064774467613e+00,-9.153460671683502525e+00,4.336167850518604650e-02,-2.520964921529205705e-01,9.667290848414196169e-01,1.148079963922543129e+03
8.097930939091300961e-02,-5.635809892870951465e+00,-8.910572506108733748e+00,1.090585535715954402e-02,-2.749322599227179142e-01,9.614007045813969254e-01,1.152819487861184825e+03
1.243635228300445927e-01,-6.604114448634062384e+00,-8.707661132983517405e+00,-2.156745463333381574e-02,-2.973272446134463398e-01,9.545309604764068423e-01,1.157559011799826521e+03
1.604111143414319318e-01,-7.602015455832214386e+00,-8.538213987564915897e+00,-5.400619067493163394e-02,-3.192455427473945839e-01,9.461308655790416910e-01,1.162298535738468217e+03
2.143389028612500968e-01,-8.553526121851293240e+00,-8.404356190085326972e+00,-8.635834734044982308e-02,-3.406520149387499696e-01,9.362138861174963411e-01,1.166753985703076978e+03
3.212432533559796966e-01,-9.565537743516269842e+00,-8.282697403067588837e+00,-4.912416542588921714e-02,-2.457052184165696429e-01,9.680980126075465764e-01,1.171493509641718674e+03
5.063363808728598148e-01,-1.056336853137147713e+01,-8.175344841351853020e+00,-1.132909246963118705e-02,-1.479529942280671251e-01,9.889284924419244893e-01,1.176233033580360370e+03
7.993797248045521053e-01,-1.153340769348485217e+01,-8.075780010722715119e+00,2.659533200421681717e-02,-4.851146567621066052e-02,9.984674887117201969e-01,1.180972557519002066e+03
1.216119954258146896e+00,-1.246576150452769660e+01,-7.975667538407644308e+00,6.421609185509967455e-02,5.148395655595287140e-02,9.966060885650849244e-01,1.185712081457643762e+03
1.743845787757832611e+00,-1.335688473081084204e+01,-7.863039304697982068e+00,1.011036383187548099e-01,1.508915380640375448e-01,9.833655465086140746e-01,1.190451605396285458e+03
2.355595519257002390e+00,-1.420589048376070096e+01,-7.724111576088332320e+00,1.368367943934504227e-01,2.485762565257180201e-01,9.588970416017416065e-01,1.195191129334927155e+03
3.024461101558889364e+00,-1.501128506897483383e+01,-7.545102251390510162e+00,1.710075636382138164e-01,3.434227608487452899e-01,9.234799513309907004e-01,1.199930653273568851e+03
3.723593254225573634e+00,-1.577096898119508062e+01,-7.312231720001343582e+00,2.032257884931336911e-01,4.343481057412527657e-01,8.775186618705034247e-01,1.204670177212210547e+03
4.426206564479503669e+00,-1.648223796568232302e+01,-7.011723720167785778e+00,2.331236049482791894e-01,5.203141163435232031e-01,8.215379511319929051e-01,1.209409701150852243e+03
4.841863846696842444e+00,-1.688270489865978163e+01,-6.780301717671759043e+00,2.603596427098605615e-01,6.003392417773870671e-01,7.561769972900586056e-01,1.212292251195785866e+03
5.484762563367160837e+00,-1.748526549237417527e+01,-6.308724239090613750e+00,1.534674466989928154e-01,6.567702365252686691e-01,7.383079298077924735e-01,1.217031775134427562e+03
6.076530456058440777e+00,-1.802474962522266466e+01,-5.743130023636576986e+00,4.428404827244872971e-02,7.033958179273174238e-01,7.094161306242708909e-01,1.221771299073069258e+03
6.634741025240591838e+00,-1.848271451859904602e+01,-5.098348245642991827e+00,-6.556049924684292929e-02,7.395198931410660315e-01,6.699329433502707598e-01,1.226510823011710954e+03
7.098250262352995499e+00,-1.878926118247859378e+01,-4.504323161741602632e+00,-1.744262723236231494e-01,7.646031440955274316e-01,6.204478282345678997e-01,1.230512537557586711e+03
7.644829187566918094e+00,-1.906512593748281503e+01,-3.754901932235458872e+00,-1.569304203563939848e-01,7.976331889727444890e-01,5.823677008655261389e-01,1.235252061496228407e+03
8.186530518826177882e+00,-1.927325111185576034e+01,-2.969320709272417869e+00,-1.389877619590907387e-01,8.283922130894445512e-01,5.426294714757037285e-01,1.239991585434870103e+03
8.720559131920921914e+00,-1.943334799657652567e+01,-2.157703144394774508e+00,-1.206493806723820533e-01,8.567926456230090526e-01,5.013462768838785610e-01,1.244731109373511799e+03
9.243406799141789421e+00,-1.956006672851686545e+01,-1.328550212640599248e+00,-1.019674864474657133e-01,8.827536296892537493e-01,4.586356516599118804e-01,1.249470633312153495e+03
9.368419481179120822e+00,-1.958369938734422533e+01,-1.121478655157180482e+00,-8.299526710075813551e-02,9.062012523897812200e-01,4.146191937202566291e-01,1.250636107496832665e+03
9.859503517030614006e+00,-1.964885841910180275e+01,-2.687319572518188648e-01,-1.258055748105354754e-01,9.308216845166099596e-01,3.431354673898815433e-01,1.255375631435474361e+03
1.032951364756512369e+01,-1.968445189106513382e+01,5.917736664915120848e-01,-1.676661950559742709e-01,9.484155043513404770e-01,2.690614765107297024e-01,1.260115155374116057e+03
1.077377415679329431e+01,-1.968984315827590237e+01,1.456407361837215308e+00,-2.082611299834475627e-01,9.588499008529847156e-01,1.929563924128603614e-01,1.264854679312757753e+03
1.118761666879895422e+01,-1.966428709946274012e+01,2.321538016990230879e+00,-2.472839362943569652e-01,9.620461079496512857e-01,1.153947183821134176e-01,1.269594203251399449e+03
1.156638107898446144e+01,-1.960693022767182825e+01,3.183534488022325082e+00,-2.844400384675963012e-01,9.579799990368748075e-01,3.696195290677446038e-02,1.274333727190041145e+03
1.190541648470742508e+01,-1.951681081304408849e+01,4.038765824267050775e+00,-3.194489523908961015e-01,9.466822690362557413e-01,-4.174983005427333055e-02,1.279073251128682841e+03
1.220008211527031960e+01,-1.939285901772434428e+01,4.883601493720213682e+00,-3.520464026201427510e-01,9.282382026471834857e-01,-1.201464504235445208e-01,1.283812775067324537e+03
1.244574826121337630e+01,-1.923389704289354540e+01,5.714411608423032973e+00,-3.819863172884125357e-01,9.027870305436039855e-01,-1.976361072464133672e-01,1.288552299005966233e+03
1.263779720286708041e+01,-1.903863928791103532e+01,6.527567149794919921e+00,-4.090426856096486818e-01,8.705208783760338687e-01,-2.736338459720407124e-01,1.293291822944607929e+03
1.277162413810155961e+01,-1.880569252156060855e+01,7.319440193931643357e+00,-4.330112639584537959e-01,8.316833165105436132e-01,-3.475659740594080893e-01,1.298031346883249626e+03
1.284263810918651316e+01,-1.853355606541562040e+01,8.086404136854348224e+00,-4.537111176496134712e-01,7.865675214482329425e-01,-4.188743915836858900e-01,1.302770870821891322e+03
1.284626292871309339e+01,-1.822062198929788579e+01,8.824833919703655383e+00,-4.709859867801359234e-01,7.355140627981885393e-01,-4.870208041587699710e-01,1.307510394760533018e+03
1.283128592248237787e+01,-1.814329730379329675e+01,8.979159284498239302e+00,-4.847054658235139257e-01,6.789083325020733861e-01,-5.514907863786997488e-01,1.308545226280693896e+03
1.269264000227206068e+01,-1.774965279016260666e+01,9.649746895183769269e+00,-4.650147753553289798e-01,6.331656818392995545e-01,-6.187572044365943214e-01,1.313284750219335592e+03
1.249315491918331311e+01,-1.732099480664371072e+01,1.027562919278444298e+01,-4.420667071468168952e-01,5.829877773949704300e-01,-6.816892824744635870e-01,1.318024274157977288e+03
1.224149766367942149e+01,-1.686419373520277887e+01,1.084651013950147380e+01,-4.160220103477833553e-01,5.287261098694036043e-01,-7.398461918863589171e-01,1.322763798096618984e+03
1.194616284651715965e+01,-1.638630814628123744e+01,1.135209711447761904e+01,-3.870631250177887228e-01,4.707607753086781588e-01,-7.928205532669224676e-01,1.327503322035260680e+03
1.161547115160802157e+01,-1.589458186374824855e+01,1.178210155436582873e+01,-3.553929042015629425e-01,4.094978127112273159e-01,-8.402412897662977498e-01,1.332242845973902376e+03
1.125756780834357862e+01,-1.539644100982130936e+01,1.212623959370722027e+01,-3.212331930547281389e-01,3.453663599643593818e-01,-8.817762261963181247e-01,1.336982369912544073e+03
1.088042108341361036e+01,-1.489949103027024968e+01,1.237423270508250361e+01,-2.848232749668501707e-01,2.788156480200017495e-01,-9.171344156973098016e-01,1.341721893851185769e+03
1.049182079216890706e+01,-1.441151370010413757e+01,1.251580833903696544e+01,-2.464181955584640038e-01,2.103118543495013648e-01,-9.460681776794734876e-01,1.346461417789827465e+03
1.021058440227844599e+01,-1.407520533101397398e+01,1.253415592043256055e+01,-2.062869762824818265e-01,1.403348377012147707e-01,-9.683748327705634651e-01,1.349845436408356136e+03
9.817769414893492197e+00,-1.362807093105196898e+01,1.243518198273949515e+01,-1.669347599817369854e-01,1.325000326398179940e-01,-9.770232992366010283e-01,1.354584960346997832e+03
9.433654674206884749e+00,-1.321186887522589437e+01,1.220194750451072885e+01,-1.273013056534647580e-01,1.244419962498957422e-01,-9.840256943491298980e-01,1.359324484285639528e+03
9.057149100102343198e+00,-1.283485178587883802e+01,1.183467174196848681e+01,-8.745337720529532122e-02,1.161743026368494691e-01,-9.893702230273264675e-01,1.364064008224281224e+03
8.843147015457176963e+00,-1.265136166932746598e+01,1.156572904124404744e+01,-4.745809966669586183e-02,1.077108789231815411e-01,-9.930478816895860206e-01,1.366700001627259780e+03
8.429761911033542887e+00,-1.237424395957665446e+01,1.099048887998055335e+01,-2.308178938660086221e-01,9.597614261540562963e-02,-9.682508352281823383e-01,1.371439525565901477e+03
7.965410639469855170e+00,-1.215508802015112799e+01,1.035157660037133631e+01,-4.062436371288116743e-01,8.094237581449996444e-02,-9.101716536401885937e-01,1.376179049504543173e+03
7.428985768358598030e+00,-1.199487687759913079e+01,9.679275486183168908e+00,-5.677053784738980147e-01,6.312633906859138611e-02,-8.208067181546175872e-01,1.380918573443184869e+03
7.140679914641347104e+00,-1.194469577923424275e+01,9.361892723134799255e+00,-7.096531463873900769e-01,4.314042683824778623e-02,-7.032277834347321344e-01,1.383125740893989814e+03
6.434929293463524047e+00,-1.187771560058502729e+01,8.690367987210148470e+00,-5.194094989771883553e-01,5.088104174258967910e-02,-8.530081429643082691e-01,1.387865264832631510e+03
5.638566551591367215e+00,-1.183589937888063659e+01,8.051501981103351469e+00,-2.986832573627595799e-01,5.563561057663039822e-02,-9.527281829601165208e-01,1.392604788771273206e+03
4.754126331199401534e+00,-1.180697404761904856e+01,7.468626621028173318e+00,-6.042813134803964176e-02,5.712509874533565346e-02,-9.965355809173674917e-01,1.397344312709914902e+03
3.798929865169005549e+00,-1.178601379797509985e+01,6.959259174854620866e+00,1.813734044921878619e-01,5.526208928468251402e-02,-9.818593532832448068e-01,1.402083836648556598e+03
2.797638677681322683e+00,-1.177215192528845655e+01,6.538006749392232031e+00,4.125307115298015859e-01,5.015591489593723695e-02,-9.095607710563585746e-01,1.406823360587198295e+03
1.774913071857690205e+00,-1.176507386393836008e+01,6.219470958653026571e+00,6.194778227494540657e-01,4.210624231455445399e-02,-7.838828301977878166e-01,1.411562884525839991e+03
7.554074981134913935e-01,-1.176501710461128880e+01,6.018247014689649177e+00,7.900696208887738603e-01,3.158548513936591112e-02,-6.122012342985465594e-01,1.416302408464481687e+03
-2.362340764846614094e-01,-1.177277105118353084e+01,5.948922818898575215e+00,9.142946166248919759e-01,1.921107759644937948e-02,-4.045915082008273989e-01,1.421041932403123383e+03
-6.654318879064218262e-01,-1.178169224378993007e+01,5.983143890970959333e+00,9.848624863361775672e-01,5.709237296352326178e-03,-1.732376622374729169e-01,1.423200303365853415e+03
-9.191735218892654879e-01,-1.179201887751975519e+01,6.047796192223056089e+00,9.896492688717234421e-01,1.551452847309857733e-02,-1.426591180721188956e-01,1.424565034103077778e+03
-1.737649805500581124e+00,-1.184057004174692018e+01,6.404879280603489988e+00,9.381504411983708769e-01,2.089572606889792197e-02,-3.455938632442919767e-01,1.429304558041719474e+03
-2.498279856675890365e+00,-1.189475577636461701e+01,6.848602372733791910e+00,8.455008886404012936e-01,2.536035974265342732e-02,-5.333695711819763652e-01,1.434044081980361170e+03
-3.207520379316621817e+00,-1.194935299191565470e+01,7.320067208593366459e+00,7.157645649139541266e-01,2.871259467217484457e-02,-6.977497219788594274e-01,1.438783605919002866e+03
-3.871693745075639015e+00,-1.199899685363328850e+01,7.760373796057259632e+00,5.546321760438296389e-01,3.080538976128550238e-02,-8.315240088291767639e-01,1.443523129857644562e+03
-4.496986819185031514e+00,-1.203818307380369035e+01,8.110624078939657977e+00,3.691715685795284863e-01,3.154694727736590681e-02,-9.288246029637233780e-01,1.448262653796286259e+03
-5.065158340921975366e+00,-1.205900780873866474e+01,8.325670484901008805e+00,1.675177140321612579e-01,3.090473943670029797e-02,-9.853835357698890185e-01,1.452845841268543381e+03
-5.606022025759981098e+00,-1.205216422451812619e+01,8.424740645267020156e+00,3.220906551749632696e-01,3.082234207802447140e-02,-9.462058935968757911e-01,1.457585365207185077e+03
-6.085863067399061244e+00,-1.200446716634035305e+01,8.426566259897340316e+00,4.684735247227310717e-01,2.995620254152884729e-02,-8.829683927315631342e-01,1.462324889145826774e+03
-6.489927829893827216e+00,-1.190376087093767410e+01,8.357442750696478129e+00,6.029441748057408068e-01,2.832834490270226893e-02,-7.972790144877837104e-01,1.467064413084468470e+03
-6.797314456235930002e+00,-1.174144611780096881e+01,8.245705973518258958e+00,7.220833482955283378e-01,2.598016131695845068e-02,-6.913166201760696516e-01,1.471714136304197154e+03
-7.006101489302436924e+00,-1.150450730393729692e+01,8.108051171265573842e+00,7.178884279187697226e-01,6.864042449208598851e-02,-6.927645322715924037e-01,1.476453660242838851e+03
-7.099119588364615652e+00,-1.119881487907625228e+01,7.957686649708461957e+00,7.123728845645090901e-01,1.111744076398755304e-01,-6.929380379303609061e-01,1.481193184181480547e+03
-7.088311490179351360e+00,-1.106663413117670913e+01,7.900950507913176324e+00,7.055468621564199294e-01,1.535038842659151859e-01,-6.918368180457578065e-01,1.482896858624605102e+03
-6.928398040760610499e+00,-1.064243025917241425e+01,7.739812152695875191e+00,6.350604348696701207e-01,2.166844721731987500e-01,-7.414472898202736362e-01,1.487636382563246798e+03
-6.629313722488638483e+00,-1.016858896842277105e+01,7.580442695955716736e+00,5.573207796064022501e-01,2.773902201080331031e-01,-7.825894290157154876e-01,1.492375906501888494e+03
-6.188781128779980989e+00,-9.651452599124754173e+00,7.427594343265590204e+00,4.732157831425544137e-01,3.349277941294525052e-01,-8.147933451521476300e-01,1.497115430440530190e+03
-5.619078268275430332e+00,-9.093882268340523822e+00,7.283250188917439694e+00,3.837060296158852357e-01,3.886400444687391209e-01,-8.376912311058121174e-01,1.501854954379171886e+03
-4.939726018227320381e+00,-8.496669904629769121e+00,7.148008442642914240e+00,2.898138305196829023e-01,4.379135101526683282e-01,-8.510215633372348876e-01,1.506594478317813582e+03
-4.841237171423376395e+00,-8.415090777601646366e+00,7.131956945142862381e+00,1.926115499325042058e-01,4.821854248138072729e-01,-8.546320886376546078e-01,1.507199925270739413e+03
-3.989467164629384666e+00,-7.735391899270924299e+00,7.016228016566051551e+00,1.333046576045066323e-01,4.172108540332805093e-01,-8.989788493269463832e-01,1.511939449209381110e+03
-3.069080361556421721e+00,-7.017077213123925183e+00,6.910872105072392024e+00,7.270396818920257798e-02,3.481869919764256083e-01,-9.346004235113194447e-01,1.516678973148022806e+03
-2.100167479897992795e+00,-6.266444500356866953e+00,6.814145509075821394e+00,1.139764546982260582e-02,2.757837552137131221e-01,-9.611510880385051303e-01,1.521418497086664502e+03
-1.104281955111079627e+00,-5.503089147630870315e+00,6.719624511167258341e+00,-5.001929895291037237e-02,2.007038573791328495e-01,-9.783731554805545905e-01,1.526158021025306198e+03
-1.040981534072430992e-01,-4.752991869381588685e+00,6.618545515452704642e+00,-1.109507798563094394e-01,1.236759897647775192e-01,-9.860994747004002692e-01,1.530897544963947894e+03
3.734608063058421634e-01,-4.404122341926864692e+00,6.562524962688241814e+00,-1.708054230080653102e-01,4.544774988978547009e-02,-9.842550530732199210e-01,1.533202039012903697e+03
1.321579546499731528e+00,-3.733785652714339154e+00,6.421745915192700771e+00,-2.074146412586369836e-01,4.338000168798094441e-02,-9.772897942971610075e-01,1.537941562951545393e+03
2.221536270653831302e+00,-3.122928849674651008e+00,6.232954470052135321e+00,-2.437349170508772700e-01,4.125182440669350470e-02,-9.689631454218217144e-01,1.542681086890187089e+03
3.055556201008045480e+00,-2.579885344331909636e+00,5.967722954673771341e+00,-2.797156611297494933e-01,3.906618234341476675e-02,-9.592867049575281024e-01,1.547420610828828785e+03
3.805661635917670260e+00,-2.112597228943490002e+00,5.597628453900528989e+00,-3.153067570312420576e-01,3.682611980762301451e-02,-9.482739508510158455e-01,1.552160134767470481e+03
4.454174446739042281e+00,-1.726120307904158491e+00,5.111985773828039648e+00,-3.504586307922036847e-01,3.453475688612533262e-02,-9.359402217353289810e-01,1.556853654352434432e+03
5.016284213311015705e+00,-1.401466134415026099e+00,4.511833022274839955e+00,-4.470163172054265055e-01,-2.651333287118852119e-02,-8.941316767304011703e-01,1.561593178291076129e+03
5.495332401494601449e+00,-1.124837396891031460e+00,3.825579355451550700e+00,-5.369589390066177303e-01,-8.716906510834926403e-02,-8.390915634837992076e-01,1.566332702229717825e+03
5.901384572259058992e+00,-8.787985321184983434e-01,3.076937796485046395e+00,-6.189555082778969153e-01,-1.465348435882078693e-01,-7.716343812893315945e-01,1.571072226168359521e+03
6.244870061477874046e+00,-6.461459638432934804e-01,2.289625251884967128e+00,-6.917926248600199113e-01,-2.037321616940911406e-01,-6.927583781388159112e-01,1.575811750107001217e+03
6.536580000227265153e+00,-4.099141267804688460e-01,1.487361034827614947e+00,-7.543924318332625445e-01,-2.579146024036951257e-01,-6.036307784237308072e-01,1.580551274045642913e+03
6.787665296234332679e+00,-1.533814645995520143e-01,6.938653883807824885e-01,-8.058285652756032036e-01,-3.082803633697199786e-01,-5.055705103615854012e-01,1.585290797984284609e+03
7.009634576657558291e+00,1.399235985987370978e-01,-6.714199139095197721e-02,-8.453398623551211521e-01,-3.540841218117432021e-01,-4.000286887148903903e-01,1.590030321922926305e+03
7.214352092297685815e+00,4.862167138276305423e-01,-7.719434323407817766e-01,-8.723416249629688535e-01,-3.946480636896190775e-01,-2.885671415522568228e-01,1.594769845861568001e+03
7.406720902206534340e+00,8.809201319678182651e-01,-1.390477322045866826e+00,-8.864342722370189831e-01,-4.293719139852890665e-01,-1.728352987232814608e-01,1.599420980298763425e+03
7.595383188793504381e+00,1.315506954394114691e+00,-1.938752648576554938e+00,-9.337460701046054190e-01,-3.486185905462969581e-01,-8.112555016857264656e-02,1.604160504237405121e+03
7.773799124959469786e+00,1.745538479779328966e+00,-2.402905600006465470e+00,-9.650252411810481545e-01,-2.618794231895647528e-01,1.197712794939895763e-02,1.608900028176046817e+03
7.938192498018393550e+00,2.133996971250433639e+00,-2.780823022802263011e+00,-9.797347230253402595e-01,-1.706437388276138833e-01,1.048741479012227917e-01,1.613639552114688513e+03
8.083956419900347967e+00,2.443953219151895784e+00,-3.070397132747237023e+00,-9.776219545884632378e-01,-7.647806821707069103e-02,1.959704543777607555e-01,1.618379076053330209e+03
8.205654085509859641e+00,2.638580453586518715e+00,-3.269525645966642635e+00,-9.587232120893124376e-01,1.900075053255485466e-02,2.837019106049298300e-01,1.623118599991971905e+03
8.297019621751092089e+00,2.681168246546438372e+00,-3.376111909614475159e+00,-9.233629862235582797e-01,1.141533320532186618e-01,3.665621536027218741e-01,1.627858123930613601e+03
8.297868554965697641e+00,2.680249766049896731e+00,-3.376688410418239528e+00,-8.721484113865307641e-01,2.073458909832419650e-01,4.431284576830271105e-01,1.627930488279329211e+03
8.318166573499548022e+00,2.513912288372178949e+00,-3.347875190147126645e+00,-9.086650534475866348e-01,1.736975188985729890e-01,3.796774849414536468e-01,1.632670012217970907e+03
8.309255723077020761e+00,2.181202918311430761e+00,-3.235381612645139793e+00,-9.392828949788532000e-01,1.389215569648457882e-01,3.137617634617582696e-01,1.637409536156612603e+03
8.279845630401744927e+00,1.703474228371135046e+00,-3.050001008626584742e+00,-9.638031772009135745e-01,1.032437598809716195e-01,2.458091976781593968e-01,1.642149060095254299e+03
8.239114372928792562e+00,1.101861167685518783e+00,-2.802531245985741659e+00,-9.820667241518767909e-01,6.689573643030696792e-02,1.762609138782969820e-01,1.646888584033895995e+03
8.196706531096738857e+00,3.972732454281651115e-01,-2.503774057416944476e+00,-9.939549758291907899e-01,3.011344605422881793e-02,1.055683967449548843e-01,1.651628107972537691e+03
8.162731189801485598e+00,-3.896132599821908737e-01,-2.164534367856215891e+00,-9.993907577278927645e-01,-6.864332801642922081e-03,3.419055868782243379e-02,1.656367631911179387e+03
8.147759889188577631e+00,-1.238363065299379562e+00,-1.795619621719361403e+00,-9.983387817865294611e-01,-4.379755263322931275e-02,-3.740923902426036146e-02,1.661107155849821083e+03
8.162824524875510690e+00,-2.128789619847119230e+00,-1.407839109967190083e+00,-9.908058754916736488e-01,-8.044645506211875463e-02,-1.087661940082469553e-01,1.665846679788462779e+03
8.191251481179419258e+00,-2.581450849254511848e+00,-1.211251703458017470e+00,-9.768409376523692345e-01,-1.165731271508916034e-01,-1.794170798794376409e-01,1.668192500195069670e+03
8.299868343778046054e+00,-3.505512019223520515e+00,-8.127364529759254497e-01,-9.844943554054016444e-01,-1.060641834231979969e-01,-1.397113208177983013e-01,1.672932024133711366e+03
8.457075021082827604e+00,-4.421717905708163698e+00,-4.263434072375818507e-01,-9.904292746801717229e-01,-9.537010020860681170e-02,-9.976169524345120110e-02,1.677671548072353062e+03
8.642900101084252995e+00,-5.308674956430130543e+00,-7.492958670643055930e-02,-9.946353371573521951e-01,-8.450954361907195289e-02,-5.963793348500405489e-02,1.682411072010994758e+03
8.826999001008394075e+00,-6.143860753854057499e+00,2.146345910222772213e-01,-9.971052016001933360e-01,-7.350147026645259540e-02,-1.941006969669809359e-02,1.687150595949636454e+03
8.979538041465891851e+00,-6.904074894026402731e+00,4.154825606734102172e-01,-9.978345566523181276e-01,-6.236509419890189088e-02,2.085168029165497885e-02,1.691890119888278150e+03
9.049415385734501882e+00,-7.394235409312531537e+00,4.798458220405264485e-01,-9.968221283624185691e-01,-5.111985338928714401e-02,6.107704144068539648e-02,1.695395039387796714e+03
9.058283504480128201e+00,-7.644787278059676616e+00,4.596967307968943262e-01,-9.942835838641952417e-01,-7.312582390371898111e-02,7.778668695423676671e-02,1.697554481633690330e+03
8.993609158509309864e+00,-8.075289613463180416e+00,2.755676362463700957e-01,-9.993306890765855099e-01,6.120144440558889821e-03,3.603772607754723162e-02,1.702294005572332026e+03
8.843649425392763774e+00,-8.385179695199353134e+00,-4.710966687606717163e-02,-9.963347940302667016e-01,8.531683858009604660e-02,-6.001271417416000932e-03,1.707033529510973722e+03
8.619400002562160878e+00,-8.578138791079814141e+00,-4.918257665484236929e-01,-9.853200145202098970e-01,1.638268610871362330e-01,-4.799196361426515817e-02,1.711773053449615418e+03
8.337676332597940387e+00,-8.660650183680328240e+00,-1.034006505102867512e+00,-9.663750020462765766e-01,2.410183414973742777e-01,-8.959639770210882370e-02,1.716512577388257114e+03
8.015127196069391502e+00,-8.639556996854068416e+00,-1.649071654555352540e+00,-9.396522303586589686e-01,3.162700209836996068e-01,-1.304797294912198313e-01,1.721252101326898810e+03
7.956045386724055035e+00,-8.620029189081703791e+00,-1.761605500442703143e+00,-9.053667685680785171e-01,3.889762516659719394e-01,-1.703129179227877987e-01,1.722050196206074588e+03
7.586707912416397193e+00,-8.413439252973129001e+00,-2.468754884529292593e+00,-9.828885217401930330e-01,1.630681882488539403e-01,8.565582182551401136e-02,1.726789720144716284e+03
7.212880168081267307e+00,-8.119087667352253845e+00,-3.195474286238269457e+00,-9.399431667669413404e-01,-8.282633252507214106e-02,3.311263231579886224e-01,1.731529244083357980e+03
6.843812202538003042e+00,-7.748301075022201445e+00,-3.913270089172135258e+00,-7.817941412578035543e-01,-3.185693656029351395e-01,5.360125744734527409e-01,1.736268768021999676e+03
6.474771034451427099e+00,-7.319255991892777757e+00,-4.585843069671549976e+00,-5.278248852311736572e-01,-5.152671066222422880e-01,6.752027098311358388e-01,1.741008291960641372e+03
6.093741729910659544e+00,-6.853314120435826773e+00,-5.172993737615464660e+00,-2.091631164612858806e-01,-6.488113541596398637e-01,7.316369437266024844e-01,1.745747815899283069e+03
6.032529759282563298e+00,-6.780189144117795941e+00,-5.244111619114264045e+00,1.351344583824632128e-01,-7.028343853629591687e-01,6.983985287137269848e-01,1.746463670349502991e+03
5.595694282916784168e+00,-6.289771746472841762e+00,-5.575547519936502994e+00,-2.239936710295826472e-01,-6.993866127785917097e-01,6.787364740495623883e-01,1.751203194288144687e+03
5.132945782337492879e+00,-5.807860363256409642e+00,-5.752310748535785834e+00,-5.541433873218629680e-01,-6.054579475522808840e-01,5.712650698525092441e-01,1.755942718226786383e+03
4.671095630874042115e+00,-5.357414587434705666e+00,-5.785815703238600172e+00,-8.126025877608099579e-01,-4.332000970703894782e-01,3.898880740200119099e-01,1.760682242165428079e+03
4.249878103948804942e+00,-4.962790409372961342e+00,-5.704681157425450344e+00,-9.659339213354095621e-01,-2.048983933080796016e-01,1.580705792799577403e-01,1.765421766104069775e+03
4.100171285516640118e+00,-4.826846202123302731e+00,-5.631105596631298837e+00,-9.943006747332685524e-01,4.991133631742417087e-02,-9.419674480941470085e-02,1.767459462774772419e+03
3.852525972328823212e+00,-4.607748173842686867e+00,-5.390447469922572843e+00,-7.487647050119687897e-01,-5.145229445690010506e-01,4.178702622119131460e-01,1.772198986713414115e+03
3.837884467506038622e+00,-4.594790534240266844e+00,-5.355921981327056436e+00,-2.320474926994425119e-02,-7.491028058573042658e-01,6.620457128241001854e-01,1.772761650686703206e+03
3.853620157088008202e+00,-4.608239247758993073e+00,-5.038881419285693219e+00,-5.023514166451937824e-01,-5.985962101725667006e-01,6.239580365396329986e-01,1.777501174625344902e+03
