-3.405372783563182182e+00,3.114818230931244436e+00,2.811687808740496397e+00,3.697144383644082599e-01,7.603129473425174201e-01,-5.340725195784630230e-01,9.279905496987698825e+02
-3.263443535081445912e+00,2.846560630636466804e+00,3.116548017470246901e+00,4.610703904577850287e-01,8.104638512729199773e-01,-3.613314832997011616e-01,9.366672137825549953e+02
-3.200629762862449823e+00,2.708988927753130049e+00,3.256301929796811656e+00,5.336605227911660476e-01,8.276284144012311383e-01,-1.738840248279634459e-01,9.407814125213211582e+02
-3.078511569244673840e+00,2.397372073004826909e+00,3.540188424263407629e+00,5.110814829219038069e-01,7.747705341374873100e-01,-3.721885775348703351e-01,9.494580766051062710e+02
-2.969055320497538730e+00,2.064643727399312123e+00,3.812618886044100819e+00,4.667157857341980853e-01,6.888853190074576416e-01,-5.546272555539777382e-01,9.581347406888913838e+02
-2.872535135041937693e+00,1.712198522383520993e+00,4.073099510996442518e+00,4.024546777164076938e-01,5.736339317197498566e-01,-7.134229774578062511e-01,9.668114047726764966e+02
-2.789179093346220384e+00,1.341433777774247549e+00,4.321138948032420046e+00,3.210375124363219479e-01,4.339293640388091067e-01,-8.418065232785699736e-01,9.754880688564616094e+02
-2.719139492691468263e+00,9.538834200893775428e-01,4.556311571115465142e+00,2.259349778905899997e-01,2.757270067186660123e-01,-9.343050912481506431e-01,9.841647329402467221e+02
-2.673473689395448716e+00,6.347855183485294761e-01,4.732367182627477575e+00,1.212011495137965272e-01,1.057707853668541642e-01,-9.869755935786576062e-01,9.910435143258105199e+02
-2.628285952398683456e+00,2.190649393522964006e-01,4.941130286125302362e+00,8.967204960402097580e-02,3.942690927601235490e-02,-9.951896514448975717e-01,9.997201784095956327e+02
-2.596362935511125514e+00,-2.081608603288343518e-01,5.136318540098958607e+00,5.765307181953865240e-02,-2.713234387772560721e-02,-9.979669128903572162e-01,1.008396842493380746e+03
-2.577528497268161356e+00,-6.449757647341215483e-01,5.317706400445053383e+00,2.531913509012367197e-02,-9.354336286690732860e-02,-9.952922086806199609e-01,1.017073506577165858e+03
-2.571539075176015210e+00,-1.089476076197960719e+00,5.485071148006403163e+00,-7.153121337146749886e-03,-1.594433466176093106e-01,-9.871801517823304284e-01,1.025750170660950971e+03
-2.578083927257587948e+00,-1.539772553961825441e+00,5.638192933089633208e+00,-3.958630265073131288e-02,-2.244722857163136687e-01,-9.736750574940634673e-01,1.034426834744735970e+03
-2.587518539744231738e+00,-1.798313799480594444e+00,5.717160066433104149e+00,-7.180322735047944827e-02,-2.882749286747212647e-01,-9.548507014385670955e-01,1.039362803459668157e+03
-2.613816653326863637e+00,-2.255527096889472283e+00,5.841495639645571281e+00,2.014869611980316111e-03,-4.373316431264348547e-01,-8.992969332877420729e-01,1.048039467543453156e+03
-2.651577413866220923e+00,-2.713745559125837037e+00,5.951037747647440312e+00,7.577098760556272294e-02,-5.729389407879107443e-01,-8.160868382507843188e-01,1.056716131627238155e+03
-2.700326833527158410e+00,-3.171193229859650131e+00,6.045582896505246495e+00,1.471968996685764919e-01,-6.909264849816472154e-01,-7.077793901201118176e-01,1.065392795711023155e+03
-2.727361108081378216e+00,-3.388249964102185263e+00,6.083488077827141183e+00,2.140960380781584405e-01,-7.876657887748006459e-01,-5.777053675296841551e-01,1.069527337095564462e+03
-2.791808992025273106e+00,-3.840662990205932381e+00,6.147903457624943613e+00,1.868388224367957262e-01,-5.693229376244400841e-01,-8.006001793191607208e-01,1.078204001179349461e+03
-2.866267004794857076e+00,-4.288274917164694777e+00,6.196865187113175466e+00,1.412529395874614346e-01,-2.951301961378504091e-01,-9.449570225075635266e-01,1.086880665263134460e+03
-2.950435491840661228e+00,-4.729679948471912532e+00,6.230242212987645800e+00,8.181030891906927727e-02,8.014472209428795402e-03,-9.966146906355172197e-01,1.095557329346919460e+03
-2.983899257750541434e+00,-4.890098586849563667e+00,6.236867145787129196e+00,1.434217429166067224e-02,3.103729664733566040e-01,-9.505056147754736839e-01,1.098758131633647281e+03
-3.081206141450452130e+00,-5.317843412658722180e+00,6.239415420007037305e+00,1.844961142904374962e-01,2.665767220310892305e-01,-9.459894476595481771e-01,1.107434795717432280e+03
-3.188247378060110826e+00,-5.737134760678508805e+00,6.226359824639263962e+00,3.489507685733182485e-01,2.145456842572154854e-01,-9.122507936303165810e-01,1.116111459801217279e+03
-3.305046266464133797e+00,-6.147116611710175427e+00,6.197754082868087266e+00,5.026260040581039812e-01,1.558871362055059273e-01,-8.503318768637737612e-01,1.124788123885002278e+03
-3.431198852051395409e+00,-6.547025750084531026e+00,6.153801142642422839e+00,6.407746708341046649e-01,9.241308665681802204e-02,-7.621454209219558074e-01,1.133464787968787277e+03
-3.550736774245142335e+00,-6.894550506944158386e+00,6.101238494229553666e+00,7.591292383416291534e-01,2.608429850007040751e-02,-6.504155662856385689e-01,1.141209167397182000e+03
-3.691038520459557493e+00,-7.272849350299051885e+00,6.027849177349207999e+00,7.717570471159439505e-01,3.605432295744358945e-02,-6.348930193410420308e-01,1.149885831480966999e+03
-3.836741489389426274e+00,-7.639456607960547707e+00,5.940380315296795999e+00,7.839991186357891939e-01,4.600632471806922336e-02,-6.190531480005695419e-01,1.158562495564751998e+03
-3.986337691255495308e+00,-7.993933639917461420e+00,5.839301011265015440e+00,7.958493362705768570e-01,5.593533123559388948e-02,-6.029038668497728182e-01,1.167239159648536997e+03
-4.138170000028689621e+00,-8.335902943439496227e+00,5.725262692117812691e+00,8.073017790029323182e-01,6.583638144556266947e-02,-5.864532449239630019e-01,1.175915823732321996e+03
-4.139656030756122540e+00,-8.339210777476028014e+00,5.724002763296416774e+00,8.183507243700578471e-01,7.570452823453825697e-02,-5.697095016869981876e-01,1.176002597172595415e+03
-4.283893624158022106e+00,-8.658704070677886833e+00,5.586676138197123720e+00,6.344662198578198131e-01,-7.261027695584079678e-02,-7.695312622241848866e-01,1.184679261256380414e+03
-4.426125823249887681e+00,-8.965320579814841651e+00,5.438611943890124145e+00,3.898381204807510603e-01,-2.139733829561723533e-01,-8.956783078801061615e-01,1.193355925340165413e+03
-4.564255538869226747e+00,-9.258921103595442403e+00,5.281008697465924939e+00,1.078870211731964152e-01,-3.348507458311564822e-01,-9.360733778284813233e-01,1.202032589423950412e+03
-4.653262427637757881e+00,-9.449864934879039780e+00,5.168280429171622004e+00,-1.843931979687360723e-01,-4.236696060736012681e-01,-8.868490364389121083e-01,1.207929869767793889e+03
-4.775384442659063922e+00,-9.718043091326247662e+00,4.995500303010774523e+00,-2.178113836259546188e-01,-4.108010425651710262e-01,-8.853240675502065393e-01,1.216606533851578888e+03
-4.888056634909430542e+00,-9.972908043634493680e+00,4.817320847324839228e+00,-2.509497395138232667e-01,-3.974047244751219843e-01,-8.826617207040730051e-01,1.225283197935363887e+03
-4.989368277967059839e+00,-1.021436124134269718e+01,4.635493564947915424e+00,-2.837656964635232870e-01,-3.834978608558152202e-01,-8.788654164450350192e-01,1.233959862019148886e+03
-5.077392191821837208e+00,-1.044237764574365812e+01,4.451770667734676223e+00,-3.162170993887514769e-01,-3.690983164208273548e-01,-8.739400316171163086e-01,1.242636526102933885e+03
-5.150185823104832750e+00,-1.065700629094677332e+01,4.267904712758005203e+00,-3.482622613810472112e-01,-3.542245886173865377e-01,-8.678918931006756043e-01,1.251313190186718884e+03
-5.163760837765612344e+00,-1.070796774149406971e+01,4.221849196916189761e+00,-3.798600172064386937e-01,-3.388957838902301734e-01,-8.607287696959683432e-01,1.253503822420338793e+03
-5.197212838417586411e+00,-1.089728042783860573e+01,4.041975823330967721e+00,-3.856783813796649807e-01,-2.951804391706399633e-01,-8.741388301955766993e-01,1.262180486504123792e+03
-5.211116195788485506e+00,-1.107397144034730019e+01,3.865949282157751465e+00,-3.906772864225488417e-01,-2.508379293986992553e-01,-8.856915891193724022e-01,1.270857150587908791e+03
-5.206275146841910839e+00,-1.117833608834479620e+01,3.757781926065818290e+00,-3.948461133052826866e-01,-2.059624503293479569e-01,-8.953625052736590151e-01,1.276364922682093948e+03
-5.176407761982248168e+00,-1.133086991137328248e+01,3.594575326970166351e+00,-3.791889618953380170e-01,-1.950991398007780875e-01,-9.045164768054813065e-01,1.285041586765878947e+03
-5.124744235190823893e+00,-1.147200092228919388e+01,3.440140368364449142e+00,-3.633623341840090948e-01,-1.841486315025532561e-01,-9.132661690871574089e-01,1.293718250849663946e+03
-5.051418194721826183e+00,-1.160215426646730208e+01,3.296105767035120593e+00,-3.473733022826111516e-01,-1.731158186412943834e-01,-9.216076725942243808e-01,1.302394914933448945e+03
-4.956882497889286476e+00,-1.172173595474953345e+01,3.164001234401526474e+00,-3.312290108101346164e-01,-1.620056311682240568e-01,-9.295372600679313591e-01,1.311071579017233944e+03
-4.841582683892181826e+00,-1.183112868786607130e+01,3.045353955510899713e+00,-3.149366737098264757e-01,-1.508230335826025448e-01,-9.370513881748695484e-01,1.319748243101018943e+03
-4.730660978254452864e+00,-1.191214228066020198e+01,2.960762197804926554e+00,-2.985035710353541316e-01,-1.395730227200109030e-01,-9.441466990857908526e-01,1.326825654046477666e+03
-4.574362969165562731e+00,-1.200173144507573930e+01,2.873376800566000533e+00,-2.415816496025402493e-01,-1.395767258750186257e-01,-9.602888337189154910e-01,1.335502318130262665e+03
-4.398466428399119721e+00,-1.208217750295114534e+01,2.803731992915120763e+00,-1.838140412720697114e-01,-1.390918156507405246e-01,-9.730693012557076749e-01,1.344178982214047664e+03
-4.203568573253749108e+00,-1.215399742243548786e+01,2.753089713697041141e+00,-1.254029632443278142e-01,-1.381199897080594152e-01,-9.824433649064164831e-01,1.352855646297832664e+03
-3.990634999963255325e+00,-1.221811474427875410e+01,2.722203127470219197e+00,-6.655288476362232475e-02,-1.366646499363206591e-01,-9.883782104960200376e-01,1.361532310381617663e+03
-3.988302707023668958e+00,-1.221866960035056060e+01,2.722096106253823589e+00,-7.469811754866210150e-03,-1.347308905522286715e-01,-9.908530612754469225e-01,1.361619784419703819e+03
-3.739068117716981554e+00,-1.226530593808676706e+01,2.732000564881477356e+00,1.862145738398021111e-01,1.556260674601061753e-02,-9.823848216260517852e-01,1.370296448503488818e+03
-3.473961217226757103e+00,-1.230692062401490006e+01,2.762276298202301028e+00,3.686937196566930086e-01,1.649196146650029615e-01,-9.148029633669256810e-01,1.378973112587273818e+03
-3.194245434141051110e+00,-1.234491359191782678e+01,2.812280581304835714e+00,5.289872382878940682e-01,3.043528138078894218e-01,-7.921741389720808879e-01,1.387649776671058817e+03
-2.938958468947920011e+00,-1.237576593273237791e+01,2.872157917624653667e+00,6.574497185192412774e-01,4.254720315717533397e-01,-6.218773335388024792e-01,1.395205345963566742e+03
-2.633500080296797385e+00,-1.240992691537667092e+01,2.958338271130990904e+00,6.634464704436840998e-01,4.285509276235933696e-01,-6.133358649819088404e-01,1.403882010047351741e+03
-2.316891434735713684e+00,-1.244438486934555499e+01,3.059783616198064937e+00,6.693646709451208654e-01,4.315790837918916933e-01,-6.047217804150601950e-01,1.412558674131136740e+03
-1.990182433007320117e+00,-1.248024696630430341e+01,3.174018469380327723e+00,6.752036195885358083e-01,4.345561416901577156e-01,-5.960360994088281794e-01,1.421235338214921740e+03
-1.654569617555168737e+00,-1.251854241795702194e+01,3.298894237152767861e+00,6.809626253155796061e-01,4.374817489774864288e-01,-5.872798500030189661e-01,1.429912002298706739e+03
-1.311396851376019912e+00,-1.256020437606673390e+01,3.432697297432497407e+00,6.866410065207395608e-01,4.403555593966685944e-01,-5.784540685804852034e-01,1.438588666382491738e+03
-9.620761987185600939e-01,-1.260609039345571425e+01,3.573893749116765495e+00,6.922380911316691199e-01,4.431772328149949369e-01,-5.695597997449428629e-01,1.447265330466276737e+03
-6.080467485538728623e-01,-1.265699930795241812e+01,3.720948110300759115e+00,6.977532166884029552e-01,4.459464352643467411e-01,-5.605980961978282995e-01,1.455941994550061736e+03
-2.507737056195125103e-01,-1.271367045529904516e+01,3.872323637277215180e+00,7.031857304214503834e-01,4.486628389805648043e-01,-5.515700186142109551e-01,1.464618658633846735e+03
1.082525274587988612e-01,-1.277678290383676618e+01,4.026482643736729372e+00,7.085349893287560263e-01,4.513261224420946349e-01,-5.424766355177720323e-01,1.473295322717631734e+03
1.935415287609277835e-01,-1.279271560080849213e+01,4.063401058525068166e+00,7.138003602515210488e-01,4.539359704079024005e-01,-5.333190231548681215e-01,1.475350588592802978e+03
5.537013274425275355e-01,-1.286449870846360710e+01,4.220008147019616018e+00,7.721343881778454099e-01,4.235436990827055048e-01,-4.737269483155081007e-01,1.484027252676587977e+03
9.121971192501756587e-01,-1.294404191172829144e+01,4.375957191516205214e+00,8.243857032300181409e-01,3.898148493420516836e-01,-4.104029672678805030e-01,1.492703916760372977e+03
1.267463225420980555e+00,-1.303182428018576822e+01,4.529709526592838209e+00,8.701426863644912135e-01,3.530151291898283028e-01,-3.438459305117032572e-01,1.501380580844157976e+03
1.617912752828644107e+00,-1.312826161747150877e+01,4.679726897728356150e+00,9.090448784631773860e-01,3.134344373430961728e-01,-2.745801566524738724e-01,1.510057244927942975e+03
1.962033275441386948e+00,-1.323338301360485403e+01,4.824515371200643443e+00,9.407858195858671557e-01,2.713845796273580691e-01,-2.031513022518374456e-01,1.518733909011727974e+03
2.298500126912042418e+00,-1.334651273146218742e+01,4.962669234773392724e+00,9.651154629290921161e-01,2.271968128475803372e-01,-1.301220636439929246e-01,1.527410573095512973e+03
2.626108958904291857e+00,-1.346660101518887132e+01,5.092827699113591677e+00,9.818421444994083203e-01,1.812192354721284815e-01,-5.606774455488065106e-02,1.536087237179297972e+03
2.652050740649630978e+00,-1.347662898575955559e+01,5.102708608455484018e+00,9.908340929947102582e-01,1.338140456669759670e-01,1.842827558874976512e-02,1.536793681076719395e+03
2.961073382524972875e+00,-1.360221733806738875e+01,5.214536088119096746e+00,8.976828842952958576e-01,2.565046749121186465e-01,-3.582859067694508237e-01,1.545470345160504394e+03
3.258860033965976122e+00,-1.373227043264559732e+01,5.315542186382501200e+00,6.558353922650245194e-01,3.367069135054490681e-01,-6.756525680013758528e-01,1.554147009244289393e+03
3.544317765903743478e+00,-1.386559517893260107e+01,5.404372846566890765e+00,3.053519250132032958e-01,3.611354849623183427e-01,-8.811012219874561069e-01,1.562823673328074392e+03
3.816560672963320133e+00,-1.400092102388057569e+01,5.479950101493606951e+00,-9.571152720436791606e-02,3.257438068317163316e-01,-9.405999552772910111e-01,1.571500337411859391e+03
4.074930442650752660e+00,-1.413693496980352471e+01,5.541891252186416317e+00,-4.809204592638987585e-01,2.363944546806818481e-01,-8.442932983600808239e-01,1.580177001495644390e+03
4.256661042314395793e+00,-1.423738264500454243e+01,5.578046130376126399e+00,-7.864671743711023622e-01,1.078878669455785727e-01,-6.081345178512432836e-01,1.586639509500936583e+03
4.485532071045024161e+00,-1.437000050080423463e+01,5.613479476525585987e+00,-7.779179264413181860e-01,-1.879411741445369960e-02,-6.280831798951208578e-01,1.595316173584721582e+03
4.584400271587398379e+00,-1.442969350835943843e+01,5.623992782071459473e+00,-7.565179439485144597e-01,-1.451656321923329440e-01,-6.376562864968499111e-01,1.599338965808190324e+03
4.781277572662850694e+00,-1.455371040069805844e+01,5.634272103845312962e+00,-7.744009575250379029e-01,-8.421844464901849514e-02,-6.270633226101491875e-01,1.608015629891975323e+03
4.960265407748648769e+00,-1.467333696255139053e+01,5.632633117186898630e+00,-7.890728518004346270e-01,-2.292205255706567316e-02,-6.138701931646076693e-01,1.616692293975760322e+03
5.119871521324688146e+00,-1.478770121141343807e+01,5.619873019597733332e+00,-8.004727918593327329e-01,3.846938006848839992e-02,-5.981316044885052197e-01,1.625368958059545321e+03
5.258620633863348104e+00,-1.489586724267758377e+01,5.596791268803935182e+00,-8.085535088688126093e-01,9.970129544150027612e-02,-5.799128167070470852e-01,1.634045622143330320e+03
5.375055452851665194e+00,-1.499683568204891060e+01,5.564189416004286848e+00,-8.132814959919407727e-01,1.605197971939334445e-01,-5.592893732082411251e-01,1.642722286227115319e+03
5.460046688546844607e+00,-1.508174772357163107e+01,5.526324251511215202e+00,-8.146371472939631930e-01,2.206727028241332877e-01,-5.363467875120840889e-01,1.650675198696688540e+03
5.527709970979110210e+00,-1.516496920957551175e+01,5.477075472967042558e+00,-6.823584305425606233e-01,3.516525377546776410e-01,-6.408786663315456655e-01,1.659351862780473539e+03
5.568939276483853007e+00,-1.523767969576835135e+01,5.420654877128943561e+00,-5.189775453517218029e-01,4.666039227650747301e-01,-7.161990552085322204e-01,1.668028526864258538e+03
5.582357616095405817e+00,-1.529863641577635214e+01,5.357870670781101019e+00,-3.319414512994648958e-01,5.602873253845235268e-01,-7.588748157128796246e-01,1.676705190948043537e+03
5.566610889686082864e+00,-1.534653571078493783e+01,5.289532330088601242e+00,-1.297753265636797659e-01,6.284326144327766483e-01,-7.669607641418408894e-01,1.685381855031828536e+03
5.520343615507361079e+00,-1.538004314408812512e+01,5.216276182606830680e+00,7.830601340968018631e-02,6.679336964954157851e-01,-7.400883361804898586e-01,1.694058519115613535e+03
5.442566372062215052e+00,-1.539768955511626558e+01,5.138392269653912159e+00,2.828181330222437895e-01,6.769900948197299373e-01,-6.794823876675225582e-01,1.702735183199398534e+03
5.333080254600805148e+00,-1.539772883553220595e+01,5.055999780410274980e+00,4.744392839709326570e-01,6.551890166297942297e-01,-5.879053651000699654e-01,1.711411847283183533e+03
5.209378110304898613e+00,-1.538085273532172792e+01,4.979934744169392857e+00,6.444352970045281737e-01,6.035241678459449810e-01,-4.695313906452036057e-01,1.719019715874761914e+03
5.036975792155714338e+00,-1.534052177573597575e+01,4.888939366084220417e+00,7.266683775323652394e-01,5.864292359288751921e-01,-3.578432902006309368e-01,1.727696379958546913e+03
4.833701014746050184e+00,-1.527708023699330830e+01,4.793786798346167721e+00,7.947104926707575512e-01,5.578820598755944715e-01,-2.391669711881844462e-01,1.736373044042331912e+03
4.599914074191265634e+00,-1.518865372956126691e+01,4.694600818381259089e+00,8.472328831187657672e-01,5.184401282248726206e-01,-1.158200121208709799e-01,1.745049708126116911e+03
4.402194347591295909e+00,-1.510293077956778340e+01,4.617532119559522030e+00,8.832098565693826675e-01,4.688736808987031823e-01,9.788800645524925459e-03,1.751545912523394691e+03
4.109137176685980997e+00,-1.496083329267720430e+01,4.511301002982591513e+00,9.076191266158932791e-01,4.157777590992228212e-01,-5.791697539495596625e-02,1.760222576607179690e+03
3.789419828723508132e+00,-1.478893985962981716e+01,4.402355347278390951e+00,9.247682783484174607e-01,3.593560099498941951e-01,-1.251594561869860955e-01,1.768899240690964689e+03
3.444996185085480889e+00,-1.458575356220918451e+01,4.291378897413079763e+00,9.345201390761118665e-01,3.000597527867810421e-01,-1.914007691165682534e-01,1.777575904774749688e+03
3.077852525668128614e+00,-1.434984705730790644e+01,4.179055774329960116e+00,9.367967055891227579e-01,2.383632990182887323e-01,-2.561110502852416149e-01,1.786252568858534687e+03
2.690207354909980531e+00,-1.408011072176424072e+01,4.065946841858245620e+00,9.315797679008370746e-01,1.747601584742082825e-01,-3.187726824048036645e-01,1.794929232942319686e+03
2.284697778396394430e+00,-1.377601160076469711e+01,3.952366099367058627e+00,9.189110548744795492e-01,1.097590922569873090e-01,-3.788844347501207355e-01,1.803605897026104685e+03
2.128464827532225989e+00,-1.365198968338357055e+01,3.910373953223865495e+00,8.988919005719866462e-01,4.388004363387531387e-02,-4.359654720916446013e-01,1.806808658367369162e+03
1.689507160180949263e+00,-1.328391506144864564e+01,3.796559939893475732e+00,8.798944583761332261e-01,-3.049327020149773804e-02,-4.741876238270921196e-01,1.815485322451154161e+03
1.239715579053922934e+00,-1.288092871694239250e+01,3.682725587036344450e+00,8.544269456578139632e-01,-1.046423473460523501e-01,-5.089229545572621083e-01,1.824161986534939160e+03
7.818931710432708293e-01,-1.244309560540963666e+01,3.569061420490758252e+00,8.226766317660589856e-01,-1.780219575292657508e-01,-5.399160510515350619e-01,1.832838650618724159e+03
3.188270752498399974e-01,-1.197058327149506596e+01,3.455757890446824021e+00,7.848769829509412155e-01,-2.500925287866991864e-01,-5.669390167191414864e-01,1.841515314702509158e+03
-1.467263398607323854e-01,-1.146385897060795500e+01,3.342672681347532482e+00,7.413059457873700797e-01,-3.203241145262598066e-01,-5.897931471225580369e-01,1.850191978786294158e+03
-6.120670650709443272e-01,-1.092388593588781198e+01,3.228998091252667013e+00,6.922839036607250085e-01,-3.882002898394806834e-01,-6.083103909190734626e-01,1.858868642870079157e+03
-9.630158087643664322e-01,-1.049208509835152370e+01,3.141794678856717482e+00,6.381713213208372037e-01,-4.532219484421587397e-01,-6.223545855000836013e-01,1.865431305243040697e+03
-1.423362142084819482e+00,-9.891420416623919465e+00,3.023879571201162353e+00,5.873534893067015039e-01,-5.399304714451441667e-01,-6.029004599473801740e-01,1.874107969326825696e+03
-1.876242014289584370e+00,-9.261175900441653397e+00,2.902233094709511185e+00,5.303806072320204068e-01,-6.209808915016180597e-01,-5.771283599535148578e-01,1.882784633410610695e+03
-2.319167827725600262e+00,-8.602874600752949519e+00,2.775716506291157515e+00,4.678497119747248578e-01,-6.955238594189665502e-01,-5.453083604574322507e-01,1.891461297494395694e+03
-2.749871987523961891e+00,-7.918132230394361315e+00,2.643704572337794989e+00,4.004160837278415985e-01,-7.627782197800512254e-01,-5.077739135894550060e-01,1.900137961578180693e+03
-3.166470616291000795e+00,-7.208647559079366829e+00,2.506598225037202088e+00,3.287863791484891829e-01,-8.220391966002784656e-01,-4.649183542730369045e-01,1.908814625661965692e+03
-3.567302458814563426e+00,-6.476186308678099302e+00,2.365311955690092116e+00,2.537112261903124444e-01,-8.726857785932354838e-01,-4.171907783579313356e-01,1.917491289745750692e+03
-3.950767494899230403e+00,-5.722573866226678518e+00,2.220761100875234373e+00,1.759773582109377121e-01,-9.141872266807465897e-01,-3.650913364784596493e-01,1.926167953829535691e+03
-4.315327771541803692e+00,-4.949693420458963544e+00,2.073861652904001485e+00,9.639936976771694421e-02,-9.461086355773691281e-01,-3.091659929472363455e-01,1.934844617913320690e+03
-4.659508213175678648e+00,-4.159484078871392931e+00,1.925530070176125097e+00,1.581118047497305501e-02,-9.681154911859378709e-01,-2.500008045956719216e-01,1.943521281997105689e+03
-4.981897409830923884e+00,-3.353938965833660024e+00,1.776683087464440813e+00,-6.494270364730167500e-02,-9.799771760562030476e-01,-1.882157794992366795e-01,1.952197946080890688e+03
-5.161161325821990609e+00,-2.869571574957787696e+00,1.688701764074862943e+00,-1.450160397816403768e-01,-9.815693861734414716e-01,-1.244583799254841833e-01,1.957337763481349839e+03
-5.443624455300224874e+00,-2.041690090031500926e+00,1.541147254541675782e+00,-1.051050981117072035e-02,-9.522171928241024430e-01,-3.052375253361858665e-01,1.966014427565134838e+03
-5.702813058805011437e+00,-1.204710928434012729e+00,1.395213425208482239e+00,1.245377901024613959e-01,-8.736976989737470500e-01,-4.702559618373078343e-01,1.974691091648919837e+03
-5.938784574826855511e+00,-3.612274058483793127e-01,1.251665535204401714e+00,2.531556985060489651e-01,-7.500651541498369879e-01,-6.109930088329961206e-01,1.983367755732704836e+03
-6.151682913944276798e+00,4.861724082945581005e-01,1.111268330382662484e+00,3.687020572463404755e-01,-5.877032313626400217e-01,-7.201817165317514480e-01,1.992044419816489835e+03
-6.341738351707286725e+00,1.334908290152352572e+00,9.747858852396115159e-01,4.652106387261739084e-01,-3.949954255789769331e-01,-7.921841171002856896e-01,2.000721083900274834e+03
-6.509267391223310995e+00,2.182410457889085720e+00,8.429814449392434295e-01,5.376982292293673860e-01,-1.818921706359574175e-01,-8.232823650141913863e-01,2.009397747984059833e+03
-6.654672595471185836e+00,3.026122164469644993e+00,7.166172674684809785e-01,5.824219516419033571e-01,4.060297136675394825e-02,-8.118707218274191506e-01,2.018074412067844833e+03
-6.778442389375403110e+00,3.863502286124838037e+00,5.964544659477533095e-01,5.970725333034700988e-01,2.610015068159907692e-01,-7.585384653487072804e-01,2.026751076151629832e+03
-6.881150831677806501e+00,4.692027905783045405e+00,4.832528511211903188e-01,5.808935369510708213e-01,4.679232401455553636e-01,-6.660394433213988608e-01,2.035427740235414831e+03
-6.891410733992453075e+00,4.786566712069100227e+00,4.710282006735406757e-01,5.347204015925045573e-01,6.506838931954386229e-01,-5.391498523202437054e-01,2.036431931246835802e+03
-6.966479245931494368e+00,5.590383940692245979e+00,3.733973716015189792e-01,5.677278319617671265e-01,6.127597388888073038e-01,-5.497350372778708749e-01,2.045108595330620801e+03
-7.022224073449386594e+00,6.379982376427401292e+00,2.843295213416514033e-01,5.992365785041700033e-01,5.732180386313331377e-01,-5.588690393718349636e-01,2.053785259414406028e+03
-7.059484783967554300e+00,7.152917278212355789e+00,2.045786741804270226e-01,6.291634674951043227e-01,5.321631722722575120e-01,-5.665277479919975656e-01,2.062461923498191027e+03
-7.079238905007515292e+00,7.906764365955950780e+00,1.347200256062650314e-01,6.574295006790512597e-01,4.897035136220240226e-01,-5.726909466556830974e-01,2.071138587581976026e+03
-7.082655611788797323e+00,8.639116971622636143e+00,7.497294237551629936e-02,6.839600637359707358e-01,4.459511444435522165e-01,-5.773423663494496871e-01,2.079815251665761025e+03
-7.071042344340001229e+00,9.347601300306491723e+00,2.537779820735671515e-02,7.086851231853141808e-01,4.010215586662990161e-01,-5.804697284603065333e-01,2.088491915749546024e+03
-7.045790870252635507e+00,1.002988877491139164e+01,-1.402715326574057245e-02,7.315394112087492129e-01,3.550333576010473724e-01,-5.820647771827824890e-01,2.097168579833331023e+03
-7.023742697957634284e+00,1.043748401439392914e+01,-3.221048858560890404e-02,7.524625979049436308e-01,3.081079369576980032e-01,-5.821233013164482939e-01,2.102574989166561409e+03
-6.979549533065674716e+00,1.106168919161898323e+01,-5.114241447877748703e-02,7.532906813973062610e-01,2.410000862107058439e-01,-6.119396275454465073e-01,2.111251653250346408e+03
-6.925918656772517501e+00,1.165412716725842479e+01,-5.996249022251651239e-02,7.500561387703298388e-01,1.725924956902059049e-01,-6.384556516457666753e-01,2.119928317334131407e+03
-6.870988215474555183e+00,1.215686592660294352e+01,-5.921326026370510309e-02,7.427764131104755974e-01,1.032540693511683344e-01,-6.615283798014843786e-01,2.127724495732276409e+03
-6.803750703078790707e+00,1.268262402936142763e+01,-4.933675446930341907e-02,7.566160592647823702e-01,4.572442981555878416e-02,-6.522571696619118287e-01,2.136401159816061408e+03
-6.731406527812123564e+00,1.317373455951551442e+01,-3.104671206345004097e-02,7.677416019884015785e-01,-1.196921700255426831e-02,-6.406462131437546947e-01,2.145077823899846408e+03
-6.655246404471594879e+00,1.362967104460106071e+01,-5.199849528251200038e-03,7.761131358588430063e-01,-6.961992914950090872e-02,-6.267371584701512122e-01,2.153754487983631407e+03
-6.649701204809921329e+00,1.366041405088264504e+01,-2.831332694464065020e-03,7.817006317971529894e-01,-1.270209186176582128e-01,-6.105798952436473082e-01,2.154387382205320137e+03
-6.574371530248487971e+00,1.404765277530947465e+01,3.546704234824873958e-02,8.045719007337688300e-01,-1.766075456660965437e-01,-5.669848599010232082e-01,2.163064046289105136e+03
-6.497359290468536663e+00,1.440042446031399592e+01,7.829299286907254185e-02,8.235148716137575819e-01,-2.253318822625391682e-01,-5.206215507069644755e-01,2.171740710372890135e+03
-6.487771830603357159e+00,1.444067577346681652e+01,8.406712989863140972e-02,8.384370642724200406e-01,-2.729560549250399371e-01,-4.717163144593198298e-01,2.172833140906843255e+03
-6.412906426873177246e+00,1.472798393253270710e+01,1.317741705497627591e-01,8.991848930851380484e-01,-3.441609841282028404e-01,-2.702179584188150185e-01,2.181509804990628254e+03
-6.337839761968705687e+00,1.498314334833357009e+01,1.796702268277682313e-01,9.155470441402127069e-01,-3.983773879935405549e-01,-5.538110419933917061e-02,2.190186469074413253e+03
-6.262910410614725087e+00,1.520743473081991581e+01,2.255964507293591326e-01,8.867158637383758535e-01,-4.329290413559357398e-01,1.621894637333938238e-01,2.198863133158198252e+03
-6.188404892196290419e+00,1.540237800108907962e+01,2.673062129108957352e-01,8.141145186089261410e-01,-4.461104062365566225e-01,3.717540262570251386e-01,2.207539797241983251e+03
-6.136559513353323503e+00,1.552026031726141575e+01,2.922275378665183942e-01,7.013267464290162678e-01,-4.372708182173408731e-01,5.629680508513308368e-01,2.213652121309497488e+03
-6.064066703647259970e+00,1.566139572080876441e+01,3.193210830772109654e-01,6.631515787536287343e-01,-4.220170122617376007e-01,6.181663408433825113e-01,2.222328785393282487e+03
-5.992412920663368503e+00,1.577777312007217780e+01,3.361516864210513100e-01,6.218351499608593125e-01,-4.047641655286990381e-01,6.704364373827536028e-01,2.231005449477067486e+03
-5.987033935422386932e+00,1.578488174708114222e+01,3.365396624700472406e-01,5.775731530893684074e-01,-3.855939952305271201e-01,7.195307663092729289e-01,2.231662615805189489e+03
-5.916357949041584519e+00,1.585740769050198828e+01,3.290330510489450355e-01,6.468182007127231126e-01,-4.802208470081903990e-01,5.924627864484507400e-01,2.240339279888974488e+03
-5.845480754837998560e+00,1.590961059112360410e+01,3.075663361839829357e-01,6.967263241467949175e-01,-5.604912742860466146e-01,4.476828796044617920e-01,2.249015943972759487e+03
-5.773479666225146190e+00,1.594363544159989665e+01,2.704319668081243133e-01,7.258055041804098995e-01,-6.240055635363979114e-01,2.895193029452720612e-01,2.257692608056544486e+03
-5.699149117956975097e+00,1.596171856335632633e+01,2.161958690210370460e-01,7.331864090223575436e-01,-6.688649314711307969e-01,1.227004200232143655e-01,2.266369272140329485e+03
-5.620813326549023436e+00,1.596615685639184612e+01,1.441036636491615230e-01,7.186483823822470418e-01,-6.937282885064665061e-01,-4.778665322092650464e-02,2.275045936224114485e+03
-5.536533255281336885e+00,1.595899634826400160e+01,5.394632247569956796e-02,6.826260402814970929e-01,-6.978523307223868377e-01,-2.168451374497986084e-01,2.283722600307899484e+03
-5.509017143973314212e+00,1.595405022245558868e+01,2.175695951290589417e-02,6.261962793321375065e-01,-6.811137618917925129e-01,-3.794209576614804846e-01,2.286302034248829841e+03
-5.406877256858754421e+00,1.592901519924435583e+01,-1.046867726134033949e-01,6.861694618098704845e-01,-7.261501525161788706e-01,-4.330618525193520585e-02,2.294978698332614840e+03
-5.294163164837557112e+00,1.589625379799430682e+01,-2.493482474223795431e-01,6.647640260202546392e-01,-6.850662799000606373e-01,2.979445952758854044e-01,2.303655362416399839e+03
-5.168680260133211135e+00,1.585736932266820531e+01,-4.122869674951664676e-01,5.645186397618595642e-01,-5.627346427501888071e-01,6.038596088588069621e-01,2.312332026500184838e+03
-5.114593591925470584e+00,1.584087692497501898e+01,-4.818358876825655779e-01,3.973222368078627720e-01,-3.736635670811708776e-01,8.381578483644688271e-01,2.315663338849083175e+03
-4.956950788049568679e+00,1.579451461797094147e+01,-6.806241902026477497e-01,4.103140840428059488e-01,-4.092540798347681363e-01,8.149548763922350725e-01,2.324340002932868174e+03
-4.949520071302818458e+00,1.579246104107097892e+01,-6.897299889127688211e-01,4.224960311056023543e-01,-4.440367849887243978e-01,7.901433017226384692e-01,2.324706374150830470e+03
-4.762313158485363296e+00,1.574382024262541613e+01,-9.118138320468025526e-01,4.422214823205338208e-01,-4.913284394019333812e-01,7.503562655039432983e-01,2.333027701794162112e+03
-4.579555669324870237e+00,1.569742202136330178e+01,-1.121270507952677686e+00,4.541573671156151071e-01,-5.212245525882388542e-01,7.225400000204573736e-01,2.340429736949079143e+03
-4.345643243367057984e+00,1.563878879516511944e+01,-1.377647365049701200e+00,5.735730713178677220e-01,-6.771514932465799719e-01,4.609531289109273233e-01,2.349106401032864142e+03
-4.194112434833873415e+00,1.560119653320207611e+01,-1.534886708728232296e+00,6.316157550943192200e-01,-7.606223965512500795e-01,1.500436862404385951e-01,2.354278342309909476e+03
-4.001403157401244748e+00,1.555375337967518057e+01,-1.722824876044761755e+00,5.788678557171038630e-01,-8.134777407164471841e-01,5.624918632523455420e-02,2.360360353966545063e+03
-3.706742776282878626e+00,1.547896841144680380e+01,-1.991736216468775744e+00,5.213749560959386464e-01,-8.480334042206655321e-01,-9.489731546253989125e-02,2.369037018050330062e+03
-3.393731923770616277e+00,1.539421958558768821e+01,-2.256881439518181764e+00,4.496251513502543262e-01,-8.593997240279545036e-01,-2.434488398291785038e-01,2.377713682134115061e+03
-3.063859606989599360e+00,1.529724370515530651e+01,-2.513535794840739523e+00,3.655804233259335456e-01,-8.472658987320705881e-01,-3.853432897129205892e-01,2.386390346217900060e+03
-2.719399090740608482e+00,1.518575727152555643e+01,-2.757657839515939902e+00,2.715389493695786194e-01,-8.119637222686489908e-01,-5.167006025687927995e-01,2.395067010301685059e+03
-2.388428404440837038e+00,1.506690359368078447e+01,-2.969789294544014080e+00,1.700722631529320017e-01,-7.544585120976278203e-01,-6.339288436640552193e-01,2.403130164613318811e+03
-2.023851859307170820e+00,1.492062101427728926e+01,-3.179152814374490266e+00,1.102354924996774288e-01,-7.478364619513306888e-01,-6.546653819790959616e-01,2.411806828697103811e+03
-1.654373063711430447e+00,1.475381725983843850e+01,-3.366485447803562625e+00,4.995180524157501883e-02,-7.381824584622234120e-01,-6.727477054320666339e-01,2.420483492780888810e+03
-1.425924883920177910e+00,1.463869962558681159e+01,-3.466389178396510395e+00,-1.053441687957321071e-02,-7.255356373513488499e-01,-6.881025105215384796e-01,2.425813156632938899e+03
-1.054796075702203018e+00,1.442958568505568451e+01,-3.602271458094782997e+00,-8.082221221382333842e-02,-6.540843026936506988e-01,-7.520900843527312807e-01,2.434489820716723898e+03
-6.890771472636868511e-01,1.419635535768170698e+01,-3.709248264874795087e+00,-1.499671609839310082e-01,-5.733841620356540103e-01,-8.054430168250684696e-01,2.443166484800508897e+03
-3.329603518638159509e-01,1.393811170070409489e+01,-3.785028206149188446e+00,-2.169915571601969961e-01,-4.845763144653869592e-01,-8.474069031931866780e-01,2.451843148884293896e+03
9.320364038160592127e-03,1.365412182509916583e+01,-3.827326361427791035e+00,-2.809476785442410196e-01,-3.889164978052084831e-01,-8.773883744696372444e-01,2.460519812968078895e+03
1.914929630530889104e-01,1.348156996025946874e+01,-3.831280794178046456e+00,-3.409311859086173735e-01,-2.877573348574888334e-01,-8.949634868022665612e-01,2.465369066212374946e+03
4.986879900660463605e-01,1.314886334004128976e+01,-3.802136573644709028e+00,-3.062892407477914580e-01,-3.830149258131196888e-01,-8.714840604391755896e-01,2.474045730296159945e+03
5.352377566355314142e-01,1.310421041769024697e+01,-3.793820121117164046e+00,-2.683316004123314502e-01,-4.741262316287933043e-01,-8.385704911897539082e-01,2.475142349573290630e+03
7.952990600559864953e-01,1.274780706359943139e+01,-3.695464376810095875e+00,-1.072558086130849936e-01,-4.625130262723233798e-01,-8.800999329834002793e-01,2.483466312374177505e+03
1.044938994528284537e+00,1.235855506832431239e+01,-3.556890939053708234e+00,-1.652839881295245228e-01,-3.655680179495196525e-01,-9.159908446701006124e-01,2.492142976457962504e+03
1.272925265339059475e+00,1.195518619077849287e+01,-3.384035800195801968e+00,-2.209892878781544723e-01,-2.634854190754142844e-01,-9.390086094264101790e-01,2.500819640541747503e+03
1.479351477789602853e+00,1.154142929654605254e+01,-3.179050455691253774e+00,-2.735888469004757462e-01,-1.576998643169012781e-01,-9.488297506113987367e-01,2.509496304625532503e+03
1.664443439262685454e+00,1.112100377629368708e+01,-2.944093071474875867e+00,-3.223434505418665275e-01,-4.969802540168976462e-02,-9.453162466407772913e-01,2.518172968709317502e+03
1.808759634190469034e+00,1.074988527354794776e+01,-2.713667185420331140e+00,-3.665679177769866626e-01,5.900227945788665690e-02,-9.285174703118015405e-01,2.525780380867860003e+03
1.953322735983840985e+00,1.032721607061241365e+01,-2.425033489556978061e+00,-4.380565400522579700e-01,1.048594137790691133e-01,-8.928095939531958125e-01,2.534457044951645003e+03
2.078033112937872851e+00,9.908336659125966506e+00,-2.112916578081448282e+00,-5.058266734207844673e-01,1.498264311535764393e-01,-8.495230526474140120e-01,2.543133709035430002e+03
2.166640620375207327e+00,9.565517208361693946e+00,-1.835951218315008626e+00,-5.693030762398879618e-01,1.935216456413668407e-01,-7.990252687163130751e-01,2.550354779863506792e+03
2.255969049940997007e+00,9.163178782698865987e+00,-1.485381458103861574e+00,-4.508866931797908539e-01,6.762601759230525422e-01,-5.825558894855153991e-01,2.559031443947291791e+03
2.328820522118388414e+00,8.772761007000120514e+00,-1.120179292975753249e+00,-1.999463419849414891e-01,9.602333361639505682e-01,-1.948625167819206805e-01,2.567708108031076790e+03
2.368878707309323151e+00,8.517141784071801780e+00,-8.643472471554771719e-01,1.097619495118615507e-01,9.619761018773483885e-01,2.501045658450867792e-01,2.573602673824100748e+03
2.415428464281855980e+00,8.156640735125954222e+00,-4.794527230558190412e-01,-3.830953574976436043e-02,9.248027288649707245e-01,3.785106235688463494e-01,2.582279337907885747e+03
2.450112954525990983e+00,7.813439832440380428e+00,-8.958629791143454812e-02,-1.848564429039686874e-01,8.508266546602907265e-01,4.918537376462648325e-01,2.590956001991670746e+03
2.474768834497981906e+00,7.489182183869877107e+00,3.015860706454747686e-01,-3.240469396834063098e-01,7.429917773893849331e-01,5.856234281632631822e-01,2.599632666075455745e+03
2.476139618129917785e+00,7.466929098465317161e+00,3.301010497984965819e-01,-4.503419419774111199e-01,6.055893824639482226e-01,6.560881306218160347e-01,2.600267624125338443e+03
2.490117318495403076e+00,7.183587459151125287e+00,7.162571563554199772e-01,-4.296129537801296472e-01,5.854742408208811755e-01,6.874959078183662253e-01,2.608944288209123442e+03
2.498363773598103244e+00,6.921479771296882966e+00,1.096160519958415014e+00,-4.081017480443148715e-01,5.642930952875732098e-01,7.176519113340698031e-01,2.617620952292908441e+03
2.498826683996284714e+00,6.902541478303438893e+00,1.125400286175645803e+00,-3.858474820837551889e-01,5.420845023831849518e-01,7.465012477100643196e-01,2.618304636174612369e+03
2.503332105041542022e+00,6.684140462888627177e+00,1.485915569049698792e+00,-3.455070219465542491e-01,5.172828959107881319e-01,7.829695417931471502e-01,2.626981300258397368e+03
2.505836825029981174e+00,6.487762540215282314e+00,1.833516860573481511e+00,-3.039322772958255592e-01,4.906333464676691514e-01,8.166407350504458762e-01,2.635657964342182368e+03
2.507146424312055366e+00,6.390256503786025277e+00,2.019351833780024030e+00,-2.612717521536918053e-01,4.622310457021197583e-01,8.473945550375402425e-01,2.640509090032692711e+03
2.510310236063117539e+00,6.237643021764966988e+00,2.334650388278197042e+00,-2.658894490935503341e-01,4.770176408094611853e-01,8.377081658935193742e-01,2.649185754116477710e+03
2.514789112216151423e+00,6.106559478579496769e+00,2.630689556496821790e+00,-2.704183930068850272e-01,4.916450076804056990e-01,8.277421573980927594e-01,2.657862418200262709e+03
2.521743871950462346e+00,5.996702517338309057e+00,2.905079678770128737e+00,-2.748570725732893960e-01,5.061082650637029889e-01,8.174998554607035839e-01,2.666539082284047709e+03
2.532222922051273528e+00,5.907644061433394711e+00,3.155753088840218101e+00,-2.792040065748497280e-01,5.204025864396901735e-01,8.069846781240966882e-01,2.675215746367832708e+03
2.547054700128396298e+00,5.838750846755701218e+00,3.381282045221085664e+00,-2.834577443883503078e-01,5.345232016250958118e-01,7.962001344249212131e-01,2.683892410451617707e+03
2.566942545837560985e+00,5.789279712347523699e+00,3.580561523798773571e+00,-2.876168664679478737e-01,5.484653983602507665e-01,7.851498232261552301e-01,2.692569074535402706e+03
2.578861042077524424e+00,5.775013254706574450e+00,3.660860392845125766e+00,-2.916799848175765097e-01,5.622245238771577114e-01,7.738374320198326828e-01,2.696615665404746323e+03
2.610636780096857734e+00,5.762712172672566524e+00,3.805132870311739524e+00,-3.015101705804427712e-01,5.646933936883260507e-01,7.682519040911325314e-01,2.705292329488531323e+03
2.649300781568717955e+00,5.767847702015741262e+00,3.920456072814507920e+00,-3.112999742527673974e-01,5.670866357544462888e-01,7.625634882142126036e-01,2.713968993572316322e+03
2.695467142030910424e+00,5.789606368297550709e+00,4.005746329651288740e+00,-3.210480855389735155e-01,5.694039297864648130e-01,7.567729457995090447e-01,2.722645657656101321e+03
2.749616278596614727e+00,5.827363137355984435e+00,4.060476502333382420e+00,-3.307531997163214998e-01,5.716449656448839844e-01,7.508810519042597997e-01,2.731322321739886320e+03
2.811885006021583422e+00,5.880812416214703298e+00,4.085490325450904514e+00,-3.404140178069333111e-01,5.738094433784088899e-01,7.448885951260028060e-01,2.739998985823671319e+03
2.882073000763311299e+00,5.949696162284147327e+00,4.082715850910611621e+00,-3.500292467503829941e-01,5.758970732638014622e-01,7.387963774977988063e-01,2.748675649907456318e+03
2.930679476978448328e+00,6.002656119790994005e+00,4.064817594539329448e+00,-3.595975995755139043e-01,5.779075758443980027e-01,7.326052143816991213e-01,2.754126479035926423e+03
3.015016187251889690e+00,6.102118683381786646e+00,4.012403800336501014e+00,-4.316412283487072732e-01,6.366690005385307050e-01,6.390120763668482029e-01,2.762803143119711422e+03
3.106551667935923078e+00,6.216169294609025009e+00,3.937990217136510651e+00,-4.961730365934853282e-01,6.843505304610525419e-01,5.342982960998283737e-01,2.771479807203496421e+03
3.204954304621357331e+00,6.344535206208058220e+00,3.843788468986760964e+00,-5.520699960130784900e-01,7.201223797876068478e-01,4.202861853916122770e-01,2.780156471287281420e+03
3.309754317940282409e+00,6.486853320595747263e+00,3.732033227275245668e+00,-5.983593451935939056e-01,7.433620191202656713e-01,2.989598677893858802e-01,2.788833135371066419e+03
3.326730991115970593e+00,6.511284327224252877e+00,3.712186797056315601e+00,-6.342355167791320358e-01,7.536650082950689944e-01,1.724307528456361371e-01,2.790185295074792521e+03
3.439382597879894643e+00,6.682139038995276614e+00,3.570562956649400821e+00,-7.472277273967081745e-01,6.551545205808207983e-01,1.114507854267228065e-01,2.798861959158577520e+03
3.556910897665811699e+00,6.865635815516956342e+00,3.416319975747994064e+00,-8.406499045148471128e-01,5.394854523455165918e-01,4.755191633398140466e-02,2.807538623242362519e+03
3.678391756973968363e+00,7.061191060831932376e+00,3.251760513989231605e+00,-9.120553268224083077e-01,4.096871860029594470e-01,-1.759234038291344546e-02,2.816215287326147518e+03
3.802880651892654118e+00,7.268265164797370836e+00,3.079189347409823085e+00,-9.595738849507258195e-01,2.691591405346101529e-01,-8.227585543406658319e-02,2.824891951409932517e+03
3.827293790072513691e+00,7.311244644507793211e+00,3.044172034693613860e+00,-9.819610567370462562e-01,1.215817459994521788e-01,-1.448045651611104823e-01,2.826593048671430552e+03
3.951333781253744792e+00,7.542253383317016890e+00,2.860739467058483143e+00,-9.351868117035607719e-01,1.524763456678481788e-01,-3.196476047586120361e-01,2.835269712755215551e+03
4.076421372419708256e+00,7.783332682656952883e+00,2.673721822537109993e+00,-8.568851356671296493e-01,1.782305876239506925e-01,-4.837145045463343007e-01,2.843946376839000550e+03
4.201494847248876674e+00,8.033609582215788691e+00,2.484787654036076709e+00,-7.496957743089931459e-01,1.979762386165007382e-01,-6.314741918139544774e-01,2.852623040922785549e+03
4.325455818065051083e+00,8.292259904271876536e+00,2.295605885417249414e+00,-6.172323316471848287e-01,2.110476274156602716e-01,-7.579453461378883317e-01,2.861299705006570548e+03
4.442807445805806665e+00,8.549240862648384010e+00,2.114406411472049996e+00,-4.639604517378351778e-01,2.170040850247184905e-01,-8.588643235727485559e-01,2.869672712387742195e+03
4.560915735548186412e+00,8.822484226400476359e+00,1.929685629480246689e+00,-4.971206635556595921e-01,2.234633136884848770e-01,-8.384111123394223375e-01,2.878349376471527194e+03
4.674454113191745641e+00,9.101961680053319625e+00,1.749664410651925905e+00,-5.295055300529248887e-01,2.295740146574259954e-01,-8.166502711874078502e-01,2.887026040555312193e+03
4.782230971085587257e+00,9.386958041569799960e+00,1.575617687476690287e+00,-5.610645473819426687e-01,2.353266584435057540e-01,-7.936157366697774718e-01,2.895702704639097192e+03
4.883105205098860147e+00,9.676619466013834270e+00,1.408035037328546624e+00,-5.917484992418395873e-01,2.407122737840537152e-01,-7.693434310420587119e-01,2.904379368722882191e+03
4.970173776805429711e+00,9.952517549776231931e+00,1.256672962742972910e+00,-6.215095335366447316e-01,2.457224616148439844e-01,-7.438712063075795244e-01,2.912535634723868952e+03
5.053398421991203371e+00,1.024904255624598015e+01,1.102308245739356707e+00,-7.621254015298223328e-01,2.130161449382843297e-01,-6.113812185029141588e-01,2.921212298807653951e+03
5.126378961756699937e+00,1.054779295978610776e+01,9.545331414555083827e-01,-8.734785329857931435e-01,1.721308262767869135e-01,-4.554165467544076806e-01,2.929888962891438950e+03
5.185229236495254135e+00,1.083424198036426844e+01,8.195557102885470124e-01,-9.512934344648272811e-01,1.246363295527166126e-01,-2.819655775068559134e-01,2.938163058196540987e+03
5.234944395179177867e+00,1.113573067299220298e+01,6.837315025050325623e-01,-9.779080233110101217e-01,8.151300046011984712e-02,1.924825412876125796e-01,2.946839722280325987e+03
5.256213330809760720e+00,1.131594845165694352e+01,6.059128515452806285e-01,-7.818828596909979112e-01,1.983165529736045582e-02,6.231082563807505137e-01,2.952012313799725689e+03
5.277485724655536892e+00,1.161877144588711452e+01,4.804535035449266633e-01,-7.333642920364396023e-01,1.576742157152019250e-02,6.796515309867605659e-01,2.960688977883510688e+03
5.278089421576600770e+00,1.165629178066695992e+01,4.655552105014421072e-01,-6.807625566487395252e-01,1.161539930251212493e-02,7.324106935001751806e-01,2.961763015716904647e+03
5.266591640092153526e+00,1.195960666506918813e+01,3.505832479538111834e-01,-9.359157953396990415e-01,-2.709455227861201285e-02,3.511773188451766115e-01,2.970439679800689646e+03
5.242319706695949044e+00,1.226287294088440305e+01,2.416990700717048524e-01,-9.927101567417387917e-01,-6.006205817856983403e-02,-1.044848978077656115e-01,2.979116343884474645e+03
5.240721367106758954e+00,1.227477054022555869e+01,2.376869811231193952e-01,-8.391085694058126876e-01,-8.029995670381660788e-02,-5.380025331759000773e-01,2.979457466509550159e+03
5.183776316576710563e+00,1.257667518518972294e+01,1.431065299746808184e-01,-9.587877871157750587e-01,-1.452606224781170241e-01,-2.441788910521132949e-01,2.988134130593335158e+03
5.114428329029645504e+00,1.287801189553599990e+01,5.710394640704645475e-02,-9.779136182818317646e-01,-1.949869940641286714e-01,7.525308847695519332e-02,2.996810794677120157e+03
5.091251429640443860e+00,1.296033438772816559e+01,3.617829474657423966e-02,-8.944802412742330899e-01,-2.242640081296383425e-01,3.867929066410911720e-01,2.999193198802010102e+03
4.991986174111111119e+00,1.325836886580050589e+01,-2.926972834344249499e-02,-9.486908527517808887e-01,-3.104869499955633660e-01,5.984580008794917333e-02,3.007869862885795101e+03
