-9.066873854325843141e+00,1.676070830282392343e+00,1.633048562523659264e+00,9.114910601454901951e-01,3.900261521672518938e-01,1.306202430685010074e-01,5.949680667067356126e+02
-8.900094146111689142e+00,2.283617859083121537e+00,1.518743844131051679e+00,8.906847012742675762e-01,4.324770930675851943e-01,1.401510859206264725e-01,6.036447307905207253e+02
-8.707537391252740733e+00,2.847389367198345678e+00,1.320300413155441888e+00,8.678067670897020580e-01,4.739221584959408817e-01,1.493559596299150749e-01,6.123213948743058381e+02
-8.494038051185336613e+00,3.362068809894688481e+00,1.038847698374458783e+00,8.429104668734365147e-01,5.142649581044360652e-01,1.582134561225043978e-01,6.209980589580909509e+02
-8.262333719924210840e+00,3.823720850089131318e+00,6.813943201850262144e-01,8.160537035845261133e-01,5.534116649752061079e-01,1.667029751759787071e-01,6.296747230418760637e+02
-8.014154559805868772e+00,4.229095834950796551e+00,2.578956919051985097e-01,7.872989392366327444e-01,5.912712337430322540e-01,1.748047723088669292e-01,6.383513871256611765e+02
-7.751347279684064340e+00,4.574995240947002273e+00,-2.216789932558191623e-01,7.567130496875030810e-01,6.277556122572131025e-01,1.825000046825628885e-01,6.470280512094462892e+02
-7.574000298033683798e+00,4.758545758010716220e+00,-5.613674411862116242e-01,7.243671691760991127e-01,6.627799462920147544e-01,1.897707749092110707e-01,6.526254349302826085e+02
-7.289762061699492257e+00,4.981043849004957558e+00,-1.126224243182400109e+00,7.232321292073157215e-01,6.473998679940794476e-01,2.404302356213374181e-01,6.613020990140677213e+02
-7.000437971588869601e+00,5.143482629269130690e+00,-1.718822026728281216e+00,7.200689868112570835e-01,6.302043404009324279e-01,2.904154671673302990e-01,6.699787630978528341e+02
-6.711713951780705401e+00,5.250664610828493117e+00,-2.327245347248616536e+00,7.148866128154340860e-01,6.112415830480316670e-01,3.395863041523746739e-01,6.786554271816379469e+02
-6.429076198458310465e+00,5.307599383543892380e+00,-2.939575437786481782e+00,7.076995397721839165e-01,5.905647705663910063e-01,3.878048648092962680e-01,6.873320912654230597e+02
-6.157808259718302146e+00,5.319497463022922368e+00,-3.543892690486571517e+00,6.985279212100827806e-01,5.682318836142169483e-01,4.349359375031291441e-01,6.960087553492081724e+02
-5.902988188780888379e+00,5.291764070125575259e+00,-4.128279138210346311e+00,6.873974751406374262e-01,5.443055463468541300e-01,4.808473597553926115e-01,7.046854194329932852e+02
-5.897359287630092872e+00,5.290316244500821163e+00,-4.141534450940912215e+00,6.743394119783032714e-01,5.188528508794080230e-01,5.254103887288766872e-01,7.048924042306986166e+02
-5.682885996903282333e+00,5.199694162273974740e+00,-4.662368537308571703e+00,7.156216729291593470e-01,3.802039941694608793e-01,5.859424409029261316e-01,7.135690683144837294e+02
-5.495074035301643178e+00,5.081333049271570701e+00,-5.139170032103672625e+00,7.393054273457609904e-01,2.322052308779818108e-01,6.320650408381622842e-01,7.222457323982688422e+02
-5.338202388384054586e+00,4.942333718614770888e+00,-5.561063420702837767e+00,7.448082584551676266e-01,7.849610174704325927e-02,6.626439618280206556e-01,7.309223964820539550e+02
-5.239400209330683289e+00,4.821421592401123668e+00,-5.849451362009447486e+00,7.319948367478691376e-01,-7.714342912456605139e-02,6.769272119782718811e-01,7.379002473021155311e+02
-5.153441645830265649e+00,4.669489304630213056e+00,-6.137725672774052121e+00,6.661696654615820723e-01,-2.537687443845451085e-01,7.012969422375420203e-01,7.465769113859006438e+02
-5.105729521795669079e+00,4.525939973418147133e+00,-6.349242932517104698e+00,5.762801950921223604e-01,-4.212270324483705641e-01,7.003334376415035756e-01,7.552535754696857566e+02
-5.098670919693951475e+00,4.456635324622861383e+00,-6.421192516720763521e+00,4.655735037863765191e-01,-5.734691976160503080e-01,6.740715035934433663e-01,7.600325983300808730e+02
-5.116808585367810025e+00,4.356362001999837474e+00,-6.468106568137794277e+00,3.312554638525482820e-01,-5.765515585340897919e-01,7.468976623463046138e-01,7.687092624138659858e+02
-5.160761583818810116e+00,4.288829600955479826e+00,-6.428862901257039297e+00,1.892011348411344884e-01,-5.661688303509423426e-01,8.022803662763290378e-01,7.773859264976510985e+02
-5.164293331798717190e+00,4.287042240273400751e+00,-6.421649342087110135e+00,4.272806908512908480e-02,-5.425634916229886695e-01,8.389262003706258186e-01,7.778831474013238676e+02
-5.237601048449841201e+00,4.292583876981411528e+00,-6.210255187478571415e+00,1.371910624055860430e-02,-7.912755828737959574e-01,6.113041289509443255e-01,7.865598114851089804e+02
-5.314970808421841220e+00,4.333984541449036776e+00,-5.916035195522471923e+00,-1.686084533880805036e-02,-9.493776976162825454e-01,3.136808874702480265e-01,7.952364755688940932e+02
-5.385424820789745937e+00,4.408886892883661091e+00,-5.542932799233236452e+00,-4.551003990351076139e-02,-9.987653999445381681e-01,-1.986232973351693618e-02,8.039131396526792059e+02
-5.417893649942797651e+00,4.471129548160091893e+00,-5.278374875429626023e+00,-6.894782522812384351e-02,-9.337832415201848812e-01,-3.511311083528415589e-01,8.090429698217538999e+02
-5.452854146586408213e+00,4.602883410658635377e+00,-4.762766990672096412e+00,-1.919437806224653931e-02,-9.435249955397383426e-01,-3.307418307988684303e-01,8.177196339055390126e+02
-5.465126613185194770e+00,4.756071730524458196e+00,-4.187575000607522746e+00,3.061637453221839264e-02,-9.504493489932657191e-01,-3.093649505140863565e-01,8.263962979893241254e+02
-5.452050951805803791e+00,4.924790290558878070e+00,-3.562455439912565414e+00,8.033569977784080218e-02,-9.545356273731565588e-01,-2.870642983974479590e-01,8.350729620731092382e+02
-5.411184423934348509e+00,5.103037084933145451e+00,-2.897075220314309529e+00,1.298151380293210977e-01,-9.557716298932921184e-01,-2.639064634059315462e-01,8.437496261568943510e+02
-5.340303044409450806e+00,5.284718894925655164e+00,-2.201109619370069215e+00,1.789069459263523121e-01,-9.541536658893243761e-01,-2.399605937796153998e-01,8.524262902406794637e+02
-5.237402898315732358e+00,5.463657896894249077e+00,-1.484240267953853332e+00,2.274645374084334204e-01,-9.496865658357834805e-01,-2.152981906339215545e-01,8.611029543244645765e+02
-5.216382659098325547e+00,5.490374481995672795e+00,-1.371010053122780681e+00,2.753429212790740044e-01,-9.423836669456604476e-01,-1.899928945328143159e-01,8.624486719149061855e+02
-5.047225375529968971e+00,5.652029765691706231e+00,-6.332352946621450096e-01,2.700249531548845616e-01,-8.584078440681346400e-01,-4.361427494717528552e-01,8.711253359986912983e+02
-4.842294081392239491e+00,5.796389468656381716e+00,1.049584202075604794e-01,2.464343697136615885e-01,-7.163434812350815140e-01,-6.527787667476900868e-01,8.798020000824764111e+02
-4.599990295721090305e+00,5.916612034589021185e+00,8.342747870824109846e-01,2.061675472681881727e-01,-5.258040802223827859e-01,-8.252411839430048301e-01,8.884786641662615239e+02
-4.320851801346401011e+00,6.005695532137375281e+00,1.545914313006732765e+00,1.519493403211315263e-01,-2.996834410927511905e-01,-9.418594550735229776e-01,8.971553282500466366e+02
-4.148461797596641354e+00,6.034969864297589304e+00,1.926684575628409446e+00,8.744869433054852648e-02,-5.328315303190603314e-02,-9.947419924097488098e-01,9.019605574474145442e+02
-3.813446643125883551e+00,6.045853829505486665e+00,2.586515355212201328e+00,2.275241554674284905e-01,1.126508385953681191e-01,-9.672334502296193737e-01,9.106372215311996570e+02
-3.466266354826134766e+00,6.007039825366720542e+00,3.215551127847502411e+00,3.566984477736086512e-01,2.731874701705450659e-01,-8.933827978522750346e-01,9.193138856149847697e+02
-3.118749710107274531e+00,5.912532637579795747e+00,3.810824319789548831e+00,4.687825865253429369e-01,4.206351246006489464e-01,-7.767283814329751790e-01,9.279905496987698825e+02
-2.780467871899265919e+00,5.757901885009608201e+00,4.370260494710653809e+00,5.584064087528280984e-01,5.479293049367318647e-01,-6.228593416301411168e-01,9.366672137825549953e+02
-2.627379561145504194e+00,5.655453575240972697e+00,4.617922195591941836e+00,6.212758605302249881e-01,6.489710985387343589e-01,-4.391478320387144363e-01,9.407814125213211582e+02
-2.326502848599592888e+00,5.375593675612060807e+00,5.101916277977164071e+00,5.565400721229998293e-01,5.452339820479417121e-01,-6.268820087881076253e-01,9.494580766051062710e+02
-2.056799743873119368e+00,5.027676863430399656e+00,5.546072259297089246e+00,4.638680221223778766e-01,4.141281315354519155e-01,-7.831489952263522847e-01,9.581347406888913838e+02
-1.824545449797190022e+00,4.611330395084881850e+00,5.949832112893625791e+00,3.479115094461209812e-01,2.622345799271582623e-01,-9.001047753935095264e-01,9.668114047726764966e+02
-1.630830504110664325e+00,4.131010388285551116e+00,6.314734227423595136e+00,2.144911214560473178e-01,9.717781982388347395e-02,-9.718786087529885931e-01,9.754880688564616094e+02
-1.474090273004161400e+00,3.593851119864166055e+00,6.643301814533384864e+00,7.030406406682138121e-02,-7.275691469144209000e-02,-9.948677147948142840e-01,9.841647329402467221e+02
-1.376989503591796504e+00,3.129027534890358453e+00,6.876842567705045539e+00,-7.741200940582002032e-02,-2.390395315591196113e-01,-9.679181179998890272e-01,9.910435143258105199e+02
-1.287290417771555617e+00,2.500845767859261937e+00,7.139531511139402653e+00,-9.486549736003536959e-02,-2.530374033926015565e-01,-9.627931293291567272e-01,9.997201784095956327e+02
-1.229819849333847248e+00,1.838181059070833179e+00,7.372475772222969681e+00,-1.122690031906876384e-01,-2.669019640331934395e-01,-9.571609125462847700e-01,1.008396842493380746e+03
-1.202295346903638151e+00,1.148959697971499994e+00,7.578023396215079366e+00,-1.296133601409723002e-01,-2.806259108019475979e-01,-9.510244345169333036e-01,1.017073506577165858e+03
-1.202139546176806295e+00,4.409978468118431749e-01,7.758528067315526577e+00,-1.468894325998261752e-01,-2.942020150468785955e-01,-9.443869275469249924e-01,1.025750170660950971e+03
-1.226482020905629966e+00,-2.780073942088600591e-01,7.916348615079676243e+00,-1.640881209011674779e-01,-3.076231259392147588e-01,-9.372518876774895702e-01,1.034426834744735970e+03
-1.250824022370574218e+00,-6.895541812667276282e-01,7.994525595300418175e+00,-1.812003661048386116e-01,-3.208821742304870939e-01,-9.296230728487913098e-01,1.039362803459668157e+03
-1.309409111808722326e+00,-1.411584143680747694e+00,8.113409528651573055e+00,-1.315598013382630882e-01,-4.163178392383118376e-01,-8.996496403613476467e-01,1.048039467543453156e+03
-1.383808109094753824e+00,-2.125445318587906307e+00,8.215690114068964434e+00,-8.027862073430344636e-02,-5.065617583223630538e-01,-8.584570624422527274e-01,1.056716131627238155e+03
-1.471311134061666470e+00,-2.824595790705115128e+00,8.302998674841591153e+00,-2.799631860171173867e-02,-5.904885607048969698e-01,-8.065590281063778066e-01,1.065392795711023155e+03
-1.517125963822047119e+00,-3.148813173116334685e+00,8.337683905829701203e+00,2.463512705315102497e-02,-6.670516475950337698e-01,-7.446027195450958258e-01,1.069527337095564462e+03
-1.622193345259305808e+00,-3.807206340636402508e+00,8.395519373298517607e+00,-1.280318889436426154e-02,-4.616929370296700141e-01,-8.869462837464886507e-01,1.078204001179349461e+03
-1.740145860572491321e+00,-4.439176132807163278e+00,8.437661714309586003e+00,-4.942419861400109554e-02,-2.268618040468852182e-01,-9.726710494595320888e-01,1.086880665263134460e+03
-1.873133160851198298e+00,-5.041909932702361097e+00,8.463194287141798000e+00,-8.289018370899352284e-02,2.245119229224058419e-02,-9.963047532808468887e-01,1.095557329346919460e+03
-1.928019064613709865e+00,-5.253855679656409983e+00,8.466118152282106735e+00,-1.110648266788162170e-01,2.703310446147190738e-01,-9.563387112277386137e-01,1.098758131633647281e+03
-2.097999005844023657e+00,-5.801518861379851622e+00,8.455134125529095712e+00,2.797626532762105198e-02,2.522794126016402183e-01,-9.672488958668452597e-01,1.107434795717432280e+03
-2.299804413338520703e+00,-6.322673871545439361e+00,8.423360639952900186e+00,1.664640335572279695e-01,2.292383652581894415e-01,-9.590294559739458435e-01,1.116111459801217279e+03
-2.541611168323076431e+00,-6.818753003238934518e+00,8.368498258080174779e+00,3.016595763356849091e-01,2.016635921712149893e-01,-9.318429565101817857e-01,1.124788123885002278e+03
-2.828569744061022906e+00,-7.291144764099622755e+00,8.287411090483583820e+00,4.308891030752431961e-01,1.701004452235872766e-01,-8.862270698786265388e-01,1.133464787968787277e+03
-3.123790704219858494e+00,-7.693333837948062914e+00,8.188540319889884955e+00,5.515968099604756647e-01,1.351731539917882530e-01,-8.230839432773322528e-01,1.141209167397182000e+03
-3.494699839153327936e+00,-8.123884235161527911e+00,8.044641082034786450e+00,5.857822246461469318e-01,1.498753747180495421e-01,-7.964888934165622603e-01,1.149885831480966999e+03
-3.902656578681006128e+00,-8.535928893555794872e+00,7.864038715516419309e+00,6.187421175502867410e-01,1.642640380487314922e-01,-7.682275169295037509e-01,1.158562495564751998e+03
-4.344041847572975179e+00,-8.931601176902146833e+00,7.643112222772220576e+00,6.504075391245369708e-01,1.783090439102255620e-01,-7.383589356838178297e-01,1.167239159648536997e+03
-4.813891005526746980e+00,-9.312881858318565520e+00,7.379411981447066893e+00,6.807122472105650024e-01,1.919810109973219270e-01,-7.069456329224912405e-01,1.175915823732321996e+03
-4.818773905081421560e+00,-9.316611665901980643e+00,7.376347080004046042e+00,7.095928454878007718e-01,2.052513381811210957e-01,-6.740533226691036717e-01,1.176002597172595415e+03
-5.320763886492453132e+00,-9.681928713707653955e+00,7.027642541446412316e+00,6.322264593911841590e-01,1.354436920122303323e-01,-7.628516961631137683e-01,1.184679261256380414e+03
-5.834100699533561141e+00,-1.003590361157064237e+01,6.637121780059393572e+00,5.430097306293123482e-01,6.309732273450711915e-02,-8.373512765290599402e-01,1.193355925340165413e+03
-6.349695853302102400e+00,-1.038056399414444897e+01,6.205855113533826461e+00,4.436149057958229114e-01,-1.043173654694533152e-02,-8.961556752191224273e-01,1.202032589423950412e+03
-6.695046947855837871e+00,-1.061065757185388669e+01,5.886268053162623026e+00,3.359049995669218247e-01,-8.376528508438724208e-02,-9.381626768739813604e-01,1.207929869767793889e+03
-7.188087391812875815e+00,-1.094305051757503122e+01,5.380488388570555891e+00,4.480603441285425093e-01,-4.143137885593788788e-02,-8.930416389314367320e-01,1.216606533851578888e+03
-7.659097731050534819e+00,-1.126681412190083620e+01,4.843884485195111722e+00,5.528643819913731106e-01,1.582282047147467747e-03,-8.332685470535714511e-01,1.225283197935363887e+03
-8.098900562463519748e+00,-1.158135547673192178e+01,4.281730129952519448e+00,6.485976143011117356e-01,4.456997989829780682e-02,-7.598240925469100793e-01,1.233959862019148886e+03
-8.498266542664934420e+00,-1.188645687803681206e+01,3.699304390848215718e+00,7.336893636410920516e-01,8.682642332677800723e-02,-6.739132658525796016e-01,1.242636526102933885e+03
-8.847920139876647383e+00,-1.218227751097033540e+01,3.101890521074411655e+00,8.067435420026618509e-01,1.276583180999218414e-01,-5.769455877780895747e-01,1.251313190186718884e+03
-8.921014613563492901e+00,-1.225534498399643546e+01,2.948439621280200207e+00,8.665615550055612015e-01,1.663957411456889468e-01,-4.705119857287083929e-01,1.253503822420338793e+03
-9.146941621497392205e+00,-1.253886677776020342e+01,2.334722458589879146e+00,8.976120681677384194e-01,2.356185799538126902e-01,-3.725244419597846246e-01,1.262180486504123792e+03
-9.310098839346172994e+00,-1.281469137416752879e+01,1.721739289483356083e+00,9.148774790219463826e-01,3.012228861000569857e-01,-2.688158687006340086e-01,1.270857150587908791e+03
-9.371097233667736504e+00,-1.298532729929686447e+01,1.337922555492854437e+00,9.180926414849269745e-01,3.622011681579412889e-01,-1.609789285375926859e-01,1.276364922682093948e+03
-9.399385324713998457e+00,-1.324695029823452153e+01,7.482412951144725710e-01,9.136480676690984515e-01,3.978608144153087389e-01,-8.337853918045973201e-02,1.285041586765878947e+03
-9.363864213334260000e+00,-1.349965181326937724e+01,1.805348925574002950e-01,9.025218063014265324e-01,4.306108182075669699e-01,-5.168403210743790707e-03,1.293718250849663946e+03
-9.268368371300571340e+00,-1.374118188880266800e+01,-3.575806161699718877e-01,8.847952281849484901e-01,4.602116771591296396e-01,7.307952097764452981e-02,1.302394914933448945e+03
-9.116571953541880546e+00,-1.396913204697519006e+01,-8.584953742750643935e-01,8.605979707080432251e-01,4.864469181573268242e-01,1.507929992645385409e-01,1.311071579017233944e+03
-8.912494798946411834e+00,-1.418093564510492577e+01,-1.314607959484982658e+00,8.301069898703450356e-01,5.091246801279184497e-01,2.274037058881299700e-01,1.319748243101018943e+03
-8.706640112025757716e+00,-1.433821149910907167e+01,-1.644286774266420226e+00,7.935452664561251090e-01,5.280791169184394507e-01,3.023513789584750810e-01,1.326825654046477666e+03
-8.410706579030138741e+00,-1.451003082797847910e+01,-1.989945054467646912e+00,7.869217716842699106e-01,5.236299466772627031e-01,3.264411190077576852e-01,1.335502318130262665e+03
-8.076676438372810907e+00,-1.465924083351493401e+01,-2.270287118637671853e+00,7.797915148457048584e-01,5.188435691112590620e-01,3.503206304996752674e-01,1.344178982214047664e+03
-7.710060611436269973e+00,-1.478468733730727180e+01,-2.478959111307878604e+00,7.721590868306804634e-01,5.137230659779926656e-01,3.739745393661967343e-01,1.352855646297832664e+03
-7.317352629016394161e+00,-1.488758421715417768e+01,-2.611111911408345421e+00,7.640294015991593302e-01,5.082717339932815159e-01,3.973876166949989464e-01,1.361532310381617663e+03
-7.313162564224607642e+00,-1.488837095211281714e+01,-2.611643088373480026e+00,7.554076930216757635e-01,5.024930827117936039e-01,4.205447885032065902e-01,1.361619784419703819e+03
-6.878014491145236775e+00,-1.494277321174440587e+01,-2.582809007110043353e+00,7.554171543943221101e-01,5.298558090564747802e-01,3.854811855947771204e-01,1.370296448503488818e+03
-6.430441556423675209e+00,-1.497929300859167334e+01,-2.469263367251319341e+00,7.539322660088484396e-01,5.561703780830562494e-01,3.496550425856135846e-01,1.378973112587273818e+03
-5.976784364447038200e+00,-1.499998654025997702e+01,-2.268899364452244161e+00,7.509559656442654774e-01,5.813847419599497135e-01,3.131372214720081759e-01,1.387649776671058817e+03
-5.580334919917150138e+00,-1.500591278846378529e+01,-2.020288399769760712e+00,7.464941398752544810e-01,6.054490281870563706e-01,2.759999517947188674e-01,1.395205345963566742e+03
-5.127165579480710278e+00,-1.500151302553076427e+01,-1.653153734296981758e+00,7.599915587208058154e-01,6.114838440854239998e-01,2.202233845323003092e-01,1.403882010047351741e+03
-4.678360342583452791e+00,-1.498766439320014321e+01,-1.210212870174682820e+00,7.709584843897933082e-01,6.154826437261091687e-01,1.637135627205862920e-01,1.412558674131136740e+03
-4.232569918023295408e+00,-1.496263131002862146e+01,-7.018508903650115816e-01,7.793584024171062996e-01,6.174321134972058367e-01,1.066586414861722260e-01,1.421235338214921740e+03
-3.786527426427060306e+00,-1.492329799557136560e+01,-1.406694266763442169e-01,7.851633451914707962e-01,6.173257630165902565e-01,4.924859067247706890e-02,1.429912002298706739e+03
-3.336840762041186181e+00,-1.486667592084925005e+01,4.607188703359912374e-01,7.883539850460067333e-01,6.151639467250215043e-01,-8.325437603791551247e-03,1.438588666382491738e+03
-2.879994475688104849e+00,-1.478990762760353839e+01,1.089692958257174160e+00,7.889196985901955061e-01,6.109538626960770991e-01,-6.587174532830494811e-02,1.447265330466276737e+03
-2.413290712833738638e+00,-1.469039762306912777e+01,1.734286532351742460e+00,7.868586020725737429e-01,6.047095286694973426e-01,-1.231987267797493152e-01,1.455941994550061736e+03
-1.936273183054323388e+00,-1.456871647436141970e+01,2.384444702183618592e+00,7.821775576566882826e-01,5.964517353877228922e-01,-1.801155064133579953e-01,1.464618658633846735e+03
-1.450528609229930765e+00,-1.443157270248631008e+01,3.032415247107266953e+00,7.748921505893062722e-01,5.862079773906826441e-01,-2.364325743162827564e-01,1.473295322717631734e+03
-1.334090124306095637e+00,-1.439646403344923087e+01,3.184193811985270628e+00,7.650266373364004169e-01,5.740123614986417655e-01,-2.919624171217414799e-01,1.475350588592802978e+03
-8.384285048655045758e-01,-1.424367752909375895e+01,3.814173123248289610e+00,7.970987070069142089e-01,5.273209627653026033e-01,-2.942180373711663632e-01,1.484027252676587977e+03
-3.402621759782520905e-01,-1.409858880179205443e+01,4.428560263341325687e+00,8.266090570448578756e-01,4.789348692129768437e-01,-2.955280999530611186e-01,1.492703916760372977e+03
1.568061131179217249e-01,-1.397148346374111227e+01,5.021571295983140004e+00,8.534628499963162751e-01,4.290095818650735970e-01,-2.958883950794854445e-01,1.501380580844157976e+03
6.487543096495635986e-01,-1.387249563979763778e+01,5.587426699128004159e+00,8.775737855168187496e-01,3.777055478772644581e-01,-2.952977651033559803e-01,1.510057244927942975e+03
1.132433941071751882e+00,-1.380811085452070763e+01,6.120470223826267819e+00,8.988643776362928994e-01,3.251876450048541423e-01,-2.937581082307421654e-01,1.518733909011727974e+03
1.607053204473562369e+00,-1.377774091598983475e+01,6.615287727655667638e+00,9.172662037165028037e-01,2.716246518442976821e-01,-2.912743724196725226e-01,1.527410573095512973e+03
2.073172769361802725e+00,-1.377731033178287845e+01,7.066590640304076132e+00,9.327201243025113886e-01,2.171887055474072681e-01,-2.878545394849504335e-01,1.536087237179297972e+03
2.110457832473550344e+00,-1.377910484663324553e+01,7.099488358675280608e+00,9.451764731629624938e-01,1.620547487470364589e-01,-2.835095994598668678e-01,1.536793681076719395e+03
2.560561028654274374e+00,-1.382139003018903800e+01,7.453452526083101937e+00,7.992815985974051074e-01,2.001859494964096375e-01,-5.666326073992754564e-01,1.545470345160504394e+03
3.003528318642289641e+00,-1.388509229118436217e+01,7.752929353550136682e+00,5.711420670677056499e-01,2.177183886501282140e-01,-7.914502147762195738e-01,1.554147009244289393e+03
3.440401919697388511e+00,-1.396625487406432242e+01,7.992666184617727154e+00,2.842330061377612016e-01,2.128479964754519671e-01,-9.348290371069558624e-01,1.562823673328074392e+03
3.874112447966376216e+00,-1.406060588584030491e+01,8.169251333489825129e+00,-3.192311979514834280e-02,1.860759245146707541e-01,-9.820156132866196819e-01,1.571500337411859391e+03
4.309695895363224061e+00,-1.416384816340087838e+01,8.283453980529905891e+00,-3.447943635090344183e-01,1.401569804145922915e-01,-9.281545494872209812e-01,1.580177001495644390e+03
4.638363858815582219e+00,-1.424415809390225718e+01,8.324640337488034447e+00,-6.221868313698337705e-01,7.981615370799964582e-02,-7.787881152648936656e-01,1.586639509500936583e+03
5.087477696399939298e+00,-1.435426445530842443e+01,8.324656959329116646e+00,-6.319319399333441778e-01,-1.499028239261182040e-02,-7.748776127354504162e-01,1.595316173584721582e+03
5.300324723415361206e+00,-1.440480492573637505e+01,8.300639798295810223e+00,-6.359273919107956141e-01,-1.096603277552506278e-01,-7.639168572078909314e-01,1.599338965808190324e+03
5.769299352126459723e+00,-1.451221708915682385e+01,8.200273228997232877e+00,-6.760246791642150477e-01,-6.279192315489399989e-02,-7.341973900426758126e-01,1.608015629891975323e+03
6.244190128219454294e+00,-1.462223893717231604e+01,8.055333444919087427e+00,-7.129529604353627148e-01,-1.562917964180229186e-02,-7.010362365444415822e-01,1.616692293975760322e+03
6.719396113432365425e+00,-1.473728826396551383e+01,7.870813223730090513e+00,-7.465391327704360425e-01,3.160682311506836373e-02,-6.645888443039202897e-01,1.625368958059545321e+03
7.189222717715395561e+00,-1.485955109976160138e+01,7.651713518019538363e+00,-7.766257587556376629e-01,7.869466229488608633e-02,-6.250260642259354293e-01,1.634045622143330320e+03
7.647885277638108548e+00,-1.499097888543360746e+01,7.403042413329983695e+00,-8.030718042914575250e-01,1.254136095799366912e-01,-5.825333498455548265e-01,1.642722286227115319e+03
8.052804040421685627e+00,-1.512103297141416824e+01,7.152538495093905269e+00,-8.257532995409083698e-01,1.715446655573750756e-01,-5.373098882525301212e-01,1.650675198696688540e+03
8.471975369444171733e+00,-1.527479595216071395e+01,6.859416796202753908e+00,-7.759268254344097171e-01,2.899592470946410483e-01,-5.602313777326652922e-01,1.659351862780473539e+03
8.862626548382099401e+00,-1.544201728408634899e+01,6.551361464247539956e+00,-7.128862320855354762e-01,4.034357765284757313e-01,-5.736120590786871754e-01,1.668028526864258538e+03
9.218655381721150732e+00,-1.562370397066723093e+01,6.233398657709245505e+00,-6.377051088025355030e-01,5.100417413896288776e-01,-5.772240606975430621e-01,1.676705190948043537e+03
9.533887668073040444e+00,-1.582061579921437300e+01,5.910556531983824691e+00,-5.516637968033379913e-01,6.079616356185618686e-01,-5.710058711723586811e-01,1.685381855031828536e+03
9.800439812070282031e+00,-1.603337309731130489e+01,5.585903960966932758e+00,-4.562275853677166260e-01,6.955278766650292432e-01,-5.550633865894106789e-01,1.694058519115613535e+03
1.000707520222903035e+01,-1.626247509954399106e+01,5.258589667698232439e+00,-3.530217586658109807e-01,7.712492036504449144e-01,-5.296681071932572982e-01,1.702735183199398534e+03
1.014320604085524735e+01,-1.650639559093062303e+01,4.925800243994380878e+00,-2.438039180829910946e-01,8.338360731195176845e-01,-4.952525140698559314e-01,1.711411847283183533e+03
1.019582153449151996e+01,-1.672874060964338483e+01,4.626836793998703179e+00,-1.304340512235892813e-01,8.822226199826057602e-01,-4.524027045374313105e-01,1.719019715874761914e+03
1.017658164942248256e+01,-1.698527023262462166e+01,4.275053517692671612e+00,-1.101771447120630798e-01,9.532330073508564761e-01,-2.814353042529754156e-01,1.727696379958546913e+03
1.007494475633230557e+01,-1.723776701465240535e+01,3.909691458124535668e+00,-8.609899837651335819e-02,9.911826591036051459e-01,-1.007069946478105354e-01,1.736373044042331912e+03
9.887996142646265696e+00,-1.747889671163681058e+01,3.527937650788824708e+00,-5.903470395351169409e-02,9.947553956816242993e-01,8.351410953500275347e-02,1.745049708126116911e+03
9.683406800026391537e+00,-1.764596803885957144e+01,3.228919858626709605e+00,-2.992291849336034537e-02,9.638272936975723626e-01,2.648387563634521102e-01,1.751545912523394691e+03
9.326112875520715662e+00,-1.784382709309830162e+01,2.813951427810863049e+00,4.710744071449356890e-02,9.708828696624249854e-01,2.348730346902217214e-01,1.760222576607179690e+03
8.889167726543737658e+00,-1.800771241183522520e+01,2.387485232731292317e+00,1.238136198649855552e-01,9.712573976248130014e-01,2.032910600453543271e-01,1.768899240690964689e+03
8.377652371210913884e+00,-1.812943963205066922e+01,1.953930249291510712e+00,1.996677778010736148e-01,9.649483033261333498e-01,1.703101594604188307e-01,1.777575904774749688e+03
7.796900496823152338e+00,-1.820102264555875848e+01,1.517696907219317604e+00,2.741479367583529725e-01,9.519990032884246833e-01,1.361572859175011752e-01,1.786252568858534687e+03
7.152867316481914983e+00,-1.821578118349376751e+01,1.082894349708730219e+00,3.467415737881676674e-01,9.324986059954739614e-01,1.010674567937813184e-01,1.794929232942319686e+03
6.452438457710477415e+00,-1.816946807910040462e+01,6.530277559867013748e-01,4.169491471356526202e-01,9.065812987876759044e-01,6.528213684089599622e-02,1.803605897026104685e+03
6.174958616334871309e+00,-1.813062773735307687e+01,4.971796947555672808e-01,4.842875333383404035e-01,8.744254246837901423e-01,2.904757681167698113e-02,1.806808658367369162e+03
5.377198288109675595e+00,-1.796442515659503414e+01,8.480909215428934778e-02,4.963585347125505365e-01,8.627630566313625460e-01,9.626065202705046120e-02,1.815485322451154161e+03
4.541195147097552898e+00,-1.773013421740367335e+01,-3.150424483045049517e-01,5.060473477263807141e-01,8.469600096198536265e-01,1.630117295243551923e-01,1.824161986534939160e+03
3.674438142969481014e+00,-1.742555336975922842e+01,-6.991783104978935848e-01,5.133074743060187517e-01,8.270921280613954263e-01,2.289804544479579207e-01,1.832838650618724159e+03
2.784466148088728055e+00,-1.704876425381966953e+01,-1.064405155609140730e+00,5.181040717246574445e-01,8.032547635129881902e-01,2.938502267393177103e-01,1.841515314702509158e+03
1.878863854696771529e+00,-1.659813302805750013e+01,-1.407533584576123653e+00,5.204141197710759892e-01,7.755623171193790633e-01,3.573097202791170601e-01,1.850191978786294158e+03
9.652576585558861888e-01,-1.607231159985578373e+01,-1.725378799923725337e+00,5.202265312146795440e-01,7.441476906907411593e-01,4.190543767322203461e-01,1.858868642870079157e+03
2.725607742210064965e-01,-1.561868204188647624e+01,-1.944418553533351579e+00,5.175422050374167693e-01,7.091616490437394615e-01,4.787878669398129006e-01,1.865431305243040697e+03
-6.387518696960816644e-01,-1.494494945960908261e+01,-2.204417452183653481e+00,5.541678552085225196e-01,5.960859105989347873e-01,5.810142644027286307e-01,1.874107969326825696e+03
-1.537015118199391850e+00,-1.419654576109695832e+01,-2.436117375381042116e+00,5.771732536595538532e-01,4.683596584434595589e-01,6.689605859863146931e-01,1.882784633410610695e+03
-2.415016163514617897e+00,-1.337598264800855752e+01,-2.642088672744063782e+00,5.859929753783847950e-01,3.291221295939900648e-01,7.404652973766352453e-01,1.891461297494395694e+03
-3.265634064556859784e+00,-1.248604028358750462e+01,-2.824907039198789160e+00,5.804102496217711238e-01,1.817954850479700790e-01,7.937709642904124951e-01,1.900137961578180693e+03
-4.081842803046737522e+00,-1.152983209297373079e+01,-2.987361892741245750e+00,5.605622878963572031e-01,3.000069976189144449e-02,8.275674470413767470e-01,1.908814625661965692e+03
-4.856717990738774304e+00,-1.051086948436613255e+01,-3.132664708248105168e+00,5.269369115608159015e-01,-1.225314339983603062e-01,8.410241012702752705e-01,1.917491289745750692e+03
-5.583446968702635793e+00,-9.432991100740959922e+00,-3.264239427793811377e+00,4.803605619436415175e-01,-2.720520023921222386e-01,8.338101933438419877e-01,1.926167953829535691e+03
-6.255335185279490062e+00,-8.300291807411475986e+00,-3.385512825815679694e+00,4.219779877243682864e-01,-4.148861109409286985e-01,8.061030286662691502e-01,1.934844617913320690e+03
-6.865809900631468565e+00,-7.117119169687951441e+00,-3.499913791757158776e+00,3.532241089219748664e-01,-5.475232058837882221e-01,7.585835932154115779e-01,1.943521281997105689e+03
-7.408423851065077947e+00,-5.888069843005064641e+00,-3.610872612914509894e+00,2.757887491349326203e-01,-6.667033559632872253e-01,6.924198155732741444e-01,1.952197946080890688e+03
-7.689078062028601224e+00,-5.136669866685216412e+00,-3.676433373950377614e+00,1.915751029523673765e-01,-7.694973740323285405e-01,6.092378610090131152e-01,1.957337763481349839e+03
-8.091227385920619852e+00,-3.833685747227733476e+00,-3.787977404379960333e+00,3.572123547217309070e-01,-7.006304050943543693e-01,6.176684944952758327e-01,1.966014427565134838e+03
-8.418115905604663496e+00,-2.501312769419885118e+00,-3.898653940943376917e+00,5.113296993072287133e-01,-6.091684483911706804e-01,6.061796269189332342e-01,1.974691091648919837e+03
-8.672831661255630209e+00,-1.147704093478444376e+00,-4.005574372875466693e+00,6.489569238731230927e-01,-4.980611027861372997e-01,5.751417641321417973e-01,1.983367755732704836e+03
-8.858725536543015977e+00,2.191257058460361895e-01,-4.105850831103517784e+00,7.656556119041111330e-01,-3.708915245018485352e-01,5.255558590795452734e-01,1.992044419816489835e+03
-8.979409018040103163e+00,1.591308440358683240e+00,-4.196596789956720031e+00,8.576622820609616227e-01,-2.317608721103755764e-01,4.590210322948346522e-01,2.000721083900274834e+03
-9.038751864996294572e+00,2.961130054968883041e+00,-4.274927668646976819e+00,9.220097606095738474e-01,-8.515604524083056348e-02,3.776830010736952903e-01,2.009397747984059833e+03
-9.040879689812907571e+00,4.321038317606268109e+00,-4.337961432449047194e+00,9.566228726429566454e-01,6.419501735537538889e-02,2.841648804541903606e-01,2.018074412067844833e+03
-8.990171449671379378e+00,5.663650450428950656e+00,-4.382819193484585263e+00,9.603853657165979385e-01,2.114758133416672903e-01,1.814825878408471149e-01,2.026751076151629832e+03
-8.891256849789376915e+00,6.981760700265230213e+00,-4.406625811002458093e+00,9.331759075624105337e-01,3.519366081410296165e-01,7.294757978079498273e-02,2.035427740235414831e+03
-8.875888784419931454e+00,7.130959242183217306e+00,-4.406711383699887463e+00,8.758719972194121128e-01,4.810476122870738780e-01,-3.793994202004793287e-02,2.036431931246835802e+03
-8.712070949259876684e+00,8.387203010725253094e+00,-4.382971386692593896e+00,9.223860607502428755e-01,3.812625708910907796e-01,-6.197424442076901463e-02,2.045108595330620801e+03
-8.510714541523487497e+00,9.603830088977469259e+00,-4.332793290795581065e+00,9.571873986849902538e-01,2.766361628528437588e-01,-8.522157708697147838e-02,2.053785259414406028e+03
-8.276793606739765607e+00,1.077409497392565640e+01,-4.253927818644441139e+00,9.798340993625203055e-01,1.684969607036694850e-01,-1.073867401526181625e-01,2.062461923498191027e+03
-8.015526823822758828e+00,1.189144248375498059e+01,-4.144131634323734659e+00,9.900385921816924339e-01,5.821814168269237588e-02,-1.281882754797213086e-01,2.071138587581976026e+03
-7.732374728177373591e+00,1.294951515371565343e+01,-4.001167812535483925e+00,9.876712987960181156e-01,-5.279994846328225910e-02,-1.473620404900324865e-01,2.079815251665761025e+03
-7.433036847729459495e+00,1.394216056510887469e+01,-3.822806306766046713e+00,9.727622783793067329e-01,-1.631475765605889805e-01,-1.646645621411864935e-01,2.088491915749546024e+03
-7.123448752417532504e+00,1.486343860536511841e+01,-3.606824416378236364e+00,9.455008460880800492e-01,-2.714235222868026653e-01,-1.798761284786384029e-01,2.097168579833331023e+03
-6.929513142503448186e+00,1.539053144880965895e+01,-3.447599026089236407e+00,9.062331695471766979e-01,-3.762528704497711818e-01,-1.928035785221127729e-01,2.102574989166561409e+03
-6.621952890348446807e+00,1.615667587426781182e+01,-3.150709931939748909e+00,8.538740564295199675e-01,-4.435193809150130284e-01,-2.723741076289549756e-01,2.111251653250346408e+03
-6.320861726606807451e+00,1.683828126764088040e+01,-2.811004039212707806e+00,7.899041879409167688e-01,-5.047550094432918799e-01,-3.482409429010718260e-01,2.119928317334131407e+03
-6.061198053825259890e+00,1.737375314687924543e+01,-2.466939111679804508e+00,7.151933836589877691e-01,-5.591271156208756921e-01,-4.193724985556371299e-01,2.127724495732276409e+03
-5.788847971442081963e+00,1.788403210886352568e+01,-2.040980319245000008e+00,6.707538555071737019e-01,-6.111969706625035581e-01,-4.201494119607412370e-01,2.136401159816061408e+03
-5.537294268049674173e+00,1.830847621405307635e+01,-1.572168507858959785e+00,6.231706808499638539e-01,-6.604022838330795286e-01,-4.189571887829177665e-01,2.145077823899846408e+03
-5.309520411773952731e+00,1.864829527520134533e+01,-1.062265143453815952e+00,5.726668597279311879e-01,-7.065124551561707822e-01,-4.158014171143090687e-01,2.153754487983631407e+03
-5.294797523986504828e+00,1.866722422417747751e+01,-1.022331429060215013e+00,5.194790776645135111e-01,-7.493113877874304496e-01,-4.106968857883545043e-01,2.154387382205320137e+03
-5.118098453620909538e+00,1.884916153335924349e+01,-4.420823647388077982e-01,5.062725001901635657e-01,-7.606137991836241508e-01,-4.063899654378962389e-01,2.163064046289105136e+03
-4.963460846220097977e+00,1.895585154785957727e+01,1.624248928625070532e-01,4.929035598905661120e-01,-7.716722729126593849e-01,-4.019527134265660773e-01,2.171740710372890135e+03
-4.946532871017525146e+00,1.896048737591103617e+01,2.404856071031520603e-01,4.793765383523809764e-01,-7.824832673307852149e-01,-3.973865508420567072e-01,2.172833140906843255e+03
-4.831777768270317353e+00,1.893019854631690180e+01,8.691640401980118558e-01,5.069238873708158399e-01,-8.155503649095973140e-01,-2.791124768051718164e-01,2.181509804990628254e+03
-4.738717320517561227e+00,1.883498598626523446e+01,1.496949945306824903e+00,5.264410124407910008e-01,-8.356982629269795737e-01,-1.564169868042533385e-01,2.190186469074413253e+03
-4.672086232725472854e+00,1.867892916428650452e+01,2.112512080419471250e+00,5.376187476097760154e-01,-8.426078054816678042e-01,-3.124369311780041472e-02,2.198863133158198252e+03
-4.638363275890282189e+00,1.846620520154062817e+01,2.705043323203038419e+00,5.402800271529664133e-01,-8.361695389278743784e-01,9.442454356978810526e-02,2.207539797241983251e+03
-4.641287784215685441e+00,1.827934309264578516e+01,3.099212987830731070e+00,5.343826901707280363e-01,-8.164854455617384099e-01,2.185970210938090186e-01,2.213652121309497488e+03
-4.687269505260839964e+00,1.796614221785440435e+01,3.617013684521667383e+00,5.491273005373051852e-01,-7.846298807372015238e-01,2.877727541888678298e-01,2.222328785393282487e+03
-4.777469904486844499e+00,1.761127586047284410e+01,4.084394512792025367e+00,5.605675491305949221e-01,-7.480528341734248299e-01,3.552168072337476556e-01,2.231005449477067486e+03
-4.787342635413442515e+00,1.758158421007852823e+01,4.115467018992560178e+00,5.686345995969447342e-01,-7.069743913116067757e-01,4.205233669665498497e-01,2.231662615805189489e+03
-4.956443733116687511e+00,1.715724947367161946e+01,4.465136784038450379e+00,6.368319990128510355e-01,-7.331706146661444157e-01,2.385452888324338938e-01,2.240339279888974488e+03
-5.163882657909439011e+00,1.670990564061483852e+01,4.751201041651789581e+00,6.805411519730844017e-01,-7.311740643707219656e-01,4.739438852431602373e-02,2.249015943972759487e+03
-5.402674796149736558e+00,1.624960699040653367e+01,4.970136987585695998e+00,6.980813061816079079e-01,-7.010615192518342420e-01,-1.455789688965258843e-01,2.257692608056544486e+03
-5.665460026129253812e+00,1.578610783162371334e+01,5.118435779245774420e+00,6.887779897041039767e-01,-6.439909057954703586e-01,-3.329543424447217181e-01,2.266369272140329485e+03
-5.944507452217924204e+00,1.532885114767005597e+01,5.192603265793254153e+00,6.529889453657350407e-01,-5.621567715037002477e-01,-5.075265524911516390e-01,2.275045936224114485e+03
-6.231720272760188806e+00,1.488695735702557421e+01,5.189160715949790337e+00,5.920903742961116656e-01,-4.587058980958219623e-01,-6.625827402814069567e-01,2.283722600307899484e+03
-6.316343749771024640e+00,1.476170676255815017e+01,5.164272430868998676e+00,5.084240176331717986e-01,-3.376162992855128997e-01,-7.921604968383945122e-01,2.286302034248829841e+03
-6.592716205350375169e+00,1.436643077914413880e+01,4.998038860586524024e+00,7.617895656428990137e-01,-3.947037399146467451e-01,-5.136960340277163528e-01,2.294978698332614840e+03
-6.857014871197567807e+00,1.400600585569434742e+01,4.746272770938240626e+00,9.046988072479420495e-01,-3.945607868806579321e-01,-1.607477950737594419e-01,2.303655362416399839e+03
-7.099699182596850733e+00,1.368753155629746843e+01,4.405326146409862531e+00,9.164305016296575568e-01,-3.372081673977271321e-01,2.155082075556870591e-01,2.312332026500184838e+03
-7.180320056890484359e+00,1.358238044358191843e+01,4.239175616203039176e+00,7.952835938729910792e-01,-2.309617677388498824e-01,5.605164289832702540e-01,2.315663338849083175e+03
-7.350957385120326926e+00,1.335433381944069886e+01,3.714677288824171253e+00,8.313650528145681839e-01,-2.404208128595383409e-01,5.010269271122523849e-01,2.324340002932868174e+03
-7.356241017628438961e+00,1.334664467861036563e+01,3.688725290906340604e+00,8.633475864406143785e-01,-2.486944978782587856e-01,4.390671835843541482e-01,2.324706374150830470e+03
-7.428460262687739402e+00,1.321539478732008277e+01,3.015374158522178938e+00,8.988691508447130829e-01,-2.441833312001303047e-01,3.638773837467841887e-01,2.333027701794162112e+03
-7.448511172369697064e+00,1.313617491291132211e+01,2.347129625177377221e+00,9.121937418419922006e-01,-2.342856601552008033e-01,3.361707999377653300e-01,2.340429736949079143e+03
-7.416208422173648174e+00,1.308285500536362278e+01,1.493373263004474039e+00,9.697330068544011139e-01,-2.391368557589794164e-01,4.928954893680365101e-02,2.349106401032864142e+03
-7.362035604706522740e+00,1.307130575702992026e+01,9.497884117235596557e-01,9.442288706992998382e-01,-2.235094889611029534e-01,-2.418126301113622811e-01,2.354278342309909476e+03
-7.256060055947902931e+00,1.307763358270093512e+01,2.774543746303558822e-01,9.315217366512354991e-01,-2.601391784151890207e-01,-2.541512580203038607e-01,2.360360353966545063e+03
-7.045021465262688132e+00,1.310693732215650975e+01,-7.170974125636587759e-01,9.350996059100057378e-01,-2.600011654779952885e-01,-2.408030750448625634e-01,2.369037018050330062e+03
-6.775953569841117741e+00,1.314528526926608620e+01,-1.732092429330581496e+00,9.384988755420653472e-01,-2.598134937714194348e-01,-2.274089027164866161e-01,2.377713682134115061e+03
-6.451330486837970390e+00,1.318079331434335977e+01,-2.751306456337841766e+00,9.417188969244895125e-01,-2.595761991307460326e-01,-2.139712971271393871e-01,2.386390346217900060e+03
-6.074051400721296901e+00,1.320168786454672194e+01,-3.758514374653253665e+00,9.447590555460383399e-01,-2.592893268346027624e-01,-2.004928226329626695e-01,2.395067010301685059e+03
-5.677487690165748724e+00,1.319715166887958269e+01,-4.668551639738258707e+00,9.476187711326790053e-01,-2.589529315990399261e-01,-1.869760513724014472e-01,2.403130164613318811e+03
-5.205825280130947696e+00,1.315652605883193793e+01,-5.604840047812977843e+00,9.656009302551030737e-01,-2.599821309644419487e-01,4.704792119674727768e-03,2.411806828697103811e+03
-4.696102678919097606e+00,1.307220772014248489e+01,-6.483929901655288930e+00,9.477920949786162730e-01,-2.513748250936124751e-01,1.962112178352071468e-01,2.420483492780888810e+03
-4.363650370055068173e+00,1.299128330049221880e+01,-6.981150765596291663e+00,8.948523561082096789e-01,-2.334500479050546917e-01,3.804449183514467259e-01,2.425813156632938899e+03
-3.798016173553005359e+00,1.280886629339625138e+01,-7.710689296252561498e+00,8.305285140965450452e-01,-1.342095257767208227e-01,5.405628459888891513e-01,2.434489820716723898e+03
-3.217509913672834454e+00,1.257366858609337257e+01,-8.350249246388056434e+00,7.332957749820963045e-01,-2.965109615713523022e-02,6.792614510558209195e-01,2.443166484800508897e+03
-2.631890853014793752e+00,1.228734619986226306e+01,-8.889479417465155464e+00,6.070068963588355349e-01,7.608222164159449130e-02,7.910449565753430168e-01,2.451843148884293896e+03
-2.050835486996172019e+00,1.195193470783110712e+01,-9.318049464491664935e+00,4.566659417567560109e-01,1.788008578957319128e-01,8.714840623071998804e-01,2.460519812968078895e+03
-1.732446954373797920e+00,1.173967333346964814e+01,-9.490717687629320665e+00,2.882300062198831503e-01,2.744346939753100623e-01,9.173914443994203305e-01,2.465369066212374946e+03
-1.181643890641952854e+00,1.131761229766644838e+01,-9.672037617883217919e+00,2.671492009461667316e-01,2.115424459931501688e-01,9.401484446435701692e-01,2.474045730296159945e+03
-1.114946152113601929e+00,1.125948439375473420e+01,-9.678004288730821969e+00,2.447546290299689731e-01,1.476098900775632272e-01,9.582820523769902676e-01,2.475142349573290630e+03
-6.352278720455208916e-01,1.078508465221526791e+01,-9.592390643172890918e+00,3.012957921502676939e-01,1.916614059362309885e-01,9.340689220197369025e-01,2.483466312374177505e+03
-1.720413626473290269e-01,1.025742347402278831e+01,-9.369104191123549086e+00,2.152697400151594165e-01,3.637051128873189931e-01,9.062977048926552648e-01,2.492142976457962504e+03
2.494416357776020332e-01,9.704796731165801660e+00,-9.018349714964848829e+00,1.211127857330668300e-01,5.220113500283806163e-01,8.442948795141991258e-01,2.500819640541747503e+03
6.255644865387415265e-01,9.136084131989040458e+00,-8.548313478652723063e+00,2.238130644761293642e-02,6.606007832599235519e-01,7.504023469302517624e-01,2.509496304625532503e+03
9.529925465515259875e-01,8.560304086328377693e+00,-7.967206548668425370e+00,-7.719554070439756110e-02,7.742387913851573877e-01,6.281664925877749051e-01,2.518172968709317502e+03
1.195430991072300220e+00,8.057391547876486371e+00,-7.367369028949565468e+00,-1.738566662396286155e-01,8.586331744881449124e-01,4.822042422795955185e-01,2.525780380867860003e+03
1.418504273504653579e+00,7.494688605577484175e+00,-6.587925392696680760e+00,-2.515838075010088382e-01,9.032505721128867293e-01,3.476233475755156621e-01,2.534457044951645003e+03
1.586248405207492329e+00,6.950798408274383000e+00,-5.722164081622743481e+00,-3.227334522320297605e-01,9.242531224924783739e-01,2.039541232039823737e-01,2.543133709035430002e+03
1.681470203983790546e+00,6.519506338383179944e+00,-4.938831198088373675e+00,-3.854454742020628211e-01,9.210917401889082701e-01,5.495263934642895948e-02,2.550354779863506792e+03
1.744923923964693646e+00,6.032417696442134769e+00,-3.933420490255005397e+00,-2.141733279765254405e-01,9.656924031748339576e-01,1.468535598250759466e-01,2.559031443947291791e+03
1.760112603057494729e+00,5.581020653177891866e+00,-2.875936305104048962e+00,-3.438372283718637429e-02,9.718882303273918000e-01,2.329142059953309696e-01,2.567708108031076790e+03
1.741969507291559971e+00,5.300520511205548679e+00,-2.130480094146730785e+00,1.467733205242308658e-01,9.394328283096209375e-01,3.097120492903480682e-01,2.573602673824100748e+03
1.678906177498766805e+00,4.927766075180016969e+00,-1.004813457130645737e+00,5.391519567900572574e-02,9.411931904406395377e-01,3.335363997239092493e-01,2.582279337907885747e+03
1.584310589877885533e+00,4.596816905426607924e+00,1.367161524987290933e-01,-3.943856679650726421e-02,9.343008385958567752e-01,3.542944290360374726e-01,2.590956001991670746e+03
1.465126593532987798e+00,4.308684234036774363e+00,1.280249673807829724e+00,-1.324297559406919789e-01,9.188191382898323045e-01,3.717953077320421129e-01,2.599632666075455745e+03
1.455207403448346648e+00,4.290652002801190967e+00,1.363284085594483663e+00,-2.242034937902413483e-01,8.948904116126574770e-01,3.858781473125602601e-01,2.600267624125338443e+03
1.307900776708045720e+00,4.085691051587983402e+00,2.481305823012987410e+00,-2.180575484593758884e-01,8.928754036255623916e-01,3.939827649775145546e-01,2.608944288209123442e+03
1.152611208680531574e+00,3.922551965738614310e+00,3.571981960284341007e+00,-2.118881594422110659e-01,8.907643960284479245e-01,4.020450206074230870e-01,2.617620952292908441e+03
1.140240093267750776e+00,3.912762417259539660e+00,3.654984916901846681e+00,-2.056959873111992854e-01,8.885576148296844279e-01,4.100640509368883579e-01,2.618304636174612369e+03
9.848537899656479855e-01,3.826066309975213020e+00,4.664399186090684601e+00,-1.775406434240855424e-01,8.697230280463547070e-01,4.604988321490246506e-01,2.626981300258397368e+03
8.341359964741573707e-01,3.776118549867246266e+00,5.621079593219325155e+00,-1.487299789569400676e-01,8.476781775976695021e-01,5.092338368336756238e-01,2.635657964342182368e+03
7.545563413802862662e-01,3.766671951008783381e+00,6.121802221395041599e+00,-1.193703254104181710e-01,8.225044245030193046e-01,5.560891988486399429e-01,2.640509090032692711e+03
6.232796789783303648e-01,3.779853937460786462e+00,6.949758349529353119e+00,-1.158531089275212089e-01,8.505735805459153642e-01,5.129333691879341961e-01,2.649185754116477710e+03
5.059671120805440125e-01,3.820265214003681464e+00,7.702483733623764373e+00,-1.120274135266318138e-01,8.763779272392210329e-01,4.684117710561163106e-01,2.657862418200262709e+03
4.056809265413095500e-01,3.883914654922792753e+00,8.371608258946197978e+00,-1.079034256435932454e-01,8.998487589639104778e-01,4.226429482708400909e-01,2.666539082284047709e+03
3.250639316133333567e-01,3.966564759431417730e+00,8.950037604173759931e+00,-1.034921258663211163e-01,9.209235828300078586e-01,3.757487650928270639e-01,2.675215746367832708e+03
2.660591165936102009e-01,4.063617739603836654e+00,9.433213140218372317e+00,-9.880525970711730166e-02,9.395462850007334499e-01,3.278540818611478946e-01,2.683892410451617707e+03
2.301688431401772983e-01,4.170275842955084578e+00,9.817854450416492185e+00,-9.385530634042146825e-02,9.556672800488831276e-01,2.790864226597856712e-01,2.692569074535402706e+03
