8.599576833610978355e+00,-9.220572616509468133e+00,-2.291215862794257152e+00,-9.708071650585206047e-01,1.452405937457622587e-01,1.908837819170590144e-01,3.189348684050915494e+02
8.511860446553384918e+00,-9.880552454237284010e+00,-3.030327856185210500e+00,-9.395176755176953831e-01,1.629175464996259204e-01,3.012680043279852282e-01,3.276115324888766054e+02
8.454513602030969466e+00,-9.895696305279072291e+00,-3.137624753125400012e+00,-8.955670373727413480e-01,1.783989912182296078e-01,4.075922981397490097e-01,3.283969988504130129e+02
6.931842036484049174e+00,-9.340947583949366972e+00,-5.050962118534711109e+00,-7.825952228895118878e-01,1.304298191578501520e-01,6.087123946362476001e-01,3.370736629341980688e+02
5.227810004808003619e+00,-8.416052473564016978e+00,-6.853713789801984646e+00,-6.261791391203970214e-01,7.522008631174685600e-02,7.760409939842392024e-01,3.426735174398660888e+02
2.552952672806565015e+00,-7.033002207009132256e+00,-9.475300514428003140e+00,-5.243246871746262139e-01,9.963426821650041287e-02,8.456681589230233831e-01,3.513501815236511447e+02
3.437548738583394714e-01,-6.085377233806744890e+00,-1.142478985986611839e+01,-4.141763025328576986e-01,1.224723957025362353e-01,9.019182350475575261e-01,3.600268456074362007e+02
-1.304089091207633277e+00,-5.609076349054051391e+00,-1.269843115410454892e+01,-2.974763442548102876e-01,1.433732100759013695e-01,9.439014499626459109e-01,3.687035096912212566e+02
-2.296339340535747731e+00,-5.643038676119877195e+00,-1.329261472993261428e+01,-1.760708024680902317e-01,1.620060973214642319e-01,9.709537048434003781e-01,3.773801737750063126e+02
-2.540253569076936113e+00,-6.229204401743769992e+00,-1.320387266593623465e+01,-5.188010000427350360e-02,1.780763174188217668e-01,9.826470782524977521e-01,3.860568378587913685e+02
-2.513921064467932620e+00,-6.365588139113881994e+00,-1.313436302870225703e+01,7.313128307931048011e-02,1.913296663260272146e-01,9.787965949157111378e-01,3.873951322043604932e+02
-1.873675878619804003e+00,-7.570951508587167922e+00,-1.231990975868929894e+01,-2.077987833971178810e-01,4.938194646057708637e-01,8.443695885073172480e-01,3.960717962881455492e+02
-5.759552315842074721e-01,-9.288197539266173308e+00,-1.095048533697716309e+01,-4.495602616721378064e-01,7.032278472916267953e-01,5.507850451126338198e-01,4.047484603719306051e+02
5.352320085711581577e-01,-1.094628489387472747e+01,-9.588023691388700698e+00,-6.065829028900204811e-01,7.800828835737667610e-01,1.533814743619124066e-01,4.124121790381846040e+02
1.055048635995109230e+00,-1.253886969549407482e+01,-8.247083886254598539e+00,-4.844256445691325075e-01,8.513590616218954521e-01,2.012896993803471868e-01,4.210888431219696599e+02
6.311520974559556851e-01,-1.348437734051459280e+01,-7.240954668853416543e+00,-3.514667264077934727e-01,9.036516839420970504e-01,2.447095714012311740e-01,4.297655072057547159e+02
-3.513985300487659780e-02,-1.367367233748643152e+01,-6.797558231755759905e+00,-2.106708012592758694e-01,9.357947558041403990e-01,2.826729355711365410e-01,4.350274833273855393e+02
-1.733233028748725646e+00,-1.310884338856232922e+01,-6.352460610323429790e+00,8.347147466332911769e-02,8.604149246015738717e-01,5.027093299723083275e-01,4.437041474111705952e+02
-4.008937476561777125e+00,-1.145776840604937519e+01,-6.205169964313620667e+00,3.658761432573688355e-01,6.640451943404602764e-01,6.520556936867271114e-01,4.523808114949556511e+02
-6.427555281160087119e+00,-9.497893993601120854e+00,-6.150777654926196547e+00,5.968320094428728462e-01,3.742986996504606978e-01,7.097112341968130345e-01,4.610574755787407071e+02
-7.458599334893899702e+00,-8.720009455998074088e+00,-6.099423889497899154e+00,7.438625039532804628e-01,3.191902699996551629e-02,6.675685365028042328e-01,4.649508163910221015e+02
-9.507054073224585622e+00,-7.394354384032955529e+00,-5.838927111592661312e+00,8.357992269632531501e-01,2.741826245918648625e-02,5.483483300711098352e-01,4.736274804748071574e+02
-1.117250968206077921e+01,-6.585750496158622624e+00,-5.343028113423562431e+00,9.087748971574793888e-01,2.229548480122114235e-02,4.166882499596630263e-01,4.823041445585922133e+02
-1.242575873544552145e+01,-6.074169421631618881e+00,-4.576908972992997704e+00,9.611339934588960521e-01,1.666690974704959291e-02,2.755751453557367947e-01,4.909808086423772693e+02
-1.322375040663783530e+01,-5.640766970516255085e+00,-3.505808147353353998e+00,9.916886988221497168e-01,1.066022733197701661e-02,1.282103123083738194e-01,4.996574727261623252e+02
-1.350960999705466037e+01,-5.068262255727769450e+00,-2.095027723197877556e+00,9.997458453265168909e-01,4.411705247774706275e-03,-2.206312782877804107e-02,5.083341368099473812e+02
-1.322692292633017352e+01,-4.171259833923209648e+00,-3.542741817548709649e-01,9.851226393221648170e-01,-1.936902379964578575e-03,-1.718360669484383929e-01,5.168135734390102698e+02
-1.235772017972478842e+01,-2.833966802519571893e+00,1.755184616944041043e+00,9.113655072532242940e-01,-5.386891435542297962e-02,-4.080552073629774568e-01,5.254902375227953826e+02
-1.105009144671386245e+01,-1.266952298352063799e+00,4.001577902795351527e+00,7.793387293172039376e-01,-1.023567223560103712e-01,-6.181846377706859963e-01,5.341669016065804954e+02
-9.544510931915761276e+00,2.024755718133943450e-01,6.113740482140941346e+00,5.974836603126696399e-01,-1.443001830857420786e-01,-7.887894096789735965e-01,5.428435656903656081e+02
-8.068051712126724340e+00,1.366912161349122634e+00,7.873435998131691704e+00,3.774274895743875979e-01,-1.770175762645113671e-01,-9.089616426493771772e-01,5.515202297741507209e+02
-6.806834001167700876e+00,2.240270323387313134e+00,9.154376614801090994e+00,1.332398478862770186e-01,-1.984170620272580343e-01,-9.710179259068399960e-01,5.600851580535378389e+02
-5.862745826959180562e+00,2.985250471710415354e+00,9.931002821725915197e+00,2.375829508516484057e-01,-1.864410462218498155e-01,-9.533058678868352454e-01,5.687618221373229517e+02
-5.381185387979690482e+00,3.732917627913304059e+00,1.012494603027074014e+01,3.392307380532203487e-01,-1.723499255688322740e-01,-9.247788976374666792e-01,5.774384862211080645e+02
-5.481576503985917448e+00,4.631947661884897371e+00,9.677072482942005394e+00,4.370300678116560422e-01,-1.563035575634647567e-01,-8.857606435831364422e-01,5.861151503048931772e+02
-6.177249447326039977e+00,5.758464157567849462e+00,8.587868268101791713e+00,5.298714561488118147e-01,-1.384839800298257595e-01,-8.366937475761010434e-01,5.947918143886782900e+02
-6.196970745861920093e+00,5.783685661578907400e+00,8.559528652854995201e+00,6.167016613646094658e-01,-1.190933463261980157e-01,-7.781348441817493855e-01,5.949680667067356126e+02
-7.300448998414073465e+00,7.059691863953583280e+00,6.949856994674676436e+00,7.648032944727440885e-01,-1.256223836383940085e-01,-6.318963028008736105e-01,6.036447307905207253e+02
-8.533717519906033999e+00,8.323402819688434207e+00,5.001272780521748729e+00,8.797411254081407561e-01,-1.267041179295934072e-01,-4.582571535351183112e-01,6.123213948743058381e+02
-9.631592771149595222e+00,9.406784753556854284e+00,2.893034095984784226e+00,9.565311658425096342e-01,-1.222916431132218262e-01,-2.647468277382575841e-01,6.209980589580909509e+02
-1.033909404636269436e+01,1.013372817778994950e+01,8.044323196079270488e-01,9.918436107759918130e-01,-1.125762955201196902e-01,-5.975641765241807013e-02,6.296747230418760637e+02
-1.050245014304312008e+01,1.040008793795696640e+01,-1.128630141303043732e+00,9.841472254727632318e-01,-9.797935696007627204e-02,1.478251812269510412e-01,6.383513871256611765e+02
-1.015372160464739082e+01,1.025741111167782194e+01,-2.857053056499999855e+00,9.337757429362737449e-01,-7.913378693986562740e-02,3.489967129775948251e-01,6.470280512094462892e+02
-9.716119354152459309e+00,1.001700449977152374e+01,-3.861457155703813982e+00,8.429133930370582561e-01,-5.685677615243755340e-02,5.350348762885120957e-01,6.526254349302826085e+02
-8.798031720550209656e+00,9.527151934291303803e+00,-5.242324329172454611e+00,7.684319279813771608e-01,-5.188156808183969071e-02,6.378233885273962844e-01,6.613020990140677213e+02
-7.658887056205906596e+00,8.988066348743041445e+00,-6.403642922858565179e+00,6.815497134255571465e-01,-4.606910909502012763e-02,7.303188518155854236e-01,6.699787630978528341e+02
-6.393006886608469941e+00,8.541379471766326503e+00,-7.339858699731522051e+00,5.836688319032481420e-01,-3.951319914300543273e-02,8.110286072382092426e-01,6.786554271816379469e+02
-5.085888229766156066e+00,8.331523823547833274e+00,-8.045464361501288408e+00,4.763688556817623487e-01,-3.231963553279613988e-02,8.786501889239191065e-01,6.873320912654230597e+02
-3.806059221502276824e+00,8.407198414210945714e+00,-8.527933423291075954e+00,3.613813570567105948e-01,-2.460450566614875989e-02,9.320923414948052432e-01,6.960087553492081724e+02
-2.604846109208826199e+00,8.622571630027797696e+00,-8.820651376414057054e+00,2.405619661664141207e-01,-1.649231375035846783e-02,9.704926295555629245e-01,7.046854194329932852e+02
-2.577411012112329036e+00,8.627922650760160295e+00,-8.825644651809989583e+00,1.158604270292062227e-01,-8.113971696905572517e-03,9.932313551796928541e-01,7.048924042306986166e+02
-1.509735669418140080e+00,8.737026283994117293e+00,-8.975300668638299229e+00,8.164309567103708587e-02,-7.305040216712542500e-02,9.939799010385882427e-01,7.135690683144837294e+02
-6.453691368157725705e-01,8.497050693835149104e+00,-9.029057580026153218e+00,4.698586872402304992e-02,-1.375932112351455350e-01,9.893727489468184810e-01,7.222457323982688422e+02
-6.825483413720238868e-02,7.669777567077404434e+00,-9.033323310676479423e+00,1.207547566702902274e-02,-2.013946495122928837e-01,9.794347237215195179e-01,7.309223964820539550e+02
1.267572990488907148e-01,6.458727248650833808e+00,-9.031328142730297159e+00,-2.289999017786376045e-02,-2.641109614960616137e-01,9.642193684340346627e-01,7.379002473021155311e+02
-6.411851549987616916e-02,4.063615252860547145e+00,-9.063975841392620580e+00,-1.552709171604354718e-02,-1.834652439360575371e-01,9.829025453652128208e-01,7.465769113859006438e+02
-8.094428814629754942e-01,1.270399022531041089e+00,-9.118302721930257704e+00,-8.046946675869123822e-03,-1.015523192448442857e-01,9.947966491199473626e-01,7.552535754696857566e+02
-1.438419774981470223e+00,1.045730723448917293e-01,-9.121310673596299878e+00,-5.112183866930723351e-04,-1.893793773582845910e-02,9.998195302977042065e-01,7.600325983300808730e+02
-2.917080351657870718e+00,-2.478844928351126853e-01,-9.064231506651367454e+00,5.778089062109726358e-03,-1.232729673816280319e-02,9.999063212982216564e-01,7.687092624138659858e+02
-4.910651929163936558e+00,7.888437080568536652e-01,-9.137526153814119922e+00,1.206691400694972875e-02,-5.715630796327404381e-03,9.999098564776587317e-01,7.773859264976510985e+02
-5.041943458098899988e+00,8.560542341257546539e-01,-9.150490668969235131e+00,1.835473561179434832e-02,8.965125167776151916e-04,9.998301355108814015e-01,7.778831474013238676e+02
-7.454193428116687947e+00,1.716428160289492855e+00,-9.482051394648424392e+00,2.312274106400213081e-01,-2.888151604535963979e-01,9.290412733897666087e-01,7.865598114851089804e+02
-9.683055398295444149e+00,2.147412649920912742e+00,-9.780980210932110452e+00,4.130557263651356004e-01,-5.397507997486847842e-01,7.335203072093212651e-01,7.952364755688940932e+02
-1.086618087261312304e+01,2.519898111341421387e+00,-9.568104068187686551e+00,5.394276145835891212e-01,-7.182200641817420017e-01,4.395176765867792046e-01,8.039131396526792059e+02
-1.086556926106910836e+01,2.804619321092538975e+00,-9.066753911778018704e+00,5.933765194995157533e-01,-8.002618598080629697e-01,8.650584861110020840e-02,8.090429698217538999e+02
-9.850302522520559378e+00,3.404774314176918448e+00,-7.615719806909431178e+00,5.408895912576812126e-01,-8.410309974956402534e-01,-1.016421766828547006e-02,8.177196339055390126e+02
-8.052717402499490973e+00,4.073255435998806462e+00,-5.616690953338165926e+00,4.809588812005528013e-01,-8.702257537636178819e-01,-1.066943863622507455e-01,8.263962979893241254e+02
-6.199596326088699705e+00,4.695723330450826793e+00,-3.348154250338335913e+00,4.144091625492384301e-01,-8.874443534006799528e-01,-2.017562034063021814e-01,8.350729620731092382e+02
-5.023869364447566710e+00,5.180378513069094915e+00,-1.088652821060362763e+00,3.421562976110530951e-01,-8.924498357936172521e-01,-2.940414232680253481e-01,8.437496261568943510e+02
-4.573593415274352481e+00,5.520711386075682903e+00,8.414999043000147561e-01,2.651946341865624168e-01,-8.851733154718480767e-01,-3.822800120011672909e-01,8.524262902406794637e+02
-4.054228112575165355e+00,5.818249139823388205e+00,2.208175023729384900e+00,1.845833221041186523e-01,-8.657149300271341774e-01,-4.652576244720486032e-01,8.611029543244645765e+02
-3.929741650792771157e+00,5.866247856507744274e+00,2.370174025799437256e+00,1.014317380847656463e-01,-8.343424623741760859e-01,-5.418323153786278601e-01,8.624486719149061855e+02
-2.913447399428515272e+00,6.244368820851268431e+00,3.227252585152151187e+00,-5.008739663309935697e-02,-7.800138024127385439e-01,-6.237529324537347541e-01,8.711253359986912983e+02
-1.548508588688191745e+00,6.806910195405280639e+00,3.853877605279810492e+00,-1.999726173048174960e-01,-7.002405602632809645e-01,-6.853262800236492591e-01,8.798020000824764111e+02
5.542247090473547549e-02,7.654019027392149788e+00,4.483405901650153069e+00,-3.433345832259215302e-01,-5.976249943726156255e-01,-7.245438082427070325e-01,8.884786641662615239e+02
1.780632005326802769e+00,8.806338096346109978e+00,5.262355824987112740e+00,-4.754967464686326584e-01,-4.755144826001966307e-01,-7.401262195975227831e-01,8.971553282500466366e+02
2.743536577621991768e+00,9.529346678295226525e+00,5.756500325928368689e+00,-5.921478965710311737e-01,-3.378923337159111528e-01,-7.315651983267058567e-01,9.019605574474145442e+02
4.364098371721368608e+00,1.081654491963312736e+01,6.673480034314264842e+00,-5.850729424586612604e-01,-3.313367588660651175e-01,-7.402051095467531150e-01,9.106372215311996570e+02
5.686071696083178750e+00,1.192926319076013542e+01,7.535475117550660684e+00,-5.778998856176524868e-01,-3.247256273628363332e-01,-7.487209020117536751e-01,9.193138856149847697e+02
6.517114535724960689e+00,1.265699090835456175e+01,8.228441321848110945e+00,-5.706299277077602206e-01,-3.180600467170324741e-01,-7.571111492105796481e-01,9.279905496987698825e+02
6.651640514000247251e+00,1.279528436759621179e+01,8.638369614331207202e+00,-5.632642865826613665e-01,-3.113411335386909728e-01,-7.653744456144129238e-01,9.366672137825549953e+02
6.440994462757243966e+00,1.264286200735939225e+01,8.710090336912191589e+00,-5.558041960798837389e-01,-3.045700133473795979e-01,-7.735094068991307248e-01,9.407814125213211582e+02
5.253795602825643840e+00,1.171553659453101126e+01,8.518725883568574631e+00,-4.246600346163226236e-01,-2.862543749835305684e-01,-8.589064488074070747e-01,9.494580766051062710e+02
3.061082632732004427e+00,9.903048203870396193e+00,7.869206884575403294e+00,-2.829728782503087015e-01,-2.608319155793465405e-01,-9.229794483034584607e-01,9.581347406888913838e+02
3.849152889794145160e-01,7.566054242585193990e+00,6.967788192237555300e+00,-1.342603789038959716e-01,-2.289337975537756031e-01,-9.641376805181036680e-01,9.668114047726764966e+02
-1.975682279552027021e+00,5.229972720319148394e+00,6.127437655855605847e+00,1.778539823287221197e-02,-1.913519515925228287e-01,-9.813593175957574521e-01,9.754880688564616094e+02
-3.480226755810905459e+00,3.235564963413704032e+00,5.567023485888310752e+00,1.693896334607857823e-01,-1.490194161871037370e-01,-9.742167960344934041e-01,9.841647329402467221e+02
-4.063565765376644379e+00,1.902719742888855370e+00,5.349767598566899096e+00,3.167884657192716613e-01,-1.029871743390690930e-01,-9.428874322574847255e-01,9.910435143258105199e+02
-4.310989825609024884e+00,4.023090414001144755e-01,5.305171090863748162e+00,3.272630310676263865e-01,-3.528147447130881853e-02,-9.442733322791290185e-01,9.997201784095956327e+02
-4.290653953300044066e+00,-1.006516820750751773e+00,5.457238657034581664e+00,3.362008627829248808e-01,3.258988142517594416e-02,-9.412252012620871966e-01,1.008396842493380746e+03
-4.329379069349364784e+00,-2.453933105766727518e+00,5.742371184568050069e+00,3.435599931854986799e-01,1.003081964726439540e-01,-9.337573543490848005e-01,1.017073506577165858e+03
-4.761614974163760117e+00,-4.059910718748265701e+00,6.096941777371339910e+00,3.493058670877959848e-01,1.675554927153893037e-01,-9.219048584735440866e-01,1.025750170660950971e+03
-5.758822354382471254e+00,-5.845473587653740921e+00,6.467264538746682057e+00,3.534115039930513236e-01,2.340160038078692717e-01,-9.057233677040688047e-01,1.034426834744735970e+03
-6.529885485938529577e+00,-6.894614071253928778e+00,6.672361347721054159e+00,3.558576247579811058e-01,2.993776573251179518e-01,-8.852888620071521775e-01,1.039362803459668157e+03
-7.971068833308449619e+00,-8.607584565419221789e+00,7.004413521315240310e+00,4.975596757444596951e-01,2.903142559869344996e-01,-8.174044297919809132e-01,1.048039467543453156e+03
-9.251727612994262273e+00,-9.967826986630162978e+00,7.281074063282046538e+00,6.269371642557853841e-01,2.740597860533049435e-01,-7.292729432408578960e-01,1.056716131627238155e+03
-9.999199615481098036e+00,-1.075180243415247006e+01,7.478539856766416527e+00,7.407854495061235722e-01,2.510168688448551899e-01,-6.230774023787721827e-01,1.065392795711023155e+03
-1.009432596646102098e+01,-1.090605467476718182e+01,7.540018156160417817e+00,8.362845346542424618e-01,2.217562691338229031e-01,-5.014482368075492413e-01,1.069527337095564462e+03
-9.457309081994900168e+00,-1.061552680088546730e+01,7.583038470856395818e+00,6.613346829359674217e-01,3.203877715532232884e-01,-6.782227605926395286e-01,1.078204001179349461e+03
-7.307891491695157171e+00,-9.243546792661323508e+00,7.487995979277367375e+00,4.390432246730117671e-01,3.960843061873671744e-01,-8.064466933788140279e-01,1.086880665263134460e+03
-3.748331931528265493e+00,-7.273368482749871688e+00,7.324570247276579238e+00,1.853228623207146819e-01,4.434271550753779989e-01,-8.769411581421743263e-01,1.095557329346919460e+03
-2.235338096275546693e+00,-6.599404724306844550e+00,7.279779042483023765e+00,-8.166388169450330969e-02,4.590272796313079606e-01,-8.846598029645875716e-01,1.098758131633647281e+03
1.545999475447425553e+00,-5.778487887571835735e+00,7.342808981063719820e+00,-1.829756197625522218e-01,4.100700875756905228e-01,-8.935101822852855591e-01,1.107434795717432280e+03
4.483189408873184512e+00,-6.245230021596330339e+00,7.684722001571532957e+00,-2.819563674294580657e-01,3.558889312747059441e-01,-8.909779320845130357e-01,1.116111459801217279e+03
6.178394298043100363e+00,-7.160353873371381184e+00,8.267147630423643534e+00,-3.773452023460373006e-01,2.971740310669722107e-01,-8.770953161004239051e-01,1.124788123885002278e+03
6.461086054699858749e+00,-7.898672956886068519e+00,9.022092095057235639e+00,-4.679269591176316023e-01,2.346733604986501465e-01,-8.520391861895330043e-01,1.133464787968787277e+03
5.688560937460000133e+00,-8.263331841380955112e+00,9.741180376316686207e+00,-5.525477072373311538e-01,1.691831191430894499e-01,-8.161287296884132125e-01,1.141209167397182000e+03
4.052382054489899410e+00,-8.396283070771731971e+00,1.044920822325038934e+01,-4.076977823257291189e-01,1.344098902524580308e-01,-9.031691423478723779e-01,1.149885831480966999e+03
1.971581251702943405e+00,-8.293784807125303971e+00,1.090592363966120537e+01,-2.507120405692387366e-01,9.563572035628607748e-02,-9.633251173441153004e-01,1.158562495564751998e+03
-1.641774392279851669e-01,-8.035842298101336212e+00,1.095463966990157800e+01,-8.626342343732777695e-02,5.401478741745475987e-02,-9.948060235631984716e-01,1.167239159648536997e+03
-2.075140263678503239e+00,-7.718492449048071968e+00,1.055794157045263582e+01,8.075298823075764687e-02,1.078600625051710261e-02,-9.966747799364308324e-01,1.175915823732321996e+03
-2.092696973996737153e+00,-7.715290054909283768e+00,1.055195130488480082e+01,2.453656768114964859e-01,-3.276384790004360781e-02,-9.688757479231963066e-01,1.176002597172595415e+03
-3.714301725294602452e+00,-7.450455028272832791e+00,9.912422198105611315e+00,2.387854506985786218e-01,-1.213069751499609716e-01,-9.634646471521480793e-01,1.184679261256380414e+03
-5.093351523671376668e+00,-7.355683744538164426e+00,9.352024835647414491e+00,2.303158416456481672e-01,-2.088902419977781977e-01,-9.504301551837783801e-01,1.193355925340165413e+03
-6.282991901442111171e+00,-7.546119935223685182e+00,9.191033068226703406e+00,2.200238638904901400e-01,-2.948206694272211825e-01,-9.298754068124179817e-01,1.202032589423950412e+03
-7.013493439855555955e+00,-7.855013087417951567e+00,9.406872666106465886e+00,2.079909493593374847e-01,-3.784183548967545718e-01,-9.019630334214654432e-01,1.207929869767793889e+03
-8.020222707912793680e+00,-8.520928434077058355e+00,1.004858187287978666e+01,2.904013308639204483e-01,-3.250207805372127834e-01,-9.000147550184144363e-01,1.216606533851578888e+03
-8.984458906736533024e+00,-9.355328565769013949e+00,1.074221287189928375e+01,3.700103145989616094e-01,-2.684878768741573163e-01,-8.893844090501893396e-01,1.225283197935363887e+03
-9.948961638953258912e+00,-1.021928349796664826e+01,1.109022372274127655e+01,4.460499551570156207e-01,-2.093649890848210404e-01,-8.701745450480398159e-01,1.233959862019148886e+03
-1.094805888675716510e+01,-1.097268218406860818e+01,1.069514455126294905e+01,5.177867383817282843e-01,-1.482224452687508909e-01,-8.425704719927838982e-01,1.242636526102933885e+03
-1.200763234736881913e+01,-1.147446330483329824e+01,9.159660517588902096e+00,5.845286562479912185e-01,-8.565005545028649137e-02,-8.068384708389348958e-01,1.251313190186718884e+03
-1.228538766118897207e+01,-1.155560804175910583e+01,8.574030027794352193e+00,6.456318815158487157e-01,-2.225142272800457663e-02,-7.633232262653024680e-01,1.253503822420338793e+03
-1.343565889357695475e+01,-1.160797021976615362e+01,5.221785824121446318e+00,8.831245709851014425e-01,-4.612863106191239515e-02,-4.668630864820824677e-01,1.262180486504123792e+03
-1.446533019864885894e+01,-1.136014801810375552e+01,8.827333153886778305e-01,9.926862379583820672e-01,-6.332356105852418593e-02,-1.027723678025336540e-01,1.270857150587908791e+03
-1.488869304340578736e+01,-1.122619765589599439e+01,-1.584936302313950440e+00,9.584456090942943263e-01,-7.134532859780978731e-02,2.762061883733180068e-01,1.276364922682093948e+03
-1.506615254834138362e+01,-1.127305995092214275e+01,-4.244407202207958640e+00,9.419675598532156746e-01,1.229695054884675891e-02,3.354756342731342600e-01,1.285041586765878947e+03
-1.473188922152092672e+01,-1.164978240186221647e+01,-5.640361824299793270e+00,9.153346865289506695e-01,9.580664707692090887e-02,3.911284929694519019e-01,1.293718250849663946e+03
-1.402265998449123252e+01,-1.232395403828001790e+01,-6.076497362139508418e+00,8.788341049872185895e-01,1.782834979064955860e-01,4.425648091356925162e-01,1.302394914933448945e+03
-1.307259422530268189e+01,-1.325904217437285837e+01,-5.856711317203041389e+00,8.328593051317835227e-01,2.588383748337446666e-01,4.892300824443883145e-01,1.311071579017233944e+03
-1.201313889318180728e+01,-1.441446560694708801e+01,-5.285038055477269126e+00,7.779059093012359316e-01,3.366028685447166602e-01,5.306212445438285297e-01,1.319748243101018943e+03
-1.115437141190159132e+01,-1.548543066649387789e+01,-4.763084980625609255e+00,7.145663300415381336e-01,4.107386493590267640e-01,5.662920817855342515e-01,1.326825654046477666e+03
-1.022242399821500669e+01,-1.691236646995458059e+01,-4.331055537281554457e+00,6.653693596220011663e-01,4.853077585587348142e-01,5.672371591824040271e-01,1.335502318130262665e+03
-9.536082536808795140e+00,-1.842429426469381326e+01,-4.403391891334045738e+00,6.108615558626658837e-01,5.560032201253468642e-01,5.636546626950547090e-01,1.344178982214047664e+03
-9.050525168867174841e+00,-1.977634928991330199e+01,-5.106250519690909151e+00,5.514779835227621163e-01,6.222607697326207887e-01,5.555731888239727745e-01,1.352855646297832664e+03
-8.371578374078000095e+00,-2.034787426586102299e+01,-6.210022495952155275e+00,4.876926214345270183e-01,6.835515633350850440e-01,5.430572412360834544e-01,1.361532310381617663e+03
-8.362277611029643509e+00,-2.034768594864069158e+01,-6.222143938151481812e+00,4.200145802205869083e-01,7.393863972334873136e-01,5.262067160217420714e-01,1.361619784419703819e+03
-6.885801838340710468e+00,-1.933875911617509402e+01,-7.317256932050087315e+00,2.601684814808107871e-01,5.252903447213699284e-01,8.101730771799782183e-01,1.370296448503488818e+03
-3.959022594920934779e+00,-1.596860570105385690e+01,-7.994157484126473534e+00,6.077024296318871838e-02,2.313369753254129191e-01,9.709728015852306937e-01,1.378973112587273818e+03
-2.476378015066268631e-02,-1.093159265649444656e+01,-7.933341980403015192e+00,-1.478666006441008429e-01,-9.778542499716234848e-02,9.841602913513912698e-01,1.387649776671058817e+03
2.897079651576800696e+00,-6.922026641691524596e+00,-7.200723451193162816e+00,-3.340240112328012323e-01,-4.120419894889937318e-01,8.477307112631154995e-01,1.395205345963566742e+03
4.900569164103821151e+00,-3.810801222634411900e+00,-5.695131918895151912e+00,-4.553649307213229469e-01,-5.493920627357610220e-01,7.005777196510617477e-01,1.403882010047351741e+03
5.740974951247360458e+00,-2.091546444054092735e+00,-3.663567515094507510e+00,-5.515502789238699854e-01,-6.563922500104802937e-01,5.147227447314656201e-01,1.412558674131136740e+03
5.743733901534111119e+00,-1.493596753235254981e+00,-1.296102105254196557e+00,-6.172664530192054633e-01,-7.271314958716883492e-01,3.004328771732509007e-01,1.421235338214921740e+03
5.249094418037100418e+00,-1.756805539607425137e+00,1.217122350275485543e+00,-6.488830365937012790e-01,-7.577018839315403653e-01,6.954609913732714976e-02,1.429912002298706739e+03
4.611966290176777505e+00,-2.631946927238681067e+00,3.685933478088836424e+00,-6.446533865176690137e-01,-7.464145589677577686e-01,-1.651826789037268983e-01,1.438588666382491738e+03
4.201765973273557719e+00,-3.881114054678383773e+00,5.920168178515244684e+00,-6.048111478110470562e-01,-6.938930527343667443e-01,-3.907862674764456812e-01,1.447265330466276737e+03
4.261911356754603197e+00,-5.314505700193181248e+00,7.789183710033707797e+00,-5.315573526142488570e-01,-6.030388441719484183e-01,-5.948015915409393672e-01,1.455941994550061736e+03
4.766322253728749736e+00,-6.821402217346512309e+00,9.281356344307710060e+00,-4.289388129892671708e-01,-4.788710537511915444e-01,-7.659582290107848079e-01,1.464618658633846735e+03
5.555211418171356996e+00,-8.325350424772576474e+00,1.044461237632141959e+01,-3.026245330982820780e-01,-3.282491371199712238e-01,-8.948010370727415008e-01,1.473295322717631734e+03
5.767437425196757061e+00,-8.676159657226728328e+00,1.067984097304542424e+01,-1.595925069409713515e-01,-1.594939144065431746e-01,-9.742124629645958489e-01,1.475350588592802978e+03
6.676287113312058707e+00,-1.008154721077895388e+01,1.153242316857178018e+01,-1.125101989540790021e-01,-1.571314243251376030e-01,-9.811468649588065416e-01,1.484027252676587977e+03
7.530682856808953218e+00,-1.129521243443417511e+01,1.216352381847073616e+01,-6.517245443578616182e-02,-1.544121811249751508e-01,-9.858536552150211074e-01,1.492703916760372977e+03
8.187852456693486047e+00,-1.222548943486314066e+01,1.262125185596234012e+01,-1.768674699280755463e-02,-1.513423586110166086e-01,-9.883221486280314716e-01,1.501380580844157976e+03
8.510413586059270230e+00,-1.277632262364257798e+01,1.295375230501094066e+01,2.983911397952037151e-02,-1.479289264581973851e-01,-9.885467414299290434e-01,1.510057244927942975e+03
8.366434026684315128e+00,-1.284741448137507369e+01,1.320919622283069650e+01,7.729722798572799536e-02,-1.441796343907663369e-01,-9.865269238954007536e-01,1.518733909011727974e+03
7.705518713331236391e+00,-1.241922446104492472e+01,1.341389920168935923e+01,1.245798483239848042e-01,-1.401029945927533549e-01,-9.822672814949481301e-01,1.527410573095512973e+03
6.628097768487523744e+00,-1.164103847943662196e+01,1.355044443492817763e+01,1.715796266311417628e-01,-1.357082623891803508e-01,-9.757774844922549873e-01,1.536087237179297972e+03
6.526870958330790451e+00,-1.156807350359365039e+01,1.355791153835792429e+01,2.181898565256111810e-01,-1.310054152417224616e-01,-9.670722660091487510e-01,1.536793681076719395e+03
5.202273511073248535e+00,-1.068497531769018849e+01,1.358356170845136468e+01,1.773577095780817792e-01,-1.251550942581791670e-01,-9.761549289070406976e-01,1.545470345160504394e+03
3.787817092872926672e+00,-9.952630296779744867e+00,1.345933280482235794e+01,1.362091675720903672e-01,-1.190814993510250358e-01,-9.834961409059331805e-01,1.554147009244289393e+03
2.417501492982265798e+00,-9.618456780716867272e+00,1.314600564318176978e+01,9.481763468089407509e-02,-1.127954651892098120e-01,-9.890828070397141847e-01,1.562823673328074392e+03
1.210324025094724254e+00,-9.933869997046009814e+00,1.260440039982895222e+01,5.325694839074186088e-02,-1.063082053270484328e-01,-9.929049616773425457e-01,1.571500337411859391e+03
2.702257305489452199e-01,-1.115387120078776562e+01,1.179538479558908293e+01,1.160124787989893352e-02,-9.963129221459331164e-02,-9.949557862811565512e-01,1.580177001495644390e+03
-2.108681256882073696e-01,-1.274000755293781495e+01,1.099566346025935104e+01,-3.007515813891659812e-02,-9.277663656948645365e-02,-9.952316215658427723e-01,1.586639509500936583e+03
-4.927784885151123562e-01,-1.600577401767545993e+01,9.623191431339961355e+00,-1.625114661445780512e-02,1.085944910497299853e-01,-9.939522809197256503e-01,1.595316173584721582e+03
-4.706545847558945561e-01,-1.781593696137025162e+01,8.872976021220127407e+00,-1.765011892023043679e-03,3.055411400733467620e-01,-9.521761898164458060e-01,1.599338965808190324e+03
5.180062823305893460e-02,-2.021507395176721289e+01,7.050129954211715066e+00,-3.224456362094076933e-01,2.769014151860578754e-01,-9.051808758241449704e-01,1.608015629891975323e+03
1.241321898106054977e+00,-2.021844210065438219e+01,4.980600864689626484e+00,-6.089905994468960415e-01,2.189474845498634581e-01,-7.623584778794517680e-01,1.616692293975760322e+03
2.917838783472491038e+00,-1.862395632103994814e+01,2.717354333868721383e+00,-8.310647245523964388e-01,1.378146382693716809e-01,-5.388288680864692370e-01,1.625368958059545321e+03
4.853992282977489303e+00,-1.622289321832410636e+01,3.133963449287829328e-01,-9.651580521328946283e-01,4.209202703923783928e-02,-2.582560660718326018e-01,1.634045622143330320e+03
6.847741120337310861e+00,-1.358082295890492119e+01,-2.048842141823440599e+00,-9.970747840299710729e-01,-5.808664367449596633e-02,4.965699224285243657e-02,1.642722286227115319e+03
8.649725162220596175e+00,-1.111135192186634768e+01,-3.914566843396541707e+00,-9.234361219071925975e-01,-1.521159412654568277e-01,3.523130272507671301e-01,1.650675198696688540e+03
1.056300813636602243e+01,-8.457022861338709063e+00,-5.468564363493468861e+00,-9.131059172995152906e-01,-2.154341139633807467e-01,3.461556388857515709e-01,1.659351862780473539e+03
1.238807429049929887e+01,-5.998569688553300416e+00,-6.506817460248114138e+00,-8.989828325023632161e-01,-2.778574001074833322e-01,3.385603817204000388e-01,1.668028526864258538e+03
1.408088974846443975e+01,-3.897680688574125085e+00,-7.012361946135386326e+00,-8.811255331823315551e-01,-3.391265082721095503e-01,3.295588053148215679e-01,1.676705190948043537e+03
1.558749319094737551e+01,-2.314601334690075340e+00,-6.968344782477136512e+00,-8.596081953534581155e-01,-3.989869412909355373e-01,3.191883004743724106e-01,1.685381855031828536e+03
1.684401596653230015e+01,-1.407862712143051143e+00,-6.358027588974315414e+00,-8.345201972815475822e-01,-4.571900531889175334e-01,3.074919439489363637e-01,1.694058519115613535e+03
1.777670533344858228e+01,-1.334010438105120766e+00,-5.164790136575028612e+00,-8.059657482790590910e-01,-5.134940818182579525e-01,2.945183195282192190e-01,1.702735183199398534e+03
1.830195082788630501e+01,-2.247334149296030148e+00,-3.372133822611586673e+00,-7.740634559294132799e-01,-5.676651529163831977e-01,2.803213162747571485e-01,1.711411847283183533e+03
1.835723107057373582e+01,-3.945772260243187279e+00,-1.290370748465269779e+00,-7.389458335348851881e-01,-6.194782514221732761e-01,2.649599047311487765e-01,1.719019715874761914e+03
1.786367119341491261e+01,-7.047004711358345830e+00,1.680675449020133438e+00,-9.558997687457528869e-01,-2.925134972057270022e-01,2.625806666100127806e-02,1.727696379958546913e+03
1.666892466880280210e+01,-1.156438798772437160e+01,5.297893164206252337e+00,-9.712028521862716701e-01,9.615822081505595587e-02,-2.179830646524598681e-01,1.736373044042331912e+03
1.496578105148399374e+01,-1.656550659448657470e+01,8.612897462416755801e+00,-7.816267643870771220e-01,4.645449795220726319e-01,-4.162397904995084330e-01,1.745049708126116911e+03
1.368447661079879119e+01,-1.955075727300964417e+01,9.808891357420666424e+00,-4.271634284107986845e-01,7.349340545747371500e-01,-5.266890362019907013e-01,1.751545912523394691e+03
1.223161479376364014e+01,-2.184084350548357278e+01,9.252169598310857168e+00,-3.374283083169621889e-01,8.615989481639927394e-01,-3.791930765057173192e-01,1.760222576607179690e+03
1.102179788069332922e+01,-2.252702280455796213e+01,6.983355746875318459e+00,-2.322215841845334805e-01,9.487582043396673992e-01,-2.143105352935999186e-01,1.768899240690964689e+03
9.954848554443024966e+00,-2.217317989546799595e+01,3.842024550980830622e+00,-1.163671454079863582e-01,9.924154404055867129e-01,-3.960152920054457043e-02,1.777575904774749688e+03
8.896858136243457338e+00,-2.133936586988571094e+01,6.679328354227106468e-01,4.822905558472221320e-03,9.905689063845453113e-01,1.369232678799782998e-01,1.786252568858534687e+03
7.735888794436407423e+00,-2.044747979329828524e+01,-1.931178508392386695e+00,1.257918204824609865e-01,9.433032677241488528e-01,3.071699252880472075e-01,1.794929232942319686e+03
6.448448095995797047e+00,-1.964934109611597179e+01,-3.811734099429652911e+00,2.409929899174104440e-01,8.527857236482390135e-01,4.633323735216465789e-01,1.803605897026104685e+03
5.948415023842756888e+00,-1.937632998204917811e+01,-4.349615531851850569e+00,3.451442631446210996e-01,7.231666389764043190e-01,5.982503237698110210e-01,1.806808658367369162e+03
4.544135346938050546e+00,-1.870849693772293421e+01,-5.444164942687033992e+00,4.010444651560617912e-01,7.045037455008859029e-01,5.855218266990785958e-01,1.815485322451154161e+03
3.072289896787745445e+00,-1.817904369940474396e+01,-6.030259760240459066e+00,4.554867965147376130e-01,6.832798739907393060e-01,5.706648683756658791e-01,1.824161986534939160e+03
1.555341563468717769e+00,-1.780797449811793243e+01,-6.196773118876630626e+00,5.082733557124423651e-01,6.595721761331373445e-01,5.537334560437611186e-01,1.832838650618724159e+03
1.445541359735473541e-02,-1.761600609120728222e+01,-6.032665697359457013e+00,5.592122599327288279e-01,6.334668318567283629e-01,5.347891372089476070e-01,1.841515314702509158e+03
-1.533684089790021465e+00,-1.760506952629148714e+01,-5.615642888414248191e+00,6.081183423659342058e-01,6.050587361207205861e-01,5.139007759484226501e-01,1.850191978786294158e+03
-3.078490179383349901e+00,-1.773869524710774925e+01,-5.000814321973931165e+00,6.548138251296121704e-01,5.744511540529424476e-01,4.911443026489277219e-01,1.858868642870079157e+03
-4.239380751036057049e+00,-1.789904230729770518e+01,-4.429357003221406686e+00,6.991289653541069571e-01,5.417553456862252981e-01,4.666024380789273174e-01,1.865431305243040697e+03
-5.752602756425485353e+00,-1.814087443758394969e+01,-3.571616475575567051e+00,7.449855524280831753e-01,5.224806407758812998e-01,4.147390826627644356e-01,1.874107969326825696e+03
-7.226548253426573254e+00,-1.837508893894157680e+01,-2.636944564051284967e+00,7.869949110595532149e-01,5.005077656364730343e-01,3.607339552969214269e-01,1.882784633410610695e+03
-8.641956552445581252e+00,-1.854740839764773241e+01,-1.669234425465000449e+00,8.249401005792528219e-01,4.759501919726613073e-01,3.048659463071779485e-01,1.891461297494395694e+03
-9.976221945455726825e+00,-1.860419350834490970e+01,-7.123860928868280817e-01,8.586251680909138262e-01,4.489347389161170709e-01,2.474235658047032327e-01,1.900137961578180693e+03
-1.120340281989465403e+01,-1.849253456558387398e+01,1.897026825070536327e-01,8.878761602901319439e-01,4.196009181265937249e-01,1.887034538532472994e-01,1.908814625661965692e+03
-1.229423182559431460e+01,-1.816034273451613146e+01,9.931455879353855432e-01,9.125420216914625904e-01,3.881002133635858553e-01,1.290088486684868030e-01,1.917491289745750692e+03
-1.321612709397229679e+01,-1.755644107686232047e+01,1.654076903869465376e+00,9.324953746303790147e-01,3.545952982479969040e-01,6.864802075590739627e-02,1.926167953829535691e+03
-1.393320451070443866e+01,-1.663065530634824185e+01,2.128660654344877390e+00,9.476331770154673428e-01,3.192591962511339698e-01,7.932681068432293273e-03,1.934844617913320690e+03
-1.440629103821290258e+01,-1.533390425003625523e+01,2.373099750403625308e+00,9.578772544363201025e-01,2.822743872460626857e-01,-5.282362860115942527e-02,1.943521281997105689e+03
-1.459293908166428899e+01,-1.361828999426674081e+01,2.343645127675900941e+00,9.631747038801145022e-01,2.438318652318183510e-01,-1.133071546863300139e-01,1.952197946080890688e+03
-1.455813792867859036e+01,-1.241160195535673516e+01,2.182555451830781479e+00,9.634981669715175778e-01,2.041301520927829849e-01,-1.732055520156771389e-01,1.957337763481349839e+03
-1.421761878510626076e+01,-1.001580214278242487e+01,1.633381109020249911e+00,9.793714119666162565e-01,1.504011813334231173e-01,-1.349411800591533706e-01,1.966014427565134838e+03
-1.346717685677656284e+01,-7.082598541163040551e+00,6.971868232595146431e-01,9.907366741899201745e-01,9.597993126329321112e-02,-9.605568806498387957e-02,1.974691091648919837e+03
-1.232508770763961081e+01,-3.661022963870256053e+00,-6.024828918239067965e-01,9.975416420787222016e-01,4.111689764975771239e-02,-5.672806224857584317e-02,1.983367755732704836e+03
-1.095857579551052474e+01,1.739672223876002899e-02,-2.107914672509966891e+00,9.997549942227972330e-01,-1.393539052815798499e-02,-1.713932371431877572e-02,1.992044419816489835e+03
-9.622579892496565535e+00,3.635344426722313838e+00,-3.594305703519730333e+00,9.973665434728065105e-01,-6.892353334426887246e-02,2.252830469527376117e-02,2.000721083900274834e+03
-8.591021609154333660e+00,6.883663258364943971e+00,-4.836857115986975764e+00,9.903872837983108690e-01,-1.235944261911058051e-01,6.209223707572081308e-02,2.009397747984059833e+03
-8.050773608215150645e+00,9.559674544519545236e+00,-5.685094446498148102e+00,9.788493396808881641e-01,-1.776964246839393968e-01,1.013703648052404066e-01,2.018074412067844833e+03
-7.987703763342261176e+00,1.166106023821895121e+01,-6.137172590723648291e+00,9.628058182753845839e-01,-2.309805028460584775e-01,1.401818946935324550e-01,2.026751076151629832e+03
-8.280664479944743306e+00,1.328165801160338866e+01,-6.265602639865054613e+00,9.423305650186154514e-01,-2.832013992492270482e-01,1.783481810803499157e-01,2.035427740235414831e+03
-8.331875090118543881e+00,1.344375332497324038e+01,-6.263369006809937467e+00,9.175178238080318183e-01,-3.341187458383769737e-01,2.156935480571880170e-01,2.036431931246835802e+03
-8.850213580295189786e+00,1.467223414163151496e+01,-6.136846408710395551e+00,9.055461600266964117e-01,-3.811291987046140917e-01,1.863456088939388078e-01,2.045108595330620801e+03
-9.450990910172125226e+00,1.560489466717259610e+01,-5.840291698956943556e+00,8.906635202599140211e-01,-4.269144610195754752e-01,1.563986465705757278e-01,2.053785259414406028e+03
-9.997596597843878996e+00,1.632288779610761154e+01,-5.446374218575888548e+00,8.729177468826568864e-01,-4.713273542380470582e-01,1.259489274384260060e-01,2.062461923498191027e+03
-1.034857663146665985e+01,1.690302428880716690e+01,-5.027783577497693557e+00,8.523658854022091447e-01,-5.142251112911642164e-01,9.509433378891261890e-02,2.071138587581976026e+03
-1.035769440524567386e+01,1.741764092243774087e+01,-4.657214483889799972e+00,8.290740010983874697e-01,-5.554698354052579612e-01,6.393404927112857072e-02,2.079815251665761025e+03
-9.873993171393847135e+00,1.793447006300787194e+01,-4.407351572764572012e+00,8.031169666918192007e-01,-5.949289432739459649e-01,3.256824013100738380e-02,2.088491915749546024e+03
-8.741859996748139849e+00,1.851651069272456951e+01,-4.350854235662696468e+00,7.745782217209350451e-01,-6.324755911619521775e-01,1.097733294366073226e-03,2.097168579833331023e+03
-7.660550066303565053e+00,1.892686266876758339e+01,-4.442162487277809824e+00,7.435495043992930153e-01,-6.679890825738796778e-01,-3.037630767368011339e-02,2.102574989166561409e+03
-5.189633609827760452e+00,1.970835525621923878e+01,-4.850638992478580214e+00,5.325459330240229772e-01,-8.463528905057030594e-01,-8.922665108444792839e-03,2.111251653250346408e+03
-2.259585450624570502e+00,2.053802749144931994e+01,-5.497406564020638875e+00,2.806447077624484865e-01,-9.597196882236430637e-01,1.321620373843283673e-02,2.119928317334131407e+03
-5.751731885883528683e-01,2.101092388603165517e+01,-5.991335470675407393e+00,7.190886349734241199e-03,-9.993833335960410347e-01,3.434011770536569974e-02,2.127724495732276409e+03
-9.788197504709539309e-01,2.094854113737790513e+01,-6.087127625509217488e+00,1.418332259660215477e-01,-9.893797489769626807e-01,3.176552101824876156e-02,2.136401159816061408e+03
-3.083535274681196370e+00,2.039388306004859430e+01,-5.596832587417805094e+00,2.738891644877283760e-01,-9.613345400187625067e-01,2.861167143759841061e-02,2.145077823899846408e+03
-5.240480565651290945e+00,1.964828026847509435e+01,-4.517610686243393125e+00,4.009506552377066768e-01,-9.157591189763157891e-01,2.493607979179081335e-02,2.153754487983631407e+03
-5.368891593314986110e+00,1.959186688268652787e+01,-4.417078167587888515e+00,5.207007221433022082e-01,-8.534845504578718600e-01,2.080577054644319746e-02,2.154387382205320137e+03
-6.421490340407160602e+00,1.889278438474162414e+01,-2.841180746536714263e+00,5.738786795145881525e-01,-8.155579526850925687e-01,-7.434034576179036902e-02,2.163064046289105136e+03
-6.404805122436517451e+00,1.839402852772277086e+01,-1.082152357120226061e+00,6.194130619945488192e-01,-7.667688425238504690e-01,-1.684962930229074729e-01,2.171740710372890135e+03
-6.355372741419516025e+00,1.834794439723376058e+01,-8.625758887960531807e-01,6.566974107942097350e-01,-7.077670275110865550e-01,-2.604080363989584312e-01,2.172833140906843255e+03
-5.779105600355933348e+00,1.813483012589643550e+01,7.445820307086313816e-01,5.740380718780579983e-01,-7.978624961775107050e-01,-1.841024965281603809e-01,2.181509804990628254e+03
-4.890400128604701635e+00,1.819682422141167777e+01,2.055480972824283104e+00,4.794546411788662699e-01,-8.713844832188094580e-01,-1.039727342030524748e-01,2.190186469074413253e+03
-3.779086194638768603e+00,1.848869239315812507e+01,3.007440404494142072e+00,3.749118286035597047e-01,-9.268057826051856463e-01,-2.168322168974119377e-02,2.198863133158198252e+03
-2.537318489401740429e+00,1.896806329856736184e+01,3.537854766578828691e+00,2.625812168919581246e-01,-9.629751725543864715e-01,6.105670789819719196e-02,2.207539797241983251e+03
-1.646150508957811454e+00,1.938946185375123221e+01,3.699456219293050463e+00,1.447961567018921092e-01,-9.791413270602972174e-01,1.425283643583474535e-01,2.213652121309497488e+03
-5.593511686952307160e-01,2.006435283298579364e+01,4.444962619243201907e+00,8.437614026588245719e-02,-9.874265841644973563e-01,1.336690234548479628e-01,2.222328785393282487e+03
2.789455706682255134e-02,2.052626604202324501e+01,6.286732753655388528e+00,2.363570104895779470e-02,-9.919618715732382297e-01,1.243020473409914284e-01,2.231005449477067486e+03
4.608977766982810115e-02,2.054175419477077469e+01,6.464315105791270888e+00,-3.719451258459642584e-02,-9.927299676651991645e-01,1.144630050493922607e-01,2.231662615805189489e+03
-2.913318618251654613e-01,1.988465410804065669e+01,7.925985185338722872e+00,1.302867688903783516e-01,-9.878951666300589407e-01,-8.418133760898303952e-02,2.240339279888974488e+03
-1.736762068276920257e+00,1.758002477847186640e+01,7.412661810381001359e+00,2.889694047945015609e-01,-9.163447639606321360e-01,-2.771406802602196517e-01,2.249015943972759487e+03
-3.896648116407976925e+00,1.436522817853558287e+01,5.569738268197753861e+00,4.281370570393339126e-01,-7.829107612430149521e-01,-4.513838724633139066e-01,2.257692608056544486e+03
-6.026424234216357867e+00,1.157603921409286407e+01,4.116695029748563606e+00,5.383912913449028226e-01,-5.966043682912316459e-01,-5.951437180548903028e-01,2.266369272140329485e+03
-7.557772040396942614e+00,1.008013515806313976e+01,4.149141971643062199e+00,6.122862919935201376e-01,-3.700074467275892842e-01,-6.987116615625127425e-01,2.275045936224114485e+03
-8.391057111844933303e+00,9.841842320742941297e+00,5.514800503236162221e+00,6.448317062417644463e-01,-1.184228063757389871e-01,-7.550934442544489089e-01,2.283722600307899484e+03
-8.533774518751174654e+00,9.934158595771345190e+00,6.073960818865037581e+00,6.338296564665545363e-01,1.411592554870849947e-01,-7.604814469627624307e-01,2.286302034248829841e+03
-8.784192887868561783e+00,1.048702084901641207e+01,7.966482404120220906e+00,7.786902437754634754e-01,1.132791139695469712e-01,-6.170958973997181518e-01,2.294978698332614840e+03
-8.763965635382602315e+00,1.120555058865236475e+01,9.408582376820740834e+00,8.905955581027985568e-01,8.060484908215223565e-02,-4.475940238569702800e-01,2.303655362416399839e+03
-8.704100999373531877e+00,1.162441215532438754e+01,9.623893780228483408e+00,9.648096433641981662e-01,4.451927527360219350e-02,-2.591493511489134649e-01,2.312332026500184838e+03
-8.710525949100832221e+00,1.165298197093262189e+01,9.272667497162666805e+00,9.981916573777107615e-01,6.549575803221133023e-03,-5.973707557591518419e-02,2.315663338849083175e+03
-8.800943861084405739e+00,1.153234523420170277e+01,7.666466197314898423e+00,9.978168336130299743e-01,-1.201662339821151513e-04,-6.602690370691925714e-02,2.324340002932868174e+03
-8.806459596772665321e+00,1.152240893319869741e+01,7.583157210207091659e+00,9.973580056391522231e-01,-6.789898155850017727e-03,-7.231117316573817955e-02,2.324706374150830470e+03
-8.902948534137269831e+00,1.142197386011964610e+01,5.847929749674323219e+00,9.997319359083056689e-01,2.052559674767622661e-03,-2.301832501889369831e-02,2.333027701794162112e+03
-8.834684221436809537e+00,1.145866681850371371e+01,4.389783317699227361e+00,9.988656498377868065e-01,-1.283615299225239091e-03,4.757904875405243039e-02,2.340429736949079143e+03
-8.549606644112360598e+00,1.147399450419871414e+01,2.654781460313456076e+00,9.918592813647394424e-01,5.924818298381375262e-03,-1.271930127647150077e-01,2.349106401032864142e+03
-8.497232064658909678e+00,1.141462521220395665e+01,1.672808693286718773e+00,9.544560110636818306e-01,1.295167762033164367e-02,-2.980670679363157660e-01,2.354278342309909476e+03
-8.722890359458370213e+00,1.145301275667822338e+01,4.658703104093940284e-01,9.710597250401165059e-01,-1.555572511258632336e-02,-2.383254703019941356e-01,2.360360353966545063e+03
-8.991208691155971877e+00,1.247445809026603314e+01,-1.692607007332082469e+00,9.757640494202363124e-01,-1.834743417804539367e-01,-1.192463239176883988e-01,2.369037018050330062e+03
-8.849928537574841769e+00,1.447747677775571695e+01,-4.158256626270065759e+00,9.390972362622048708e-01,-3.436138552590353168e-01,4.888693021698188763e-03,2.377713682134115061e+03
-8.363878094773484762e+00,1.645783535878932824e+01,-6.303443494697288152e+00,8.626139212409776880e-01,-4.891845773664011965e-01,1.288164281016712098e-01,2.386390346217900060e+03
-7.650687337377852337e+00,1.772794260979643965e+01,-7.737026241676221439e+00,7.495568895440930524e-01,-6.140145149565608973e-01,2.472825201268504247e-01,2.395067010301685059e+03
-6.903879002237819584e+00,1.822313091813961350e+01,-8.492222215280081699e+00,6.047195904476400097e-01,-7.128110455427368874e-01,3.552641697125454301e-01,2.403130164613318811e+03
-6.132667441758936633e+00,1.827102373938278745e+01,-8.991115512878357308e+00,5.632494480061858155e-01,-7.162904473964353258e-01,4.119175333522341331e-01,2.411806828697103811e+03
