5.203255685381390272e+00,1.168627916169252323e+01,8.496806389366465595e+00,-4.245431680110794415e-01,-2.930082193741735952e-01,-8.566838867836927829e-01,9.494580766051062710e+02
3.008658513771029330e+00,9.847174743016692489e+00,7.830661221176283604e+00,-2.813314708724436453e-01,-2.659326100894446876e-01,-9.220251896712998718e-01,9.581347406888913838e+02
4.017487464054086410e-01,7.552309688922078657e+00,6.956339422275000572e+00,-1.309423952230162613e-01,-2.320724732744786079e-01,-9.638435849670767830e-01,9.668114047726764966e+02
-1.919221699962434968e+00,5.253716433399008068e+00,6.147440172412711235e+00,2.278731311606393278e-02,-1.922916535927494952e-01,-9.810721983218756437e-01,9.754880688564616094e+02
-3.484714758964883696e+00,3.242452424861069105e+00,5.595090864251138996e+00,1.759356819585143894e-01,-1.476050435714779119e-01,-9.732714867530618541e-01,9.841647329402467221e+02
-4.130559224150215591e+00,1.882518306061674140e+00,5.381284095744493179e+00,3.245955667304816772e-01,-9.915269273719140575e-02,-9.406404528735383686e-01,9.910435143258105199e+02
-4.428807655047583225e+00,3.550835026122483584e-01,5.343736247075722368e+00,3.266701703866633499e-01,-3.521821666710985010e-02,-9.444809563945596453e-01,9.997201784095956327e+02
-4.458186342201899244e+00,-1.082134441102567513e+00,5.487813908262154428e+00,3.274032445362490829e-01,2.886087468555566596e-02,-9.444427803617024830e-01,1.008396842493380746e+03
-4.488305407332556562e+00,-2.528382972118102590e+00,5.757076150850759966e+00,3.267917794635449291e-01,9.282143592204702975e-02,-9.405260835863666902e-01,1.017073506577165858e+03
-4.792677854048880803e+00,-4.072030136027772862e+00,6.095055853848222682e+00,3.248382864690187999e-01,1.564008086468333669e-01,-9.327469510517520934e-01,1.025750170660950971e+03
-5.510423273457249138e+00,-5.720241880010662250e+00,6.453220580741488632e+00,3.215507875490163370e-01,2.193378997532648145e-01,-9.211373278486432170e-01,1.034426834744735970e+03
-6.084911102003816907e+00,-6.656790503949716609e+00,6.651898820368831622e+00,3.169427824689753925e-01,2.813742532863692802e-01,-9.057448880484034737e-01,1.039362803459668157e+03
-7.167051715099185039e+00,-8.142404425618801511e+00,6.972862813399498094e+00,4.551663239027418095e-01,2.566218990903369468e-01,-8.526234916372614769e-01,1.048039467543453156e+03
-8.078731516581992622e+00,-9.286261564848381056e+00,7.242646437381033309e+00,5.831302276599750201e-01,2.260852038609873771e-01,-7.802836780197679456e-01,1.056716131627238155e+03
-8.525400950315541238e+00,-9.906637427946709096e+00,7.436577821160395452e+00,6.979501756564803205e-01,1.904524702456483198e-01,-6.903560015513707793e-01,1.065392795711023155e+03
-8.415237961803928357e+00,-9.919111953713098728e+00,7.485755588570559560e+00,7.970381072250025678e-01,1.505268627851357455e-01,-5.848674372971103264e-01,1.069527337095564462e+03
-7.277986324606344759e+00,-9.233951625799507568e+00,7.480042311321165371e+00,5.940668288734353153e-01,2.569399566697271875e-01,-7.622758434448899667e-01,1.078204001179349461e+03
-5.111318766097169508e+00,-7.905795801788524813e+00,7.379262194699475863e+00,3.411969470788940306e-01,3.417713696455543793e-01,-8.756568815440863851e-01,1.086880665263134460e+03
-2.218596507586999778e+00,-6.601055823656390764e+00,7.284220368157122927e+00,5.966823478274182330e-02,3.978957057445198786e-01,-9.154871430603316318e-01,1.095557329346919460e+03
-1.052742873866292728e+00,-6.317183450604024308e+00,7.285783210023639711e+00,-2.268723520109774683e-01,4.205988028927732936e-01,-8.784210738015956199e-01,1.098758131633647281e+03
2.015237577115099210e+00,-6.181276134692290647e+00,7.433772472755096672e+00,-2.982078862756803450e-01,3.695452757034258240e-01,-8.800604216567304849e-01,1.107434795717432280e+03
4.573882526583417096e+00,-6.572503929100117048e+00,7.757892673858040489e+00,-3.672478231716282404e-01,3.156470299163579019e-01,-8.749251332995252595e-01,1.116111459801217279e+03
6.125729325370228295e+00,-7.159873684942732019e+00,8.278398885536054408e+00,-4.334607103320354260e-01,2.593189630803383050e-01,-8.630547421710277334e-01,1.124788123885002278e+03
6.397763529964040075e+00,-7.678619696717694509e+00,8.972881872224757416e+00,-4.963368564505201697e-01,2.009946755278795294e-01,-8.445406238521758757e-01,1.133464787968787277e+03
5.635396605675881965e+00,-7.991890174136599079e+00,9.655556015926974212e+00,-5.553922538317186408e-01,1.411231334108777047e-01,-8.195252928360939881e-01,1.141209167397182000e+03
4.006530791059944363e+00,-8.168054055205660191e+00,1.034853381441473807e+01,-4.113819002089570409e-01,1.129078015665011953e-01,-9.044416844253917453e-01,1.149885831480966999e+03
1.958410064303253595e+00,-8.173675661585889429e+00,1.082330379356336181e+01,-2.555460179952663280e-01,8.144683519852398412e-02,-9.633590429966317759e-01,1.158562495564751998e+03
-1.394726035641195849e-01,-8.030673491866547664e+00,1.092959619234086688e+01,-9.236423858118152086e-02,4.764460613708432907e-02,-9.945837515955271435e-01,1.167239159648536997e+03
-2.022480465588383680e+00,-7.792910743174147115e+00,1.062068045308439679e+01,7.347264821550696101e-02,1.247278628140469775e-02,-9.972182306631350857e-01,1.175915823732321996e+03
-2.039833669240779468e+00,-7.790258270844493182e+00,1.061565365928128379e+01,2.371975274035210135e-01,-2.305758238031438770e-02,-9.711867384229009303e-01,1.176002597172595415e+03
-3.652529617294006048e+00,-7.555420091114939396e+00,1.005249152337387741e+01,2.344946280555449958e-01,-1.156642356332227145e-01,-9.652108857685315346e-01,1.184679261256380414e+03
-5.048525770733665041e+00,-7.439752407351260644e+00,9.500836425086244930e+00,2.297706148200533705e-01,-2.072739536878901445e-01,-9.509158599400515666e-01,1.193355925340165413e+03
-6.285037989277682868e+00,-7.556485672719807312e+00,9.224482208636660019e+00,2.230662036743902288e-01,-2.970971728523265631e-01,-9.284248696900861963e-01,1.202032589423950412e+03
-7.052716837629826152e+00,-7.830738178858553056e+00,9.316791535055807927e+00,2.144391777816299083e-01,-3.843597256014941177e-01,-8.979317570757406886e-01,1.207929869767793889e+03
-8.110642401898365605e+00,-8.480768426609374799e+00,9.752499379570352289e+00,3.007515689033645745e-01,-3.318226693139822436e-01,-8.941142040763063736e-01,1.216606533851578888e+03
-9.124493455945524190e+00,-9.280650665084012374e+00,1.021975408253621431e+01,3.839888893281765414e-01,-2.758928822139052328e-01,-8.811547255822171909e-01,1.225283197935363887e+03
-1.011964019599707498e+01,-1.011329637192771891e+01,1.041638890476882651e+01,4.633000836708273118e-01,-2.171422178624170252e-01,-8.591858295456843431e-01,1.233959862019148886e+03
-1.111652555630607253e+01,-1.086071834026365224e+01,1.004029348916256303e+01,5.378742386846769863e-01,-1.561713703707302558e-01,-8.284321374956253869e-01,1.242636526102933885e+03
-1.213065262543757150e+01,-1.140418099114002004e+01,8.789476925645322680e+00,6.069488733642673939e-01,-9.360373331675989061e-02,-7.892080880417575717e-01,1.251313190186718884e+03
-1.239135094396271519e+01,-1.148880507563666953e+01,8.247818371372131807e+00,6.698177340424142923e-01,-3.007902666326680435e-02,-7.419147224018054487e-01,1.253503822420338793e+03
-1.344731789207416206e+01,-1.154080047152008248e+01,5.018892354943680800e+00,8.828803825194216914e-01,-3.477563659201511614e-02,-4.683064010482213546e-01,1.262180486504123792e+03
-1.445940118679199671e+01,-1.143544876929932563e+01,1.087244090788373807e+00,9.897506089067444890e-01,-3.528945043245998447e-02,-1.383704696012054980e-01,1.270857150587908791e+03
-1.498348125574514711e+01,-1.157695043189145601e+01,-9.740052503203374679e-01,9.775741465789213880e-01,-3.155866702601883844e-02,2.082086416950377772e-01,1.276364922682093948e+03
-1.554173471867006384e+01,-1.231438824651736041e+01,-2.935554018126871778e+00,9.712641399889934135e-01,7.492715660664310551e-02,2.258979671754310359e-01,1.285041586765878947e+03
-1.580854149841923473e+01,-1.343503925649648956e+01,-3.850904198427966385e+00,9.535981348280594405e-01,1.805369121150054434e-01,2.409460948351049847e-01,1.293718250849663946e+03
-1.575594063028723468e+01,-1.476190380640964328e+01,-4.028671611754342408e+00,9.247826851430106521e-01,2.840358232694213947e-01,2.531770849805799473e-01,1.302394914933448945e+03
-1.534827040030587497e+01,-1.611934054777569969e+01,-3.777626010914665766e+00,8.851546994149213088e-01,3.842137941092979014e-01,2.624479348741217688e-01,1.311071579017233944e+03
-1.454219131394554054e+01,-1.733330202878597603e+01,-3.406626621774654584e+00,8.351775016767623017e-01,4.798995557486052665e-01,2.686502504837476879e-01,1.319748243101018943e+03
-1.352234667556579772e+01,-1.807726769060415251e+01,-3.243986934729555127e+00,7.754354150890836461e-01,5.699743593650921092e-01,2.717115137263467761e-01,1.326825654046477666e+03
-1.177494252254168039e+01,-1.853332625048420823e+01,-3.496591279766995797e+00,6.678746787873317547e-01,5.934856924063329764e-01,4.491282070237618274e-01,1.335502318130262665e+03
-9.464872548276158426e+00,-1.836812721233972923e+01,-4.498809418600990817e+00,5.311953872372786600e-01,5.911217251829686825e-01,6.069633980688911024e-01,1.344178982214047664e+03
-6.729413812661062089e+00,-1.752498148425654634e+01,-6.209521223427240777e+00,3.713565944095735816e-01,5.629855313128873107e-01,7.383356765873123617e-01,1.352855646297832664e+03
-4.123702433030731029e+00,-1.615686164915968348e+01,-7.888012623023068493e+00,1.953270693703347827e-01,5.103038124745388204e-01,8.375173759067914281e-01,1.361532310381617663e+03
-4.100024975709786190e+00,-1.614104318438855756e+01,-7.902009009471575141e+00,1.078147600637583206e-02,4.353734176833772285e-01,9.001842849940536739e-01,1.361619784419703819e+03
-2.143408146915953605e+00,-1.446449066468399813e+01,-8.773750863196072558e+00,-1.470317317124780754e-02,2.913621025547740717e-01,9.564987934614571641e-01,1.370296448503488818e+03
-8.423271523439389563e-01,-1.263571175234024579e+01,-8.718589669200886405e+00,-3.982670558878879941e-02,1.401949385976774265e-01,9.893215921596519857e-01,1.378973112587273818e+03
5.076503104499398289e-02,-1.079148160416535873e+01,-7.943459089464195877e+00,-6.397209079926026443e-02,-1.441542685628016164e-02,9.978465648921032161e-01,1.387649776671058817e+03
6.418874283738283948e-01,-9.271595234910972039e+00,-6.800305685838475611e+00,-8.654632082061501641e-02,-1.686717839075613790e-01,9.818643305799245047e-01,1.395205345963566742e+03
1.206062419177858613e+00,-7.691012730112525730e+00,-5.077409256002476390e+00,-2.290905245448746075e-01,-3.573749448074305390e-01,9.054273468292088900e-01,1.403882010047351741e+03
1.711311789470096434e+00,-6.320315332430524791e+00,-3.048412938335866684e+00,-3.574838161051843710e-01,-5.240030377269307982e-01,7.730615355023811031e-01,1.412558674131136740e+03
2.212245865845944515e+00,-5.205813133869914289e+00,-8.239529319935378071e-01,-4.637952194473539125e-01,-6.582632752260352271e-01,5.929430452437631782e-01,1.421235338214921740e+03
2.761484277935736920e+00,-4.396064651733821549e+00,1.485293792498672216e+00,-5.414577116051353389e-01,-7.518621780056776727e-01,3.761978360167233526e-01,1.429912002298706739e+03
3.409621041731844215e+00,-3.941815702771437557e+00,3.768632573749921999e+00,-5.856739257459173675e-01,-7.990179432396919967e-01,1.362144598709449927e-01,1.438588666382491738e+03
4.205190372986487013e+00,-3.895937453080776880e+00,5.915374142735087659e+00,-5.937125441265490577e-01,-7.968176648614652136e-01,-1.121829929506497348e-01,1.447265330466276737e+03
5.156541309729547606e+00,-4.278722055664116120e+00,7.840563980604546401e+00,-5.650770423929204478e-01,-7.453973002419651550e-01,-3.536506764436972428e-01,1.455941994550061736e+03
6.195631923246375017e+00,-5.041158683604368917e+00,9.510706305692078644e+00,-5.015363462662060234e-01,-6.479332481267068289e-01,-5.732728838376852654e-01,1.464618658633846735e+03
7.219006211735838008e+00,-6.096552698067678300e+00,1.091806476923617453e+01,-4.070155143637253503e-01,-5.104460708087641407e-01,-7.574834518732616040e-01,1.473295322717631734e+03
7.445444321150934464e+00,-6.385295642279239736e+00,1.120071842752221336e+01,-2.873532261595007076e-01,-3.414285219071969690e-01,-8.949037310479329710e-01,1.475350588592802978e+03
8.273889804076995702e+00,-7.710301934529380397e+00,1.217519707716620481e+01,-2.051647724456536204e-01,-2.807395893238556206e-01,-9.375983677108187253e-01,1.484027252676587977e+03
8.867952376829206784e+00,-9.119388529156628564e+00,1.286979856524174259e+01,-1.204608161644868392e-01,-2.166085328302692625e-01,-9.687971589938788597e-01,1.492703916760372977e+03
9.136321689109202282e+00,-1.051343638109889156e+01,1.327697965877219843e+01,-3.427990447202344110e-02,-1.498216577238713765e-01,-9.881175836037081606e-01,1.501380580844157976e+03
8.991558080140135800e+00,-1.178973592905859213e+01,1.338925698516811913e+01,5.232130771230490696e-02,-8.119783100763876271e-02,-9.953227582043493449e-01,1.510057244927942975e+03
8.350146645683807378e+00,-1.284210435162245467e+01,1.319920858997685364e+01,1.382810126388623051e-01,-1.157844178276013283e-02,-9.903243414306244219e-01,1.518733909011727974e+03
7.201711017890173316e+00,-1.360970418313810093e+01,1.272956511013006775e+01,2.225452677895326248e-01,5.818291442484960219e-02,-9.731836169264121983e-01,1.527410573095512973e+03
5.675530955009449485e+00,-1.412953539552955284e+01,1.206329465597926465e+01,3.040809175332441772e-01,1.272309009861578577e-01,-9.441107421413630352e-01,1.536087237179297972e+03
5.538964107276695970e+00,-1.416303944704361939e+01,1.200289091159115884e+01,3.818882600195276922e-01,1.947189268875869073e-01,-9.034621720753760465e-01,1.536793681076719395e+03
3.814651168151207195e+00,-1.451853266799194664e+01,1.124653224894523973e+01,3.334695215625980702e-01,2.344753576807222517e-01,-9.131360166081107232e-01,1.545470345160504394e+03
2.115245818383000742e+00,-1.482552725350349654e+01,1.052897160944607613e+01,2.837107337459203182e-01,2.732895316439842848e-01,-9.191403872363286265e-01,1.554147009244289393e+03
6.276426975174340672e-01,-1.519158739373542844e+01,9.963317585328077541e+00,2.328118494925706938e-01,3.110054771648762539e-01,-9.214511576351404054e-01,1.562823673328074392e+03
-4.656773399113478540e-01,-1.573171240550072092e+01,9.662646942926375715e+00,1.809774025548354093e-01,3.474716355900746567e-01,-9.200590427916344183e-01,1.571500337411859391e+03
-1.051874274446123803e+00,-1.648304324871026694e+01,9.615273666720135282e+00,1.284156858657485856e-01,3.825414700504206622e-01,-9.149696362792217874e-01,1.580177001495644390e+03
-1.124129017490949067e+00,-1.711446430279020348e+01,9.594320063886696559e+00,7.533791480124529816e-02,4.160740541272789361e-01,-9.062033878069911674e-01,1.586639509500936583e+03
-7.987086207950688799e-01,-1.787118482291063870e+01,9.248795236452110657e+00,3.770494875494333209e-02,3.793924640186683850e-01,-9.244661676180895293e-01,1.595316173584721582e+03
-4.842415976519351406e-01,-1.811627221028217605e+01,8.819763229783795566e+00,-4.472626426489068968e-05,3.415365346124747958e-01,-9.398674340082243672e-01,1.599338965808190324e+03
5.005634010322788097e-01,-1.830422307608355581e+01,7.206974914340942284e+00,-3.058062210325502295e-01,3.496189530369731568e-01,-8.855772935523906764e-01,1.608015629891975323e+03
1.759505678702921738e+00,-1.806717973040609593e+01,5.047524452440980802e+00,-5.820565340566752344e-01,3.239620758177366167e-01,-7.458262294892172850e-01,1.616692293975760322e+03
3.231206149689030305e+00,-1.737144869294813887e+01,2.654742189059690283e+00,-8.021366259405244836e-01,2.670418589653018593e-01,-5.341006261795404608e-01,1.625368958059545321e+03
4.855967884511335875e+00,-1.618071784534756219e+01,3.420071234862784304e-01,-9.448080589254065353e-01,1.843512818456564117e-01,-2.708326728292260732e-01,1.634045622143330320e+03
6.581585990932968144e+00,-1.451292658945587100e+01,-1.652770029057968992e+00,-9.963026060175638188e-01,8.387025283035895451e-02,1.857142787484742513e-02,1.642722286227115319e+03
8.216478850481045981e+00,-1.266265213594437178e+01,-3.111681560573574590e+00,-9.516509286201402240e-01,-2.470449047094424450e-02,3.061832755192931965e-01,1.650675198696688540e+03
1.001801602497708821e+01,-1.046978645864843749e+01,-4.289335790206903809e+00,-9.494414749933335340e-01,-1.000943290619377007e-01,2.975567355171696571e-01,1.659351862780473539e+03
1.179082014652933452e+01,-8.280733341956599602e+00,-5.040312782347529996e+00,-9.417604505998858899e-01,-1.749073177441494154e-01,2.872153963232115248e-01,1.668028526864258538e+03
1.347788733926112137e+01,-6.275891490518422877e+00,-5.353379145477656920e+00,-9.286521225824104775e-01,-2.487123183724172792e-01,2.752188545734820524e-01,1.676705190948043537e+03
1.501463509249001582e+01,-4.633286530216059518e+00,-5.217392849352060047e+00,-9.101920340307785295e-01,-3.210840019867319262e-01,2.616362453003511224e-01,1.685381855031828536e+03
1.632893910044099428e+01,-3.528340198935406402e+00,-4.621305547519820145e+00,-8.864865686150349422e-01,-3.916052996293791222e-01,2.465458435404313808e-01,1.694058519115613535e+03
1.734117285274180986e+01,-3.133640444206715614e+00,-3.554164885195331358e+00,-8.576723375591591703e-01,-4.598698055678073771e-01,2.300346132921872455e-01,1.702735183199398534e+03
1.796424996822887366e+01,-3.618712491799032094e+00,-2.005116792104019829e+00,-8.239153924848030552e-01,-5.254841190905753523e-01,2.121977064195656182e-01,1.711411847283183533e+03
1.809259207895657084e+01,-4.945064419553365731e+00,-2.178064455462597471e-01,-7.854102686546849954e-01,-5.880701113964738047e-01,1.931379143856264691e-01,1.719019715874761914e+03
1.766649542097074033e+01,-7.637929313997041447e+00,2.319954907465411775e+00,-9.593151303802625041e-01,-2.784778184097540521e-01,-4.650360499906071310e-02,1.727696379958546913e+03
1.655725731788023936e+01,-1.167791358524439893e+01,5.370271950153210128e+00,-9.571677039925277075e-01,8.222040245668472969e-02,-2.776108640780081127e-01,1.736373044042331912e+03
1.509204715335652480e+01,-1.646665863187253365e+01,8.544780984498313359e+00,-7.793620556726761350e-01,4.278296392372297197e-01,-4.577713249740075763e-01,1.745049708126116911e+03
1.429870180191807272e+01,-1.962817098317930231e+01,1.044700064023348141e+01,-4.585288913739961059e-01,6.949240946260808460e-01,-5.539221592283878337e-01,1.751545912523394691e+03
1.392487673908659573e+01,-2.268017123520754197e+01,1.201115061732509659e+01,-4.459596604496242067e-01,7.132077443552079510e-01,-5.407889557261023050e-01,1.760222576607179690e+03
1.402321047595258818e+01,-2.467420384209658124e+01,1.266326730563534930e+01,-4.330939762021310813e-01,7.310172785944027973e-01,-5.272962603375316304e-01,1.768899240690964689e+03
1.435467839698829806e+01,-2.576177703427809362e+01,1.248927758405123711e+01,-4.199403903256723747e-01,7.483408599623109225e-01,-5.134530415492378763e-01,1.777575904774749688e+03
1.467440362066177073e+01,-2.608433739676576479e+01,1.157528064753563157e+01,-4.065076457987479297e-01,7.651669739788496960e-01,-4.992685007402221653e-01,1.786252568858534687e+03
1.473181506275890662e+01,-2.577309458778594120e+01,1.000753003536768304e+01,-3.928046710788904439e-01,7.814844367035056472e-01,-4.847520660718365182e-01,1.794929232942319686e+03
1.427080756276901319e+01,-2.494884984841370112e+01,7.872415635224707664e+00,-3.788405741767698065e-01,7.972824021581116360e-01,-4.699133862302243281e-01,1.803605897026104685e+03
1.385789763814648801e+01,-2.451393223153819534e+01,6.919243447714682027e+00,-3.646246366115031834e-01,8.125503695260783976e-01,-4.547623240228638175e-01,1.806808658367369162e+03
1.190037653240098159e+01,-2.305041402620770086e+01,3.949080666951580110e+00,-1.564706531983855176e-01,9.438179983078862634e-01,-2.910713327656484495e-01,1.815485322451154161e+03
8.798815429825049605e+00,-2.131021489760836118e+01,6.166866100390618888e-01,6.535177744013412338e-02,9.926391756476971029e-01,-1.019539707649493587e-01,1.824161986534939160e+03
4.618980396692420776e+00,-1.942787070957374596e+01,-2.856097485191147367e+00,2.814655104374596539e-01,9.547490802837900192e-01,9.606955881599620051e-02,1.832838650618724159e+03
9.765612290811480356e-02,-1.764484375313905673e+01,-5.977193158099172621e+00,4.729920388767034356e-01,8.334575332086685551e-01,2.857010176682068248e-01,1.841515314702509158e+03
-3.979919299704274493e+00,-1.618245215433541873e+01,-8.304344593141831155e+00,6.232006575580378849e-01,6.393598992292703898e-01,4.503752431879966545e-01,1.850191978786294158e+03
-7.394549788238926169e+00,-1.508170771945775002e+01,-9.765168090871052087e+00,7.189700028381288410e-01,3.894115092093290431e-01,5.757072272557292036e-01,1.858868642870079157e+03
-9.526278988497047351e+00,-1.448061441339152822e+01,-1.030275557448212531e+01,7.519342655011952425e-01,1.054464769067706142e-01,6.507487232977984259e-01,1.865431305243040697e+03
-1.179876119062454443e+01,-1.394017127610640649e+01,-1.036251112714201383e+01,7.949385030031803634e-01,7.877556118563187881e-02,6.015523147682956262e-01,1.874107969326825696e+03
-1.356632934158468018e+01,-1.359930683388797057e+01,-9.866831648805943544e+00,8.339831486515069114e-01,5.171226754723023261e-02,5.493595809219000703e-01,1.882784633410610695e+03
-1.487997589966857248e+01,-1.339442116387235693e+01,-8.928759653115998063e+00,8.688737233506834690e-01,2.439139761047738608e-02,4.944304931875101450e-01,1.891461297494395694e+03
-1.578752014591629127e+01,-1.325999838520495189e+01,-7.661429898027784624e+00,8.994364391318366847e-01,-3.050964151242222065e-03,4.370386522722591316e-01,1.900137961578180693e+03
-1.633358028867643696e+01,-1.312870544770944470e+01,-6.178045778547020639e+00,9.255190646874894567e-01,-3.047812820086600802e-02,3.774699254268435999e-01,1.908814625661965692e+03
-1.655954677023514776e+01,-1.293149156936669542e+01,-4.591855708708749262e+00,9.469916835526361876e-01,-5.775348073829927181e-02,3.160210226316021442e-01,1.917491289745750692e+03
-1.650355678058323150e+01,-1.259768829446197103e+01,-3.016129496523942244e+00,9.637473411591743755e-01,-8.474116412216042837e-02,2.529980187910017553e-01,1.926167953829535691e+03
-1.620046998317954134e+01,-1.205511014416492799e+01,-1.564134715595557168e+00,9.757025775434221559e-01,-1.113067535258070034e-01,1.887148292925819315e-01,1.934844617913320690e+03
-1.568184545737370783e+01,-1.123015583119008198e+01,-3.491130770878292378e-01,9.827978430548370836e-01,-1.373179264595466575e-01,1.234916465182013950e-01,1.943521281997105689e+03
-1.497591986192851721e+01,-1.004791001007574991e+01,5.157431942525178004e-01,9.849977949955599499e-01,-1.626451218263368914e-01,5.765334508966109966e-02,1.952197946080890688e+03
-1.446566271463804831e+01,-9.111302209083461889e+00,7.706313116327031532e-01,9.822914737122333539e-01,-1.871621852301743050e-01,-8.472136213485418482e-03,1.957337763481349839e+03
-1.346593122168293810e+01,-7.070203646459529701e+00,6.763484196692725048e-01,9.817734304774837772e-01,-1.896559270413571974e-01,1.222949466789841587e-02,1.966014427565134838e+03
-1.235264711131388893e+01,-4.546749407330269221e+00,1.980300785348576217e-02,9.808282713046525547e-01,-1.920671595265706078e-01,3.292580195428204681e-02,1.974691091648919837e+03
-1.120267444677961066e+01,-1.681884279257782167e+00,-1.069069513509247837e+00,9.794564075138154635e-01,-1.943948338180694901e-01,5.360778262978924125e-02,1.983367755732704836e+03
-1.011855822559000373e+01,1.313472110778323154e+00,-2.379325318125624644e+00,9.776584359964927140e-01,-1.966379373882569392e-01,7.426643991835676917e-02,1.992044419816489835e+03
-9.211635666654133914e+00,4.232745193620763402e+00,-3.699974353133733906e+00,9.754351389524583693e-01,-1.987954944889287201e-01,9.489278719313004595e-02,2.000721083900274834e+03
-8.601967841391562786e+00,6.873972791901627133e+00,-4.820024370099436517e+00,9.727874835495676775e-01,-2.008665665752089047e-01,1.154778518814068289e-01,2.009397747984059833e+03
-8.360386614731273980e+00,9.106630016562370145e+00,-5.597126660074804860e+00,9.697166215034108694e-01,-2.028502527133584088e-01,1.360126793634770515e-01,2.018074412067844833e+03
-8.446828406774844922e+00,1.093532774757277792e+01,-6.026207461155390632e+00,9.662238885769726116e-01,-2.047456899722807366e-01,1.564883368636821592e-01,2.026751076151629832e+03
-8.762633102015332298e+00,1.242869371211058294e+01,-6.170867305489006860e+00,9.623108040005126096e-01,-2.065520537985562066e-01,1.768959173320190370e-01,2.035427740235414831e+03
-8.811571886981539592e+00,1.258177839774887197e+01,-6.169824371406731345e+00,9.579790698119148296e-01,-2.082685583748436764e-01,1.972265433146189462e-01,2.036431931246835802e+03
-9.283431003118545632e+00,1.376832361929114334e+01,-6.042672256765874828e+00,9.465480974293788430e-01,-2.734791849037315203e-01,1.710375241765287602e-01,2.045108595330620801e+03
-9.767858862575101497e+00,1.475140069908251306e+01,-5.765843561456640565e+00,9.303191064874685168e-01,-3.373035431583389920e-01,1.439815261641608224e-01,2.053785259414406028e+03
-1.015854941531255307e+01,1.558649559023443310e+01,-5.403082882542262766e+00,9.093743624314796214e-01,-3.994181137912249935e-01,1.161956940995023668e-01,2.062461923498191027e+03
-1.034687936957510956e+01,1.632472536491746951e+01,-5.018152693040459411e+00,8.838200335409726049e-01,-4.595080442749132632e-01,8.782087199395627319e-02,2.071138587581976026e+03
-1.022197577928672452e+01,1.701276812854471743e+01,-4.674820035127223328e+00,8.537856527885340219e-01,-5.172687446233807940e-01,5.900088921097433603e-02,2.079815251665761025e+03
-9.670784466487143405e+00,1.769279455278568136e+01,-4.436843212628628130e+00,8.194234613175850335e-01,-5.724074311079029309e-01,2.988183150603827831e-02,2.088491915749546024e+03
-8.578139265729513241e+00,1.840240104676262334e+01,-4.367958484881330428e+00,7.809076368663731005e-01,-6.246446101541008877e-01,6.113006346642056894e-04,2.097168579833331023e+03
-7.508221116911791171e+00,1.888141096569017918e+01,-4.461710720268123431e+00,7.384334110431997056e-01,-6.737154949084049882e-01,-2.866233372378908240e-02,2.102574989166561409e+03
-5.070112833294109222e+00,1.973175314864926477e+01,-4.883182627864210978e+00,5.351101204031786240e-01,-8.447333180779134088e-01,-8.987790135464497968e-03,2.111251653250346408e+03
-2.301373359829564702e+00,2.055442915072355703e+01,-5.507792654335347038e+00,2.938076019994312893e-01,-9.557964454767635676e-01,1.132465547657108239e-02,2.119928317334131407e+03
-7.693804935197495753e-01,2.097991742133462623e+01,-5.962497982365690063e+00,3.165213676333290815e-02,-9.990222456546700158e-01,3.083334113228908963e-02,2.127724495732276409e+03
-1.170879129916999384e+00,2.088617916968928867e+01,-6.023052474954384117e+00,1.570982711677182675e-01,-9.871770882126492674e-01,2.827595627150122914e-02,2.136401159816061408e+03
-3.093317469955486398e+00,2.035546804866798354e+01,-5.532538873911491351e+00,2.800490891432105278e-01,-9.596520008186345541e-01,2.526944783580229933e-02,2.145077823899846408e+03
-5.138206194802010351e+00,1.964622526326187568e+01,-4.492701870534080655e+00,3.985517180414344107e-01,-9.168841801587317430e-01,2.186156947314825405e-02,2.153754487983631407e+03
-5.260586742882375155e+00,1.959212448376321802e+01,-4.394508374755936586e+00,5.107239343531796427e-01,-8.595529183000538698e-01,1.810644965971594522e-02,2.154387382205320137e+03
-6.291251087540087994e+00,1.890868770407726984e+01,-2.835490161369017770e+00,5.681983950267480710e-01,-8.194827246739605497e-01,-7.481074687038384574e-02,2.163064046289105136e+03
-6.428054409467782726e+00,1.840556102685282980e+01,-1.101131922734799318e+00,6.179779812061481081e-01,-7.683146439831518570e-01,-1.667147941328326610e-01,2.171740710372890135e+03
-6.397172562604164447e+00,1.836147865470378449e+01,-8.870554674029416109e-01,6.593885710430966718e-01,-7.067416013134527608e-01,-2.563611151238555097e-01,2.172833140906843255e+03
-5.911878077741103965e+00,1.818655612714189829e+01,6.671888275061936824e-01,5.779372020427930856e-01,-7.954296575551037529e-01,-1.824232725741426475e-01,2.181509804990628254e+03
-5.092091496918841109e+00,1.827820819291429899e+01,1.956278371868543475e+00,4.849463305964219484e-01,-8.682355623561053282e-01,-1.048430479398787113e-01,2.190186469074413253e+03
-4.002577089001954747e+00,1.858424800649742892e+01,2.919454504899663849e+00,3.822726724735828752e-01,-9.237056362195958936e-01,-2.516945561854009791e-02,2.198863133158198252e+03
-2.709933134595150062e+00,1.905521290802730050e+01,3.496026580768710090e+00,2.719662705135426073e-01,-9.607323307122128675e-01,5.500669438501418901e-02,2.207539797241983251e+03
-1.745048015408834585e+00,1.946737297570250291e+01,3.751551972293950765e+00,1.562295656854806036e-01,-9.785763406177083734e-01,1.340845568611039040e-01,2.213652121309497488e+03
-5.698824947095219029e-01,2.010773310455951446e+01,4.630619680328677212e+00,9.131617401579372739e-02,-9.877383239131236614e-01,1.266189552532677454e-01,2.222328785393282487e+03
4.936032300070145040e-02,2.050270305844467700e+01,6.353382333391642156e+00,2.600525847228888840e-02,-9.926002527189866642e-01,1.186021282567146090e-01,2.231005449477067486e+03
6.391247007283866466e-02,2.051052404632879700e+01,6.506103415398938772e+00,-3.941888292720659853e-02,-9.931409632198314741e-01,1.100689730857693366e-01,2.231662615805189489e+03
-3.474049519203982195e-01,1.978183786802785349e+01,7.720815547180058580e+00,1.409585174929645912e-01,-9.864666523961436173e-01,-8.373911903674163826e-02,2.240339279888974488e+03
-1.795100611071159369e+00,1.752594816852187520e+01,7.233987679668834936e+00,3.114487922085183991e-01,-9.105993147577876590e-01,-2.716735868554123745e-01,2.249015943972759487e+03
-3.894832057033208450e+00,1.441286621260808332e+01,5.599543887160211675e+00,4.600933492229537514e-01,-7.708604370124086946e-01,-4.405522632448450882e-01,2.257692608056544486e+03
-5.976511424246138127e+00,1.164675530112012858e+01,4.234940614931553604e+00,5.764659006518499940e-01,-5.770516243125258793e-01,-5.785295915199603067e-01,2.266369272140329485e+03
-7.541553735238644585e+00,1.001582059014157977e+01,4.059243701546492389e+00,6.524037992178441936e-01,-3.427670913834345856e-01,-6.759275137402546152e-01,2.275045936224114485e+03
-8.506102709556433439e+00,9.514571068874769111e+00,4.994602318757974224e+00,6.825805924638778110e-01,-8.444011832234475656e-02,-7.259143208464327035e-01,2.283722600307899484e+03
-8.667329922645683027e+00,9.558931480172791595e+00,5.442195728877447181e+00,6.648796298423225171e-01,1.798096360485703371e-01,-7.249838429962055519e-01,2.286302034248829841e+03
-8.886601728470576944e+00,1.010520728225587206e+01,7.144119353443822540e+00,7.994295268313824643e-01,1.446746332625493958e-01,-5.830777667865630898e-01,2.294978698332614840e+03
-8.852446027846845311e+00,1.088257327744809722e+01,8.632732802147064177e+00,9.024214818151613526e-01,1.038285270881183497e-01,-4.181544046421566407e-01,2.303655362416399839e+03
-8.743358126124869401e+00,1.151251343661125404e+01,9.331522624673423749e+00,9.697898610065819325e-01,5.888373274542314101e-02,-2.367241675602038131e-01,2.312332026500184838e+03
-8.729874999874192909e+00,1.161226257063801626e+01,9.162895579330257334e+00,9.988752610285843714e-01,1.161446031584065230e-02,-4.594907198846537311e-02,2.315663338849083175e+03
-8.806335167218229287e+00,1.154892672156190692e+01,7.713470921889504339e+00,9.980536630757411709e-01,1.237581904506925489e-03,-6.233260754917010343e-02,2.324340002932868174e+03
-8.811571372086007159e+00,1.154127411249412205e+01,7.634882107327202405e+00,9.968560228588042582e-01,-9.139762800441021684e-03,-7.869265770917267810e-02,2.324706374150830470e+03
-8.886881608141761646e+00,1.144416754533557423e+01,5.880530355376713203e+00,9.996304944536048565e-01,-7.168349613412523325e-04,-2.713596636568763390e-02,2.333027701794162112e+03
-8.817153867716681859e+00,1.143091586585184949e+01,4.389985843111389840e+00,9.988602603252929590e-01,2.204720962605461777e-03,4.765836258602723641e-02,2.340429736949079143e+03
-8.598593656977477906e+00,1.139777113278639575e+01,2.708846445308403350e+00,9.917147046417801315e-01,1.110527714974305323e-02,-1.279711585246292582e-01,2.349106401032864142e+03
-8.557581417127332557e+00,1.135919648279294591e+01,1.705952295865509338e+00,9.538497254761805211e-01,1.966183547670842871e-02,-2.996366356633685668e-01,2.354278342309909476e+03
-8.680993484928945847e+00,1.155110175253803462e+01,3.951476413819897671e-01,9.725379621051831736e-01,-2.807629510927441008e-02,-2.310403295890317010e-01,2.360360353966545063e+03
-8.811064508265046058e+00,1.271890002769039185e+01,-1.841381601630820430e+00,9.753029632453392717e-01,-1.874946808279220334e-01,-1.167384878549661831e-01,2.369037018050330062e+03
-8.700911403433968516e+00,1.459911272312684538e+01,-4.223806349982699437e+00,9.405316301550070701e-01,-3.396969599469247258e-01,2.056229917940236539e-03,2.377713682134115061e+03
-8.365916773077398005e+00,1.641992399256580626e+01,-6.256385319630616060e+00,8.695622112902808842e-01,-4.788253674357286216e-01,1.207718021588426033e-01,2.386390346217900060e+03
-7.843064114184958413e+00,1.764741593006640485e+01,-7.639869079015985776e+00,7.651260873419465369e-01,-5.995253075056997671e-01,2.348392559381498879e-01,2.395067010301685059e+03
-7.215762307205356052e+00,1.818248364095970260e+01,-8.405915551732830338e+00,6.312426529449738366e-01,-6.971514269659326857e-01,3.398685054292633345e-01,2.403130164613318811e+03
-6.411881119488794134e+00,1.827882026131961624e+01,-8.951096571735051910e+00,5.716143608963890621e-01,-7.104934056247744767e-01,4.104316544525837274e-01,2.411806828697103811e+03
-5.494860056443955365e+00,1.806785467620179020e+01,-9.500954686413015438e+00,5.070057686772614369e-01,-7.176450554445398256e-01,4.774188150041179801e-01,2.420483492780888810e+03
-4.874642612010981146e+00,1.783463644378106139e+01,-9.957938557209121910e+00,4.379797643667671658e-01,-7.185440690740469982e-01,5.402463760167687257e-01,2.425813156632938899e+03
-3.813716508126613114e+00,1.730707950018143748e+01,-1.089392858883327264e+01,3.703130208211705687e-01,-6.284215597645317342e-01,6.840706175782358400e-01,2.434489820716723898e+03
-2.765648385534939191e+00,1.658338881495627604e+01,-1.190853765063658365e+01,2.902828987610418521e-01,-5.173183804821496201e-01,8.050562290317344605e-01,2.443166484800508897e+03
-1.803697360300152264e+00,1.562494033323559250e+01,-1.286769703448678293e+01,2.005613044936169487e-01,-3.889438520595689952e-01,8.991639689653204703e-01,2.451843148884293896e+03
-1.002758803501914375e+00,1.439599071009954478e+01,-1.363734947799577668e+01,1.041437006159189049e-01,-2.475839114811903552e-01,9.632519381751356580e-01,2.460519812968078895e+03
-6.743373282969056248e-01,1.355559578305653723e+01,-1.390328011505625305e+01,4.249103295953969399e-03,-9.795802701893460696e-02,9.951804711025844519e-01,2.465369066212374946e+03
-2.405679931359812063e-01,1.226470700314583695e+01,-1.417478397595312245e+01,1.678399185257881858e-03,-7.051940178355271815e-02,9.975079934092521139e-01,2.474045730296159945e+03
-1.874023746589247585e-01,1.216481774412881478e+01,-1.420937735381019174e+01,-8.935887336213412576e-04,-4.302683595919718634e-02,9.990725163135592002e-01,2.475142349573290630e+03
4.074512685693505443e-01,1.190576426494897433e+01,-1.439848164114717832e+01,1.213408432006955751e-02,-4.697510191827208859e-02,9.988213572276726238e-01,2.483466312374177505e+03
1.515766513496075163e+00,1.112105281051176497e+01,-1.378771715542734988e+01,-1.362451771403591638e-01,2.039136101348544838e-01,9.694609282011172890e-01,2.492142976457962504e+03
3.084219800387086874e+00,8.540891917604140460e+00,-1.189677422509264559e+01,-2.729313589847384147e-01,4.373016786757270014e-01,8.568977273344738910e-01,2.500819640541747503e+03
4.564693538239192883e+00,5.331386478375150340e+00,-9.611188169878975174e+00,-3.861935457804869243e-01,6.331588731586917929e-01,6.707923572453499128e-01,2.509496304625532503e+03
5.443555651414400565e+00,3.188874344298314512e+00,-7.993174388287948240e+00,-4.663111569442412452e-01,7.746760032775503735e-01,4.271170739458716170e-01,2.518172968709317502e+03
5.659381312550904042e+00,2.472283789175980573e+00,-7.210262079268023427e+00,-5.064081989530150318e-01,8.497075390541176665e-01,1.467849927906383634e-01,2.525780380867860003e+03
5.444016058307246553e+00,2.535909863177515433e+00,-6.609036079485060000e+00,-5.138417328827120656e-01,8.521552539898844536e-01,9.897523243188231790e-02,2.534457044951645003e+03
4.920699052529853290e+00,3.028078518696624588e+00,-5.854936171076648321e+00,-5.200692654391628755e-01,8.526029379829992427e-01,5.093318444520842508e-02,2.543133709035430002e+03
4.343015052783363750e+00,3.410075621805122914e+00,-4.737814469634636261e+00,-5.250761831304544547e-01,8.510495404045297363e-01,2.771583543065820384e-03,2.550354779863506792e+03
3.558701920216056802e+00,3.568092618288991158e+00,-2.717707808106009981e+00,-3.358098802336630939e-01,9.415261806334325190e-01,-2.753498718101063739e-02,2.559031443947291791e+03
2.696357561914701773e+00,3.493955215300663664e+00,-5.706377461899734271e-01,-1.314569125028768326e-01,9.897034960166243289e-01,-5.660450624701066080e-02,2.567708108031076790e+03
2.066026440747739112e+00,3.405340203980370628e+00,5.777144510434857327e-01,7.880197194758427337e-02,9.934170757195303070e-01,-8.313099834249798592e-02,2.573602673824100748e+03
1.141701841940570006e+00,3.288794900965674284e+00,1.788387936776441478e+00,5.954209706969469662e-02,9.967332980810078569e-01,-5.454787953477466950e-02,2.582279337907885747e+03
3.307553749073499083e-01,3.204473203577039797e+00,2.809495214854631051e+00,4.021083975741118754e-02,9.988544994510578645e-01,-2.589936835416572353e-02,2.590956001991670746e+03
-2.451935971732133179e-01,3.165002803821918231e+00,3.971867007331329802e+00,2.083137217899625956e-02,9.997781376085478344e-01,2.780194554784597323e-03,2.599632666075455745e+03
-2.750066949128405769e-01,3.164021396786511175e+00,4.070170500710051265e+00,1.426924256441556129e-03,9.995031049487748120e-01,3.145643134860958562e-02,2.600267624125338443e+03
-5.194154687165221107e-01,3.164367494544386705e+00,5.638463832216483063e+00,8.264629464823287398e-04,9.999694675766697127e-01,-7.640736845205030499e-03,2.608944288209123442e+03
-5.421606654112317569e-01,3.163187671696023884e+00,7.533963489448965767e+00,2.247379681397330953e-04,9.989067076335538253e-01,-4.672621238285762368e-02,2.617620952292908441e+03
-5.372572896053668945e-01,3.161949061466314603e+00,7.694542910069266384e+00,-3.773308055814395489e-04,9.963164497898908678e-01,-8.574024425669077298e-02,2.618304636174612369e+03
-4.506365900555079351e-01,3.207628915344420850e+00,9.801911270124143982e+00,-1.666369549544477750e-04,9.908308827283502929e-01,-1.351004591169172320e-01,2.626981300258397368e+03
-3.722451908242455643e-01,3.530388404433735694e+00,1.195514846341754911e+01,4.446787168601548282e-05,9.829013623577673719e-01,-1.841274283955770807e-01,2.635657964342182368e+03
-3.651607120266220918e-01,3.958220674537635819e+00,1.312577321193695035e+01,2.554630625108548808e-04,9.725474438786980702e-01,-2.327002452360203977e-01,2.640509090032692711e+03
-4.165649064792193434e-01,5.151219630326094645e+00,1.509528231377898599e+01,4.369014786729842788e-03,9.048114186903176703e-01,-4.257877503148564946e-01,2.649185754116477710e+03
-4.994228139773194686e-01,6.657052428174593750e+00,1.688407151864726785e+01,8.299557200582658931e-03,7.991746965400323699e-01,-6.010398670315036940e-01,2.657862418200262709e+03
-5.842301640600977564e-01,8.301233005651956987e+00,1.843383383528303199e+01,1.188244800649095219e-02,6.600621872845058302e-01,-7.511156477849628699e-01,2.666539082284047709e+03
-6.487912648816617223e-01,9.908294336820384629e+00,1.968631198667511129e+01,1.496760735367339001e-02,4.933010291153340221e-01,-8.697287309297799807e-01,2.675215746367832708e+03
-6.782320331459242846e-01,1.130201122700775329e+01,2.058331055468545756e+01,1.742580432619737427e-02,3.058765020459619510e-01,-9.519106611655135941e-01,2.683892410451617707e+03
-6.650103714966774104e-01,1.230562338632591945e+01,2.106670811499607154e+01,1.915407011934970594e-02,1.056394305497082575e-01,-9.942190062113153148e-01,2.692569074535402706e+03
-6.413841201500184441e-01,1.255138212843947265e+01,2.109029547057117426e+01,2.008001117323018545e-02,-9.902266898864905964e-02,-9.948815528385360762e-01,2.696615665404746323e+03
-5.577199277315816328e-01,1.247176665642892779e+01,2.066555808078103240e+01,2.506125391046168382e-02,1.519089763791599546e-01,-9.880757038043813667e-01,2.705292329488531323e+03
-4.480763812402991930e-01,1.156506713534061426e+01,1.968428893878265384e+01,2.846268683810915592e-02,3.932646132231552571e-01,-9.189835795295606680e-01,2.713968993572316322e+03
-3.408578809183031577e-01,9.822148164825208028e+00,1.814681084625440377e+01,3.006989007287097157e-02,6.098296648174156287e-01,-7.919605934768462197e-01,2.722645657656101321e+03
-2.834712524483103402e-01,7.570158892283343377e+00,1.616970939630431658e+01,2.978154845091041461e-02,7.879522969975484292e-01,-6.150140136847798145e-01,2.731322321739886320e+03
-3.178479842775872033e-01,5.305466588222926383e+00,1.392773520523235753e+01,2.761583842830340335e-02,9.164040113028842915e-01,-3.992982012687221749e-01,2.739998985823671319e+03
-4.652777271922811098e-01,3.525700333251467811e+00,1.159569400682850393e+01,2.370928227907556640e-02,9.870874735963511837e-01,-1.584114560365375013e-01,2.748675649907456318e+03
-6.091756428566641457e-01,2.886897591871381508e+00,1.016187561625626934e+01,1.830814181736156038e-02,9.955469542329882238e-01,9.246120192462169152e-02,2.754126479035926423e+03
-8.154873301600571445e-01,2.584946199776719133e+00,8.014425269848700850e+00,-7.720833982887594094e-03,9.923599072593851655e-01,1.231267768596778084e-01,2.762803143119711422e+03
-8.445744165255374414e-01,2.764617246950068274e+00,6.071636347279286916e+00,-3.373723382564997736e-02,9.875572544304347389e-01,1.535918886818896933e-01,2.771479807203496421e+03
-5.341599084021542154e-01,3.109708302338690888e+00,4.407097287352056192e+00,-5.969870597193648737e-02,9.811468146669178880e-01,1.838069437412215290e-01,2.780156471287281420e+03
1.802529269907322818e-01,3.393237544718042731e+00,3.018452169743742086e+00,-8.556298810149144674e-02,9.731390234178387555e-01,2.137227553668738511e-01,2.788833135371066419e+03
3.300218010436651861e-01,3.425629439586443059e+00,2.823595837417856469e+00,-1.112879760307804167e-01,9.635469156888312181e-01,2.432906238437529400e-01,2.790185295074792521e+03
1.423037196342341604e+00,3.592882392913319567e+00,1.578496285579841896e+00,-2.483496245027142779e-01,9.016153377594461338e-01,3.541330918267679984e-01,2.798861959158577520e+03
2.578906099357571424e+00,3.734031097688913725e+00,1.891468311296802263e-01,-3.767419756619503346e-01,8.082106083840439048e-01,4.526136280211462970e-01,2.807538623242362519e+03
3.603434957980662823e+00,3.921697697051306886e+00,-1.574522152495863692e+00,-4.919831888830292210e-01,6.865932568511387002e-01,5.352945371509817418e-01,2.816215287326147518e+03
4.383760131192492082e+00,4.222190685150247091e+00,-3.765744555969942287e+00,-5.900504936936638023e-01,5.410086294058717993e-01,5.992896443296694686e-01,2.824891951409932517e+03
4.501971633481966606e+00,4.300401280767371937e+00,-4.235137721758194473e+00,-6.675206082853382128e-01,3.765387011017820029e-01,6.423650395898498067e-01,2.826593048671430552e+03
5.002205967461557101e+00,4.813770578303707914e+00,-6.546995287300128474e+00,-7.321868646157450033e-01,3.556443697661798020e-01,5.808764735607313545e-01,2.835269712755215551e+03
5.455236499877114120e+00,5.511825906557928256e+00,-8.415334540193416757e+00,-7.907033555781750600e-01,3.317629305320534683e-01,5.145090489009003232e-01,2.843946376839000550e+03
5.987735542247588860e+00,6.413349198178227795e+00,-9.363097143560029423e+00,-8.425786035720722600e-01,3.050949649427359689e-01,4.438201878777337517e-01,2.852623040922785549e+03
6.666086164631732203e+00,7.497127853221944527e+00,-9.146025654245034886e+00,-8.873769080666855658e-01,2.758644571943807966e-01,3.694036062160115930e-01,2.861299705006570548e+03
7.407055968274898206e+00,8.630351521243104784e+00,-8.023159964186858062e+00,-9.247220042754320524e-01,2.443169133060611731e-01,2.918843275677032723e-01,2.869672712387742195e+03
8.144374596201627625e+00,9.772608856356193030e+00,-6.359118411034047291e+00,-9.599439152362396754e-01,1.851667464305254140e-01,2.102830369201470762e-01,2.878349376471527194e+03
8.725490671795714803e+00,1.076385872238301289e+01,-4.643676682803525857e+00,-9.842242673684076237e-01,1.239060407816430787e-01,1.262849340982354629e-01,2.887026040555312193e+03
9.018127037376258315e+00,1.148935077185112696e+01,-3.330956949679291679e+00,-9.972863189119947069e-01,6.123304471070420418e-02,4.084742765066163434e-02,2.895702704639097192e+03
8.958688572319845278e+00,1.189131925751972219e+01,-2.657211839143338583e+00,-9.989811890600522881e-01,-2.137897290712068715e-03,-4.505566888243248830e-02,2.904379368722882191e+03
8.646720835472951450e+00,1.200904159800110627e+01,-2.442324885894912256e+00,-9.892895546345090718e-01,-6.548448539118412182e-02,-1.304452347267512080e-01,2.912535634723868952e+03
8.195219406971448350e+00,1.194934673589765595e+01,-2.254060463401390990e+00,-9.937526269775091015e-01,-4.819906522724476394e-02,-1.006507152010161776e-01,2.921212298807653951e+03
7.782437645606589349e+00,1.179065487383959976e+01,-1.695683078459306659e+00,-9.970168151269394041e-01,-3.085550055813274933e-02,-7.073477520567336696e-02,2.929888962891438950e+03
7.580452974601323390e+00,1.162181225640268956e+01,-4.188640942055548155e-01,-9.990781825361952917e-01,-1.347470732766244302e-02,-4.073349268254058964e-02,2.938163058196540987e+03
7.733873765414808865e+00,1.149977517971647778e+01,2.108066510104965818e+00,-9.995528907956134912e-01,-1.075518450496153189e-02,2.786295922957815821e-02,2.946839722280325987e+03
7.968649731693722593e+00,1.151210861428424792e+01,4.000747673656205095e+00,-9.953166025681717821e-01,-7.984971397171457611e-03,9.632808973544043640e-02,2.952012313799725689e+03
7.910919871757214672e+00,1.167775732837170644e+01,6.090363098265281216e+00,-9.990393187640468353e-01,-1.233454940243427752e-03,4.378262368524116904e-02,2.960688977883510688e+03
7.820846612594125169e+00,1.170280409686205836e+01,6.179870287605153223e+00,-9.999442713019993656e-01,5.521540463243816699e-03,-8.886330238532646336e-03,2.961763015716904647e+03
6.586513886486109470e+00,1.182806093343516451e+01,5.697619244106517655e+00,-9.493745813079184082e-01,3.663104385356796746e-03,-3.141217694354559442e-01,2.970439679800689646e+03
5.662357227970634455e+00,1.185795379530490301e+01,4.112569737282002258e+00,-8.079216629027666796e-01,1.454001150669966642e-03,-5.892864095613208342e-01,2.979116343884474645e+03
5.651749038389030311e+00,1.185763844379010834e+01,4.041464557119698320e+00,-5.891267024409437836e-01,-8.942933891163867876e-04,-8.080389400955001467e-01,2.979457466509550159e+03
6.189275009565796459e+00,1.179615948432309480e+01,2.318420507400821506e+00,-8.560538044367025368e-01,6.163727250051937410e-03,-5.168480360576764854e-01,2.988134130593335158e+03
7.574337852752149658e+00,1.159095874874718035e+01,6.781752490686944190e-01,-9.893574506362075027e-01,1.225963656345223363e-02,-1.449811580268289546e-01,2.996810794677120157e+03
7.927987911477845984e+00,1.150524773876674445e+01,2.233815704459315987e-01,-9.682299953416645399e-01,1.644191126071432169e-02,2.495162112476540239e-01,2.999193198802010102e+03
8.761304693044637659e+00,1.133768236005565555e+01,-1.416375996746668919e+00,-9.852746098553368803e-01,-6.985209776260709394e-03,1.708307642491725120e-01,3.007869862885795101e+03
9.032733922849649488e+00,1.183425202623808481e+01,-2.894109271007418549e+00,-9.953919911523160247e-01,-3.036321444977663903e-02,9.094426399318245036e-02,3.016546526969580100e+03
8.990701900128163615e+00,1.212608642064962261e+01,-3.186811277396653264e+00,-9.985110106721816203e-01,-5.352774779412704936e-02,1.041833850587650483e-02,3.018571090606137659e+03
8.354416615024620185e+00,1.390295073073768251e+01,-4.254202626625433581e+00,-9.449972843360929797e-01,7.976535116494112843e-03,3.269778394411501088e-01,3.027247754689922658e+03
