1.354348552927518101e+00,3.369379225518037480e+00,-1.246823729603354858e+00,-4.040007860057954203e-01,-8.765435761882958143e-01,-2.616347147062291212e-01,2.140452653255603650e+02
2.505687963933548090e+00,3.009089450058529458e+00,-1.150198315800843085e+00,-5.734457803004600063e-01,-7.847612453675827382e-01,-2.351759444020423140e-01,2.227219294093454209e+02
4.087753156096015417e+00,2.880648650382004128e+00,-9.974790233119757987e-01,-7.211940085650121457e-01,-6.632869065032394040e-01,-1.998191223884137335e-01,2.313985934931304769e+02
5.859038401259229367e+00,2.756258567627323686e+00,-7.526015505961288765e-01,-8.416553235624497642e-01,-5.167166326782787200e-01,-1.569020007311522635e-01,2.400752575769155328e+02
7.569726367158986058e+00,2.418924764346632728e+00,-3.795208042152671823e-01,-9.302719953387821317e-01,-3.505960106247247299e-01,-1.080483781610606792e-01,2.487519216607005887e+02
8.961859069912792464e+00,1.662714110415412394e+00,1.577815748269276452e-01,-9.836911511985101386e-01,-1.712103229725967513e-01,-5.510666349986201307e-02,2.574285857444856447e+02
9.692619638941030402e+00,4.842625352946859363e-01,7.841285392942427546e-01,-9.998916320019251014e-01,1.465325433036418316e-02,-7.994143655975541297e-05,2.649877709955470095e+02
9.674376929720486018e+00,-7.401090677484085667e-01,1.124241668404491357e+00,-9.998923737249066912e-01,1.460230343963594447e-02,1.109196395545530340e-04,2.713461404703121502e+02
8.615796361706049566e+00,-2.147994307111829482e+00,4.276046969364128980e-01,-9.985927647417102149e-01,3.839029418426656570e-02,-3.656057310618803652e-02,2.800228045540972062e+02
7.260535995881062910e+00,-3.455550499844106671e+00,-1.196420668721738911e+00,-9.953834874098704821e-01,6.210486376463972280e-02,-7.316214100499125739e-02,2.886994686378822621e+02
6.842825373852231330e+00,-4.268759932294930337e+00,-1.999917199399299905e+00,-9.902706782613341918e-01,8.570067189933898433e-02,-1.096238048933044773e-01,2.929048761537363816e+02
6.598314248889279199e+00,-6.262604719713919188e+00,-3.369577370635436164e+00,-9.919749690340740056e-01,1.076393651793116635e-01,6.631310484393597438e-02,3.015815402375214376e+02
6.788184398184702317e+00,-8.171175742952970111e+00,-4.349702069549094219e+00,-9.624934899488448714e-01,1.261940813653518179e-01,2.401652256988559830e-01,3.102582043213064935e+02
6.995422459673058313e+00,-9.442373066173281870e+00,-5.000991806837856934e+00,-9.027530900545129855e-01,1.407814998339322055e-01,4.064670069047144341e-01,3.189348684050915494e+02
6.870143287470473759e+00,-9.735546949715409681e+00,-5.478503783020684637e+00,-8.146318842178573716e-01,1.509430224492151196e-01,5.599902652635813105e-01,3.276115324888766054e+02
6.836254502841482505e+00,-9.711824403449440979e+00,-5.519622453817556895e+00,-7.009002117592088021e-01,1.563591902337984896e-01,6.959085405320920570e-01,3.283969988504130129e+02
6.098533962779213446e+00,-9.075072931838397139e+00,-6.189358374713129329e+00,-6.623337502317085956e-01,1.104960294063865311e-01,7.410145955237963378e-01,3.370736629341980688e+02
5.175931444928843383e+00,-8.326047505263405313e+00,-6.897563168445225656e+00,-6.200414168295170780e-01,6.401128745627053529e-02,7.819521702019928133e-01,3.426735174398660888e+02
3.073327190135201725e+00,-6.901314027781776161e+00,-8.543247993639344173e+00,-5.032541142842872350e-01,6.008839722111949250e-02,8.620456374088576457e-01,3.513501815236511447e+02
5.896645968804562488e-01,-5.476494486240601312e+00,-1.059892580290263986e+01,-3.763666932313177171e-01,5.495955391578963289e-02,9.248381261928768637e-01,3.600268456074362007e+02
-1.716854195352722545e+00,-4.392919545985966678e+00,-1.254448334029575207e+01,-2.419257342846422298e-01,4.872769174145675369e-02,9.690694253503667754e-01,3.687035096912212566e+02
-3.301371779301757403e+00,-4.016324038860180856e+00,-1.385983051810985778e+01,-1.026294100837795015e-01,4.151788162843603192e-02,9.938518348785225776e-01,3.773801737750063126e+02
-3.632757405176342935e+00,-4.736424672634004907e+00,-1.402500896438334799e+01,3.872666314308152030e-02,3.347482122208710748e-02,9.986879802552370844e-01,3.860568378587913685e+02
-3.553013127575615382e+00,-4.972732984715542592e+00,-1.393662520087275958e+01,1.793055293010817897e-01,2.475993103880962456e-02,9.834807944119374756e-01,3.873951322043604932e+02
-1.889796350838657490e+00,-7.556016939667201449e+00,-1.232554232320906884e+01,-1.426260043830159252e-01,4.764943799360903953e-01,8.675303618684857554e-01,3.960717962881455492e+02
5.500009444677190773e-01,-1.095270376203568397e+01,-9.582592871516791178e+00,-4.187533470667914037e-01,7.752031166604378409e-01,4.729733208553326684e-01,4.047484603719306051e+02
1.308617766658109804e+00,-1.298611632779307890e+01,-7.626486109141636938e+00,-5.603984158196444465e-01,8.249560631479028183e-01,-7.347863242550888019e-02,4.124121790381846040e+02
1.495079673576278634e-01,-1.357468265997725609e+01,-6.591787472792784541e+00,-3.556401276783218157e-01,9.333351977746795480e-01,4.902558699467641362e-02,4.210888431219696599e+02
-1.726266147473713541e+00,-1.314909585753549237e+01,-6.348927657946457970e+00,-1.264567226492385177e-01,9.776134156861924218e-01,1.681627389390753236e-01,4.297655072057547159e+02
-2.738453804522339219e+00,-1.265363750954977640e+01,-6.393569214766492870e+00,1.114117028133577159e-01,9.547497267502086382e-01,2.757505970012514296e-01,4.350274833273855393e+02
-4.030450101882527392e+00,-1.168683976592088847e+01,-6.517718832724837874e+00,3.335378150727830171e-01,8.285277296712688644e-01,4.497691931235954788e-01,4.437041474111705952e+02
-5.155132332846674714e+00,-1.060653007389139368e+01,-6.520348404426943745e+00,5.237928109811347266e-01,6.231360742287767041e-01,5.808102307639791961e-01,4.523808114949556511e+02
-6.434156371300305821e+00,-9.459073740465505864e+00,-6.153605157264620651e+00,6.639969725468547468e-01,3.582008772711492983e-01,6.563521554559006432e-01,4.610574755787407071e+02
-7.129522623088604405e+00,-8.930035610971938098e+00,-5.840275892111917777e+00,7.407531481852531741e-01,5.903788768487543137e-02,6.691765845215951192e-01,4.649508163910221015e+02
-8.888513039442033303e+00,-7.732177590587405724e+00,-4.832616177581457784e+00,8.607890755596288024e-01,5.988687105353183993e-03,5.089246535831489782e-01,4.736274804748071574e+02
-1.069075192413541409e+01,-6.521119255338443388e+00,-3.464716961827200237e+00,9.438940382427313258e-01,-4.731744393622141359e-02,3.268380395089221513e-01,4.823041445585922133e+02
-1.223753091337731469e+01,-5.325419808038848402e+00,-1.914011257331149851e+00,9.865025480061014873e-01,-9.859348321271452220e-02,1.307289097573761105e-01,4.909808086423772693e+02
-1.323123841209066498e+01,-4.186753179960969184e+00,-3.579702904591737789e-01,9.867865531740647178e-01,-1.456395075300130904e-01,-7.098895915659278466e-02,4.996574727261623252e+02
-1.349327904886415297e+01,-3.141663551664017895e+00,1.083024270966414848e+00,9.447338657464487977e-01,-1.864370756472279178e-01,-2.696611572634647902e-01,5.083341368099473812e+02
-1.309240579868402499e+01,-2.217811534550596431e+00,2.373817273344321688e+00,8.621486854895107355e-01,-2.192358253444088578e-01,-4.567639401210769612e-01,5.168135734390102698e+02
-1.218243733258920969e+01,-1.356384580836858644e+00,3.624816717422766121e+00,7.619071481439607663e-01,-2.222272157748937937e-01,-6.083671277909081798e-01,5.254902375227953826e+02
-1.094194248302887829e+01,-5.557610261294042564e-01,4.855329265031735453e+00,6.364915332322907959e-01,-2.178760189689366578e-01,-7.398692914849681612e-01,5.341669016065804954e+02
-9.542761649535700386e+00,2.151560919637882097e-01,6.116313479135541797e+00,4.900456791565501180e-01,-2.063260046138429560e-01,-8.469255056737284848e-01,5.428435656903656081e+02
-8.147998916673126146e+00,9.882098952199697139e-01,7.399987478310145583e+00,3.274082693359962604e-01,-1.879587940994479345e-01,-9.259985512362218785e-01,5.515202297741507209e+02
-6.920010321543197840e+00,1.778462514826823604e+00,8.567963864602132773e+00,1.539529654559345373e-01,-1.633812519967685062e-01,-9.744757826254842881e-01,5.600851580535378389e+02
-5.965099564970873125e+00,2.631295985223055744e+00,9.467934059580093376e+00,2.502277480425060263e-01,-1.585390069410913538e-01,-9.551175097267097236e-01,5.687618221373229517e+02
-5.437858594760084152e+00,3.567266193045680822e+00,9.899831814517813910e+00,3.440835483692544217e-01,-1.521641599909635267e-01,-9.265260817455981401e-01,5.774384862211080645e+02
-5.475885818752498579e+00,4.623492412194096346e+00,9.679846368267787327e+00,4.346130738615378575e-01,-1.443183367245180204e-01,-8.889778927018749943e-01,5.861151503048931772e+02
-6.114282919478893241e+00,5.808551925503040003e+00,8.723345479066137997e+00,5.209411856892181003e-01,-1.350773817813896160e-01,-8.428359164052072749e-01,5.947918143886782900e+02
-6.133010955705243461e+00,5.833837240868751550e+00,8.696504494028991061e+00,6.022333570687414817e-01,-1.245306258218467493e-01,-7.885461983071342384e-01,5.949680667067356126e+02
-7.202231990080817603e+00,7.086656518933918569e+00,7.118814711378680826e+00,7.518319781835948179e-01,-1.416352117413246514e-01,-6.439612902778421022e-01,6.036447307905207253e+02
-8.433774261695656804e+00,8.301450590996690693e+00,5.135316754084380264e+00,8.686678647968268940e-01,-1.525677317972164715e-01,-4.713143620603804651e-01,6.123213948743058381e+02
-9.566642661452940288e+00,9.362488019124430849e+00,2.958875302739145230e+00,9.476496419519222503e-01,-1.568517782733641897e-01,-2.781288833647311831e-01,6.209980589580909509e+02
-1.034439325180401958e+01,1.014259246484382970e+01,8.023953840679644012e-01,9.853355098367165832e-01,-1.543006650302248539e-01,-7.282333298395458898e-02,6.296747230418760637e+02
-1.060255160391172247e+01,1.055718812187224032e+01,-1.174294202917860908e+00,9.800832259669284285e-01,-1.450255625341698440e-01,1.356556537367301085e-01,6.383513871256611765e+02
-1.035329282014290797e+01,1.062343556011918011e+01,-2.917546375291382610e+00,9.321216687304886284e-01,-1.294306533224283406e-01,3.382231521709070377e-01,6.470280512094462892e+02
-9.950488466287984224e+00,1.049387563989138883e+01,-3.925900588596585639e+00,8.435408640524457713e-01,-1.081955190293997504e-01,5.260518418714812405e-01,6.526254349302826085e+02
-9.029227667447958794e+00,1.008866684731751917e+01,-5.308420619870506840e+00,7.692285529447417947e-01,-6.889135412131494607e-02,6.352475223583189390e-01,6.613020990140677213e+02
-7.852650264404801739e+00,9.535214153038122475e+00,-6.456214141443261667e+00,6.803079349131073705e-01,-2.827888824349695379e-02,7.323792857356123953e-01,6.699787630978528341e+02
-6.509552337576085534e+00,8.916791705071927865e+00,-7.368881739849037160e+00,5.784676895418943143e-01,1.287061455254540077e-02,8.156025253993467450e-01,6.786554271816379469e+02
-5.085305486728620039e+00,8.320476774697258548e+00,-8.046073127424131499e+00,4.656418469209157029e-01,5.377569215321004875e-02,8.833367677902959070e-01,6.873320912654230597e+02
-3.666708683855377515e+00,7.780543822610971993e+00,-8.501137679595714758e+00,3.439730598952049356e-01,9.365952442007320633e-02,9.342956852904513720e-01,6.960087553492081724e+02
-2.349720429619104767e+00,7.222167986925327909e+00,-8.774772085876035632e+00,2.157719149819375404e-01,1.317646850512390333e-01,9.675115236930612594e-01,7.046854194329932852e+02
-2.320138375017697818e+00,7.207849141012257377e+00,-8.779458229445673112e+00,8.347305437109960036e-02,1.673675252249818002e-01,9.823534805223347322e-01,7.048924042306986166e+02
-1.211333555135540641e+00,6.501205479424629452e+00,-8.926556880211540701e+00,6.529450641752815310e-02,1.712205628136934665e-01,9.830656876718232295e-01,7.135690683144837294e+02
-4.206543731846364431e-01,5.523879134159672688e+00,-9.002320382808621346e+00,4.709338330758680580e-02,1.750143890909459099e-01,9.834379374602721935e-01,7.222457323982688422e+02
-6.253487680727279341e-02,4.158448266885933720e+00,-9.061175899439842141e+00,2.887597469454175614e-02,1.787476930686972554e-01,9.834701013677444870e-01,7.309223964820539550e+02
-1.497428093852791464e-01,2.781501850971251244e+00,-9.115867914597243882e+00,1.064857584812048397e-02,1.824191846299429987e-01,9.831621681529464363e-01,7.379002473021155311e+02
-6.590636774710262324e-01,1.082715277367632734e+00,-9.163146511182212350e+00,2.875206399378155489e-02,1.286531468989146332e-01,9.912717521449956326e-01,7.465769113859006438e+02
-1.442464028621839978e+00,-4.673806996715781231e-02,-9.127631991563102787e+00,4.676111796126997816e-02,7.446458614212780880e-02,9.961257065497294283e-01,7.552535754696857566e+02
-1.956656337502516108e+00,-2.062257141621943735e-01,-9.066374041033219200e+00,6.461659865217875276e-02,2.003144966155859241e-02,9.977080916751852602e-01,7.600325983300808730e+02
-3.147430022346883849e+00,1.899498989813685756e-01,-8.987611921528520398e+00,4.812697325526908709e-02,1.176363391326011067e-02,9.987709503832935543e-01,7.687092624138659858e+02
-4.894780013139548025e+00,8.631975487333147790e-01,-9.127822266008880803e+00,3.162092123475453848e-02,3.491803963404673666e-03,9.994928336973973870e-01,7.773859264976510985e+02
-5.015780468864738495e+00,9.015882633021023995e-01,-9.145601648152194230e+00,1.510407034063413097e-02,-4.781219901649350415e-03,9.998734954793334628e-01,7.778831474013238676e+02
-7.326844588069345576e+00,1.480413191463409106e+00,-9.542998117353501897e+00,2.282686471438586662e-01,-2.951301576188288811e-01,9.277874836382528079e-01,7.865598114851089804e+02
-9.581531953917354016e+00,1.968319524436066947e+00,-9.857003484791722059e+00,4.106310321896774473e-01,-5.456547218582654679e-01,7.305074126368938936e-01,7.952364755688940932e+02
-1.088923562502109554e+01,2.506078833259278049e+00,-9.577002333673972245e+00,5.375835664520333124e-01,-7.225495690157729411e-01,4.346539191088021892e-01,8.039131396526792059e+02
-1.090314512576499162e+01,2.884522754102723407e+00,-9.021489866505731925e+00,5.919954928598405441e-01,-8.019448122512481403e-01,8.014895219336015675e-02,8.090429698217538999e+02
-9.801336089966028453e+00,3.582472246608221500e+00,-7.488992019164969705e+00,5.395660623354906482e-01,-8.418705648579621892e-01,-1.097344073869084731e-02,8.177196339055390126e+02
-7.975874092549685379e+00,4.247501476547037136e+00,-5.418787405955178826e+00,4.803131678295510243e-01,-8.711498273506614876e-01,-1.019570454492114975e-01,8.263962979893241254e+02
-6.133738465655791394e+00,4.799196869410373267e+00,-3.167236247983430175e+00,4.149861336475478280e-01,-8.894123340538303557e-01,-1.916512690110117323e-01,8.350729620731092382e+02
-4.984375358994663330e+00,5.188208457693185061e+00,-1.090736730826433742e+00,3.444110966540732122e-01,-8.964271370296225117e-01,-2.789218250671179344e-01,8.437496261568943510e+02
-4.575523615795200172e+00,5.458347640577905224e+00,5.728860033008877917e-01,2.694805593454985826e-01,-8.921055262117353335e-01,-3.626650772236192366e-01,8.524262902406794637e+02
-4.108289842535930880e+00,5.742740859300057288e+00,1.813367940511331877e+00,1.911421038657597493e-01,-8.765021511523176656e-01,-4.418219948749634307e-01,8.611029543244645765e+02
-3.988681431035791203e+00,5.795470871452400807e+00,1.975798250620149910e+00,1.103864095968364184e-01,-8.498143302073285499e-01,-5.153915450902908368e-01,8.624486719149061855e+02
-2.961705529004415638e+00,6.222944184245954524e+00,2.902914704816193847e+00,-4.122644750825325832e-02,-7.924559452815346239e-01,-6.085326242810173980e-01,8.711253359986912983e+02
-1.560775009678526448e+00,6.821786437803092795e+00,3.683353296889477324e+00,-1.913983397560776178e-01,-7.073998379944448356e-01,-6.804043979463418879e-01,8.798020000824764111e+02
5.467923589856588801e-02,7.644687284567424967e+00,4.479302225737052723e+00,-3.348805135173210101e-01,-5.976188694601226592e-01,-7.284948376840155726e-01,8.884786641662615239e+02
1.728875429828099275e+00,8.686829673277538078e+00,5.383503082539386142e+00,-4.666580324935814539e-01,-4.669500643701009479e-01,-7.511231044872336282e-01,8.971553282500466366e+02
2.624601723004504894e+00,9.327179607104968184e+00,5.920948118517569192e+00,-5.821250506726425300e-01,-3.199605060973818027e-01,-7.474982942573281663e-01,9.019605574474145442e+02
4.063482867555336497e+00,1.045277669015764488e+01,6.867823856163302487e+00,-5.627426398611130587e-01,-3.025263039172698676e-01,-7.692831446948473761e-01,9.106372215311996570e+02
5.158325952690999472e+00,1.138705198050494793e+01,7.697119196491596149e+00,-5.427107097270448266e-01,-2.847429265025630540e-01,-7.901800752649745796e-01,9.193138856149847697e+02
5.739653703506029991e+00,1.195640885490362670e+01,8.293233875443805303e+00,-5.220523784372913534e-01,-2.666308969439668553e-01,-8.101649702093066674e-01,9.279905496987698825e+02
5.630982591818544769e+00,1.199467923009343195e+01,8.540616345011120103e+00,-5.007914867483506116e-01,-2.482111174463723091e-01,-8.292147658885790085e-01,9.366672137825549953e+02
5.268091070606445214e+00,1.173652023325367466e+01,8.523770796588433285e+00,-4.789525705358975149e-01,-2.295048452451243504e-01,-8.473074773522231151e-01,9.407814125213211582e+02
3.857415542719996093e+00,1.060076444814853502e+01,8.199356712629404242e+00,-3.630781818147478801e-01,-2.238684668612820061e-01,-9.044640089220744583e-01,9.494580766051062710e+02
1.894599517578055892e+00,8.970366011779619342e+00,7.557025429107197212e+00,-2.411311344806403856e-01,-2.144877682775682415e-01,-9.464928807147124923e-01,9.581347406888913838e+02
-1.988122898120125992e-01,7.096548579622986352e+00,6.797863242803459549e+00,-1.151510498572157898e-01,-2.015196473493065799e-01,-9.726911469985106695e-01,9.668114047726764966e+02
-1.992151422246328130e+00,5.211690098969680385e+00,6.122980956256542484e+00,1.275499908866224025e-02,-1.851810020329157647e-01,-9.826206320267052430e-01,9.754880688564616094e+02
-3.206249960635170648e+00,3.461056811287611001e+00,5.672695419498016811e+00,1.404477271520500892e-01,-1.657451028573106722e-01,-9.761152579571329424e-01,9.841647329402467221e+02
-3.749325192951545205e+00,2.178234916746353722e+00,5.486646394017407502e+00,2.657914149702844120e-01,-1.435370227411796873e-01,-9.532838228096265354e-01,9.910435143258105199e+02
-4.081663064765706395e+00,6.338307253968679111e-01,5.429835894623705528e+00,2.751896134866126942e-01,-7.302378808513808328e-02,-9.586116017454316962e-01,9.997201784095956327e+02
-4.225610588595938744e+00,-8.877793175086674538e-01,5.540816704996101016e+00,2.831874150504913867e-01,-2.138963236241839695e-03,-9.590611621745640525e-01,1.008396842493380746e+03
-4.381640951865585443e+00,-2.435587158729761281e+00,5.777411730511138543e+00,2.897441217343168507e-01,6.875673784706215486e-02,-9.546302189431459251e-01,1.017073506577165858e+03
-4.751933040486653326e+00,-4.049756197206812125e+00,6.097417945552839669e+00,2.948263685382341293e-01,1.393025462557771210e-01,-9.453413209098471270e-01,1.025750170660950971e+03
-5.428625070754335091e+00,-5.705289954704901412e+00,6.458690495656042252e+00,2.984082931192574284e-01,2.091394735247601999e-01,-9.312417361832812102e-01,1.034426834744735970e+03
-5.917400047638125216e+00,-6.610932016443058501e+00,6.668348732718488492e+00,3.004716673726030018e-01,2.779121379720142504e-01,-9.124032116734998032e-01,1.039362803459668157e+03
-6.764127968089172604e+00,-7.989638466499151548e+00,7.011283279912692734e+00,4.284140867958373122e-01,2.376773998392398557e-01,-8.717619077706391106e-01,1.048039467543453156e+03
-7.388705765624666633e+00,-8.978505532025643276e+00,7.287706685072063983e+00,5.479424916096461429e-01,1.927747232647614162e-01,-8.139993439544489506e-01,1.056716131627238155e+03
-7.530175594191381272e+00,-9.406228605878697024e+00,7.455710285074195198e+00,6.567093928132735625e-01,1.440859809607633879e-01,-7.402499601355858605e-01,1.065392795711023155e+03
-7.337202537336698249e+00,-9.319014801689903038e+00,7.492441348782714172e+00,7.525786456581253780e-01,9.256739999167530597e-02,-6.519621603721752479e-01,1.069527337095564462e+03
-6.292361561621907740e+00,-8.564138347823607944e+00,7.479016543132563477e+00,5.573413355512887302e-01,2.038201250518692220e-01,-8.048763832480563263e-01,1.078204001179349461e+03
-4.526314635995319691e+00,-7.475860240267425461e+00,7.378767638681662966e+00,3.209289794616946301e-01,3.000150774704947176e-01,-8.983281936090280473e-01,1.086880665263134460e+03
-2.215996138268362170e+00,-6.507805988544182796e+00,7.275143750270042453e+00,6.080714150303185433e-02,3.740456181145297987e-01,-9.254136194763267209e-01,1.095557329346919460e+03
-1.259294833663679558e+00,-6.275617012857106047e+00,7.247341114085090297e+00,-2.038070279056816980e-01,4.204425489764312962e-01,-8.841316408697005302e-01,1.098758131633647281e+03
1.380953167732253739e+00,-6.045367141079118767e+00,7.241123807645098331e+00,-2.909268294769564167e-01,3.641670052769344079e-01,-8.847270608256131430e-01,1.107434795717432280e+03
3.784344025665883127e+00,-6.217103428262954701e+00,7.378086989815570540e+00,-3.749170624288664655e-01,3.039740681520181620e-01,-8.758053220836163888e-01,1.116111459801217279e+03
5.526679271730983167e+00,-6.650181836877713693e+00,7.704296495997455807e+00,-4.548742436322395499e-01,2.405112359498700614e-01,-8.574624002608104423e-01,1.124788123885002278e+03
6.188835268063629158e+00,-7.185549417280078899e+00,8.265778883263752874e+00,-5.299382723749446189e-01,1.744611794255719883e-01,-8.298956105105717018e-01,1.133464787968787277e+03
5.667568470418795634e+00,-7.623702887695902319e+00,8.955045164450705641e+00,-5.993016809397672118e-01,1.065343994595430027e-01,-7.934014853485511498e-01,1.141209167397182000e+03
4.086967255214013939e+00,-7.973616200696639567e+00,9.804825032666416362e+00,-4.523115021392782875e-01,8.330611146808733491e-02,-8.879596819816687470e-01,1.149885831480966999e+03
1.971403671203926011e+00,-8.123424243133163358e+00,1.054250990829297407e+01,-2.912603556125198945e-01,5.748809303176288105e-02,-9.549138832421377732e-01,1.158562495564751998e+03
-1.701424738159066641e-01,-8.036408110969828655e+00,1.096027689021443408e+01,-1.211548186548223466e-01,2.988294585870102452e-02,-9.921827046789628568e-01,1.167239159648536997e+03
-1.996058427505489341e+00,-7.752594497230126613e+00,1.093901204356593837e+01,5.271706532532129813e-02,1.348826709222112263e-03,-9.986075764234936258e-01,1.175915823732321996e+03
-2.012305298419686306e+00,-7.749039994070463955e+00,1.093652762396805223e+01,2.249501674280634245e-01,-2.722722869787075339e-02,-9.739887577337259517e-01,1.176002597172595415e+03
-3.520449102713025358e+00,-7.430524450681530446e+00,1.053515387247455948e+01,2.385911833425161943e-01,-1.196553665694813917e-01,-9.637192747268299442e-01,1.184679261256380414e+03
-4.884007026119895123e+00,-7.292011468443401867e+00,9.901463991176534307e+00,2.501243586969973398e-01,-2.110263855234985886e-01,-9.449358019448126367e-01,1.193355925340165413e+03
-6.282990727480595616e+00,-7.539166703924850665e+00,9.182490810447118790e+00,2.594478070051204344e-01,-3.005330894200770042e-01,-9.178042806620122507e-01,1.202032589423950412e+03
-7.326656439924697395e+00,-8.023099030489269978e+00,8.697533191914805784e+00,2.664791615157397486e-01,-3.873847506074789004e-01,-8.825643950851067565e-01,1.207929869767793889e+03
-8.974281846784997185e+00,-9.074892784595920858e+00,7.986355617342706381e+00,4.305015560131623120e-01,-3.499290875518832888e-01,-8.319952187098001994e-01,1.216606533851578888e+03
-1.063455413648407877e+01,-1.021784388946331035e+01,7.223404735768432339e+00,5.812371116234166246e-01,-3.016733695343091215e-01,-7.557477080257796187e-01,1.225283197935363887e+03
-1.216776416874354538e+01,-1.116563140812504074e+01,6.341094145664907700e+00,7.140336067700244760e-01,-2.441069404659094444e-01,-6.561751366976217303e-01,1.233959862019148886e+03
-1.342324658007943405e+01,-1.163822921984756498e+01,5.271862498081184789e+00,8.247924812502731573e-01,-1.790065021458411565e-01,-5.363506642703760319e-01,1.242636526102933885e+03
-1.427364582935049064e+01,-1.156154960523783437e+01,3.994509315334479282e+00,9.100953277195164004e-01,-1.083812803379933659e-01,-3.999724897240278798e-01,1.251313190186718884e+03
-1.441636987272413428e+01,-1.147320865237167098e+01,3.645767136620696292e+00,9.673093932402268003e-01,-3.441101505175306330e-02,-2.512497160053999146e-01,1.253503822420338793e+03
-1.468540256249369058e+01,-1.118062568731482997e+01,2.234289260450891934e+00,9.910176416308293934e-01,-2.141954859335348099e-02,-1.319971094840147463e-01,1.262180486504123792e+03
-1.447891430585777783e+01,-1.133253296511875341e+01,8.337636978951945554e-01,9.999081212997366075e-01,-8.107818262730272577e-03,-1.077089780154017427e-02,1.270857150587908791e+03
-1.409671164763729223e+01,-1.189168381086581761e+01,-1.224045851397888816e-02,9.938479046364862013e-01,5.325143701119763873e-03,1.106163879874668549e-01,1.276364922682093948e+03
-1.318604371885477633e+01,-1.341311892668257499e+01,-1.255291381298985653e+00,9.540690012117646335e-01,1.751344228585929308e-01,2.430602288683864909e-01,1.285041586765878947e+03
-1.204284128814167509e+01,-1.527149915438866401e+01,-2.391223186727647665e+00,8.685338940996957247e-01,3.365444124161029449e-01,3.638471289874007919e-01,1.293718250849663946e+03
-1.078794543817545204e+01,-1.706897784689530084e+01,-3.433320917110719073e+00,7.413447689517040917e-01,4.818140575562906425e-01,4.671842757306535754e-01,1.302394914933448945e+03
-9.526772698086089619e+00,-1.840270220484487140e+01,-4.394889194896543394e+00,5.786014873497208333e-01,6.039763791161645301e-01,5.481157289362222906e-01,1.311071579017233944e+03
-8.321472831098988721e+00,-1.901145024366254788e+01,-5.284832017882149735e+00,3.881090456418149204e-01,6.971725981067586897e-01,6.027600991612448444e-01,1.319748243101018943e+03
-7.381407954816542549e+00,-1.894335574605084815e+01,-5.959518051694210783e+00,1.790032605436741864e-01,7.569331139684817300e-01,6.284966934625926260e-01,1.326825654046477666e+03
-6.256871896326750893e+00,-1.832633810903402960e+01,-6.719942197964315689e+00,1.174319234019436803e-01,6.807089097375519371e-01,7.230789193234018475e-01,1.335502318130262665e+03
-5.142121468566186238e+00,-1.733098662941356238e+01,-7.400995303136480352e+00,5.368259054344926701e-02,5.918596215086997514e-01,8.042501898663926285e-01,1.344178982214047664e+03
-4.023104131896006130e+00,-1.613339749978999649e+01,-7.998388109338543828e+00,-1.106238809308802973e-02,4.920331285402292920e-01,8.705050396112560263e-01,1.352855646297832664e+03
-2.905399033695347466e+00,-1.486369639785670316e+01,-8.473131210853242834e+00,-7.560219762403305732e-02,3.830808969250433238e-01,9.206146501796378390e-01,1.361532310381617663e+03
-2.894190500065928706e+00,-1.485074407400123775e+01,-8.477113076556648252e+00,-1.387398275220569077e-01,2.670236438750027697e-01,9.536496389505124682e-01,1.361619784419703819e+03
-1.813574137615765247e+00,-1.354591985838739809e+01,-8.720038514895083637e+00,-1.276436219834041208e-01,1.684018242215990779e-01,9.774179921424919204e-01,1.370296448503488818e+03
-8.199945583732848320e-01,-1.219447240121281695e+01,-8.587404683783031345e+00,-1.152180948022506340e-01,6.802623325893533690e-02,9.910071756636865681e-01,1.378973112587273818e+03
3.746069649283478159e-02,-1.078291407060714491e+01,-7.936222291927998107e+00,-1.015926471072473719e-01,-3.305780694940180231e-02,9.942756737703506431e-01,1.387649776671058817e+03
6.494417288290070811e-01,-9.507418573771040826e+00,-6.894518870282508871e+00,-8.690917527295141665e-02,-1.337975968975924079e-01,9.871894439850359415e-01,1.395205345963566742e+03
1.228763238768041610e+00,-8.044490545942613480e+00,-5.219410234400335469e+00,-2.418395024059235010e-01,-3.177428416063646788e-01,9.168157621258288259e-01,1.403882010047351741e+03
1.739577271128266212e+00,-6.668665164465222617e+00,-3.161241266493332702e+00,-3.815844186543858596e-01,-4.817365876402439628e-01,7.888733685238564775e-01,1.412558674131136740e+03
2.239341041938363031e+00,-5.470530388206297445e+00,-8.689371865578636722e-01,-4.973690125610015222e-01,-6.154812756149719011e-01,6.113958330800252083e-01,1.421235338214921740e+03
2.781982705122796329e+00,-4.543201795128690712e+00,1.508527262878616826e+00,-5.819228177879048891e-01,-7.105786623474722452e-01,3.955272414760502286e-01,1.429912002298706739e+03
3.417862070040734945e+00,-3.982211140314206865e+00,3.822159406239851620e+00,-6.299364044205949531e-01,-7.610572418054154520e-01,1.548224824640424824e-01,1.438588666382491738e+03
4.193731915813948774e+00,-3.885394020353000410e+00,5.922980133690774807e+00,-6.383948370452309229e-01,-7.637472889436632828e-01,-9.560392596890816830e-02,1.447265330466276737e+03
5.120396101210017648e+00,-4.298135786663100255e+00,7.707497927237887403e+00,-6.067670241113065632e-01,-7.184799328249926731e-01,-3.400270056557243570e-01,1.455941994550061736e+03
6.143149645567469008e+00,-5.156747530771908394e+00,9.163173342878467409e+00,-5.370390497255627116e-01,-6.280977373185824275e-01,-5.630988291965745018e-01,1.464618658633846735e+03
7.178256282245628839e+00,-6.340292318417364292e+00,1.032297866676112186e+01,-4.335894038535065276e-01,-4.982761374788343689e-01,-7.508123065611529423e-01,1.473295322717631734e+03
7.417966007178673493e+00,-6.660089263001304438e+00,1.056185578892360333e+01,-3.029139777483406681e-01,-3.371669836857651981e-01,-8.913806971189885964e-01,1.475350588592802978e+03
8.360016733349986850e+00,-8.098770230236759460e+00,1.143944043394133914e+01,-2.669258733361331015e-01,-2.952573855426710026e-01,-9.173721460917564352e-01,1.484027252676587977e+03
9.143704114648874892e+00,-9.579686838927949921e+00,1.209511936575900748e+01,-2.299429101856993451e-01,-2.522473347067640814e-01,-9.399444346276806250e-01,1.492703916760372977e+03
9.700708885959278049e+00,-1.097134107821939963e+01,1.256203636344925556e+01,-1.921029265057358770e-01,-2.082971327598199807e-01,-9.590134358344183374e-01,1.501380580844157976e+03
9.967578043106001928e+00,-1.213929360081478315e+01,1.287337467835410898e+01,-1.535469543861957553e-01,-1.635705849608228291e-01,-9.745080792550084858e-01,1.510057244927942975e+03
9.885770491799043214e+00,-1.294631586006371826e+01,1.306235008527071884e+01,-1.144186942557724046e-01,-1.182343898418813377e-01,-9.863706156726650409e-01,1.518733909011727974e+03
9.401700887570022758e+00,-1.325254331174572364e+01,1.316220393400410416e+01,-7.486397940279877761e-02,-7.245751803010215542e-02,-9.945568322965498975e-01,1.527410573095512973e+03
8.466781640990525659e+00,-1.291562963367725558e+01,1.320619620747818246e+01,-3.503023255143549591e-02,-2.641058260607986527e-02,-9.990362175279222656e-01,1.536087237179297972e+03
8.370889208380974722e+00,-1.285683686817543858e+01,1.320816767011365833e+01,4.934083485394677275e-03,1.973479665881443593e-02,-9.997920746932745795e-01,1.536793681076719395e+03
6.992125339248670635e+00,-1.182995797292603868e+01,1.320616436192714183e+01,-3.905873798260029069e-03,-2.466098684192510535e-02,-9.996872410276265164e-01,1.545470345160504394e+03
5.335969717776851695e+00,-1.049010052784717217e+01,1.311983503143339647e+01,-1.273782540161381809e-02,-6.900622646906001689e-02,-9.975339034380146241e-01,1.554147009244289393e+03
3.607990751735461465e+00,-9.330741111200511639e+00,1.288475194013910752e+01,-2.154367434360648925e-02,-1.132100572641732139e-01,-9.933364752317432878e-01,1.562823673328074392e+03
1.994650084271184953e+00,-8.854064318814904411e+00,1.243651846811876105e+01,-3.030537713867702265e-02,-1.571819040684940827e-01,-9.871035574576969562e-01,1.571500337411859391e+03
6.631687210922981857e-01,-9.570361494153278414e+00,1.171078257546084345e+01,-3.900498074475292759e-02,-2.008316669953351397e-01,-9.788479212853108402e-01,1.580177001495644390e+03
-4.031298149950972298e-02,-1.130589652507185150e+01,1.096324219580934134e+01,-4.762465932627705373e-02,-2.440699059305814211e-01,-9.685864818581896296e-01,1.586639509500936583e+03
-4.853368499170282457e-01,-1.570689224809036233e+01,9.625613023108758881e+00,-2.490972884191392650e-02,5.067301379354995083e-02,-9.984036012964702111e-01,1.595316173584721582e+03
-4.846305814246898436e-01,-1.812973008443027112e+01,8.871597244654772396e+00,4.197950023001533928e-06,3.409425962928359644e-01,-9.400830527217618471e-01,1.599338965808190324e+03
-6.331525094240833540e-02,-2.106208832696435707e+01,6.954534951879338678e+00,-2.947243594466951166e-01,3.354129525617267071e-01,-8.947813717345270978e-01,1.608015629891975323e+03
9.345182139117141906e-01,-2.080790711631160761e+01,4.731022985797719294e+00,-5.632378270658900954e-01,3.000490186812720395e-01,-7.698907302669459884e-01,1.616692293975760322e+03
2.571312023693976823e+00,-1.873163315991287092e+01,2.439795521236250764e+00,-7.816524600236499642e-01,2.379963386446882490e-01,-5.765198821646632110e-01,1.625368958059545321e+03
4.857969624999579850e+00,-1.619844040565249799e+01,3.196009078416687244e-01,-9.305407061145920533e-01,1.547743748336128655e-01,-3.318687800308238178e-01,1.634045622143330320e+03
7.617700806789251544e+00,-1.403784810367330316e+01,-1.411460660369158626e+00,-9.966592666611746587e-01,5.778555863992024255e-02,-5.769866022478289946e-02,1.642722286227115319e+03
1.016020905160163679e+01,-1.236555539130156234e+01,-2.548710472034944274e+00,-9.741270607073441168e-01,-4.434314921369689882e-02,2.216035981573308000e-01,1.650675198696688540e+03
1.252717376909409808e+01,-1.072557772896309380e+01,-3.285761136924447712e+00,-9.816701173812992787e-01,-7.156938106788796050e-02,1.766340973094810141e-01,1.659351862780473539e+03
1.438022161770090790e+01,-9.330660062286508349e+00,-3.526745808214566402e+00,-9.864444445349606072e-01,-9.859375220499159986e-02,1.311664205144824069e-01,1.668028526864258538e+03
1.576720171618764432e+01,-8.239842202887361466e+00,-3.308828910875114993e+00,-9.884365779570146726e-01,-1.253400440615029254e-01,8.532880351729968393e-02,1.676705190948043537e+03
1.673319498051873566e+01,-7.514338768147224457e+00,-2.669270660081497937e+00,-9.876408997597428963e-01,-1.517328223841120094e-01,3.925052523906638613e-02,1.685381855031828536e+03
1.732047928154399941e+01,-7.217449448511714216e+00,-1.645419283129126997e+00,-9.840596542014825587e-01,-1.776976499259906306e-01,-6.938456746438613140e-03,1.694058519115613535e+03
1.756849574741480424e+01,-7.414468465813630615e+00,-2.747032278730421884e-01,-9.777029413546832748e-01,-2.031612963327168730e-01,-5.310787264702795940e-02,1.702735183199398534e+03
1.751381619887522589e+01,-8.172593236872176092e+00,1.405376648361055025e+00,-9.685886886361022574e-01,-2.280519446273475137e-01,-9.912750776652391738e-02,1.711411847283183533e+03
1.723603338359657045e+01,-9.380218839843006862e+00,3.100586413056463098e+00,-9.567426002790123674e-01,-2.522993937137227860e-01,-1.448675696660422230e-01,1.719019715874761914e+03
1.668579369028318737e+01,-1.144292167180983100e+01,5.251937005086577237e+00,-9.631502145048351782e-01,5.530785165587709211e-03,-2.689034672805807880e-01,1.727696379958546913e+03
1.591565194111502279e+01,-1.406358745870154614e+01,7.362464084926539698e+00,-8.906734096785764443e-01,2.629079407758859177e-01,-3.709154782014093543e-01,1.736373044042331912e+03
1.494677712188863339e+01,-1.669801560720576106e+01,8.668594027358054177e+00,-7.452482249831102745e-01,4.987522776827651438e-01,-4.425485833968509919e-01,1.745049708126116911e+03
1.410753036520035053e+01,-1.829279571054449605e+01,8.743584681315276441e+00,-5.387853126316554109e-01,6.937475804055781570e-01,-4.779358550834911790e-01,1.751545912523394691e+03
1.287731196717923510e+01,-1.979284163705664668e+01,7.687727314521187516e+00,-4.432074701038759557e-01,8.231324572701254061e-01,-3.549902762518548638e-01,1.760222576607179690e+03
1.157083357405609192e+01,-2.073036003302800623e+01,5.666035416461356888e+00,-3.294619980496524825e-01,9.187760870870260721e-01,-2.174932036617060471e-01,1.768899240690964689e+03
1.023178188181678294e+01,-2.120656124378597340e+01,3.161428154816644298e+00,-2.022114674379655308e-01,9.767579229830656296e-01,-7.108081546568773001e-02,1.777575904774749688e+03
8.899915656178695400e+00,-2.132427678187227471e+01,6.569255066550621081e-01,-6.667203601206241059e-02,9.947012207088576918e-01,7.824526270127994676e-02,1.786252568858534687e+03
7.595575141985776213e+00,-2.117239085030256263e+01,-1.490975141333280130e+00,7.160036746205845903e-02,9.718704626389236267e-01,2.243639704367842991e-01,1.794929232942319686e+03
6.304978146157016461e+00,-2.080937196563767699e+01,-3.178895989782207998e+00,2.069377860331889085e-01,9.092015072286304678e-01,3.612857206778053998e-01,1.803605897026104685e+03
5.826444929135368156e+00,-2.062285262032750310e+01,-3.702685470165848702e+00,3.337925696469521974e-01,8.092632281875590250e-01,4.833979188543228722e-01,1.806808658367369162e+03
4.502070266959139033e+00,-2.000341528331738061e+01,-4.868753517658984009e+00,4.232568838304130998e-01,7.523175656113973986e-01,5.048464031393882223e-01,1.815485322451154161e+03
3.115509127772236209e+00,-1.927004169377811849e+01,-5.630040464462028105e+00,5.077662287940247765e-01,6.865647341723750685e-01,5.203847832972424703e-01,1.824161986534939160e+03
1.631750150960301848e+00,-1.846121522292221684e+01,-6.009987968831149274e+00,5.863312842287856652e-01,6.127744836993231914e-01,5.298311592025615191e-01,1.832838650618724159e+03
1.424034302779634067e-02,-1.761382261987899511e+01,-6.032117335079191456e+00,6.580323173056618069e-01,5.318106529741263300e-01,5.330749466677769943e-01,1.841515314702509158e+03
-1.748121895851673102e+00,-1.674561467664926440e+01,-5.729239956845358250e+00,7.220299487713067732e-01,4.446210576125144143e-01,5.300781717869927911e-01,1.850191978786294158e+03
-3.613099103916373789e+00,-1.583925385210844361e+01,-5.152665821915761946e+00,7.775749785620926779e-01,3.522263951159909645e-01,5.208759154518687318e-01,1.858868642870079157e+03
-5.052075756592444122e+00,-1.510620831866089731e+01,-4.575000504434751925e+00,8.240171559936790846e-01,2.557082968860227568e-01,5.055759028391332288e-01,1.865431305243040697e+03
-6.929778647602126362e+00,-1.404795755812900460e+01,-3.677314028637927557e+00,8.546887533949317772e-01,1.385941488468655225e-01,5.002967086903610250e-01,1.874107969326825696e+03
-8.714393225531775755e+00,-1.286920185597405997e+01,-2.673016823341070936e+00,8.728097843986812876e-01,1.944483982686933538e-02,4.876709735701584281e-01,1.882784633410610695e+03
-1.033312410969265294e+01,-1.155904922843301463e+01,-1.634065619296627636e+00,8.781141552510726145e-01,-9.998999846454152685e-02,4.678840994900687611e-01,1.891461297494395694e+03
-1.171322305289454668e+01,-1.013597578391529197e+01,-6.549904347996509113e-01,8.705239764021619475e-01,-2.179565422829295995e-01,4.412266449184006345e-01,1.900137961578180693e+03
-1.278284350449464846e+01,-8.634700722182472532e+00,1.584082266934119243e-01,8.501507060294644091e-01,-3.327225294129404487e-01,4.080900580259096411e-01,1.908814625661965692e+03
-1.347122683648041352e+01,-7.093046688310959524e+00,7.003644684283302224e-01,8.172935131914010887e-01,-4.426026960433552815e-01,3.689609284888438201e-01,1.917491289745750692e+03
-1.374513125914923783e+01,-5.546000691749318534e+00,9.060011980740781956e-01,7.724348846671176272e-01,-5.459835234686370997e-01,3.244138422617026674e-01,1.926167953829535691e+03
-1.364496348713644558e+01,-4.017646037273766346e+00,7.921758038654072021e-01,7.162335400000870989e-01,-6.413469312714986659e-01,2.751029442381254797e-01,1.934844617913320690e+03
-1.324795774651094327e+01,-2.523851883715337863e+00,4.166445386721150945e-01,6.495147587759441121e-01,-7.272925691096121525e-01,2.217523326845576570e-01,1.943521281997105689e+03
-1.263160526095783354e+01,-1.077104383665293597e+00,-1.627816537633770544e-01,5.732582621514069610e-01,-8.025583798009374714e-01,1.651454264800354121e-01,1.952197946080890688e+03
-1.218870224495836396e+01,-2.494022193441956248e-01,-5.758466965544518645e-01,4.885838265548840265e-01,-8.660391317751692242e-01,1.061134612755336298e-01,1.957337763481349839e+03
-1.137169847783441234e+01,1.093408260871983506e+00,-1.344958440359413476e+00,5.871737279445173874e-01,-8.025978438252343583e-01,1.051746846896864374e-01,1.966014427565134838e+03
-1.053728811151413503e+01,2.372357231739587569e+00,-2.167930993781912896e+00,6.776925235146536997e-01,-7.281243135747851314e-01,1.027902113744908197e-01,1.974691091648919837e+03
-9.763450174438245810e+00,3.587157640796903468e+00,-2.986858247904131236e+00,7.588959750715772445e-01,-6.436422306292345352e-01,9.899281777815079064e-02,1.983367755732704836e+03
-9.128177384819720075e+00,4.740922875734688624e+00,-3.743834887231988873e+00,8.296678899742802038e-01,-5.503128574675130169e-01,9.383470174977338873e-02,1.992044419816489835e+03
-8.709423043109847384e+00,5.840167077752569824e+00,-4.380968470739016851e+00,8.890354634545860613e-01,-4.494190672611900195e-01,8.738676503382537819e-02,2.000721083900274834e+03
-8.585047697838749770e+00,6.894804254274801814e+00,-4.840391538922093950e+00,9.361826500601057033e-01,-3.423477102362422753e-01,7.973763868665414978e-02,2.009397747984059833e+03
-8.786500138462526976e+00,7.919841964673601353e+00,-5.089799107668921962e+00,9.704613804720891856e-01,-2.305705509235990436e-01,7.099246481023874233e-02,2.018074412067844833e+03
-9.252407019646945230e+00,8.934363802101620067e+00,-5.147980806424648392e+00,9.914004695500669984e-01,-1.156240382735232719e-01,6.127145134563442841e-02,2.026751076151629832e+03
-9.874702200633295845e+00,9.955760548590596670e+00,-5.059291564135420138e+00,9.987120931696022996e-01,9.118133564695465139e-04,5.070821978615255854e-02,2.035427740235414831e+03
-9.952727015934177857e+00,1.007495803476452068e+01,-5.041682488816864094e+00,9.922957448151870086e-01,1.174351421094111808e-01,3.944796851555530670e-02,2.036431931246835802e+03
-1.061817417309042533e+01,1.111879344617815413e+01,-4.850837297815326465e+00,9.993994534567285370e-01,1.782961920175379217e-02,2.967890007508339548e-02,2.045108595330620801e+03
-1.121009921241483909e+01,1.219054327649777569e+01,-4.607053146283092815e+00,9.964420314378130694e-01,-8.195538228068875719e-02,1.961105044601998276e-02,2.053785259414406028e+03
-1.161939579130016043e+01,1.329274693849246525e+01,-4.354748971075808051e+00,9.834532554451725916e-01,-1.809153140613170563e-01,9.345774058669235537e-03,2.062461923498191027e+03
-1.173677736611876554e+01,1.442315933960399299e+01,-4.138345468608034317e+00,9.605638875130796395e-01,-2.780539347806765815e-01,-1.013587263774464332e-03,2.071138587581976026e+03
-1.145285212972408573e+01,1.557474526825891026e+01,-4.002255823099061693e+00,9.280043584849366756e-01,-3.723933386467563333e-01,-1.136274460056142799e-02,2.079815251665761025e+03
-1.065819802551975037e+01,1.673567558416685586e+01,-3.990876435512860532e+00,8.861024483065129687e-01,-4.629837994913230670e-01,-2.159751175665744483e-02,2.088491915749546024e+03
-9.243437825942168118e+00,1.788932521206434956e+01,-4.148577658254227529e+00,8.352799864957198839e-01,-5.489133311946076121e-01,-3.161485405183905167e-02,2.097168579833331023e+03
-7.973832434522659440e+00,1.859579907981242997e+01,-4.342635082039417505e+00,7.760486059793614277e-01,-6.293168682907632761e-01,-4.131392552390265871e-02,2.102574989166561409e+03
-5.224882306688044764e+00,1.968964133965215524e+01,-4.843769645579007133e+00,5.586513418713970891e-01,-8.292358681696569978e-01,-1.656964594503182800e-02,2.111251653250346408e+03
-2.159958358885373908e+00,2.061039940896880651e+01,-5.509000645608046476e+00,2.921812789927658027e-01,-9.563134218052057323e-01,9.630134054124720594e-03,2.119928317334131407e+03
-5.181839116463988759e-01,2.103507891647776162e+01,-5.997315464873707036e+00,4.548919506461266706e-05,-9.993868711496886048e-01,3.498399211853685242e-02,2.127724495732276409e+03
-1.073278152138486208e+00,2.091102450163271342e+01,-6.102554930304487257e+00,1.374637354692265778e-01,-9.899743842072379341e-01,3.244133233426352986e-02,2.136401159816061408e+03
-3.255059331838013659e+00,2.035822789098295971e+01,-5.623085949121382043e+00,2.722730443478295070e-01,-9.617733084190910331e-01,2.928297344112700679e-02,2.145077823899846408e+03
-5.293101002218386419e+00,1.964261367018522719e+01,-4.525335167403314429e+00,4.019149202491786865e-01,-9.153188681725469289e-01,2.556885698852270905e-02,2.153754487983631407e+03
-5.402376239713420070e+00,1.958848694000947788e+01,-4.421893745319319891e+00,5.239289348661757550e-01,-8.514926992580327259e-01,2.136947166396245545e-02,2.154387382205320137e+03
-6.209078924825587542e+00,1.890209470817973170e+01,-2.808220708380105624e+00,5.780253362942496809e-01,-8.127322993251135941e-01,-7.314998450398281504e-02,2.163064046289105136e+03
-6.396847332911479889e+00,1.838866180376866311e+01,-1.078119508678783589e+00,6.243977242180297482e-01,-7.631115779614375816e-01,-1.666919361272460320e-01,2.171740710372890135e+03
-6.429964076676595752e+00,1.834272089456439403e+01,-8.705738225276172804e-01,6.624264563407724626e-01,-7.032935827302143617e-01,-2.580064464837574234e-01,2.172833140906843255e+03
-6.912119244402792795e+00,1.816364731980442215e+01,5.743953669810188956e-01,6.198095669201661995e-01,-7.670938720847375603e-01,-1.655327525409500400e-01,2.181509804990628254e+03
-7.435211095248693169e+00,1.828812820465865840e+01,1.643412232818212804e+00,5.682438239815313930e-01,-8.198187814349156000e-01,-7.066910295927525398e-02,2.190186469074413253e+03
-7.317947769246345935e+00,1.865982106210522318e+01,2.376862270866562987e+00,5.084737344961061112e-01,-8.607070766965150277e-01,2.521486569024289012e-02,2.198863133158198252e+03
-5.881126906480978356e+00,1.919262510116246290e+01,2.815201053566867451e+00,4.413622551736283151e-01,-8.891684153963632653e-01,1.207347869053425615e-01,2.207539797241983251e+03
-3.636530178705270622e+00,1.961041904335026231e+01,2.974745650991377222e+00,3.678783346456234726e-01,-9.047918689628812183e-01,2.145115492374331523e-01,2.213652121309497488e+03
-5.611901022715238829e-01,2.003405910574945281e+01,4.389874416940653390e+00,2.504858633792241274e-01,-9.602068761903499450e-01,1.235216060563711776e-01,2.222328785393282487e+03
-1.777701792307185835e-01,1.998214689045657977e+01,7.681133506870053473e+00,1.267984490381099949e-01,-9.914908865521412373e-01,2.942745664147300433e-02,2.231005449477067486e+03
-2.744074694586251528e-01,1.995420352666731389e+01,7.975720311601226520e+00,-7.556757838458996778e-05,-9.978577133422473766e-01,-6.540625513900288901e-02,2.231662615805189489e+03
-1.355669296288128933e+00,1.927748174672469261e+01,1.035920669511574665e+01,1.145397655311929247e-01,-9.658831146936375234e-01,-2.322680582055054177e-01,2.240339279888974488e+03
-2.123361468381166350e+00,1.811168187453969125e+01,1.021790663593188597e+01,2.243441958324133012e-01,-8.933395020341204917e-01,-3.893741335817607063e-01,2.249015943972759487e+03
-2.710527349642730677e+00,1.663912906360845056e+01,8.467307479172356821e+00,3.247257212561902584e-01,-7.832738536431327336e-01,-5.301257173109990006e-01,2.257692608056544486e+03
-3.242948726508050772e+00,1.504768039061088913e+01,6.023232540367341237e+00,4.114681204628753419e-01,-6.403091442263825206e-01,-6.486109663454893148e-01,2.266369272140329485e+03
-3.839061888777011600e+00,1.353049521052090043e+01,3.801649966208387799e+00,4.809280412395893767e-01,-4.704501717632683100e-01,-7.398532658832631670e-01,2.275045936224114485e+03
-4.609876648770839580e+00,1.228580358445846876e+01,2.718481579770917644e+00,5.301880277888987303e-01,-2.808313461625086549e-01,-8.000202561201733564e-01,2.283722600307899484e+03
-4.886467473793185690e+00,1.200919331826517045e+01,2.678672449547054857e+00,5.571790597491005359e-01,-7.941703230385359358e-02,-8.265847992540249489e-01,2.286302034248829841e+03
-6.040747361115259118e+00,1.152578809648888303e+01,4.087829935572973916e+00,7.309304257407971406e-01,-6.348351373856274404e-02,-6.794913952437009463e-01,2.294978698332614840e+03
-7.401841165230292674e+00,1.158145220607877768e+01,7.391744247972808601e+00,8.666149199328079256e-01,-4.424377889289923815e-02,-4.970101292526120096e-01,2.303655362416399839e+03
-8.489563291658095423e+00,1.175784438513602659e+01,9.465283230078634702e+00,9.571661372377014976e-01,-2.269983000652103788e-02,-2.886445971148979828e-01,2.312332026500184838e+03
-8.699856944964155403e+00,1.170521837683217292e+01,9.316256476785508056e+00,9.978681793232498931e-01,2.632920367322249134e-05,-6.524642519787256234e-02,2.315663338849083175e+03
