1.007454028673840085e+01,-9.167903844981687200e+00,2.912111641092256953e+00,-2.327097549702372981e-01,-7.626911969307731409e-01,-6.034453646073216770e-01,1.273911243274876597e+02
1.034346045782530155e+01,-9.293710535511873871e+00,2.062511742252757685e+00,-5.263484776507382223e-01,-7.247512959434592172e-01,-4.446243797906320183e-01,1.324938421957636479e+02
1.068666097616367772e+01,-9.426919363705398069e+00,1.144316800293512459e+00,-7.605689945537787988e-01,-6.049961052540177020e-01,-2.356109444662113084e-01,1.375965600640396360e+02
1.086349465147553239e+01,-9.702876358509497479e+00,1.039123139336272372e-01,-9.089308576323877897e-01,-4.169444759734897143e-01,-0.000000000000000000e+00,1.426992779323156242e+02
1.086603715591680519e+01,-9.733963007875052753e+00,1.288455609957519198e-02,-8.408884039309241221e-01,-3.843519368877716391e-01,3.810226774702731301e-01,1.431156141482020701e+02
1.070057553371483827e+01,-1.022224183956463861e+01,-1.119267736034771143e+00,-6.459805756366608920e-01,-2.937719737058942515e-01,7.045602340229750737e-01,1.482183320164780582e+02
1.016148419370801292e+01,-1.087003922879550899e+01,-2.158815989699307991e+00,-3.536132220421598915e-01,-1.588704345246518268e-01,9.218003440183171193e-01,1.533210498847540464e+02
9.397667009699784302e+00,-1.157534003657252875e+01,-2.858294701984039676e+00,-7.895990730979508126e-03,-0.000000000000000000e+00,9.999678261482836117e-01,1.584237677530300346e+02
8.687041301930982229e+00,-1.225236081570960778e+01,-3.082722300819037198e+00,-6.112225613887134479e-03,1.620506729121875267e-01,9.867624942747121874e-01,1.635264856213060227e+02
8.376077122070819669e+00,-1.259589195171617071e+01,-3.038598781303815333e+00,-4.166865967388627169e-03,3.198169896502408016e-01,9.474691184201297078e-01,1.663264260758911064e+02
8.021840663693785345e+00,-1.313394726074241170e+01,-2.807412459177220487e+00,-2.111342934898795959e-03,4.691279594128291985e-01,8.831265480829681991e-01,1.714291439441670946e+02
8.048980413169074311e+00,-1.351332443903361202e+01,-2.497195047861314077e+00,-0.000000000000000000e+00,6.060361314468605265e-01,7.954358600047460870e-01,1.765318618124430827e+02
8.225445830436516559e+00,-1.366152314164731507e+01,-2.334314837500484963e+00,-7.893632733865620088e-02,6.671183697422240488e-01,7.407564626627539672e-01,1.794648759035239607e+02
8.629427459042814164e+00,-1.385986758191403467e+01,-2.057901536012552768e+00,-1.568503023480224967e-01,7.195602053436924717e-01,6.764828848806795358e-01,1.845675937717999489e+02
8.902449718657425848e+00,-1.406535650109811897e+01,-1.697386623559564933e+00,-2.327328258590702914e-01,7.626824293274838684e-01,6.034475484740206008e-01,1.896703116400759370e+02
8.907421291446492972e+00,-1.407612649254494031e+01,-1.677840001764307809e+00,-2.342221229111244862e-01,6.874385542774594793e-01,6.874345286837894031e-01,1.898994675367348748e+02
8.929895991268397282e+00,-1.413580074726715807e+01,-1.569211408875702318e+00,-2.327326561483562817e-01,6.034521084276577296e-01,7.626788731775399066e-01,1.911467155104153335e+02
8.848082593366228821e+00,-1.435419524719044482e+01,-9.917294716705905566e-01,-1.382754467733406378e-01,7.078746855896901335e-01,6.926697122859741818e-01,1.962494333786913216e+02
8.787808557158454548e+00,-1.439889984186146599e+01,-8.123968604840146046e-01,-4.039896372713496636e-02,7.947932863819529015e-01,6.055324563128597903e-01,1.975325835370915115e+02
8.583416331724617265e+00,-1.445977749426806547e+01,-3.069851783572015783e-02,-2.725877949399257635e-02,7.174963522392445725e-01,6.960272577001459515e-01,2.026353014053674997e+02
8.539746266961826038e+00,-1.436791158920306266e+01,7.017579045534297899e-01,-1.372779641792679778e-02,6.299128392934081333e-01,7.765432135410819114e-01,2.077380192736434878e+02
8.621623690751423652e+00,-1.429140349246332953e+01,1.002712272648683678e+00,-0.000000000000000000e+00,5.332983833109052885e-01,8.459260217983610719e-01,2.106030028449035569e+02
9.001648930021321604e+00,-1.416252909840393492e+01,1.226973825004205043e+00,-2.480593117118688185e-01,5.954978989937238509e-01,7.640987044672039596e-01,2.157057207131795451e+02
9.628638079967702268e+00,-1.401561914081491800e+01,1.124143645721656037e+00,-4.782340119996940087e-01,6.147631740794150534e-01,6.271813689547045545e-01,2.208084385814555333e+02
1.032712698051665257e+01,-1.378612789814444461e+01,9.265415022699369230e-01,-6.739289716563334753e-01,5.897052274905495439e-01,4.450454873762472729e-01,2.259111564497315214e+02
1.052612464607173948e+01,-1.370012950869871737e+01,8.750079497400933271e-01,-8.210349776881072925e-01,5.221306850352523954e-01,2.308226877034356417e-01,2.273938973369207019e+02
1.108497570350129102e+01,-1.329048754634859897e+01,8.678295375388191957e-01,-9.089459700192238367e-01,4.169115275727349190e-01,-4.199995240735423092e-05,2.324966152051966901e+02
1.137080671287368361e+01,-1.271293297986853332e+01,1.222018162641487216e+00,-9.464852909784671198e-01,2.874823039912553502e-01,-1.466885096158187518e-01,2.375993330734726783e+02
1.138238143217075482e+01,-1.216542533978740437e+01,1.880694087008106363e+00,-9.464809472554572833e-01,1.466497067771089791e-01,-2.875163995053563459e-01,2.423669567763948578e+02
1.115436670598094793e+01,-1.181572352017413152e+01,2.867034188107891790e+00,-9.089331001746140393e-01,0.000000000000000000e+00,-4.169395872382412604e-01,2.474696746446708460e+02
1.071494611134235697e+01,-1.184147010529758504e+01,4.042447400912126731e+00,-6.892901598918245165e-01,9.682737513708034732e-03,-7.244192985224008341e-01,2.525723925129468341e+02
1.013736477586982687e+01,-1.214899653768737764e+01,5.222006455405223235e+00,-3.711609605295455028e-01,1.798199547694426942e-02,-9.283933375562010148e-01,2.576751103812227939e+02
9.968073336824540220e+00,-1.225649083398151618e+01,5.523090525490085945e+00,-0.000000000000000000e+00,2.371197228180496955e-02,-9.997178313762560276e-01,2.590543606268399799e+02
9.323581226951493051e+00,-1.263827323454036922e+01,6.466461669097783194e+00,-0.000000000000000000e+00,2.371197226506944339e-02,-9.997178306706712148e-01,2.641570784951159681e+02
8.636722340636643125e+00,-1.293158040520198782e+01,7.054656874147690715e+00,-0.000000000000000000e+00,2.371197226506943992e-02,-9.997178306706712148e-01,2.692597963633919562e+02
8.607333117403744183e+00,-1.294072826080105365e+01,7.070777694189176010e+00,-0.000000000000000000e+00,2.371197226506416636e-02,-9.997178306704488371e-01,2.694701935292031294e+02
7.866862164278774827e+00,-1.307274477192291151e+01,7.267707458518780861e+00,1.268262169502823054e-03,2.074851354567654529e-02,-9.997829217499720755e-01,2.745729113974791176e+02
7.078243770844834692e+00,-1.304695344732214934e+01,7.125305942554136074e+00,2.536510825032016296e-03,1.778483990566506745e-02,-9.998376195706933922e-01,2.796756292657551057e+02
6.254410366756367523e+00,-1.290598260629405303e+01,6.739080531861439738e+00,3.804732862608981112e-03,1.482098198273726006e-02,-9.998819242428100829e-01,2.847783471340310939e+02
5.407461133164777500e+00,-1.269283631374848298e+01,6.204556206824565656e+00,5.072915178548672265e-03,1.185697040056640089e-02,-9.999158353137571620e-01,2.898810650023070821e+02
4.548658496735817458e+00,-1.245087801742648104e+01,5.617268646246354358e+00,6.341044669585116193e-03,8.892835784346986641e-03,-9.999393524364118546e-01,2.949837828705830702e+02
3.688424741352552605e+00,-1.222381413578809983e+01,5.072757330370610163e+00,7.609108232996923682e-03,5.928608760501371221e-03,-9.999524753690959278e-01,3.000865007388590584e+02
2.927549514044081924e+00,-1.206695533759216765e+01,4.695426361916328339e+00,8.877092766732812279e-03,2.964319956386394540e-03,-9.999552039755795763e-01,3.046363360441407622e+02
2.089488559396349032e+00,-1.198409495994850182e+01,4.483923124484626044e+00,1.014498516953709489e-02,0.000000000000000000e+00,-9.999475382250813116e-01,3.097390539124167503e+02
1.336672807550196573e+00,-1.197547509598252624e+01,4.506064173198345735e+00,6.763962590197613971e-03,1.008684358461462739e-02,-9.999252493751229487e-01,3.148417717806927385e+02
9.501864625452426383e-01,-1.195292939585299052e+01,4.583127829050697599e+00,3.382173788399762179e-03,2.017254766666757085e-02,-9.997897924873986319e-01,3.181628790913359808e+02
7.268237563191899397e-01,-1.170787798473924823e+01,4.594790468043657761e+00,0.000000000000000000e+00,3.025597526025509965e-02,-9.995411826938754851e-01,3.232655969596119689e+02
1.037375869387985095e+00,-1.113269348422011618e+01,4.373601946503728577e+00,-4.170116391331618599e-01,2.833750444238459718e-02,-9.084581876290001023e-01,3.283683148278879571e+02
1.477300609968246192e+00,-1.056574682816708766e+01,4.088017383927821768e+00,-7.580441342000368010e-01,2.125597572249138950e-02,-6.518552554836443136e-01,3.321363363200186996e+02
2.061084883313181848e+00,-9.782190500171031644e+00,3.608806007035524122e+00,-7.932228509061529653e-01,3.471170087023257161e-02,-6.079396406017557597e-01,3.372390541882946877e+02
2.474391293422920413e+00,-9.083567364141803324e+00,2.974964304639123203e+00,-8.257465010185791598e-01,4.805123874631071768e-02,-5.619891409114007308e-01,3.423417720565706759e+02
2.594198116056519954e+00,-8.792941963141574391e+00,2.600363494133411724e+00,-8.555062347819392121e-01,6.122994523212333534e-02,-5.141575401054723216e-01,3.448145525317626152e+02
2.634477238307917801e+00,-8.280162847562767325e+00,1.647601316702928642e+00,-6.198064535033912525e-01,-6.882739953649211762e-01,-3.769839088084357415e-01,3.499172704000386034e+02
2.410746740627562446e+00,-7.756854147626299323e+00,4.215647825159754558e-01,1.016999272028908802e-02,-9.999472842347719714e-01,-0.000000000000000000e+00,3.550199882683145916e+02
2.378080896395350141e+00,-7.697632424187762723e+00,2.853214279602172554e-01,-6.674278510729814151e-01,-7.105082036378794763e-01,-2.229712003285945765e-01,3.555309778770503613e+02
2.017382433627959770e+00,-7.017268749789710824e+00,-1.110189244102274930e+00,-9.494871526040852272e-01,-0.000000000000000000e+00,-3.138027199381347998e-01,3.606336957453263494e+02
1.651601061772541623e+00,-6.228699294067247649e+00,-2.412916983894815015e+00,-9.494871519337981791e-01,-0.000000000000000000e+00,-3.138027197166068927e-01,3.657364136136023376e+02
1.503767847616483966e+00,-5.854699685397711129e+00,-2.897042566572673117e+00,-9.494871519338741184e-01,-0.000000000000000000e+00,-3.138027197166320392e-01,3.681045877814036089e+02
1.312712648488464584e+00,-5.072261191314106021e+00,-3.280422557253084737e+00,-9.494871519338741184e-01,-0.000000000000000000e+00,-3.138027197166319837e-01,3.732073056496795971e+02
1.390460639362916417e+00,-4.339011358875090707e+00,-3.107906276354741149e+00,-9.494871519337981791e-01,-0.000000000000000000e+00,-3.138027197166069482e-01,3.783100235179555852e+02
1.441430617233874667e+00,-4.194684108525575716e+00,-3.069480097851507328e+00,-9.494871519336460786e-01,-0.000000000000000000e+00,-3.138027197165566551e-01,3.793598141183315420e+02
1.861683676486235672e+00,-3.481825666642619499e+00,-2.917419550143733886e+00,-9.789433609016954252e-01,-2.146098598930203105e-02,-2.029958674751574932e-01,3.844625319866075301e+02
1.945947535946792151e+00,-3.377289921914804260e+00,-2.897043053898827658e+00,-9.997273403908218947e-01,-5.076225705235376355e-03,-2.274811656569826479e-02,3.851959836842198115e+02
2.517447698015925273e+00,-2.583945891640972103e+00,-2.526561647674949729e+00,-9.873306227655554990e-01,1.147701004132537471e-02,1.582546036915934984e-01,3.902987015524957997e+02
2.944198151220748461e+00,-1.683970195112239443e+00,-1.875311469734232128e+00,-9.421646577679327894e-01,2.764932716733303764e-02,3.340048987062719243e-01,3.954014194207717878e+02
3.175682507664118859e+00,-7.214089053737483548e-01,-1.120162141831611224e+00,-8.657284703647016855e-01,4.290397375221016718e-02,4.986696949238915710e-01,4.005041372890477760e+02
3.250536539713847262e+00,-2.432556756115947239e-01,-7.285709506168532856e-01,-9.365352003599087816e-01,4.270700952453115873e-02,3.479596669505872764e-01,4.029835074213354460e+02
3.363926671252721601e+00,7.343100838206870762e-01,9.267396456294299534e-02,-9.813744256783777375e-01,4.132589989042765449e-02,1.876017234006940870e-01,4.080862252896114342e+02
3.421352913124911410e+00,1.680036869983687176e+00,9.018807680472579191e-01,-9.990028962296166881e-01,3.879893960744808940e-02,2.204213262129014334e-02,4.131889431578874223e+02
3.438023126858030132e+00,2.560480870574889156e+00,1.645795484009306087e+00,-9.889318327401244169e-01,3.519619425801678164e-02,-1.441286165316751910e-01,4.182916610261634105e+02
3.428484490885808089e+00,3.341704987371015623e+00,2.271168849541708834e+00,-9.514404769804202244e-01,3.061755752712067360e-02,-3.063030916177446605e-01,4.233943788944393987e+02
3.406618665744703289e+00,3.989291859562153597e+00,2.724760158285925105e+00,-8.875683493732114959e-01,2.518998153463133244e-02,-4.599846628109326430e-01,4.284970967627153868e+02
3.378064523227469085e+00,4.542271200800613862e+00,2.988078190270700318e+00,-8.897705436263932954e-01,2.789092454120835340e-02,-4.555529341908284291e-01,4.335998146309913750e+02
3.371255922521638304e+00,4.655601478762219969e+00,3.023579945168660910e+00,-8.919444568366668991e-01,3.059098137115009997e-02,-4.511067252916023396e-01,4.346758570963635862e+02
3.346077521496721552e+00,5.062306809147993469e+00,3.117924347918505923e+00,-8.934506821095727913e-01,3.030831586803401159e-02,-4.481353416464883832e-01,4.381166199131892540e+02
3.264972798627721939e+00,5.881078364251936641e+00,3.229237982791401507e+00,-8.949469199529483943e-01,3.002531171229425380e-02,-4.451589501840503837e-01,4.432193377814652422e+02
3.124024661204775288e+00,6.741125592402410049e+00,3.341452831329574824e+00,-8.964331543043122519e-01,2.974197194140211151e-02,-4.421775828493478278e-01,4.473147056441579821e+02
2.790299419433009298e+00,8.015814061504329402e+00,3.552839560008652420e+00,-7.808602245848600409e-01,-2.020690281029293156e-01,-5.911204763360168313e-01,4.524174235124339702e+02
2.256087636867403212e+00,9.437592237541988283e+00,3.784389254293936133e+00,-5.955740570174652415e-01,-4.158397028170786602e-01,-6.872895199040488512e-01,4.575201413807099584e+02
1.526505528752757135e+00,1.088502895315425789e+01,3.920373536648213530e+00,-3.571165318403222710e-01,-5.924852232852122480e-01,-7.220990533687745572e-01,4.626228592489859466e+02
6.134549480056471493e-01,1.219078004387368530e+01,3.881074488329157024e+00,-7.398248526899568744e-02,-5.827912571543687470e-01,-8.092459097572480831e-01,4.677255771172619347e+02
2.038944098347300060e-01,1.264968955630090441e+01,3.817769080020108063e+00,2.156512978463138719e-01,-5.218969419603761706e-01,-8.252975825180872693e-01,4.697893172940536601e+02
-8.842690632011488416e-01,1.339804811282579955e+01,3.563897705397911508e+00,4.863394120686883593e-01,-4.151520154622233560e-01,-7.688437944905475163e-01,4.748920351623296483e+02
-2.047297941452643322e+00,1.346351711372383519e+01,3.139875424742156529e+00,7.143008325620131549e-01,-2.719343978449380583e-01,-6.448441702226213046e-01,4.799947530306056365e+02
-3.140423424086225879e+00,1.298349556801906957e+01,2.493207498690476864e+00,8.795082259530526692e-01,-1.048263167644486460e-01,-4.641925503439364720e-01,4.850974708988816246e+02
-4.001314636595172836e+00,1.222952077884109734e+01,1.574143594545682312e+00,9.674474895549283193e-01,7.149111338888762546e-02,-2.427599136202014396e-01,4.902001887671576128e+02
-4.513639088824299428e+00,1.144900263836433396e+01,3.922958272046568884e-01,9.703928888893355031e-01,2.415277234480669166e-01,0.000000000000000000e+00,4.953029066354336010e+02
-4.605802456259573852e+00,1.119995817016645923e+01,-5.695326992715102343e-02,9.337004112386365628e-01,8.862287241148472661e-02,3.469114131008129709e-01,4.970480855765802630e+02
-4.445849049944312625e+00,1.047590722123465135e+01,-1.321703407148188569e+00,7.615522386263113841e-01,-7.713885395508116027e-02,6.434949767130212495e-01,5.021508034448562512e+02
-3.667536830639792189e+00,9.772039389888236727e+00,-2.311599387010865314e+00,4.789225235544178338e-01,-2.317097694886112447e-01,8.467241576550186277e-01,5.072535213131322394e+02
-3.256102109856440663e+00,9.502963453999614174e+00,-2.599395200975151976e+00,0.000000000000000000e+00,1.466999104714234586e-02,9.998913897824985852e-01,5.092935532491214303e+02
-2.215250912201983891e+00,8.909918574275586423e+00,-3.071519674560108548e+00,-0.000000000000000000e+00,1.466999103679914387e-02,9.998913890775166236e-01,5.143962711173974185e+02
-1.261808057716795162e+00,8.526497962682007881e+00,-3.235155852040303426e+00,-0.000000000000000000e+00,1.466999103680006154e-02,9.998913890775791291e-01,5.194989889856733498e+02
-8.303099805029665603e-01,8.430173748761603747e+00,-3.250903758526470178e+00,-0.000000000000000000e+00,1.466999103679914387e-02,9.998913890775166236e-01,5.221589158503056751e+02
-2.977670583014224159e-01,8.464960338919032878e+00,-3.241706330239439993e+00,-0.000000000000000000e+00,1.466999103679639260e-02,9.998913890773289959e-01,5.260877688296433234e+02
2.382243133912107791e-01,8.878907482305439913e+00,-3.127628971596148499e+00,-0.000000000000000000e+00,1.466999103679639260e-02,9.998913890773289959e-01,5.311904866979192548e+02
6.043312739489623553e-01,9.331974736667849157e+00,-2.921749417503281876e+00,-0.000000000000000000e+00,-7.950793855462741366e-02,9.968332296267479187e-01,5.348946455001930644e+02
1.172851264635684565e+00,9.906279961908834863e+00,-2.381170532503396942e+00,-4.900249582288330186e-01,-1.811870599021652151e-01,8.526692146651831949e-01,5.399973633684689958e+02
1.670425196162203640e+00,1.036714508118779854e+01,-1.539688651856283341e+00,-8.471320701135924836e-01,-2.337197434487250924e-01,4.772214761598813637e-01,5.451000812367449271e+02
1.891844092544491263e+00,1.063967515196035940e+01,-8.101328957876177128e-01,-8.932023255388162886e-01,-1.772407216365637916e-01,4.132473015571547781e-01,5.487578508758375619e+02
2.009909974181338654e+00,1.095462392901045590e+01,2.005755166091134634e-01,-9.308719426991730606e-01,-1.190947660361049015e-01,3.453865414243466048e-01,5.538605687441134933e+02
1.970011646650838832e+00,1.120138846229179208e+01,9.766241723530511010e-01,-9.597866540705102256e-01,-5.982873020192314151e-02,2.742774174252153307e-01,5.589632866123894246e+02
1.881358452353596000e+00,1.139362144024369528e+01,1.242198983603540308e+00,-9.796745246581555211e-01,-0.000000000000000000e+00,2.005886979232468226e-01,5.640660044806653559e+02
1.841786079817029131e+00,1.148037706545104797e+01,1.148819922282168671e+00,-9.994247164191537580e-01,-0.000000000000000000e+00,3.388563428176515763e-02,5.667325292824807548e+02
1.812529950970413584e+00,1.168546587262876280e+01,6.073476918374635103e-01,-9.910110841342323340e-01,-0.000000000000000000e+00,-1.337723107491554375e-01,5.718352471507566861e+02
1.824048460073668609e+00,1.183501430595339343e+01,1.592926027582171056e-01,-9.546707119062373126e-01,-0.000000000000000000e+00,-2.976605983800955091e-01,5.745878449669344263e+02
1.899377136354578610e+00,1.225099405657642215e+01,-7.417252022348318485e-01,-9.262249538041130714e-01,-2.380427392790457897e-01,-2.923029066360345318e-01,5.796905628352103577e+02
2.047901886637114810e+00,1.288749467595938647e+01,-1.559171924852723157e+00,-8.445190949840983841e-01,-4.623974886644045545e-01,-2.701371146002761181e-01,5.847932807034862890e+02
2.255621117123244534e+00,1.375637411512890296e+01,-2.029943118495173948e+00,-7.142513392292927366e-01,-6.601633892673268722e-01,-2.324377849663400997e-01,5.898959985717622203e+02
2.291824303212702585e+00,1.390889693499960877e+01,-2.064139732386045090e+00,-8.673195456302688067e-01,-4.974222275864435550e-01,1.805362212331993593e-02,5.906809412960609507e+02
2.507347212368707723e+00,1.496378043450792283e+01,-2.077201646869820895e+00,-9.226748959561067442e-01,-2.786412042015056767e-01,2.665110048291648437e-01,5.957836591643368820e+02
2.613380461851107839e+00,1.604455548806066290e+01,-1.851080482117938297e+00,-8.740811315928112002e-01,-2.846837599731120300e-02,4.849430141401512850e-01,6.008863770326128133e+02
2.472590586612506858e+00,1.696566456266125300e+01,-1.706963054244300393e+00,-7.270129289260844896e-01,2.249116686482289518e-01,6.487410442403667155e-01,6.059890949008887446e+02
2.181497707504428618e+00,1.747517828172228604e+01,-1.766659728801491136e+00,-5.766679590211620798e-01,1.840762286713729101e-01,7.959698531213631467e-01,6.097110450391924132e+02
1.550464558402996573e+00,1.793788174467317020e+01,-2.055798650990354304e+00,-3.998265333040793013e-01,1.347829435961762079e-01,9.066257780270718936e-01,6.148137629074683446e+02
7.051898322490549598e-01,1.814829310931230921e+01,-2.469704757499674219e+00,-2.046140494825976486e-01,7.929671018452973119e-02,9.756244782239158475e-01,6.199164807757442759e+02
-2.534934847412267378e-01,1.815424568764044722e+01,-2.847372040470113497e+00,-0.000000000000000000e+00,2.016697227948319876e-02,9.997956257306721550e-01,6.250191986440202072e+02
-1.219732107048349334e+00,1.799945470706921924e+01,-3.049453747118031632e+00,1.728538902530533661e-01,7.264310897177578275e-02,9.822639723334278816e-01,6.301219165122961385e+02
-2.076680185153277236e+00,1.772053749816652513e+01,-3.038049688856078401e+00,3.400140207114686342e-01,1.227264034429659811e-01,9.323769064163389686e-01,6.352246343805720699e+02
-2.355459358357304023e+00,1.759428444815264569e+01,-2.995317668216606055e+00,4.959742341692127687e-01,1.687671411466512006e-01,8.517776770438031386e-01,6.371174584142792128e+02
-2.913777344672957792e+00,1.720925118507562956e+01,-2.884726726290220089e+00,6.355972790763313451e-01,2.092487626604288553e-01,7.431211571178032438e-01,6.422201762825551441e+02
-2.997865623625356246e+00,1.711316965917028554e+01,-2.862552700190353683e+00,6.865937718539617540e-01,2.117124940274092426e-01,6.955320354324947552e-01,6.433725468516915953e+02
-3.049575792681804121e+00,1.660792199583520556e+01,-2.794098271949451817e+00,7.342455860396148726e-01,2.131448798310290049e-01,6.445546366064833776e-01,6.484752647199675266e+02
-2.536027115067933213e+00,1.595330825950919618e+01,-2.802908595558289750e+00,5.812959914901835168e-01,1.990286530683558486e-01,7.889743757153016013e-01,6.535779825882434579e+02
-1.734277419958391020e+00,1.524347694371934381e+01,-2.809965460975578200e+00,4.025079073448499245e-01,1.760656198896312363e-01,8.983241519732182434e-01,6.586807004565193893e+02
-1.272694530650496869e+00,1.485114799098162841e+01,-2.754094348414793281e+00,2.058284601293040306e-01,1.452764952999834602e-01,9.677434499469058649e-01,6.617323382391290352e+02
-8.850353374488940661e-01,1.437100480756603638e+01,-2.643122543249156742e+00,0.000000000000000000e+00,1.080298527117454360e-01,9.941466445772128013e-01,6.668350561074049665e+02
-8.768912166379515538e-01,1.429255918135708647e+01,-2.628202477779302715e+00,-0.000000000000000000e+00,-7.531993749848340247e-01,6.577907733643384436e-01,6.680650890504787185e+02
-8.780453682646696123e-01,1.424951576769120720e+01,-2.622389107101061434e+00,-0.000000000000000000e+00,-9.705539409183779886e-01,-2.408797371487642613e-01,6.687884314097042306e+02
-1.242397691779145497e+00,1.407704398401888035e+01,-2.652987412391185629e+00,-0.000000000000000000e+00,-5.697617808902302183e-01,-8.218086839621091544e-01,6.738911492779801620e+02
-2.069820505946624145e+00,1.390943085639232280e+01,-2.575592882067344824e+00,2.131312961374292048e-01,-4.060027702931307547e-01,-8.886702431840003413e-01,6.789938671462560933e+02
-2.885704035360562081e+00,1.335121870124124044e+01,-2.187165121457229855e+00,4.099126642819997390e-01,-2.110983224603022457e-01,-8.873596260341958253e-01,6.837170244028750403e+02
-3.673415258445063447e+00,1.216041601839440567e+01,-1.575479811041258449e+00,5.752485914332494676e-01,-0.000000000000000000e+00,-8.179774190366023712e-01,6.888197422711509716e+02
-4.111950995388411023e+00,1.133831231680654383e+01,-1.211530228068740778e+00,4.709154863899659427e-01,1.711760687080880576e-03,-8.821755350002339346e-01,6.916667660166650649e+02
-4.752554692356025789e+00,9.916028987368294523e+00,-3.981481381951503806e-01,3.595141124387770115e-01,3.397827433232037883e-03,-9.331323902459025543e-01,6.967694838849409962e+02
-4.864271404789865194e+00,8.644739827938277443e+00,6.438833823075001961e-01,2.427165697002918177e-01,5.032893072465072226e-03,-9.700831597241998949e-01,7.018722017532169275e+02
-4.340286121925193363e+00,7.547685324371363969e+00,1.682525922518491202e+00,1.222759447479798700e-01,6.592416007160969982e-03,-9.924732406405569751e-01,7.069749196214928588e+02
-3.462055711674421499e+00,6.601710808480723003e+00,2.525763644676875419e+00,0.000000000000000000e+00,8.052988517097530233e-03,-9.999665741295148402e-01,7.120776374897687901e+02
-2.594946759921644475e+00,5.763470224142359655e+00,3.215980870583392548e+00,-0.000000000000000000e+00,8.052988511418326598e-03,-9.999665734243091686e-01,7.171803553580447215e+02
-2.493546569460363127e+00,5.659722090685860074e+00,3.299823569986058747e+00,-0.000000000000000000e+00,8.052988511418999670e-03,-9.999665734243926574e-01,7.178445399228132828e+02
-1.791438571497521393e+00,4.875349349704626967e+00,3.893414661972132151e+00,-0.000000000000000000e+00,8.052988511419221715e-03,-9.999665734244203019e-01,7.229472577910892142e+02
-1.229270154371537860e+00,4.091299630094441753e+00,4.384139635846135086e+00,-0.000000000000000000e+00,8.052988511418999670e-03,-9.999665734243926574e-01,7.280499756593651455e+02
-7.885691743274235721e-01,3.256949089570638112e+00,4.764101408268168747e+00,-0.000000000000000000e+00,8.052988511418326598e-03,-9.999665734243091686e-01,7.331526935276410768e+02
-4.518772219365057019e-01,2.321086100672010932e+00,5.025410887310369112e+00,-0.000000000000000000e+00,8.052988511417207701e-03,-9.999665734241701687e-01,7.382554113959170081e+02
-2.117735350705483022e-01,1.263751105637056504e+00,5.166305120063616307e+00,-0.000000000000000000e+00,8.052788524641460444e-03,-9.999665750348538662e-01,7.433581292641929394e+02
-1.501297904547690687e-01,8.854027652400865422e-01,5.191220467852068587e+00,-0.000000000000000000e+00,8.052588537912097957e-03,-9.999665766454169935e-01,7.450817012064642313e+02
-3.795310270028607463e-02,-2.472952254557084228e-01,5.208958792409835503e+00,-0.000000000000000000e+00,8.052388551197125002e-03,-9.999665782558599947e-01,7.501844190747401626e+02
-5.791872748479238997e-02,-1.356726943179838107e+00,5.138979139396188778e+00,-0.000000000000000000e+00,8.052188564464541135e-03,-9.999665798661829808e-01,7.552871369430160939e+02
-2.269536588029922031e-01,-2.366375744328889752e+00,4.997895915994538640e+00,-0.000000000000000000e+00,8.051988577682349379e-03,-9.999665814763863958e-01,7.603898548112920253e+02
-5.428391552470109849e-01,-3.233821978598511393e+00,4.804594822103369189e+00,1.247972250289109963e-01,1.699235512925417746e-02,-9.920357415402588641e-01,7.654925726795679566e+02
-8.805393907811185361e-01,-3.853918071913255528e+00,4.624780682839704227e+00,2.476329703994841480e-01,2.566564820055045049e-02,-9.685128736752772749e-01,7.696479731042927597e+02
-1.344029534219199462e+00,-4.566634056549583320e+00,4.399772949099224562e+00,3.665766141487061813e-01,3.393554879529345897e-02,-9.297676938291558058e-01,7.747506909725686910e+02
-1.817164910792536281e+00,-5.280162950251393816e+00,4.192580050840623684e+00,4.797587063238945015e-01,4.167207799635477133e-02,-8.764091633608867005e-01,7.798534088408446223e+02
-2.247090497364342632e+00,-6.060760511908561909e+00,4.028890991266180777e+00,5.854003491875983123e-01,4.875363971606190561e-02,-8.092759194405271250e-01,7.849561267091205536e+02
-2.582226046561876931e+00,-6.976376001307952102e+00,3.934391627160757743e+00,6.818411546861097294e-01,5.506893172818538851e-02,-7.294230956963063672e-01,7.900588445773964850e+02
-2.791084621057278614e+00,-8.059216684106717210e+00,3.919215404785371337e+00,5.538667687647388371e-01,4.594161604438350144e-02,-8.313356544585928098e-01,7.951615624456724163e+02
-2.803630916899861880e+00,-8.161619886053548711e+00,3.921272427035922270e+00,4.110227253992250751e-01,3.558090620350256444e-02,-9.109293706538053037e-01,7.956096880932685735e+02
-2.893735048597390058e+00,-9.367490795046792940e+00,3.963432414478093246e+00,2.571439275820315284e-01,2.426495386222960252e-02,-9.660673954347365200e-01,8.007124059615445049e+02
-2.890149135222441767e+00,-1.061212350246890779e+01,4.024222636006209441e+00,9.636152976960503380e-02,1.229755608674137392e-02,-9.952694236711179254e-01,8.058151238298204362e+02
-2.815356004336933449e+00,-1.181516997761039356e+01,4.067122921963429505e+00,-6.700796228890572304e-02,0.000000000000000000e+00,-9.977514384801853264e-01,8.109178416980963675e+02
-2.681438241303978565e+00,-1.291143025085456486e+01,4.065609162894724626e+00,-5.775727188653952821e-02,4.973936834398060697e-02,-9.970898117911234371e-01,8.160205595663722988e+02
-2.504608518353485191e+00,-1.379268730176837643e+01,4.020564792216260841e+00,-4.835872434097072264e-02,9.935138814205669855e-02,-9.938756136717059597e-01,8.206767168190084476e+02
-2.235630993993156679e+00,-1.461101971912784769e+01,3.926664767255540589e+00,-3.883637952685219802e-02,1.487090554724019575e-01,-9.881170742593625711e-01,8.257794346872843789e+02
-1.869679885549845544e+00,-1.525538652472448575e+01,3.788452978004928973e+00,-2.921461415667711212e-02,1.976860177318277290e-01,-9.798289364528073309e-01,8.308821525555603102e+02
-1.389930879331769287e+00,-1.570907258306928078e+01,3.609402765158988391e+00,-1.951805939913858756e-02,2.461568969688971431e-01,-9.690324181518326085e-01,8.359848704238362416e+02
-7.792081794620527857e-01,-1.595586156424341695e+01,3.392990413028022623e+00,-9.771537847693599621e-03,2.939976107213173040e-01,-9.557551579434144795e-01,8.410875882921121729e+02
-2.119509284745018929e-01,-1.600481526298013435e+01,3.202574007179340487e+00,-0.000000000000000000e+00,3.410856895394125399e-01,-9.400311443715456683e-01,8.450502774749064656e+02
6.025369484769342865e-01,-1.589464159521700459e+01,2.941007675368771057e+00,1.090891924036676598e-02,4.459356725706601909e-01,-8.949974141913840109e-01,8.501529953431823969e+02
1.391956051238442127e+00,-1.563027260168347432e+01,2.689041968199407329e+00,2.167448787692465365e-02,5.449257902459938574e-01,-8.382028988850935836e-01,8.552557132114583283e+02
1.967998178653234786e+00,-1.528725218257500451e+01,2.487456603171211089e+00,3.215524167642710984e-02,6.367552698078536855e-01,-7.703939036647724503e-01,8.603584310797342596e+02
2.148546397738957836e+00,-1.510413804546526428e+01,2.411693477791187590e+00,4.221345879724438394e-02,7.202174285454587821e-01,-6.924614642813350374e-01,8.629342386695808500e+02
2.144278108608696165e+00,-1.477181897373339758e+01,2.343778798056690871e+00,5.171696928920894304e-02,7.942155283755510942e-01,-6.054296404811914112e-01,8.680369565378567813e+02
1.547554545882002808e+00,-1.450667671296684524e+01,2.401463300387806310e+00,-7.789220674457224269e-02,7.603860132062070232e-01,-6.447820678709454967e-01,8.731396744061327126e+02
4.622377876328399582e-01,-1.431364892225429486e+01,2.544790798457104763e+00,-2.059830620600783535e-01,7.117353703972734147e-01,-6.715666315931738684e-01,8.782423922744086440e+02
-9.091197029849925615e-01,-1.418428890985850366e+01,2.706894635944994132e+00,-3.300589315464829143e-01,6.492118894645528826e-01,-6.852612817634652354e-01,8.833451101426845753e+02
-1.709874382933479264e+00,-1.413556265738217554e+01,2.784678713563272900e+00,-4.477014130561331462e-01,5.740342474317232657e-01,-6.855991011683773007e-01,8.861277674418493007e+02
-3.154185033075229683e+00,-1.407372587568834454e+01,2.877151087624314485e+00,-2.265271233948336627e-01,6.002937868715537695e-01,-7.670272692748640875e-01,8.912304853101252320e+02
-4.510858597632591227e+00,-1.402210665611343465e+01,2.902071622631630543e+00,7.386634079976750478e-03,5.927938340271414752e-01,-8.053191342429314448e-01,8.963332031784011633e+02
-5.718573081941657144e+00,-1.393013048440435853e+01,2.876449101311920664e+00,2.408849954918985958e-01,5.519561748957572123e-01,-7.983212385641276221e-01,9.014359210466770946e+02
-6.715008984848238605e+00,-1.374920051199951665e+01,2.817295951840941726e+00,4.608364502591153489e-01,4.800774273061745867e-01,-7.464271095723888916e-01,9.065386389149530260e+02
-7.328327199678891901e+00,-1.352400163011602707e+01,2.759043643751573960e+00,5.737492844011932158e-01,3.934504264367044701e-01,-7.183359385319894042e-01,9.105434102222230877e+02
-7.861111716688260032e+00,-1.310597637041013641e+01,2.688859217835911863e+00,6.745888543581157748e-01,2.985441964200049592e-01,-6.751290545967715273e-01,9.156461280904990190e+02
-8.069222584074347893e+00,-1.251595417664242582e+01,2.643428031326610750e+00,7.612332466828537481e-01,1.973558131944211091e-01,-6.177156523386462261e-01,9.207488459587749503e+02
-8.069788748899602737e+00,-1.222110914707158180e+01,2.634472262596952774e+00,8.318592482949682676e-01,9.201453936680270562e-02,-5.473038603667305102e-01,9.228909053869982699e+02
-7.844238399166687969e+00,-1.139234714568406837e+01,2.653646783166036194e+00,8.849807075424034331e-01,-1.526297770939940603e-02,-4.653753203491750035e-01,9.279936232552742013e+02
-7.274860264921612085e+00,-1.045156220745599818e+01,2.697391150096424273e+00,7.001583924300308626e-01,-3.265028571084726550e-01,-6.349583528158460055e-01,9.330963411235501326e+02
-6.672040522235177740e+00,-9.801350384907856039e+00,2.670796927653372510e+00,4.034587101639984241e-01,-5.855715793380563694e-01,-7.030824949207589158e-01,9.370807486005321607e+02
-5.848025295749141428e+00,-9.284755141737329964e+00,2.414073937064118436e+00,7.605218623655655152e-01,-2.133225680456999618e-01,-6.132682763905719092e-01,9.421834664688080920e+02
-5.088690552525124033e+00,-9.073376150161585940e+00,1.815849441888045313e+00,9.091027180611142011e-01,2.174045106387891280e-01,-3.553386086101029129e-01,9.472861843370840234e+02
-4.533136150677984588e+00,-8.973952978159340788e+00,8.125749341795490688e-01,8.084710213413998092e-01,5.885342875760209980e-01,-0.000000000000000000e+00,9.523889022053599547e+02
-4.384705506223253835e+00,-8.943169101656312847e+00,3.477765568160131049e-01,8.122640809757071256e-01,2.755507976659067326e-01,5.140980652177373766e-01,9.542783250778740012e+02
-3.928394234930207229e+00,-8.977817044128450163e+00,-8.968797105333539132e-01,5.217969639828635708e-01,-1.372574330860478475e-01,8.419538736996626804e-01,9.593810429461499325e+02
-3.229275693828955518e+00,-9.123739287412666599e+00,-1.846482456477104295e+00,4.229742237313078440e-02,-5.003411631525817027e-01,8.647934137780339814e-01,9.644837608144258638e+02
-2.338201152939590077e+00,-9.134673339616650622e+00,-2.370072221136390045e+00,-4.525244665822401036e-01,-6.821651958909240587e-01,5.743433229870396062e-01,9.695864786827017952e+02
-1.980171769898863454e+00,-9.068782521745470504e+00,-2.502523955380959286e+00,-3.648863430469284630e-01,-5.457820326407285538e-01,7.543062571033957164e-01,9.716224547865216437e+02
-1.248751370788278470e+00,-8.740103584184659269e+00,-2.737847485605245712e+00,-2.558412054956893389e-01,-3.773791348234056819e-01,8.900158797297653690e-01,9.767251726547975750e+02
-8.931416141967556399e-01,-8.250898856009081683e+00,-2.812920625125309826e+00,-1.317864346564192324e-01,-1.868362417437346712e-01,9.735104285070038665e-01,9.818278905230735063e+02
-8.770718981892212662e-01,-7.967076091480825184e+00,-2.793347453990818963e+00,-0.000000000000000000e+00,1.466799147870188023e-02,9.998914191179560929e-01,9.846617216642423500e+02
-1.182653893141084600e+00,-7.535282763078681612e+00,-2.677337671394761642e+00,-9.614643594477934735e-03,4.645974864275281280e-01,8.854686523156061195e-01,9.897644395325182813e+02
-1.805002476415918045e+00,-7.249490347130418400e+00,-2.519164956781235531e+00,-1.715615853236662422e-02,8.143495434507576070e-01,5.801193733241767347e-01,9.948671574007942127e+02
-2.003334193341977265e+00,-7.194011207848753031e+00,-2.478431446121616588e+00,-2.099842778003452315e-02,9.885099037255355992e-01,1.496837875919976857e-01,9.963080721445891186e+02
-2.269210492075495633e+00,-7.128581507935271233e+00,-2.439176208703773163e+00,-2.031297923577711842e-02,9.495260293806794261e-01,-3.130266800195738441e-01,9.982628499524549852e+02
-2.925033340037229035e+00,-7.038302417895443419e+00,-2.644379173981957543e+00,-0.000000000000000000e+00,9.419726912662017559e-01,-3.356865336124749688e-01,1.003365567820730917e+03
-3.531777736226501041e+00,-7.019890550633853366e+00,-3.307543193002573378e+00,2.179333662214767431e-01,9.678841615375687324e-01,-1.253127995551065743e-01,1.008468285689006848e+03
-4.115965629376553636e+00,-6.961368210891401453e+00,-4.258745034225603909e+00,4.157246280598060895e-01,9.043401909056060228e-01,9.664291353559165132e-02,1.013571003557282779e+03
-4.269861584231962937e+00,-6.931213098220229796e+00,-4.539465836448761671e+00,3.121342663312277610e-01,9.159277268345008549e-01,-2.522827758661263520e-01,1.014927113146262741e+03
-4.846162602759908289e+00,-6.791093106222811926e+00,-5.537086682742621946e+00,1.671504043892086400e-01,8.060499159178196038e-01,-5.677519487970112966e-01,1.020029831014538672e+03
-5.412711185251239954e+00,-6.685174276631649093e+00,-6.251911684592994511e+00,0.000000000000000000e+00,5.892782266480061093e-01,-8.079289396970256165e-01,1.025132548882814717e+03
-5.851389749929761130e+00,-6.682356148276496377e+00,-6.488274490291883190e+00,2.098328883003209855e-01,5.400186135609316151e-01,-8.150754909803461512e-01,1.029186408249044007e+03
-6.377862024146614850e+00,-6.748668697920103376e+00,-6.350076455789444907e+00,4.099069728186986450e-01,4.656440745418345961e-01,-7.843149045378441375e-01,1.034289126117319938e+03
-6.859543591890056469e+00,-6.804750427013448011e+00,-5.780872634256885689e+00,5.909173183403831908e-01,3.696135747297041863e-01,-7.170777700238099017e-01,1.039391843985595870e+03
-7.278351490925624390e+00,-6.744113896425179888e+00,-4.874601850184218321e+00,7.444455835825035672e-01,2.563932412991090648e-01,-6.164911020459505897e-01,1.044494561853871801e+03
-7.521245744957453461e+00,-6.599566640845104359e+00,-4.127279751114737216e+00,8.633515342803752546e-01,1.312486617506257169e-01,-4.872329186799356782e-01,1.047937477491331720e+03
-7.804664450874355452e+00,-6.143281003549954100e+00,-2.897040279313824129e+00,9.421051217398948019e-01,0.000000000000000000e+00,-3.353146874090737195e-01,1.053040195359607651e+03
-7.856057829911214263e+00,-5.441604517120135043e+00,-1.747539542554134462e+00,9.421051210749141758e-01,-0.000000000000000000e+00,-3.353146871723934330e-01,1.058142913227883582e+03
-7.604713022818911483e+00,-4.852161524187270203e+00,-1.033444169456745110e+00,9.421051210749141758e-01,-0.000000000000000000e+00,-3.353146871723934330e-01,1.063245631096159514e+03
-7.404457471443643968e+00,-4.720469300391352263e+00,-8.198947599777244299e-01,9.421051210747046767e-01,-0.000000000000000000e+00,-3.353146871723188260e-01,1.066707081701501465e+03
-7.387092133974545227e+00,-5.126630444977226198e+00,-7.842374536852879663e-01,9.737472126629939106e-01,2.177715413783347653e-01,6.625648344000208134e-02,1.071809799569777397e+03
-7.660048015831073975e+00,-6.137244227876991864e+00,-1.026643215858129787e+00,8.012087049074216871e-01,3.898795177393326039e-01,4.539345468558110830e-01,1.076912517438053328e+03
-8.066659460098088985e+00,-7.407733592991767146e+00,-1.382882144533688740e+00,4.606684729586406069e-01,4.802354505724624745e-01,7.464291460257106436e-01,1.082015235306329259e+03
-8.513165877174211360e+00,-8.676494343329128611e+00,-1.696009763719048768e+00,4.606684726334056013e-01,4.802354502334130748e-01,7.464291454987268537e-01,1.087117953174605191e+03
-8.728360344019314709e+00,-9.265745620811911110e+00,-1.819538817814796650e+00,4.606684726334360214e-01,4.802354502334448827e-01,7.464291454987761476e-01,1.089610721660217450e+03
-9.117384551409159599e+00,-1.039435149910450917e+01,-2.018026367446991376e+00,4.606684726334588920e-01,4.802354502334686970e-01,7.464291454988132291e-01,1.094713439528493382e+03
-9.388910287932217713e+00,-1.139200077727073968e+01,-2.138172002563875296e+00,4.606684726334741575e-01,4.802354502334845732e-01,7.464291454988378760e-01,1.099816157396769313e+03
-9.502007369214913624e+00,-1.224151342898470318e+01,-2.188021892881803598e+00,4.606684726334817626e-01,4.802354502334925113e-01,7.464291454988501995e-01,1.104918875265045244e+03
-9.422458903393692964e+00,-1.292681476182353961e+01,-2.175670756881972423e+00,4.606684726334817626e-01,4.802354502334925113e-01,7.464291454988501995e-01,1.110021593133321176e+03
-9.115689985764651837e+00,-1.343289468876581694e+01,-2.109217801110439439e+00,4.606684726334741575e-01,4.802354502334845732e-01,7.464291454988378760e-01,1.115124311001597107e+03
-8.570591425620984083e+00,-1.374567369744471179e+01,-1.996896070758824582e+00,4.606684726334588920e-01,4.802354502334686970e-01,7.464291454988132291e-01,1.120227028869873038e+03
-8.481001050537610553e+00,-1.377416083108437483e+01,-1.978859577642262613e+00,4.606684726334360769e-01,4.802354502334448827e-01,7.464291454987761476e-01,1.120916268133958056e+03
-7.734347477667299131e+00,-1.391139168985432129e+01,-1.863759186276978896e+00,4.606684726334056568e-01,4.802354502334131303e-01,7.464291454987267427e-01,1.126018986002233987e+03
-6.855438366447401677e+00,-1.395579733153182111e+01,-1.845278579218493809e+00,4.606684726333674651e-01,4.802354502333733843e-01,7.464291454986650143e-01,1.131121703870509918e+03
-5.889590942635082094e+00,-1.394849289068844556e+01,-1.984322477272228102e+00,3.185044984148543423e-01,4.844081092160748003e-01,8.148016127961723587e-01,1.136224421738785850e+03
-4.966642921507474995e+00,-1.384479844377357693e+01,-2.199938939662049897e+00,1.684088557896393779e-01,4.765176251843111777e-01,8.628831961396951078e-01,1.140774273705619635e+03
-3.853821955568939917e+00,-1.349210549338781107e+01,-2.439995296409093406e+00,1.411931796060538098e-02,4.567604884283678612e-01,8.894765320516312412e-01,1.145876991573895566e+03
-2.644745462116067092e+00,-1.275686168216078187e+01,-2.575131835206503794e+00,-1.405218985060698034e-01,4.256286925836522128e-01,8.939193543540933096e-01,1.150979709442171497e+03
-1.383118762055692841e+00,-1.166027208797430070e+01,-2.519082537411992728e+00,-7.357423546306832152e-02,6.722904537074556597e-01,7.366209186071924764e-01,1.156082427310447429e+03
-6.404870907731367025e-01,-1.093169299907560088e+01,-2.405389367920842680e+00,0.000000000000000000e+00,8.584009604371716229e-01,5.129773787609296365e-01,1.159163147939665123e+03
4.183399960562001474e-01,-9.903670224215199269e+00,-2.198161887058674768e+00,-2.660335642766689102e-01,6.903209341282140477e-01,6.728158370488491746e-01,1.164265865807941054e+03
1.155273268414573673e+00,-9.163117789179983319e+00,-2.031538122800242263e+00,-4.989264794323090002e-01,4.362452727741477077e-01,7.488393887238191660e-01,1.169368583676216986e+03
1.481960163487974436e+00,-8.615850463617045207e+00,-2.045246860557041746e+00,-6.696665005626494249e-01,1.278249046681718959e-01,7.315774543894532078e-01,1.174471301544492917e+03
1.483937078013274791e+00,-8.606133024539873944e+00,-2.048338009800391379e+00,-6.849499125951222789e-01,3.298324192831627588e-01,6.496554413119808302e-01,1.174572544216097185e+03
1.375402919933114365e+00,-8.125911439656055890e+00,-2.371423360559243854e+00,-6.675256524976391770e-01,5.160897553492542755e-01,5.367111585218637959e-01,1.179675262084373117e+03
9.280069752993871379e-01,-7.646432588682123388e+00,-2.977670883413237934e+00,-6.182257810442124413e-01,6.777027960744792523e-01,3.981379206329930254e-01,1.184777979952649048e+03
2.969010179661873416e-01,-7.135550844200412968e+00,-3.764655109929377019e+00,-5.394044661572621191e-01,8.069542401336446957e-01,2.405528553578064888e-01,1.189880697820924979e+03
7.789244957582773521e-02,-6.962861476090307811e+00,-4.038867981768325066e+00,-4.348255654857151598e-01,8.976721029705179156e-01,7.148092857024282432e-02,1.191515502964395637e+03
-5.921784459416721269e-01,-6.425286097594455903e+00,-4.913909022755810874e+00,-3.329906339365111267e-01,8.326534915664608461e-01,4.424967804336534249e-01,1.196618220832671568e+03
-1.232537162306829304e+00,-5.980624832009145742e+00,-5.803387835477770373e+00,-1.804576923000012212e-01,6.408628221508558820e-01,7.461419868071176298e-01,1.201720938700947499e+03
-1.837755336150748819e+00,-5.789010202263366267e+00,-6.676263714931227611e+00,-4.499992964605593069e-04,3.515004504559623433e-01,9.361865363440402543e-01,1.206823656569223431e+03
-2.129039297857500568e+00,-5.802961904160616413e+00,-7.100804402882750388e+00,-3.843305997990502099e-01,5.250981806712805566e-01,7.593154092441115610e-01,1.209372830102821126e+03
-2.707367988977764206e+00,-5.956320609589337067e+00,-7.925542279852084704e+00,-6.879691552107651820e-01,5.890636561192615916e-01,4.239108992688482291e-01,1.214475547971097058e+03
-3.301032236176286716e+00,-6.120031104283516932e+00,-8.719894422282532531e+00,-8.479704324504528934e-01,5.300416452412911594e-01,0.000000000000000000e+00,1.219578265839372989e+03
-3.562242931820410519e+00,-6.150146452793897822e+00,-9.051733588284580634e+00,-7.713961562552216211e-01,5.181255177012342727e-01,3.694481262936623600e-01,1.221754794283229785e+03
-4.161479652231006909e+00,-6.055463810266895841e+00,-9.781919080971729130e+00,-5.848996295885400265e-01,4.323776440822644784e-01,6.862506802951378049e-01,1.226857512151505716e+03
-4.684539608070769745e+00,-5.688097315899631745e+00,-1.038764028827669073e+01,-3.150562158018470060e-01,2.850169212231611904e-01,9.052640142530919976e-01,1.231960230019781648e+03
-5.042795938012964996e+00,-5.044258496360310318e+00,-1.079570880642462960e+01,-3.179997568430842055e-04,9.704192579737919155e-02,9.952792389647324711e-01,1.237062947888057579e+03
-5.056112263314513022e+00,-5.002957317866772335e+00,-1.081105154427598691e+01,-2.355382276100351560e-04,3.239664189454559418e-02,9.994740627490894536e-01,1.237332328512091181e+03
-5.166383554949097068e+00,-4.153153910647874980e+00,-1.095582473353924513e+01,-1.520882391755498469e-04,-3.238459369116603731e-02,9.994744693852617434e-01,1.242435046380367112e+03
-4.973248317774921823e+00,-3.298787770777216188e+00,-1.079164230252348133e+01,-6.799996278718530127e-05,-9.702994690059690841e-02,9.952804553351848327e-01,1.247523903139578806e+03
-4.846047293375238318e+00,-3.037349866659811770e+00,-1.067222621482287614e+01,-0.000000000000000000e+00,-9.695091801188839009e-02,9.952881583184741698e-01,1.249242141474109303e+03
-4.358820673813331936e+00,-2.442698585194278404e+00,-1.015725179218560825e+01,-2.532105750929020127e-01,-4.864908572068821768e-01,8.361872102083393044e-01,1.254344859342385234e+03
-3.818627467058802960e+00,-2.200794517071296585e+00,-9.454096572244989005e+00,-4.453542056003191862e-01,-7.587035138824045344e-01,4.754225589698183874e-01,1.259447577210661166e+03
-3.474707375911284757e+00,-2.325475701288648001e+00,-8.781630729715775630e+00,-5.300915303214127627e-01,-8.479392486978463150e-01,0.000000000000000000e+00,1.264106096728943839e+03
-3.417262118725705733e+00,-2.848494998563636749e+00,-8.124588683570969749e+00,-3.033953789773732312e-01,-7.955179744763823946e-01,5.245001394666647387e-01,1.269208814597219771e+03
-3.706696910648637822e+00,-3.715815481640777573e+00,-7.584050092202619275e+00,2.319088134961608955e-02,-4.811800201317880110e-01,8.763138543057100716e-01,1.274311532465495702e+03
-4.156036353421467489e+00,-4.622684384822615122e+00,-7.215798250207178910e+00,3.421418352604577162e-01,-8.417995946778044150e-03,9.396095475828125654e-01,1.278571302737332417e+03
-4.847465024644170839e+00,-5.646278222620659371e+00,-6.674352010310502514e+00,9.334680231829169950e-01,2.330827560931791331e-01,2.725947147463356757e-01,1.283674020605608348e+03
-5.247306784647053135e+00,-6.039932049062640473e+00,-6.266035086488241923e+00,9.334680225242285578e-01,2.330827559287076411e-01,2.725947145539830974e-01,1.286405957247521428e+03
-5.983411807605514277e+00,-6.247320509828663937e+00,-5.311605575451129546e+00,9.334680225239950779e-01,2.330827559286493267e-01,2.725947145539149297e-01,1.291508675115797359e+03
-6.422622360308150924e+00,-6.109827544493728446e+00,-4.659417330148823311e+00,9.821473338339041792e-01,-9.914836638452220741e-02,-1.598568612464480176e-01,1.294483184371301149e+03
