8.017633849445900296e+00,-2.518802106835813071e+00,3.170751699151680647e+00,-6.524916162623818350e-01,-5.519285262913716794e-01,-5.192567694061949179e-01,5.428935416995535945e+01
7.960174344596957496e+00,-2.654828262587737964e+00,3.067785356382708439e+00,-6.345553296030700396e-01,-5.745230151606978142e-01,-5.169727640060256535e-01,5.582303561716268803e+01
7.944547712497428194e+00,-2.687410517403677090e+00,3.043130273159007082e+00,-6.160876413061587842e-01,-5.966363754799937080e-01,-5.142558251346756037e-01,5.618967786719811386e+01
7.850880210890809785e+00,-2.854793303400785298e+00,2.916564298560735846e+00,-5.971040168661018166e-01,-6.182500887613262552e-01,-5.111082280593962635e-01,5.806687395902331161e+01
7.728159075540675715e+00,-3.027281850140477015e+00,2.786328579624520518e+00,-5.776203538321408315e-01,-6.393460549319005537e-01,-5.075326086892174571e-01,5.998797066354698160e+01
7.579057129827130979e+00,-3.201023855180105571e+00,2.655286257552946783e+00,-5.576529684960583877e-01,-6.599066074906135837e-01,-5.035319613676866313e-01,6.190906736807065158e+01
7.432426801547812545e+00,-3.350737872968418518e+00,2.542400585941865909e+00,-5.372185822293397139e-01,-6.799145283016080343e-01,-4.991096363655109225e-01,6.355435669480449690e+01
7.270312310158471902e+00,-3.501215672531618139e+00,2.428903863458626855e+00,-5.163343074811781452e-01,-6.993530620124374098e-01,-4.942693370751971016e-01,6.519964602153834221e+01
7.093201196558815980e+00,-3.652490087169034005e+00,2.314746962252080653e+00,-5.939584362330480038e-01,-8.044922364008854077e-01,-1.901998194682220878e-03,6.684493534827218753e+01
6.829471760893877530e+00,-3.856631608292346858e+00,2.160705696967176070e+00,-0.000000000000000000e+00,-2.291096583325744410e-02,-9.997365091095600231e-01,6.904568304185370664e+01
6.532793920026289669e+00,-4.063327408702558152e+00,2.004810821573132618e+00,4.817995167360955219e-03,-1.888798105461056767e-02,-9.998089971521703090e-01,7.124643073543522576e+01
6.294483363079144134e+00,-4.218322717823816959e+00,1.887835682950223193e+00,-9.089308576325504374e-01,-4.169444759735643213e-01,-0.000000000000000000e+00,7.288157932499296976e+01
6.044888851234571980e+00,-4.374251617201754705e+00,1.769981813972620666e+00,-2.327097549703165957e-01,-7.626911969310330441e-01,-6.034453646075272903e-01,7.451672791455071376e+01
5.785511333848045723e+00,-4.531175906715152024e+00,1.651201199075827519e+00,-0.000000000000000000e+00,2.371197228180181582e-02,-9.997178313761230228e-01,7.615187650410845777e+01
5.535460336744727705e+00,-4.679001989172859588e+00,1.539139314835301642e+00,-0.000000000000000000e+00,2.371197226506416636e-02,-9.997178306704488371e-01,7.768280078376331232e+01
5.280054230104134660e+00,-4.827705541526166044e+00,1.426245348298723403e+00,-9.089459700192470404e-01,4.169115275727455772e-01,-4.199995240735529480e-05,7.921372506341816688e+01
4.987719990744697185e+00,-4.996343011389234867e+00,1.298087985627942142e+00,5.646663325346797935e-01,-6.706362072727112267e-01,-4.810374313884418496e-01,8.093663741242184528e+01
4.692102770065883277e+00,-5.166589567206362865e+00,1.168652229908482942e+00,-9.089331001752705141e-01,-0.000000000000000000e+00,-4.169395872385422974e-01,8.265954976142552368e+01
4.395553818602135010e+00,-5.338573347103229061e+00,1.037893255394379599e+00,-8.657284703649383850e-01,4.290397375222190085e-02,4.986696949240280730e-01,8.438246211042920208e+01
4.100280345956348604e+00,-5.512431772823222609e+00,9.057662472115129981e-01,-6.447964779476149655e-01,3.180076416404768042e-02,7.636911767366930670e-01,8.610537445943288049e+01
3.808345502445645181e+00,-5.688310963010846599e+00,7.722264017287061577e-01,-3.470237234032141904e-01,1.690783957875435436e-02,9.377028635752016061e-01,8.782828680843655889e+01
3.521668361939746195e+00,-5.866365146422930721e+00,6.372289269287479963e-01,-7.895990730978253921e-03,0.000000000000000000e+00,9.999678261481247388e-01,8.955119915744023729e+01
3.200639849243051227e+00,-6.075114967209851002e+00,4.794220841762213969e-01,-0.000000000000000000e+00,5.332983833114216532e-01,8.459260217991800834e-01,9.153933715512734182e+01
2.893331441194146869e+00,-6.287993976073153135e+00,3.192304955870334249e-01,-0.000000000000000000e+00,-7.954388900865070333e-01,-6.060321543746808315e-01,9.352747515281444635e+01
2.593121988108605169e+00,-6.512687660287105551e+00,1.511220547809168924e-01,-8.555062347860055150e-01,6.122994523241436643e-02,-5.141575401079161445e-01,9.558130081828336699e+01
2.312694001178150049e+00,-6.742711475895971418e+00,-1.976796333752774831e-02,-9.494871526008721307e-01,0.000000000000000000e+00,-3.138027199370729270e-01,9.763512648375228764e+01
2.075488902020038218e+00,-6.956073829366952843e+00,-1.771694191042918198e-01,6.426236280063962747e-01,1.961598864495174219e-02,-7.659295566286647983e-01,9.949857698293118347e+01
1.854187429548700861e+00,-7.173876814679974956e+00,-3.367375375042808150e-01,1.016999272028911057e-02,-9.999472842347744139e-01,-0.000000000000000000e+00,1.013620274821100793e+02
1.678711706246108770e+00,-7.361319253399168261e+00,-4.732061749046865273e-01,-7.580441342002783855e-01,2.125597572249816186e-02,-6.518552554838521473e-01,1.029371329879297292e+02
1.512878558261125717e+00,-7.551643171104557517e+00,-6.110174837395218050e-01,6.818411546864246997e-01,5.506893172821083343e-02,-7.294230956966434309e-01,1.045122384937493791e+02
1.331817516198297247e+00,-7.779257213786586078e+00,-7.746041974521478135e-01,-9.494871526039893039e-01,0.000000000000000000e+00,-3.138027199381031029e-01,1.063603139060494271e+02
1.166376752206821799e+00,-8.012158504730626518e+00,-9.404036155666808394e-01,1.014498516991922498e-02,-0.000000000000000000e+00,-9.999475382627462938e-01,1.082083893183494752e+02
1.030671558950205124e+00,-8.225070839248688870e+00,-1.090618594549505049e+00,-9.789433609091038324e-01,-2.146098598946443933e-02,-2.029958674766937088e-01,1.098626880608249223e+02
9.056828064340213258e-01,-8.442075341471349859e+00,-1.242450244813556148e+00,2.883107282158177131e-01,-5.998124345700105442e-01,-7.463912963933414524e-01,1.115169868033003695e+02
7.872221722021851553e-01,-8.671718137652572267e+00,-1.401664147020824425e+00,0.000000000000000000e+00,3.025597526115820363e-02,-9.995411827237108415e-01,1.132325929909867881e+02
6.783378626461961103e-01,-8.910141414545948990e+00,-1.565310505386319884e+00,-6.696665005624393707e-01,1.278249046681317891e-01,7.315774543892237247e-01,1.149755390244822024e+02
5.805395160343964633e-01,-9.153963008540291213e+00,-1.730900908950161243e+00,-2.031297923577800660e-02,9.495260293807207264e-01,-3.130266800195874999e-01,1.167184850579776167e+02
4.932652534352836016e-01,-9.403372905257645797e+00,-1.898454650988463444e+00,-0.000000000000000000e+00,9.419726912662017559e-01,-3.356865336124749688e-01,1.184614310914730311e+02
4.235330439427067439e-01,-9.630148563288653207e+00,-2.049303399101539913e+00,4.034587101641329832e-01,-5.855715793382516576e-01,-7.030824949209935060e-01,1.200141501763386742e+02
3.605138207017388741e-01,-9.861090500805559600e+00,-2.201564420591183513e+00,0.000000000000000000e+00,1.466799147869876814e-02,9.998914191177440403e-01,1.215668692612043174e+02
3.038100164722782326e-01,-1.009631128538530831e+01,-2.355249293801083610e+00,-6.700796228802059773e-02,0.000000000000000000e+00,-9.977514384670058689e-01,1.231195883460699605e+02
2.529402596436781114e-01,-1.033591948456111886e+01,-2.510377946698833185e+00,8.084710213413986990e-01,5.885342875760201098e-01,-0.000000000000000000e+00,1.246723074309356036e+02
2.074397701104397362e-01,-1.058001205279618695e+01,-2.667000588213663814e+00,0.000000000000000000e+00,8.584009604376918734e-01,5.129773787612403879e-01,1.262250265158012468e+02
1.669676893755600855e-01,-1.082867199074466669e+01,-2.825202921036976900e+00,-4.348255654854676910e-01,8.976721029700071020e-01,7.148092857020214852e-02,1.277777456006668899e+02
1.427688291528393383e-01,-1.099278634965990697e+01,-2.929023281846108606e+00,-4.477014130563808925e-01,5.740342474320409005e-01,-6.855991011687566639e-01,1.287891956471853803e+02
9.243566374791829798e-02,-1.144588149966613777e+01,-3.212021480518838512e+00,8.849807075428485215e-01,-1.526297770940707871e-02,-4.653753203494089274e-01,1.314930740415271373e+02
7.230990147331177453e-02,-1.173334262299135311e+01,-3.389014194216665832e+00,4.608364502589873957e-01,4.800774273060412489e-01,-7.464271095721816129e-01,1.331447388182745044e+02
5.795926620051942285e-02,-1.202670296517930382e+01,-3.568410144766586800e+00,0.000000000000000000e+00,3.410856895397151867e-01,-9.400311443723797789e-01,1.347964035950218715e+02
4.970760749137131257e-02,-1.232604050487125136e+01,-3.750319014319106969e+00,5.171696928920894304e-02,7.942155283755510942e-01,-6.054296404811914112e-01,1.364480683717692386e+02
4.788472018568883798e-02,-1.263143094765712426e+01,-3.934847750312986392e+00,-4.525244665818370371e-01,-6.821651958903164337e-01,5.743433229865280154e-01,1.380997331485166058e+02
5.252456752097841436e-02,-1.293351602449999049e+01,-4.116456122625619329e+00,4.606684729586458804e-01,4.802354505724680256e-01,7.464291460257191924e-01,1.397023360546264996e+02
6.374519239669954040e-02,-1.324125502107989050e+01,-4.300637588122462773e+00,-2.327328258594347776e-01,7.626824293286782463e-01,6.034475484749657337e-01,1.413049389607363935e+02
8.188366758137101409e-02,-1.355470963209634405e+01,-4.487479647890240564e+00,-2.327326561483562817e-01,6.034521084276577296e-01,7.626788731775399066e-01,1.429075418668462873e+02
1.071422649655575099e-01,-1.387393936486534862e+01,-4.677068156839634838e+00,-0.000000000000000000e+00,6.060361314452640258e-01,7.954358600026506521e-01,1.445101447729561812e+02
1.394933955321024377e-01,-1.419899751100538587e+01,-4.869485695918082335e+00,-4.039896372711486439e-02,7.947932863815573290e-01,6.055324563125584758e-01,1.461127476790660751e+02
1.847114260114187667e-01,-1.457152081502885110e+01,-5.089291148942898246e+00,-1.405218985060055770e-01,4.256286925834576462e-01,8.939193543536847475e-01,1.479125925835833755e+02
2.396619015829886679e-01,-1.495242812972785629e+01,-5.313350165004908199e+00,-1.483803168429983776e-01,4.293808450238005281e-01,8.908498029974180055e-01,1.497124374881006759e+02
3.076876261568551318e-01,-1.536195798420926550e+01,-5.553598417487874528e+00,-1.562260848618131914e-01,4.330963902744922600e-01,8.877043016344354776e-01,1.516033948563057550e+02
3.857338573028725737e-01,-1.578135159671939469e+01,-5.799077343158818287e+00,-1.640585336669193872e-01,4.367750115655246179e-01,8.844831184388591838e-01,1.534943522245108340e+02
4.371584252384473901e-01,-1.604168434059062776e+01,-5.951242356054089022e+00,-1.718769954982070913e-01,4.404163952744138411e-01,8.811865280361131925e-01,1.546492817387693890e+02
5.643465501018756214e-01,-1.664044854234741422e+01,-6.300851978612665327e+00,-1.796808037880691655e-01,4.440202309533989866e-01,8.778148114804789071e-01,1.572381599301258746e+02
6.758835197991426291e-01,-1.712784923295896178e+01,-6.585213131563297573e+00,-1.874692932182288330e-01,4.475862113559090361e-01,8.743682562311330120e-01,1.592757807236200449e+02
7.935810993904356403e-01,-1.762761990434272619e+01,-6.876812645164610771e+00,-1.952417997764613333e-01,4.511140324627563869e-01,8.708471561276389661e-01,1.613134015171142153e+02
8.986267952128798031e-01,-1.806894137190304406e+01,-7.134443049487191324e+00,-2.029976608132035842e-01,4.546033935080552313e-01,8.672518113648947091e-01,1.630746862746346437e+02
1.005472488557495492e+00,-1.851821775990656604e+01,-7.396939469982460658e+00,-2.107362150980480742e-01,4.580539970048629894e-01,8.635825284675385793e-01,1.648359710321550722e+02
1.113514604357929594e+00,-1.897538278085128738e+01,-7.664383162187640153e+00,-2.184568028761155467e-01,4.614655487705418002e-01,8.598396202638159957e-01,1.665972557896755006e+02
1.256875673960270223e+00,-1.958851630099031738e+01,-8.024003863482487731e+00,-2.261587659243020354e-01,4.648377579518385705e-01,8.560234058589080153e-01,1.689064121708143489e+02
1.355546821121431433e+00,-2.001586931233403632e+01,-8.275332336970334879e+00,-2.338414476073951143e-01,4.681703370496808625e-01,8.521342106077257617e-01,1.704833263511160624e+02
1.454265232785025619e+00,-2.044871134516682432e+01,-8.530360404656775586e+00,-2.415041929340546456e-01,4.714630019436869546e-01,8.481723660871705039e-01,1.720602405314177759e+02
1.553080279253667761e+00,-2.088696453647240148e+01,-8.789120951336672150e+00,-2.491463486126538340e-01,4.747154719163881875e-01,8.441382100678651579e-01,1.736371547117194893e+02
1.670564794454231228e+00,-2.141268642519307264e+01,-9.100449117501312912e+00,-2.567672631069748412e-01,4.779274696771606545e-01,8.400320864853568770e-01,1.755018574284269164e+02
1.789470972390411641e+00,-2.194694672177613981e+01,-9.418059309510905308e+00,-2.643662866917547705e-01,4.810987213858650691e-01,8.358543454107931758e-01,1.773665601451343434e+02
1.910629506754886187e+00,-2.248956578781934823e+01,-9.742001060756290798e+00,-2.719427715080780517e-01,4.842289566761922570e-01,8.316053430210773589e-01,1.792312628618417705e+02
2.017688551431424671e+00,-2.296464505997060712e+01,-1.002672135076856819e+01,-2.794960716186080663e-01,4.873179086787127190e-01,8.272854415685004792e-01,1.808425461474889175e+02
2.127545133757411833e+00,-2.344493455460978026e+01,-1.031556772274055156e+01,-2.870255430626565407e-01,4.903653140436278757e-01,8.228950093498582641e-01,1.824538294331360646e+02
2.241141642008932955e+00,-2.393032592830686767e+01,-1.060855989205068717e+01,-2.945305439110837975e-01,4.933709129632213863e-01,8.184344206750503448e-01,1.840651127187832117e+02
2.359367578910388730e+00,-2.442070877894053282e+01,-1.090571485793039841e+01,-3.020104343210254783e-01,4.963344491940083758e-01,8.139040558351685606e-01,1.856763960044303587e+02
2.482895021372522937e+00,-2.491596435986090796e+01,-1.120704421717060661e+01,-3.094645765904417423e-01,4.992556700785811263e-01,8.093043010700743389e-01,1.872876792900775058e+02
2.631932066533394732e+00,-2.548731558926099439e+01,-1.155641329765539105e+01,-3.168923352124837778e-01,5.021343265671479594e-01,8.046355485354697024e-01,1.891264312842747870e+02
2.787420501148103913e+00,-2.605280551261118660e+01,-1.190420157595600159e+01,-3.242930769296735183e-01,5.049701732387663622e-01,7.998981962694626802e-01,1.909254521062549657e+02
2.952833461381847435e+00,-2.662443286537231302e+01,-1.225782597570884569e+01,-3.316661707878911791e-01,5.077629683222653068e-01,7.950926481586335637e-01,1.927244729282351443e+02
3.128385708042830782e+00,-2.720197217849589322e+01,-1.261727498331358710e+01,-3.390109881901660627e-01,5.105124737168564852e-01,7.902193139036000069e-01,1.945234937502153230e+02
3.321071639381256713e+00,-2.780564792540467067e+01,-1.299544134405941165e+01,-3.463269029502677454e-01,5.132184550124334610e-01,7.852786089840877448e-01,1.963850754527980484e+02
3.343729990898840043e+00,-2.787496010191921414e+01,-1.303900727545997107e+01,-3.536132913460898752e-01,5.158806815095556830e-01,7.802709546235095939e-01,1.965977098893566506e+02
3.586629914210486714e+00,-2.859485590762205476e+01,-1.349381991110102952e+01,-3.608695321728255800e-01,5.184989262391160869e-01,7.751967777530520687e-01,1.987919218826332894e+02
3.846891344604588259e+00,-2.932351524897712380e+01,-1.395895562610484752e+01,-3.680950067959272709e-01,5.210729659816903947e-01,7.700565109752784965e-01,2.009861338759099283e+02
4.141375696986385968e+00,-3.010857977536184649e+01,-1.446586466334735199e+01,-3.752890992038470652e-01,5.236025812865680029e-01,7.648505925272466310e-01,2.033230477967875345e+02
4.342430200537860330e+00,-3.062989503228111232e+01,-1.480539122902833249e+01,-3.824511960605552208e-01,5.260875564904599067e-01,7.595794662431467614e-01,2.048620966673256021e+02
4.545807046841359167e+00,-3.115367859754637436e+01,-1.514826122316876322e+01,-3.895806867578279764e-01,5.285276797358847700e-01,7.542435815164622026e-01,2.064011455378636697e+02
4.750320149950708171e+00,-3.167970289661177219e+01,-1.549440728156420732e+01,-3.966769634673052436e-01,5.309227429892302563e-01,7.488433932616567201e-01,2.079401944084017373e+02
4.954793371222844911e+00,-3.220773179132812913e+01,-1.584375738273628365e+01,-4.037394211923096554e-01,5.332725420584887299e-01,7.433793618753896659e-01,2.094792432789398049e+02
5.157855670297736950e+00,-3.273751571863898135e+01,-1.619623021280895969e+01,-4.107674578194248638e-01,5.355768766106643319e-01,7.378519531972661527e-01,2.110182921494778725e+02
5.366150109238842170e+00,-3.329033575963985214e+01,-1.656625571729198043e+01,-4.177604741698280333e-01,5.378355501888530954e-01,7.322616384701204906e-01,2.126196247326285231e+02
5.570128407455016806e+00,-3.384450014933187845e+01,-1.693960338189096504e+01,-4.247178740503719241e-01,5.400483702289898824e-01,7.266088942998415456e-01,2.142209573157791738e+02
5.768784073597442053e+00,-3.439969594737737424e+01,-1.731617245752153522e+01,-4.316390643044125675e-01,5.422151480762664733e-01,7.208942026147387994e-01,2.158222898989298244e+02
5.961182798873046806e+00,-3.495560172600934834e+01,-1.769585527773049805e+01,-4.385234548623782036e-01,5.443356990012138130e-01,7.151180506244565471e-01,2.174236224820804750e+02
6.146252287557084415e+00,-3.551188235413611949e+01,-1.807853036520766565e+01,-4.453704587920747082e-01,5.464098422154508583e-01,7.092809307784359030e-01,2.190249550652311257e+02
6.344339201924336535e+00,-3.613898995049708418e+01,-1.851362364543973982e+01,-4.521794923487236773e-01,5.484374008870976924e-01,7.033833407239321600e-01,2.208303364716693977e+02
6.529811954713675703e+00,-3.676547101320800692e+01,-1.895262415927559019e+01,-4.589499750247288956e-01,5.504182021558502447e-01,6.974257832635871734e-01,2.226357178781076698e+02
6.702172752117279586e+00,-3.739076246469451803e+01,-1.939532464747941987e+01,-4.656813295991667490e-01,5.523520771477177238e-01,6.914087663125638716e-01,2.244410992845459418e+02
6.861103622162592508e+00,-3.801429217360063006e+01,-1.984150566227759427e+01,-4.723729821869965262e-01,5.542388609894193241e-01,6.853328028552436724e-01,2.262464806909842139e+02
6.985263418759601883e+00,-3.853983061110080399e+01,-2.022108868057959796e+01,-4.790243622879857277e-01,5.560783928224395378e-01,6.791984109014923554e-01,2.277728269828524503e+02
7.100515133914932164e+00,-3.906371303972865405e+01,-2.060248680985540304e+01,-4.856349028353481034e-01,5.578705158167430733e-01,6.730061134424976110e-01,2.292991732747206868e+02
7.206938629797783769e+00,-3.958563236002905228e+01,-2.098556907175277075e+01,-4.922040402440874818e-01,5.596150771841434945e-01,6.667564384061814842e-01,2.308255195665889232e+02
7.304587705657644037e+00,-4.010527825181046779e+01,-2.137019814690285457e+01,-4.987312144590459462e-01,5.613119281913305780e-01,6.604499186121920440e-01,2.323518658584571597e+02
7.393211451420297564e+00,-4.062233277227869621e+01,-2.175622404588138181e+01,-5.052158690026502530e-01,5.629609241725486157e-01,6.540870917264792750e-01,2.338782121503253961e+02
7.486665383225726167e+00,-4.124194113204828227e+01,-2.222394153121188864e+01,-5.116574510223539374e-01,5.645619245419304377e-01,6.476685002154549675e-01,2.357203943000762081e+02
7.564447860940666679e+00,-4.185565225755078700e+01,-2.269352978781980923e+01,-5.180554113377697778e-01,5.661147928054831580e-01,6.411946912997471548e-01,2.375625764498270200e+02
7.627321220285103287e+00,-4.246278491243358388e+01,-2.316465752891652841e+01,-5.244092044874895109e-01,5.676193965727232005e-01,6.346662169075453219e-01,2.394047585995778320e+02
7.676109634806563164e+00,-4.306265456712715434e+01,-2.363697873047902576e+01,-5.307182887755870215e-01,5.690756075679651582e-01,6.280836336275481546e-01,2.412469407493286440e+02
7.710442310005497291e+00,-4.363841659817741458e+01,-2.409701320985097084e+01,-5.369821263177985138e-01,5.704833016412557134e-01,6.214475026615107200e-01,2.430381597588659872e+02
7.732307126306882772e+00,-4.420623767936285731e+01,-2.455744788914262244e+01,-5.432001830873816051e-01,5.718423587789591700e-01,6.147583897764000715e-01,2.448293787684033305e+02
7.742642778741076093e+00,-4.476549184102996293e+01,-2.501793391727831306e+01,-5.493719289606404654e-01,5.731526631139883809e-01,6.080168652561613873e-01,2.466205977779406737e+02
7.742572146020026302e+00,-4.531555175567775962e+01,-2.547810880648816934e+01,-5.554968377621227749e-01,5.744141029356830686e-01,6.012235038530993059e-01,2.484118167874780170e+02
7.733336534743128432e+00,-4.584428877833298799e+01,-2.592764382229675135e+01,-5.615743873094773964e-01,5.756265706993332065e-01,5.943788847388775665e-01,2.501642124378294341e+02
7.716099841792787295e+00,-4.636323709178005004e+01,-2.637615060618048446e+01,-5.676040594579728760e-01,5.767899630353484630e-01,5.874835914551421734e-01,2.519166080881808512e+02
7.692180631373533473e+00,-4.687181133323505833e+01,-2.682324692632824537e+01,-5.735853401446707744e-01,5.779041807580699297e-01,5.805382118637733013e-01,2.536690037385322682e+02
7.663874787305850589e+00,-4.735611613181641388e+01,-2.725640896173409189e+01,-5.795177194322520542e-01,5.789691288742263575e-01,5.735433380967660533e-01,2.553735019126669386e+02
7.632250063314384825e+00,-4.782979702788951215e+01,-2.768751891500588158e+01,-5.854006915524911925e-01,5.799847165910335667e-01,5.664995665057507290e-01,2.570780000868015804e+02
7.599425333036495367e+00,-4.829233165816077644e+01,-2.811620065067644347e+01,-5.912337549493745792e-01,5.809508573239333673e-01,5.594074976111501618e-01,2.587824982609362223e+02
7.567632947994987980e+00,-4.874320079027425834e+01,-2.854206583814999831e+01,-5.970164123218608676e-01,5.818674687039767646e-01,5.522677360509834488e-01,2.604869964350708642e+02
7.537586665223443561e+00,-4.920428344613612381e+01,-2.898677222051161451e+01,-6.027481706662770611e-01,5.827344725848454532e-01,5.450808905293192952e-01,2.622813080703589890e+02
7.513661923188744929e+00,-4.965051648496416448e+01,-2.942719649359155554e+01,-6.084285413183500024e-01,5.835517950495147099e-01,5.378475737643799715e-01,2.640756197056471137e+02
7.499136633807720997e+00,-5.008127342380418412e+01,-2.986281698615309210e+01,-6.140570399948664937e-01,5.843193664165547974e-01,5.305684024363057638e-01,2.658699313409352385e+02
7.497232816953472323e+00,-5.049593441943024885e+01,-3.029309618332739262e+01,-6.196331868349604921e-01,5.850371212460718784e-01,5.232439971345811403e-01,2.676642429762233633e+02
7.510700882806434109e+00,-5.089822877086769637e+01,-3.072224706722902354e+01,-6.251565064410233852e-01,5.857049983452873310e-01,5.158749823051257399e-01,2.694790839320903615e+02
7.542215355930051324e+00,-5.128257293306722886e+01,-3.114467151212738472e+01,-6.306265279192339035e-01,5.863229407737544641e-01,5.084619861970591792e-01,2.712939248879573597e+02
7.606017826164833018e+00,-5.169934517743536873e+01,-3.162023262101193311e+01,-6.360427849197036743e-01,5.868908958482135230e-01,5.010056408091407842e-01,2.733795550726703141e+02
7.703525309171304514e+00,-5.208670959438202885e+01,-3.208349714520994667e+01,-6.414048156762350850e-01,5.874088151470828745e-01,4.935065818358878587e-01,2.754651852573832684e+02
7.805557749021915015e+00,-5.237942922043756511e+01,-3.244888851930897999e+01,-6.467121630456899029e-01,5.878766545145878153e-01,4.859654486133819229e-01,2.771503241305571805e+02
7.925934951020464858e+00,-5.265558295182687232e+01,-3.280658505583880213e+01,-6.519643745469623219e-01,5.882943740645250053e-01,4.783828840647618708e-01,2.788354630037310926e+02
8.064142802939000987e+00,-5.291464490708763435e+01,-3.315601534613814039e+01,-6.571610023995544392e-01,5.886619381836631915e-01,4.707595346454133689e-01,2.805206018769050047e+02
8.220773202116623324e+00,-5.315797126732808664e+01,-3.349940462825394860e+01,-6.623016035617529385e-01,5.889793155347792242e-01,4.630960502878548324e-01,2.822201010611022980e+02
8.394053658955995090e+00,-5.338263098030007825e+01,-3.383307223551848608e+01,-6.673857397683991000e-01,5.892464790593306967e-01,4.553930843463299127e-01,2.839196002452995913e+02
8.583446561505123640e+00,-5.358804188795050294e+01,-3.415637475077947016e+01,-6.724129775682539112e-01,5.894634059797627668e-01,4.476512935411053884e-01,2.856190994294968846e+02
8.816639648960560294e+00,-5.379411795486934267e+01,-3.450675678817159309e+01,-6.773828883609510632e-01,5.896300778014499366e-01,4.398713379024838388e-01,2.875356173344138142e+02
9.071201252355036715e+00,-5.397061486800501484e+01,-3.484023722887598495e+01,-6.822950484335383869e-01,5.897464803142736800e-01,4.320538807145334892e-01,2.894521352393307438e+02
9.315601811140306054e+00,-5.410382489770568526e+01,-3.512369048588656995e+01,-6.871490389966001811e-01,5.898126035938340284e-01,4.241995884585411103e-01,2.911639216021561083e+02
9.574928981909497594e+00,-5.421469488547958804e+01,-3.539354907326750777e+01,-6.919444462199618728e-01,5.898284420022956720e-01,4.163091307561914145e-01,2.928757079649814727e+02
9.664740809866330551e+00,-5.424771209346942413e+01,-3.548151348779082781e+01,-6.966808612679710189e-01,5.897939941888694637e-01,4.083831803124799431e-01,2.934503363860486616e+02
9.926315343438190553e+00,-5.433018315245310248e+01,-3.572415697388142775e+01,-7.013578803343523127e-01,5.897092630899277710e-01,4.004224128583624420e-01,2.950832174921559385e+02
1.019798596677692792e+01,-5.439190799496006434e+01,-3.595339355444070861e+01,-7.059751046766347127e-01,5.895742559287542317e-01,3.924275070931455001e-01,2.967160985982632155e+02
1.047731441794616281e+01,-5.443226112698872754e+01,-3.616849954988290250e+01,-7.105321406501460269e-01,5.893889842149291347e-01,3.843991446266262768e-01,2.983489797043704925e+02
1.084298471979802869e+01,-5.444614735114642201e+01,-3.641908089299884210e+01,-7.150285997415734007e-01,5.891534637433474275e-01,3.763380099209808205e-01,3.004448179621692248e+02
1.121189801229531646e+01,-5.441114575835926104e+01,-3.663622198006932962e+01,-7.194640986020854889e-01,5.888677145928732370e-01,3.682447902324133548e-01,3.025406562199679570e+02
1.153343727910319316e+01,-5.434133928825303883e+01,-3.679919108050587084e+01,-7.238382590800165328e-01,5.885317611246287939e-01,3.601201755525633708e-01,3.043780171839029549e+02
1.184854091883536320e+01,-5.423636965490977246e+01,-3.693695293643925481e+01,-7.281507082531042396e-01,5.881456319799172050e-01,3.519648585496817361e-01,3.062153781478379528e+02
1.215189290114052234e+01,-5.409505106107793893e+01,-3.704821543887069168e+01,-7.324010784602850155e-01,5.877093600777820726e-01,3.437795345095783217e-01,3.080527391117729508e+02
1.243744021852231363e+01,-5.391593465712555400e+01,-3.713170477451330243e+01,-7.365890073330378929e-01,5.872229826122002949e-01,3.355649012763460282e-01,3.098919162615485448e+02
1.269870782428900924e+01,-5.369784593139642936e+01,-3.718593362435536420e+01,-7.407141378262799281e-01,5.866865410489128241e-01,3.273216591928670427e-01,3.117310934113241387e+02
1.293086579159972516e+01,-5.343948370991624586e+01,-3.720955138409775032e+01,-7.447761182488052967e-01,5.861000811218888273e-01,3.190505110411055445e-01,3.135702705610997327e+02
1.311609570943121916e+01,-5.316816151221094344e+01,-3.720435679870412571e+01,-7.487746022932696421e-01,5.854636528294286935e-01,3.107521619821934644e-01,3.152534647345256644e+02
1.327482243275375851e+01,-5.286409010598817559e+01,-3.717370302249398151e+01,-7.527092490657147916e-01,5.847773104299002211e-01,3.024273194963119082e-01,3.169366589079515961e+02
1.340555491525658027e+01,-5.252632223817411017e+01,-3.711662966856057011e+01,-7.565797231146322854e-01,5.840411124371147622e-01,2.940766933223766255e-01,3.186198530813775278e+02
1.350609466888587207e+01,-5.215388728315461719e+01,-3.703214956253192724e+01,-7.603856944595630551e-01,5.832551216153387674e-01,2.857009953975290784e-01,3.203030472548034595e+02
1.357091669970604286e+01,-5.178484711469448598e+01,-3.693152986732206955e+01,-7.641268386192292539e-01,5.824194049739431778e-01,2.773009397964416589e-01,3.218368154976241158e+02
1.361052924027861444e+01,-5.138816966326451308e+01,-3.680871632380166147e+01,-7.678028366392000148e-01,5.815340337616913269e-01,2.688772426704395535e-01,3.233705837404447720e+02
1.362462712394144226e+01,-5.096316772855226418e+01,-3.666301948073219563e+01,-7.714133751190829225e-01,5.805990834606653550e-01,2.604306221864460813e-01,3.249043519832654283e+02
1.361282811287217243e+01,-5.050914834726982150e+01,-3.649374092516418244e+01,-7.749581462392450826e-01,5.796146337798315784e-01,2.519617984657561705e-01,3.264381202260860846e+02
1.357404297669666349e+01,-5.002540608388179777e+01,-3.630016417640484150e+01,-7.784368477870557967e-01,5.785807686482451473e-01,2.434714935226428012e-01,3.279718884689067409e+02
1.350712076203766365e+01,-4.951122615408208105e+01,-3.608156380128333041e+01,-7.818491831826527294e-01,5.774975762078962127e-01,2.349604312028024389e-01,3.295056567117273971e+02
1.337426935004478779e+01,-4.880717389450060040e+01,-3.576139945466203329e+01,-7.851948615042272372e-01,5.763651488061949379e-01,2.264293371216445916e-01,3.314514830423502190e+02
1.318084301731485297e+01,-4.803775458206796856e+01,-3.538680885702353862e+01,-7.884735975128286389e-01,5.751835829880999063e-01,2.178789386024292951e-01,3.333973093729730408e+02
1.292439804269884895e+01,-4.720106128944118495e+01,-3.495584515629859368e+01,-7.916851116766815410e-01,5.739529794878873714e-01,2.093099646142602688e-01,3.353431357035958627e+02
1.263112950783850330e+01,-4.636679631941306212e+01,-3.450667595790078224e+01,-7.948291301950189958e-01,5.726734432205643488e-01,2.007231457099370175e-01,3.371450062663768108e+02
1.228541191977049785e+01,-4.547606628872142664e+01,-3.400970381207329751e+01,-7.979053850214258281e-01,5.713450832729243256e-01,1.921192139636722085e-01,3.389468768291577589e+02
1.188586388419395057e+01,-4.452742250048267181e+01,-3.346343449389527080e+01,-8.009136138866923549e-01,5.699680128942478108e-01,1.834989029086789569e-01,3.407487473919387071e+02
1.151224933620434321e+01,-4.369015409190349430e+01,-3.296956124998069271e+01,-8.038535603211738323e-01,5.685423494866483907e-01,1.748629474746341839e-01,3.422586678572885148e+02
1.110667510334439001e+01,-4.281701808718185021e+01,-3.244502302136947236e+01,-8.067249736766577417e-01,5.670682145950634023e-01,1.662120839250223192e-01,3.437685883226383226e+02
1.066888018724888632e+01,-4.190728310541155821e+01,-3.188905318400932032e+01,-8.095276091477333624e-01,5.655457338968934433e-01,1.575470497943660120e-01,3.452785087879881303e+02
1.014820429515035904e+01,-4.086170518833549181e+01,-3.123857825702826574e+01,-8.122612277926629654e-01,5.639750371912879423e-01,1.488685838253474558e-01,3.469386984345326255e+02
9.584831313159037691e+00,-3.976561379834144105e+01,-3.054416414937674418e+01,-8.149255965537546276e-01,5.623562583880794552e-01,1.401774259058277128e-01,3.485988880810771207e+02
8.979535126627400388e+00,-3.861792109340847645e+01,-2.980464847779086668e+01,-8.175204882772320047e-01,5.606895354963685740e-01,1.314743170057677546e-01,3.502590777276216158e+02
8.296431969306523158e+00,-3.734970557852075501e+01,-2.897369923879071152e+01,-8.200456817326016168e-01,5.589750106127585605e-01,1.227599991140571889e-01,3.520088635867855942e+02
7.568098244365141447e+00,-3.601860588548279907e+01,-2.808712193347125208e+01,-8.225009616315143157e-01,5.572128299092411474e-01,1.140352151752564575e-01,3.537586494459495725e+02
6.797413869263484898e+00,-3.462327981525924514e+01,-2.714343762228713075e+01,-8.248861186461212691e-01,5.554031436207358396e-01,1.053007090262572387e-01,3.555084353051135508e+02
5.954039114383073539e+00,-3.310109064182595517e+01,-2.609845409746549194e+01,-8.272009494269209062e-01,5.535461060322823812e-01,9.655722533286711928e-02,3.573283425339731707e+02
5.072343734511600033e+00,-3.150373195244815605e+01,-2.498579624288976930e+01,-8.294452566200970489e-01,5.516418754658874990e-01,8.780550952632278083e-02,3.591482497628327906e+02
4.309588157891430349e+00,-3.010910565470947375e+01,-2.400312285056813622e+01,-8.316188488843444526e-01,5.496906142670285877e-01,7.904630773973880808e-02,3.606746455612080240e+02
3.531727183030380690e+00,-2.866803360189931738e+01,-2.297857776460912760e+01,-8.337215409071836447e-01,5.476924887908126705e-01,7.028036674449592014e-02,3.622010413595832574e+02
2.742217603900848566e+00,-2.717977163317019418e+01,-2.191126862706459733e+01,-8.357531534207603974e-01,5.456476693877951867e-01,6.150843388657532135e-02,3.637274371579584908e+02
1.157152508201688690e+00,-2.403343755036260987e+01,-1.960571622394742874e+01,-8.377135132171305010e-01,5.435563303894578313e-01,5.273125702284360561e-02,3.667233625326052788e+02
8.858777550996178585e-01,-2.347186211696173430e+01,-1.918781367426817397e+01,-8.396024531630275067e-01,5.414186500933455548e-01,4.394958445729423013e-02,3.672284575757428229e+02
-2.823275114690870780e-01,-2.096628313650631981e+01,-1.730866318036062168e+01,-8.414198122141128833e-01,5.392348107478677210e-01,3.516416487725083223e-02,3.694131690822193832e+02
-1.432149315896761754e+00,-1.831479155058423558e+01,-1.529159732594675702e+01,-8.431654354287073661e-01,5.370049985367602030e-01,2.637574728953787778e-02,3.715978805886959435e+02
-2.513579731712010101e+00,-1.559343639684274763e+01,-1.319439080275782850e+01,-8.448391739810015011e-01,5.347294035632135234e-01,1.758508095662388374e-02,3.737239837334024060e+02
-3.535553334368397138e+00,-1.273229437650473628e+01,-1.096303468196172304e+01,-8.464408851737448281e-01,5.324082198336663740e-01,8.792915332742984313e-03,3.758500868781088684e+02
-4.541027645688939351e+00,-9.465683634160118487e+00,-8.383665282106182559e+00,-8.479704324504127033e-01,5.300416452412660684e-01,0.000000000000000000e+00,3.781531696799910947e+02
-5.420282560532837302e+00,-5.902968843332772941e+00,-5.533166521362060664e+00,-6.799996278746924026e-05,-9.702994690100207043e-02,9.952804553393407305e-01,3.805275593676896619e+02
-5.983471882408506914e+00,-2.719136517655618146e+00,-2.897041244375406777e+00,3.421418352598334378e-01,-8.417995946762681439e-03,9.396095475810980480e-01,3.825859711819858262e+02
-6.278236804015806527e+00,-1.998167988244591367e-02,-5.646973993349797549e-01,0.000000000000000000e+00,5.892782266477543107e-01,-8.079289396966804482e-01,3.843477663807043427e+02
-6.411294665501078960e+00,2.614820484478696194e+00,1.737992305816603800e+00,9.421051217398948019e-01,0.000000000000000000e+00,-3.353146874090737195e-01,3.861095615794228593e+02
-6.401051307146703451e+00,5.185654852597249231e+00,3.964157107501796062e+00,-5.300915303213327157e-01,-8.479392486977183063e-01,-0.000000000000000000e+00,3.878713567781413758e+02
-6.092676380284689053e+00,8.924363123474376991e+00,7.152212422176789985e+00,4.157246280579249276e-01,9.043401909015138518e-01,9.664291353515434835e-02,3.905416662036265052e+02
-5.758382746641031780e+00,1.107002264348042253e+01,8.954046613402285359e+00,0.000000000000000000e+00,-9.950534475057215555e-01,-9.933094484740610797e-02,3.921377518445078181e+02
-5.356791344101710095e+00,1.316912634558288353e+01,1.070274893611333766e+01,-3.571165318403022315e-01,-5.924852232851789413e-01,-7.220990533687340340e-01,3.937338374853891310e+02
-4.774876294688814582e+00,1.568371329964482364e+01,1.277620639248400636e+01,9.334680231828016428e-01,2.330827560931503784e-01,2.725947147463020359e-01,3.956998775320587924e+02
-4.104491554695375299e+00,1.811378583897425543e+01,1.475447680717322108e+01,-4.499992964605684142e-04,3.515004504559695042e-01,9.361865363440591281e-01,3.976659175787284539e+02
-3.301339596434784696e+00,2.063138323088945825e+01,1.677483823486974401e+01,9.999988887620367353e-07,-4.977924468335205299e-01,-8.672950362277593861e-01,3.997808184345842051e+02
-2.429361151132007013e+00,2.304717510329087560e+01,1.868246335930265190e+01,0.000000000000000000e+00,-9.695091808008918233e-02,9.952881590186164473e-01,4.018957192904399562e+02
-1.673057696507588288e+00,2.496834517590650648e+01,2.017828466142109178e+01,7.364161080998413711e-01,-4.016585135368604398e-01,-5.443893406703982363e-01,4.036386057486217851e+02
-8.936612077311691937e-01,2.683378245881153035e+01,2.161395898200887444e+01,8.849408409600695302e-01,2.539496673926762080e-02,-4.650083909612166000e-01,4.053814922068036140e+02
-9.740393841868297264e-02,2.864432182432175367e+01,2.299079322864697872e+01,4.789225235544636305e-01,-2.317097694886333936e-01,8.467241576550994520e-01,4.071243786649854428e+02
9.195578220425201232e-01,3.083463385043873828e+01,2.462941642970202949e+01,1.270998420254843692e-03,1.158168560492960075e-01,9.932687654496684670e-01,4.093164075096505599e+02
1.945103854644298247e+00,3.292095377813277679e+01,2.615678341961282882e+01,4.606684729583455096e-01,4.802354505721548317e-01,7.464291460252324706e-01,4.115084363543156769e+02
3.263932225871764015e+00,3.544223346398655394e+01,2.794438634616141925e+01,7.364161080999306330e-01,-4.016585135369092341e-01,-5.443893406704642945e-01,4.143394460944676894e+02
4.130994153464838448e+00,3.701512694900377198e+01,2.902365318980094244e+01,0.000000000000000000e+00,1.466999104715206899e-02,9.998913897831612774e-01,4.162202302066826292e+02
4.852586202369387536e+00,3.829060713597547050e+01,2.988337566945533297e+01,-0.000000000000000000e+00,-9.705539409184080757e-01,-2.408797371487717276e-01,4.177986149269111706e+02
5.567083223514696755e+00,3.952970600716248128e+01,3.070595074014832804e+01,-0.000000000000000000e+00,-7.950793855539146915e-02,9.968332296363271450e-01,4.193769996471397121e+02
6.272529573924251700e+00,4.073300997070063545e+01,3.149215115106750318e+01,9.421051217398738187e-01,-0.000000000000000000e+00,-3.353146874090662255e-01,4.209553843673682536e+02
6.967173020354035629e+00,4.190110781990851763e+01,3.224274165744338205e+01,-3.179997568430652862e-04,9.704192579737341839e-02,9.952792389646732962e-01,4.225337690875967951e+02
7.679693848442300741e+00,4.308510434086552010e+01,3.298970655867903190e+01,-9.796745246597445833e-01,0.000000000000000000e+00,2.005886979235721734e-01,4.241847532976448747e+02
8.375468678852236337e+00,4.423031719877251078e+01,3.369766724979348282e+01,8.965938298707433196e-01,2.929696176503679417e-02,-4.418814233081199139e-01,4.258357375076929543e+02
9.053130729792883358e+00,4.533745963337757701e+01,3.436751060192502649e+01,8.649910223441611423e-01,4.315195122752030904e-02,4.999264349582995814e-01,4.274867217177410339e+02
9.711522408396353612e+00,4.640724426470859498e+01,3.500011320491232425e+01,0.000000000000000000e+00,2.192496970816409235e-02,-9.997586187199147822e-01,4.291377059277891135e+02
1.040728048223742697e+01,4.753480348708652770e+01,3.564912542625028635e+01,-9.359985444558210910e-04,-1.157798199541612838e-01,9.932734553892689222e-01,4.309456491506165889e+02
1.107378004080723954e+01,4.861554043963802485e+01,3.625158889419112285e+01,-0.000000000000000000e+00,1.466999104705709288e-02,9.998913897766879000e-01,4.327535923734440644e+02
1.170966465525259714e+01,4.965047266129962367e+01,3.680870356952323874e+01,-0.000000000000000000e+00,1.173078338862832276e-01,9.930945937287509739e-01,4.345615355962715398e+02
1.221842131466631720e+01,5.048315901967156805e+01,3.724272845135791954e+01,5.752485914330400796e-01,0.000000000000000000e+00,-8.179774190363046094e-01,4.360720957677014553e+02
1.270807593813081837e+01,5.128990392216429228e+01,3.765152547908169822e+01,0.000000000000000000e+00,1.466999104714414130e-02,9.998913897826209318e-01,4.375826559391313708e+02
1.317830474290009235e+01,5.207119878237705990e+01,3.803565557005619269e+01,-0.000000000000000000e+00,1.466699168405755267e-02,9.998914330780442894e-01,4.390932161105612863e+02
1.362886568011296795e+01,5.282753211089500667e+01,3.839567154352852185e+01,-8.471320701136050291e-01,-2.337197434487285619e-01,4.772214761598884691e-01,4.406037762819912018e+02
1.425082298085268029e+01,5.389819222259834675e+01,3.887654421051554721e+01,9.360262369455585318e-01,-2.510647953304088742e-01,2.466157989572585751e-01,4.428572311856444799e+02
1.480188583631228383e+01,5.489169385269611467e+01,3.928189445416875714e+01,2.505768424026739716e-01,-9.347684120885201287e-01,2.518278416158728494e-01,4.451106860892977579e+02
1.519535060553652706e+01,5.563497904635048741e+01,3.955735876989750466e+01,0.000000000000000000e+00,8.052988517103192370e-03,-9.999665741302179445e-01,4.469081891462044496e+02
1.555296562560740625e+01,5.634090620792862580e+01,3.979677605411016827e+01,5.328913625199909188e-01,-5.120993873927311493e-03,8.461669877588998689e-01,4.487056922031111412e+02
1.587459292981210623e+01,5.701041525176626124e+01,4.000113640187439046e+01,6.355972790748136703e-01,2.092487626599291717e-01,7.431211571160286633e-01,4.505031952600178329e+02
1.616030434641649904e+01,5.764443868418985772e+01,4.017141108216641499e+01,0.000000000000000000e+00,-9.967539354453578415e-01,8.049591402863243150e-02,4.523006983169245245e+02
1.640383572731103357e+01,5.822824159392352072e+01,4.030560749187615954e+01,9.334680231831016251e-01,2.330827560932252629e-01,2.725947147463896325e-01,4.540486153051133442e+02
1.661385734997073627e+01,5.878104742237798774e+01,4.041013303676437829e+01,0.000000000000000000e+00,-5.697617808904831271e-01,-8.218086839624738626e-01,4.557965322933021639e+02
1.679090513700320386e+01,5.930367210956653423e+01,4.048580559445598226e+01,8.847879010088904872e-01,3.147796090136501662e-02,-4.649274225157200569e-01,4.575444492814909836e+02
1.693540230730102891e+01,5.979692233033942017e+01,4.053342411747065199e+01,0.000000000000000000e+00,2.016697227948706372e-02,9.997956257308637795e-01,4.592923662696798033e+02
1.704681159468590579e+01,6.026159157818153744e+01,4.055374945763531258e+01,-0.000000000000000000e+00,0.000000000000000000e+00,-9.999989999515355166e-01,4.610402832578686230e+02
1.713157353480544387e+01,6.079587412486105080e+01,4.053721078069624184e+01,8.370268619317405845e-01,-1.940497361591897452e-01,5.115943044079396262e-01,4.632146124760731709e+02
1.715110367395849522e+01,6.127870544274308884e+01,4.047140595937690222e+01,9.703928888889405968e-01,2.415277234479686064e-01,0.000000000000000000e+00,4.653889416942777189e+02
1.713150402965496966e+01,6.158809987403370911e+01,4.040108870518955797e+01,-9.546707119056779822e-01,0.000000000000000000e+00,-2.976605983799210375e-01,4.668978939869770670e+02
1.708989916458265768e+01,6.188136323607839273e+01,4.031523096362768399e+01,3.588155418937498120e-01,-5.920762440856195408e-01,-7.215920787304261896e-01,4.684068462796764152e+02
1.702537016819185212e+01,6.215892203895457158e+01,4.021420416761707628e+01,9.999988887656806710e-07,-4.977924468353345233e-01,-8.672950362309198580e-01,4.699157985723757633e+02
1.693731822838355328e+01,6.242120549900484150e+01,4.009837984545516321e+01,-7.142513392295322117e-01,-6.601633892675482507e-01,-2.324377849664180373e-01,4.714247508650751115e+02
1.682546463514098534e+01,6.266864439698161249e+01,3.996812961846625711e+01,-7.270129289260844896e-01,2.249116686482289518e-01,6.487410442403667155e-01,4.729337031577744597e+02
1.668985078212866213e+01,6.290166993618234414e+01,3.982382519865641513e+01,-9.986869598536209924e-01,-5.120894666516877941e-02,0.000000000000000000e+00,4.744426554504738078e+02
1.653083816625898450e+01,6.312071260058276323e+01,3.966583838636783099e+01,5.328913625203616222e-01,-5.120993873930874615e-03,8.461669877594885092e-01,4.759516077431731560e+02
1.634116928347069830e+01,6.333358758034449210e+01,3.948739081690108321e+01,0.000000000000000000e+00,-2.786296520867598964e-02,9.996107518276934334e-01,4.775188745708272791e+02
1.612719232215290788e+01,6.353174539326431614e+01,3.929446727602636003e+01,7.342455860439367488e-01,2.131448798322836125e-01,6.445546366102772318e-01,4.790861413984814021e+02
1.589046671278601686e+01,6.371567631731594616e+01,3.908750073027633931e+01,0.000000000000000000e+00,1.080298527117454360e-01,9.941466445772128013e-01,4.806534082261355252e+02
1.563293868800550790e+01,6.388586413527831098e+01,3.886692424137720536e+01,8.220322628904948026e-01,6.371394286823642283e-02,-5.658634925949043160e-01,4.822206750537896482e+02
1.535694126905662493e+01,6.404278470164283021e+01,3.863317096330129630e+01,8.088332836518414837e-01,-2.128178115165999251e-01,-5.481745145058789515e-01,4.837879418814437713e+02
1.506457160878962398e+01,6.418689977732691432e+01,3.838666405130589965e+01,9.968779763709071373e-01,-0.000000000000000000e+00,-7.894491893660240955e-02,4.853552087090978944e+02
1.475706129851248249e+01,6.431865394908044209e+01,3.812780657104021742e+01,4.595995113955476663e-01,-5.348094314391924620e-01,-7.090452462075010898e-01,4.869224755367520174e+02
1.443538844353394346e+01,6.443848259047531712e+01,3.785699158381643770e+01,-6.476833636047828469e-01,2.256807782524981321e-01,-7.277172849657322917e-01,4.884897423644061405e+02
1.410089677821105880e+01,6.454681677308798271e+01,3.757461223194906097e+01,0.000000000000000000e+00,-9.968312352734544080e-01,-7.953293898571038578e-02,4.900570091920602636e+02
1.375529565656528952e+01,6.464408191184580232e+01,3.728106173608028939e+01,0.000000000000000000e+00,-9.978448058454771896e-01,-6.560292149077194546e-02,4.916242760197143866e+02
1.340066004039410963e+01,6.473069641041296052e+01,3.697673339250501812e+01,-4.199765354728830502e-01,-5.494543922601784480e-01,-7.223002010791040872e-01,4.931915428473685097e+02
1.288235332216790141e+01,6.483175967402161177e+01,3.652057802164053157e+01,-8.368809030199536592e-01,4.998393448126421668e-02,-5.450962854900305299e-01,4.954266676423670219e+02
1.235463862288006354e+01,6.490359189309154431e+01,3.603600919068133379e+01,-8.479215792514974703e-01,7.119020782225456145e-02,-5.253179511032159965e-01,4.976617924373655342e+02
1.182547145182422987e+01,6.494771239015038589e+01,3.552466538968320009e+01,-8.581458878713130733e-01,9.232794071542684000e-02,-5.050338468797782587e-01,4.998965018445167061e+02
1.130096157675758128e+01,6.496557014094194926e+01,3.498794485901761675e+01,-8.675439849901938061e-01,1.133767820369798035e-01,-4.842635020354404407e-01,5.021312112516678781e+02
1.073246568557707192e+01,6.495474417016878022e+01,3.436703994025335618e+01,-8.761068221794365840e-01,1.343164662414763344e-01,-4.630269139352253815e-01,5.045951062264240363e+02
1.038331872696077340e+01,6.493422162987438639e+01,3.396708824089458290e+01,-8.838261551833506147e-01,1.551268328731411072e-01,-4.413445288409750811e-01,5.061295306835615975e+02
1.003700250581766085e+01,6.490672892823496909e+01,3.356010173048533574e+01,-8.906945518572717546e-01,1.757878459760091328e-01,-4.192372222264586501e-01,5.076639551406991586e+02
9.693902064219484416e+00,6.487253361211192271e+01,3.314636930563617057e+01,-8.967053993237227294e-01,1.962796133842554525e-01,-3.967262786792032925e-01,5.091983795978367198e+02
9.354363493671344898e+00,6.483189593370272519e+01,3.272617384336651725e+01,-9.018529103398251756e-01,2.165824058741335767e-01,-3.738333714083966752e-01,5.107328040549742809e+02
9.018386163682606593e+00,6.478506394086738851e+01,3.229978613598678550e+01,-9.061321288698273024e-01,2.366766761590834434e-01,-3.505805413785846314e-01,5.122672285121118421e+02
8.685912369199009220e+00,6.473228017989447380e+01,3.186747095261040741e+01,-9.095389348573773569e-01,2.565430777097201243e-01,-3.269901760892522380e-01,5.138016529692494032e+02
8.320329888316035039e+00,6.466632443716555656e+01,3.137904158019612311e+01,-9.120700481929395753e-01,2.761624833805831347e-01,-3.030849880207132085e-01,5.155103037859190636e+02
7.960530926436511834e+00,6.459268758215490891e+01,3.088321501888678355e+01,-9.137230318725313438e-01,2.955160038257103605e-01,-2.788879927670609438e-01,5.172189546025887239e+02
7.607594729635501096e+00,6.451173672793650837e+01,3.038039831836321980e+01,-9.144962943447292325e-01,3.145850056853054522e-01,-2.544224868772282377e-01,5.189276054192583842e+02
7.262654805415380999e+00,6.442382621176008684e+01,2.987098859034284004e+01,-9.143890910436845987e-01,3.333511295259870000e-01,-2.297120254254933769e-01,5.206362562359280446e+02
6.926531659826070886e+00,6.432929028319601628e+01,2.935536301132716730e+01,-9.134015251066599506e-01,3.517963075173431431e-01,-2.047803993330208350e-01,5.223449070525977049e+02
6.600071935591284245e+00,6.422845199354541990e+01,2.883388881360267675e+01,-9.115345472753949574e-01,3.699027808277713381e-01,-1.796516124622749289e-01,5.240535578692673653e+02
