2.859652402212082389e+00,1.609940420057290211e+01,5.933641925736661271e+00,8.088332836539643411e-01,-2.128178115171585061e-01,-5.481745145073176895e-01,1.220263351414535258e+01
3.112996658898141256e+00,1.606570585191160916e+01,5.879303444389819333e+00,-2.536699305360617940e-02,-1.472692864692994041e-01,-9.887700809220673070e-01,1.372170151974667540e+01
3.360420897064287260e+00,1.603101463224154344e+01,5.824905637097548272e+00,-8.368809030202472021e-01,4.998393448128175126e-02,-5.450962854902217103e-01,1.524076952534799823e+01
3.802904101640094403e+00,1.596148236297318412e+01,5.720227049646176454e+00,-9.986869598532424064e-01,-5.120894666514935745e-02,-0.000000000000000000e+00,1.815605956739700133e+01
4.025057262640507005e+00,1.592192312384614361e+01,5.662878969180296984e+00,-9.988257184451220239e-01,-4.046248523409008008e-02,2.660773311602949651e-02,1.974848370193529945e+01
4.236267860923260464e+00,1.588135101403270077e+01,5.605430710707627995e+00,-9.981419653263280400e-01,-2.968270468683108579e-02,5.319355315597162209e-02,2.134090783647359757e+01
4.435343833519479695e+00,1.583978096437507688e+01,5.547871802849885903e+00,-9.966362637503441979e-01,-1.887848192355858629e-02,7.973556733655287609e-02,2.293333197101189569e+01
4.621041331600700630e+00,1.579722753033251514e+01,5.490190003069796987e+00,-9.943098538182114643e-01,-8.058713965491529074e-03,1.062119189628468879e-01,2.452575610555019381e+01
4.830168650901287997e+00,1.574236604707794029e+01,5.417539806557736703e+00,-9.911646514563307031e-01,2.767689371329843436e-03,1.326008054259377178e-01,2.652533359334440988e+01
5.007235122232928326e+00,1.568591056960367069e+01,5.344595521915048941e+00,-9.872032468374419834e-01,1.359181281276417540e-02,1.588804961559389106e-01,2.852491108113862595e+01
5.055510205584977435e+00,1.566844338228004396e+01,5.322336735212217285e+00,-9.824289022464699483e-01,2.440474296773939566e-02,1.850293505155919671e-01,2.913362935672616416e+01
5.181815961241942325e+00,1.561681310218191676e+01,5.257321526944320311e+00,-9.768455493930022770e-01,3.519757566783080632e-02,2.110258356197170782e-01,3.090782960766502896e+01
5.281655484228674702e+00,1.556403694147802064e+01,5.192054392195287527e+00,-9.704577861726207955e-01,4.596142329920608477e-02,2.368485440658514574e-01,3.268202985860389020e+01
5.364374830354513790e+00,1.548726478003327856e+01,5.099364789939293097e+00,-9.632708728797620967e-01,5.668742212090256694e-02,2.624762115614824864e-01,3.518645707134481881e+01
5.374456226045810858e+00,1.541555360462167812e+01,5.015025999808542245e+00,-9.552907278752291731e-01,6.736673956341435177e-02,2.878877344333714561e-01,3.744802111816400725e+01
5.351940028356247936e+00,1.536562803322578930e+01,4.957261985217177092e+00,-9.465239227119313092e-01,7.799058150158279246e-02,3.130621870045583455e-01,3.898881665366430127e+01
5.310622600349194755e+00,1.531501477649581489e+01,4.899290152622282513e+00,-9.369776767228668035e-01,8.855019949580535121e-02,3.379788388247500497e-01,4.052961218916459529e+01
5.250562221378811678e+00,1.526369976984524435e+01,4.841100965532102229e+00,-9.266598510758113916e-01,9.903689799560401463e-02,3.626171717399123695e-01,4.207040772466488932e+01
5.161094737442930125e+00,1.520598515215205104e+01,4.776401359001888558e+00,-9.155789422996100102e-01,1.094420414996257751e-01,3.869568967870222753e-01,4.377617604217215330e+01
5.046335972194756714e+00,1.514723767724446368e+01,4.711380168555078463e+00,-9.037440752874025263e-01,1.197570616661835091e-01,4.109779709000780379e-01,4.548194435967941729e+01
4.906349454985232228e+00,1.508742886807271333e+01,4.646020597787669182e+00,-8.911649957825499291e-01,1.299734643684870294e-01,4.346606134136236643e-01,4.718771267718668128e+01
4.741442070282340993e+00,1.502652298549734589e+01,4.580302507982146665e+00,-8.778520623534421530e-01,1.400828366887578724e-01,4.579853223502050041e-01,4.889348099469394526e+01
4.523120678206616674e+00,1.495603260339040830e+01,4.505410797050449112e+00,-8.638162378637983529e-01,1.500768538454739509e-01,4.809328904783597425e-01,5.082457685872098807e+01
4.269846106647103845e+00,1.488369602542827508e+01,4.429929777755550191e+00,-8.490690804454823493e-01,1.599472860480444236e-01,5.034844211279284609e-01,5.275567272274803088e+01
4.046423426571749360e+00,1.482508724666892164e+01,4.369572443567187214e+00,-8.336227339812563031e-01,1.696860052732735713e-01,5.256213437496725094e-01,5.428935416995535945e+01
3.806142241016983618e+00,1.476562707260150020e+01,4.308868372578231742e+00,-8.174899181053133512e-01,1.792849919580389306e-01,5.473254292063959303e-01,5.582303561716268803e+01
3.746592007494072174e+00,1.475132258226732773e+01,4.294310617337289138e+00,-8.006839177298126220e-01,1.887363416026762164e-01,5.685788047829938296e-01,5.618967786719811386e+01
3.426973863046937296e+00,1.467710169320773694e+01,4.219390346726306973e+00,-7.832185721060357375e-01,1.980322712796372120e-01,5.893639689030677475e-01,5.806687395902331161e+01
3.071668952438554090e+00,1.459885370258604276e+01,4.141893364066667971e+00,-7.651082634291658247e-01,2.071651260420658835e-01,6.096638055400086520e-01,5.998797066354698160e+01
2.690349926994775931e+00,1.451804518439766412e+01,4.063452093769405415e+00,-7.463679049960647571e-01,2.161273852270181317e-01,6.294615983106798263e-01,6.190906736807065158e+01
2.346459889047093572e+00,1.444688381776810182e+01,3.995498432587493376e+00,-7.270129289257907246e-01,2.249116686481380523e-01,6.487410442401044808e-01,6.355435669480449690e+01
1.989856276839791605e+00,1.437402182729747580e+01,3.926819718677550863e+00,-9.802053495501704683e-01,1.537549789610440920e-01,1.247192012460401622e-01,6.519964602153834221e+01
1.622668529870904930e+00,1.429930557394921742e+01,3.857351984409867818e+00,-8.964331543918484524e-01,2.974197194430639249e-02,-4.421775828925261775e-01,6.684493534827218753e+01
1.117942261462902431e+00,1.419505790939058265e+01,3.762807413476982887e+00,-3.571165318403222710e-01,-5.924852232852122480e-01,-7.220990533687745572e-01,6.904568304185370664e+01
6.025433270885865999e-01,1.408448431180585558e+01,3.666004988433043454e+00,-7.142513392291447438e-01,-6.601633892671900927e-01,-2.324377849662919437e-01,7.124643073543522576e+01
2.172288062983781520e-01,1.399857157655629258e+01,3.592675360840760224e+00,-0.000000000000000000e+00,-2.786296520869972412e-02,9.996107518285449745e-01,7.288157932499296976e+01
-1.663113842464510606e-01,1.390996316374368114e+01,3.518259051925044290e+00,-9.546707119072135317e-01,-0.000000000000000000e+00,-2.976605983803998767e-01,7.451672791455071376e+01
-5.448784900747243309e-01,1.381842498308072820e+01,3.442689183155922095e+00,-8.471320701134303910e-01,-2.337197434486803505e-01,4.772214761597900479e-01,7.615187650410845777e+01
-8.920298559173646114e-01,1.372997657012657768e+01,3.370867572003117374e+00,-0.000000000000000000e+00,2.016697227948695617e-02,9.997956257308583394e-01,7.768280078376331232e+01
-1.229501662198605683e+00,1.363879025853697335e+01,3.297994956208357920e+00,-0.000000000000000000e+00,-9.967539354453673894e-01,8.049591402863320866e-02,7.921372506341816688e+01
-1.593031226918719678e+00,1.353227651769712914e+01,3.214576151476634891e+00,-9.796745246597646783e-01,-0.000000000000000000e+00,2.005886979235762813e-01,8.093663741242184528e+01
-1.933939813163690458e+00,1.342098032677695585e+01,3.129516393369577543e+00,5.328913625204214632e-01,-5.120993873931449676e-03,8.461669877595835443e-01,8.265954976142552368e+01
-2.248463423479873491e+00,1.330454516678795507e+01,3.042722260839071602e+00,0.000000000000000000e+00,-9.705539409184215094e-01,-2.408797371487751138e-01,8.438246211042920208e+01
-2.535741807962364369e+00,1.318269159503209664e+01,2.954072021689317040e+00,-0.000000000000000000e+00,1.080298527117748431e-01,9.941466445774833627e-01,8.610537445943288049e+01
-2.797192329076809258e+00,1.305518899633448804e+01,2.863446628776756153e+00,8.220322628904948026e-01,6.371394286823642283e-02,-5.658634925949043160e-01,8.782828680843655889e+01
-3.034872782184998563e+00,1.292181655057376410e+01,2.770738272840042260e+00,7.342455860441317039e-01,2.131448798323401783e-01,6.445546366104484282e-01,8.955119915744023729e+01
-3.280404921709563659e+00,1.275960947419489244e+01,2.660795753660668339e+00,0.000000000000000000e+00,-5.697617808903422398e-01,-8.218086839622708029e-01,9.153933715512734182e+01
-3.496446207623560731e+00,1.258750402063381912e+01,2.547299371022750947e+00,3.588155418931329166e-01,-5.920762440846016883e-01,-7.215920787291857375e-01,9.352747515281444635e+01
-3.691794996711080579e+00,1.239873309800435486e+01,2.426053260236895603e+00,6.355972790765830327e-01,2.092487626605116779e-01,7.431211571180973419e-01,9.558130081828336699e+01
-3.861854371835811595e+00,1.219821180004789696e+01,2.300472061228625797e+00,8.070894384528269905e-01,2.156484721564196350e-01,5.496365842950906577e-01,9.763512648375228764e+01
-3.997883587335526290e+00,1.200627469918341461e+01,2.182786108192581676e+00,9.245978787417875600e-01,2.076241144290616736e-01,3.193884621187476625e-01,9.949857698293118347e+01
-4.119741287263105178e+00,1.180504562848660832e+01,2.061569196866677167e+00,9.802627877293331737e-01,1.857124047255702959e-01,6.777735407011942215e-02,1.013620274821100793e+02
-4.213710425386471670e+00,1.162807360306127435e+01,1.956462914092307548e+00,9.703608602167933528e-01,1.513789416588803283e-01,-1.883672396727260057e-01,1.029371329879297292e+02
-4.301081996547345909e+00,1.144524267740972689e+01,1.849072541933486802e+00,8.955543658028030096e-01,1.069201832809880265e-01,-4.319125516802330145e-01,1.045122384937493791e+02
-4.395181396035559018e+00,1.122230078121972952e+01,1.719780061837185681e+00,7.608468749729684344e-01,5.530984614806088578e-02,-6.465685220942761768e-01,1.063603139060494271e+02
-4.480072136902158775e+00,1.098932425400825075e+01,1.586560528299376882e+00,5.752485914334335426e-01,0.000000000000000000e+00,-8.179774190368641618e-01,1.082083893183494752e+02
-4.548957486930936156e+00,1.077249584036234786e+01,1.464046270622478163e+00,9.703928888892788818e-01,2.415277234480527890e-01,0.000000000000000000e+00,1.098626880608249223e+02
-4.611613194223685319e+00,1.054812204743342896e+01,1.338536210801106519e+00,9.697955892164575875e-01,1.681527820750746138e-01,1.766894366336928812e-01,1.115169868033003695e+02
-4.669535894612589111e+00,1.030710243302765861e+01,1.205054315809059862e+00,9.337004112386365628e-01,8.862287241148472661e-02,3.469114131008129709e-01,1.132325929909867881e+02
-4.720147897187267461e+00,1.005309569225001098e+01,1.065787690795647835e+00,8.634285659263324364e-01,5.849059702097421203e-03,5.044352287898187237e-01,1.149755390244822024e+02
-4.761627040309886816e+00,9.789553723785466843e+00,9.226944416290280282e-01,7.615522386263113841e-01,-7.713885395508116027e-02,6.434949767130212495e-01,1.167184850579776167e+02
-4.793060358155166512e+00,9.516223826999418378e+00,7.756592914183395582e-01,6.318004413208069270e-01,-1.573032280445931241e-01,7.590005907735325463e-01,1.184614310914730311e+02
-4.812405518299353702e+00,9.264719675200636217e+00,6.414366189178137834e-01,4.789225235544178338e-01,-2.317097694886112447e-01,8.467241576550186277e-01,1.200141501763386742e+02
-4.823632307081095583e+00,9.005957314081655340e+00,5.042706963006643450e-01,2.494365143153851605e-01,-1.130405118714515600e-01,9.617698622858654733e-01,1.215668692612043174e+02
-4.826394198259468027e+00,8.739770711807009818e+00,3.640881106696962077e-01,0.000000000000000000e+00,1.466999104714234586e-02,9.998913897824985852e-01,1.231195883460699605e+02
-4.820296980979773771e+00,8.465991716479596363e+00,2.208150762418257529e-01,-4.690008155332768308e-04,-5.066311160103591921e-02,9.987146885619816450e-01,1.246723074309356036e+02
-4.804741115964294096e+00,8.184448637500070234e+00,7.437704179535883919e-02,-9.359985444585989254e-04,-1.157798199545048978e-01,9.932734553922167864e-01,1.262250265158012468e+02
-4.779081720589935856e+00,7.894966544728894142e+00,-7.530091578244606232e-02,-4.680772327676839908e-04,-9.766011392386267365e-02,9.952187111389561025e-01,1.277777456006668899e+02
-4.757536632494864470e+00,7.702642225758248529e+00,-1.743307748613450447e-01,-0.000000000000000000e+00,-7.950793855329252313e-02,9.968332296100117507e-01,1.287891956471853803e+02
-4.661437266829031145e+00,7.163498371980247192e+00,-4.493302690367216856e-01,-0.000000000000000000e+00,8.052988516998888652e-03,-9.999665741172660827e-01,1.314930740415271373e+02
-4.572597215644300661e+00,6.815467926293830025e+00,-6.249477336235021996e-01,-0.000000000000000000e+00,8.658371033325420463e-01,-5.003240025491776377e-01,1.331447388182745044e+02
-4.464873020539347870e+00,6.456835200657707219e+00,-8.048420040757258143e-01,-0.000000000000000000e+00,8.691557056549720217e-01,4.945365065386681525e-01,1.347964035950218715e+02
-4.336382548004488413e+00,6.087341875490142051e+00,-9.890991735505292315e-01,-0.000000000000000000e+00,1.466999104652524748e-02,9.998913897404376749e-01,1.364480683717692386e+02
-4.184848910601423277e+00,5.706722193443848568e+00,-1.177800944670161831e+00,6.363173009420184430e-04,6.532740806295922464e-02,9.978626783479113138e-01,1.380997331485166058e+02
-4.013712015761639940e+00,5.326666586158114391e+00,-1.365154649941768383e+00,1.270998420244483272e-03,1.158168560483519294e-01,9.932687654415717216e-01,1.397023360546264996e+02
-3.816831451305646272e+00,4.935926980312837387e+00,-1.556705399164132642e+00,0.000000000000000000e+00,1.466999104702475069e-02,9.998913897744834411e-01,1.413049389607363935e+02
-3.592013656108684394e+00,4.534243175692675543e+00,-1.752519831056805977e+00,-0.000000000000000000e+00,1.173078338862832276e-01,9.930945937287509739e-01,1.429075418668462873e+02
-3.338225841839747243e+00,4.121348302104035355e+00,-1.952675731971845297e+00,-6.238211832797262435e-01,1.492848777286115702e-01,7.671760922850208164e-01,1.445101447729561812e+02
-3.056844074199617900e+00,3.696976060810590159e+00,-2.157276446697521610e+00,-9.724029976102895878e-01,1.153950487749722947e-01,2.027668438288051378e-01,1.461127476790660751e+02
-2.709859711754241118e+00,3.205533430717413701e+00,-2.392871344696806180e+00,-8.919444569141613544e-01,3.059098137380792878e-02,-4.511067253307957103e-01,1.479125925835833755e+02
-2.333129098395204881e+00,2.697251014622574328e+00,-2.635132513656528896e+00,9.999988887671617081e-07,-4.977924468360717669e-01,-8.672950362322043860e-01,1.497124374881006759e+02
-1.910687510388907606e+00,2.144444527232099329e+00,-2.897042973291909185e+00,-8.875683493733037555e-01,2.518998153463395187e-02,-4.599846628109803826e-01,1.516033948563057550e+02
-1.466549092109429075e+00,1.572116930974075899e+00,-3.166472994364622373e+00,-0.000000000000000000e+00,1.466699169441214139e-02,9.998914337839467370e-01,1.534943522245108340e+02
-1.188245752200491223e+00,1.214334716413163484e+00,-3.334124541304758882e+00,2.505768424027117192e-01,-9.347684120886611270e-01,2.518278416159108191e-01,1.546492817387693890e+02
-5.494093113650790894e-01,3.839849096992191124e-01,-3.721328147418512255e+00,-2.403036737963788749e-01,-8.315884396735470085e-01,5.007123039844147971e-01,1.572381599301258746e+02
-3.533884958151182337e-02,-2.990253712534482466e-01,-4.038220115524355336e+00,-6.558360672327365748e-01,-4.676606359489008935e-01,5.925964752685004555e-01,1.592757807236200449e+02
4.798731163590056470e-01,-1.004172549773541645e+00,-4.364423352079693785e+00,-8.657284703651269009e-01,4.290397375223124060e-02,4.986696949241365973e-01,1.613134015171142153e+02
9.224461405978520157e-01,-1.630094201898190764e+00,-4.653432016916056568e+00,-9.873306227655554990e-01,1.147701004132537471e-02,1.582546036915934984e-01,1.630746862746346437e+02
1.359804151420930474e+00,-2.269771235802033438e+00,-4.948474557313990552e+00,-9.789433609086330978e-01,-2.146098598945412120e-02,-2.029958674765960924e-01,1.648359710321550722e+02
1.790014227447134676e+00,-2.922814750603962342e+00,-5.249555969722482729e+00,-9.494871525968816561e-01,-0.000000000000000000e+00,-3.138027199357540376e-01,1.665972557896755006e+02
2.338762286208574626e+00,-3.801472298439511732e+00,-5.655058922065882676e+00,-9.494871519336460786e-01,-0.000000000000000000e+00,-3.138027197165566551e-01,1.689064121708143489e+02
2.702676310944360338e+00,-4.415410427026135842e+00,-5.938785181943094571e+00,1.016999272028911057e-02,-9.999472842347744139e-01,-0.000000000000000000e+00,1.704833263511160624e+02
3.058429158439908147e+00,-5.038131713850964033e+00,-6.226830341371121236e+00,2.883107282157467699e-01,-5.998124345698628845e-01,-7.463912963931577105e-01,1.720602405314177759e+02
3.405653152098280234e+00,-5.669359951500979378e+00,-6.519184291471960435e+00,-8.555062347860323824e-01,6.122994523241628850e-02,-5.141575401079322427e-01,1.736371547117194893e+02
3.804162367847773840e+00,-6.427237952404862398e+00,-6.870985983040052147e+00,-0.000000000000000000e+00,-7.954388900879574287e-01,-6.060321543757858365e-01,1.755018574284269164e+02
4.188878114474160697e+00,-7.197842018429293276e+00,-7.229871836418954700e+00,-7.580441342002179894e-01,2.125597572249647224e-02,-6.518552554838002999e-01,1.773665601451343434e+02
4.560227644665808100e+00,-7.980617888552436590e+00,-7.595812848811332785e+00,5.646663325350368412e-01,-6.706362072731353319e-01,-4.810374313887459952e-01,1.792312628618417705e+02
4.871363804662355079e+00,-8.665896858223698374e+00,-7.917319668095748497e+00,0.000000000000000000e+00,1.466799147870281178e-02,9.998914191180195976e-01,1.808425461474889175e+02
5.174693117641243845e+00,-9.358515342687137917e+00,-8.243330115538265446e+00,4.817995167375235463e-03,-1.888798105466654720e-02,-9.998089971551334942e-01,1.824538294331360646e+02
5.471128239323146403e+00,-1.005816204292121974e+01,-8.573822373545180398e+00,0.000000000000000000e+00,-2.291096582971970108e-02,-9.997365089551880635e-01,1.840651127187832117e+02
5.761633460301515797e+00,-1.076452650123934340e+01,-8.908772624008719276e+00,1.014498516952561796e-02,-0.000000000000000000e+00,-9.999475382239499943e-01,1.856763960044303587e+02
6.047039250095594731e+00,-1.147729596677471342e+01,-9.248153080332013332e+00,-5.939584362336597367e-01,-8.044922364017139671e-01,-1.901998194684180249e-03,1.872876792900775058e+02
6.367603155340987087e+00,-1.229855167338202371e+01,-9.641224221945643436e+00,-2.327097549702372981e-01,-7.626911969307731409e-01,-6.034453646073216770e-01,1.891264312842747870e+02
6.677187295626827890e+00,-1.311006073416351825e+01,-1.003201734869218953e+01,-4.348255654856464925e-01,8.976721029703761401e-01,7.148092857023152780e-02,1.909254521062549657e+02
6.983962756728132604e+00,-1.392891399188508395e+01,-1.042883062856042642e+01,-9.089308576325502154e-01,-4.169444759735642103e-01,0.000000000000000000e+00,1.927244729282351443e+02
7.288910760082616846e+00,-1.475461986441116657e+01,-1.083159789472582979e+01,-9.089331001746141503e-01,-0.000000000000000000e+00,-4.169395872382412604e-01,1.945234937502153230e+02
7.603538634490765169e+00,-1.561581110843833997e+01,-1.125466961374460162e+01,-0.000000000000000000e+00,6.060361314472180183e-01,7.954358600052153783e-01,1.963850754527980484e+02
7.639429837215858221e+00,-1.571457429922817717e+01,-1.130336796558489176e+01,-0.000000000000000000e+00,5.332983833063933421e-01,8.459260217912043522e-01,1.965977098893566506e+02
8.009774307194415854e+00,-1.673859607405217176e+01,-1.181113461223804961e+01,-4.039896372715058581e-02,7.947932863822599892e-01,6.055324563130938254e-01,1.987919218826332894e+02
8.380039897841015772e+00,-1.777149854026236397e+01,-1.232915851992431833e+01,-7.895990730977480235e-03,0.000000000000000000e+00,9.999678261480268171e-01,2.009861338759099283e+02
8.773109708223552516e+00,-1.888017167038275801e+01,-1.289220914954555042e+01,-5.163343074812796196e-01,-6.993530620125748554e-01,-4.942693370752943571e-01,2.033230477967875345e+02
9.030102570143432317e+00,-1.961423870396321689e+01,-1.326857910139339580e+01,-2.327326561490794532e-01,6.034521084295328963e-01,7.626788731799097887e-01,2.048620966673256021e+02
9.284117564132531086e+00,-2.035047039240819799e+01,-1.364818780581068580e+01,5.171696928925254705e-02,7.942155283762206697e-01,-6.054296404817017807e-01,2.064011455378636697e+02
9.534213778893773750e+00,-2.108854713970263717e+01,-1.403094899995068445e+01,0.000000000000000000e+00,2.371197228180071254e-02,-9.997178313760765045e-01,2.079401944084017373e+02
9.779467845242402646e+00,-2.182814367257826760e+01,-1.441677230540375376e+01,-0.000000000000000000e+00,2.371197226506416636e-02,-9.997178306704488371e-01,2.094792432789398049e+02
1.001874519670450780e+01,-2.256892612191295910e+01,-1.480555913407699897e+01,-2.327328258594780208e-01,7.626824293288199108e-01,6.034475484750777552e-01,2.110182921494778725e+02
1.026005518389021987e+01,-2.334057352954219411e+01,-1.521317695711946705e+01,-9.089459700190846148e-01,4.169115275726710257e-01,-4.199995240734779347e-05,2.126196247326285231e+02
1.049250820971180076e+01,-2.411273276678777933e+01,-1.562389895146743690e+01,-6.696665005625217493e-01,1.278249046681475265e-01,7.315774543893137638e-01,2.142209573157791738e+02
1.071542338792266413e+01,-2.488499777490301312e+01,-1.603760476721650718e+01,-6.602698640189833545e-01,1.340574596092380111e-01,7.389656989278178267e-01,2.158222898989298244e+02
1.092817766679755742e+01,-2.565695738693232286e+01,-1.645416777140075837e+01,-6.507532380419779328e-01,1.402656524763803703e-01,7.462196525914308598e-01,2.174236224820804750e+02
1.112995382518745657e+01,-2.642819210680421804e+01,-1.687344878724027808e+01,-6.411183520757290921e-01,1.464483550665488520e-01,7.533379971370325334e-01,2.190249550652311257e+02
1.134259974938800219e+01,-2.729611837782619688e+01,-1.734943708017145880e+01,-6.313669570553274157e-01,1.526044438091233579e-01,7.603194389655238972e-01,2.208303364716693977e+02
1.153827207436459190e+01,-2.816158731086436262e+01,-1.782888684633195808e+01,-6.215008250887170682e-01,1.587327999701117764e-01,7.671627093571152800e-01,2.226357178781076698e+02
1.171689840294290086e+01,-2.902390835228707644e+01,-1.831156329019721341e+01,-6.115217491346417455e-01,1.648323098554560218e-01,7.738665647018828642e-01,2.244410992845459418e+02
1.187855803706448654e+01,-2.988238687504552971e+01,-1.879722039800131128e+01,-6.014315426768035433e-01,1.709018650134224993e-01,7.804297867257613541e-01,2.262464806909842139e+02
1.200260774219631443e+01,-3.060497870459601089e+01,-1.920980024147389642e+01,-5.912320393942904762e-01,1.769403624360394722e-01,7.868511827119328839e-01,2.277728269828524503e+02
1.211582340504304689e+01,-3.132453152607421387e+01,-1.962386668756278496e+01,-5.809250928283351545e-01,1.829467047595446094e-01,7.931295857175697517e-01,2.292991732747206868e+02
1.221842551318837700e+01,-3.204068197354940395e+01,-2.003927665329655028e+01,-5.705125760454633488e-01,1.889198004638069084e-01,7.992638547858946785e-01,2.308255195665889232e+02
1.231061534667473367e+01,-3.275306547981736571e+01,-2.045588118102321928e+01,-5.599963812970956134e-01,1.948585640706864131e-01,8.052528751535165119e-01,2.323518658584571597e+02
1.239229698169948080e+01,-3.346131340398255105e+01,-2.087351957357177312e+01,-5.493784196756614779e-01,2.007619163412955043e-01,8.110955584530061824e-01,2.338782121503253961e+02
1.247554526788638363e+01,-3.430930971640220406e+01,-2.137883485946550266e+01,-5.386606207672911539e-01,2.066287844721260980e-01,8.167908429106759405e-01,2.357203943000762081e+02
1.254132356177587049e+01,-3.514851589405621013e+01,-2.188534223540174750e+01,-5.278449323011455974e-01,2.124581022900073890e-01,8.223376935395251275e-01,2.375625764498270200e+02
1.259071050745805920e+01,-3.597815112207482002e+01,-2.239268874070518223e+01,-5.169333197954505410e-01,2.182488104458581712e-01,8.277351023273173958e-01,2.394047585995778320e+02
1.262485793148399260e+01,-3.679743555891929674e+01,-2.290050762582807309e+01,-5.059277662002990006e-01,2.239998566071985941e-01,8.329820884197549624e-01,2.412469407493286440e+02
1.264417710551948737e+01,-3.758353934615326608e+01,-2.339435833648774477e+01,-4.948302715372827620e-01,2.297101956493872166e-01,8.380776982987196977e-01,2.430381597588659872e+02
1.265058118825571398e+01,-3.835870603518339550e+01,-2.388791315253238068e+01,-4.836428525360269570e-01,2.353787898455473593e-01,8.430210059555428570e-01,2.448293787684033305e+02
1.264530293669114691e+01,-3.912223605460097531e+01,-2.438080723560510066e+01,-4.723675422676840707e-01,2.410046090551490050e-01,8.478111130592776989e-01,2.466205977779406737e+02
1.262971755830855081e+01,-3.987343198965010060e+01,-2.487266291351926384e+01,-4.610063897754616558e-01,2.465866309112119681e-01,8.524471491199416828e-01,2.484118167874780170e+02
1.260556505314874087e+01,-4.059587817712235847e+01,-2.535248302867911008e+01,-4.495614597022464243e-01,2.521238410060960833e-01,8.569282716466971594e-01,2.501642124378294341e+02
1.257378324885161724e+01,-4.130547745643060864e+01,-2.583056953460175009e+01,-4.380348319153938297e-01,2.576152330758443854e-01,8.612536663009469073e-01,2.519166080881808512e+02
1.253571056837122022e+01,-4.200159061453852871e+01,-2.630652918932075934e+01,-4.264286011287528044e-01,2.630598091830468888e-01,8.654225470443095425e-01,2.536690037385322682e+02
1.249385384900093499e+01,-4.266531611696470350e+01,-2.676707872845908298e+01,-4.147448765219906019e-01,2.684565798981903284e-01,8.694341562814552615e-01,2.553735019126669386e+02
1.244863148016485788e+01,-4.331546319706501436e+01,-2.722490017692874176e+01,-4.029857813572913505e-01,2.738045644794616096e-01,8.732877649977700552e-01,2.570780000868015804e+02
1.240188419462256064e+01,-4.395146498240180222e+01,-2.767960942785071410e+01,-3.911534525934944884e-01,2.791027910509729648e-01,8.769826728918278524e-01,2.587824982609362223e+02
1.235553508725790373e+01,-4.457275852609682687e+01,-2.813081079923468764e+01,-3.792500404977459105e-01,2.843502967793744562e-01,8.805182085026423966e-01,2.604869964350708642e+02
1.230908590507125133e+01,-4.520982383694194340e+01,-2.860141420602249696e+01,-3.672777082547289407e-01,2.895461280488244582e-01,8.838937293316800892e-01,2.622813080703589890e+02
1.226718883655867920e+01,-4.582839595202263183e+01,-2.906691508806420288e+01,-3.552386315735509004e-01,2.946893406342837585e-01,8.871086219596073796e-01,2.640756197056471137e+02
1.223259416987067105e+01,-4.642779661129700486e+01,-2.952678504108714463e+01,-3.431349982923523334e-01,2.997789998731032468e-01,8.901623021577553807e-01,2.658699313409352385e+02
1.220803487585101266e+01,-4.700735439350719957e+01,-2.998048056472916301e+01,-3.309690079807133256e-01,3.048141808348739379e-01,8.930542149942783947e-01,2.676642429762233633e+02
1.219557816294592634e+01,-4.757254933956209442e+01,-3.043245869009005489e+01,-3.187428715399272527e-01,3.097939684895082424e-01,8.957838349349894758e-01,2.694790839320903615e+02
1.219778383588234583e+01,-4.811581837871590750e+01,-3.087683973563624917e+01,-3.064588108012175627e-01,3.147174578735208450e-01,8.983506659388522664e-01,2.712939248879573597e+02
1.222303328128004374e+01,-4.870986964282295162e+01,-3.137646812908578653e+01,-2.941190581219681466e-01,3.195837542544818222e-01,9.007542415481140097e-01,2.733795550726703141e+02
1.227632947849690304e+01,-4.926835583900053450e+01,-3.186247115525920393e+01,-2.817258559800392970e-01,3.243919732936089706e-01,9.029941249730627506e-01,2.754651852573832684e+02
1.233883646184358085e+01,-4.969517155368981776e+01,-3.224534711482191796e+01,-2.692814565662481341e-01,3.291412412064714799e-01,9.050699091713916289e-01,2.771503241305571805e+02
1.241674933373861478e+01,-5.010208359004958112e+01,-3.261982811555250095e+01,-2.567881213750825564e-01,3.338306949217761943e-01,9.069812169221593834e-01,2.788354630037310926e+02
1.250971233821253570e+01,-5.048854586202179462e+01,-3.298534490761053206e+01,-2.442481207937252652e-01,3.384594822382053780e-01,9.087277008943295264e-01,2.805206018769050047e+02
1.261805442023697665e+01,-5.085692752798567540e+01,-3.334425116952852619e+01,-2.316637336894618870e-01,3.430267619792810585e-01,9.103090437098791954e-01,2.822201010611022980e+02
1.274049331601800894e+01,-5.120317020091722071e+01,-3.369272705322002537e+01,-2.190372469955501333e-01,3.475317041462234746e-01,9.117249580014644694e-01,2.839196002452995913e+02
1.287655735821672209e+01,-5.152668073546622196e+01,-3.403013358315511994e+01,-2.063709552956209392e-01,3.519734900687801482e-01,9.129751864646309389e-01,2.856190994294968846e+02
1.304648993367305110e+01,-5.186148462033469997e+01,-3.439552642009583394e+01,-1.936671604066923791e-01,3.563513125539947701e-01,9.140595019045635317e-01,2.875356173344138142e+02
1.323424119736493410e+01,-5.216173274896145529e+01,-3.474302544314247854e+01,-1.809281709608683286e-01,3.606643760328908099e-01,9.149777072773618292e-01,2.894521352393307438e+02
1.341593867858239442e+01,-5.240146147540070842e+01,-3.503821075128772833e+01,-1.681563019857983121e-01,3.649118967050432594e-01,9.157296357258392083e-01,2.911639216021561083e+02
1.360961962842008788e+01,-5.261527463160702922e+01,-3.531910938561212987e+01,-1.553538744839780827e-01,3.690931026810100879e-01,9.163151506098340393e-01,2.928757079649814727e+02
1.367680487311034021e+01,-5.268217075510405323e+01,-3.541065146185028567e+01,-1.425232150109623230e-01,3.732072341226007617e-01,9.167341455310313858e-01,2.934503363860486616e+02
1.387244535925156974e+01,-5.285914278912473208e+01,-3.566313197319113470e+01,-1.296666552525692906e-01,3.772535433809536265e-01,9.169865443522877690e-01,2.950832174921559385e+02
1.407531705115546394e+01,-5.301227537867475093e+01,-3.590162534649451942e+01,-1.167865316011552773e-01,3.812312951323985066e-01,9.170723012114593287e-01,2.967160985982632155e+02
1.428298173653582737e+01,-5.314095982695107523e+01,-3.612541863659642161e+01,-1.038851847310315046e-01,3.851397665120798730e-01,9.169914005297248316e-01,2.983489797043704925e+02
1.455199447331115792e+01,-5.326310445450293685e+01,-3.638620717762026402e+01,-9.096495917310537527e-02,3.889782472453144901e-01,9.167438570144089693e-01,3.004448179621692248e+02
1.481846900528924493e+01,-5.333009295605025102e+01,-3.661240928178821719e+01,-7.802820288882046651e-02,3.927460397766629474e-01,9.163297156563003920e-01,3.025406562199679570e+02
1.504564024678655798e+01,-5.334485937767206565e+01,-3.678245663442778124e+01,-6.507726684347379942e-02,3.964424593966884292e-01,9.157490517214667003e-01,3.043780171839029549e+02
1.526249824123189747e+01,-5.332027838708036427e+01,-3.692656754948092157e+01,-5.211450457898691296e-02,4.000668343663817961e-01,9.150019707375696143e-01,3.062153781478379528e+02
1.546407221097054041e+01,-5.325521537009265671e+01,-3.704347220891285986e+01,-3.914227178621011716e-02,4.036185060392286639e-01,9.140886084746775442e-01,3.080527391117729508e+02
1.564482119830675444e+01,-5.314834792369818217e+01,-3.713192467265467656e+01,-2.616292587683528154e-02,4.070968289808988283e-01,9.130091309205871086e-01,3.098919162615485448e+02
1.579899100928182420e+01,-5.299848707574250994e+01,-3.719045574781272023e+01,-1.317882555499875173e-02,4.105011710865327235e-01,9.117637342506504927e-01,3.117310934113241387e+02
1.592211439886986213e+01,-5.280439855835378893e+01,-3.721773923213880408e+01,-1.923303886464370509e-04,4.138309136956077050e-01,9.103526447921177489e-01,3.135702705610997327e+02
1.600600168674075263e+01,-5.258861034843883431e+01,-3.721538334578281138e+01,1.279419961925631552e-02,4.170854517043592335e-01,9.087761189830005915e-01,3.152534647345256644e+02
1.606184640511221673e+01,-5.233710747997211854e+01,-3.718711591690387053e+01,2.577840445959181034e-02,4.202641936757402497e-01,9.070344433254656780e-01,3.169366589079515961e+02
1.608807920754660614e+01,-5.204899162423063785e+01,-3.713199416800090091e+01,3.875792454596104636e-02,4.233665619468956476e-01,9.051279343337617078e-01,3.186198530813775278e+02
1.608263982164718797e+01,-5.172334513312349458e+01,-3.704904951796458334e+01,5.173040114347528251e-02,4.263919927341344174e-01,9.030569384766965468e-01,3.203030472548034595e+02
1.604977222932169312e+01,-5.139457937258121234e+01,-3.694949668269793364e+01,6.469347679739440027e-02,4.293399362353799154e-01,9.008218321146679308e-01,3.218368154976241158e+02
1.599066018358086794e+01,-5.103605904494826007e+01,-3.682746251573716023e+01,7.764479576153017482e-02,4.322098567300783345e-01,8.984230214312655116e-01,3.233705837404447720e+02
1.590487504239673022e+01,-5.064713517663614795e+01,-3.668227072238835262e+01,9.058200442634103955e-02,4.350012326765493875e-01,8.958609423594511290e-01,3.249043519832654283e+02
1.579197414761618568e+01,-5.022715378134404318e+01,-3.651323637732026128e+01,1.035027517466372976e-01,4.377135568067601623e-01,8.931360605023347388e-01,3.264381202260860846e+02
1.565104397955271942e+01,-4.977545099033974907e+01,-3.631965714772822906e+01,1.164046896688201715e-01,4.403463362185047747e-01,8.902488710485578771e-01,3.279718884689067409e+02
1.548116700096332998e+01,-4.929135562247587643e+01,-3.610082207922283715e+01,1.292854735575766356e-01,4.428990924649736649e-01,8.871998986823025346e-01,3.295056567117273971e+02
1.521662590878039190e+01,-4.862240368930984147e+01,-3.578000514707199642e+01,1.421427626219541607e-01,4.453713616416967724e-01,8.839896974879383196e-01,3.314514830423502190e+02
1.489058818744822155e+01,-4.788446400944400949e+01,-3.540435731037773337e+01,1.549742203407356300e-01,4.477626944708432699e-01,8.806188508493291156e-01,3.333973093729730408e+02
1.450146482378425716e+01,-4.707575620009302497e+01,-3.497197177419842973e+01,1.677775148870378208e-01,4.500726563828635340e-01,8.770879713438146652e-01,3.353431357035958627e+02
1.408598895968150977e+01,-4.626449008473801427e+01,-3.452120532329916358e+01,1.805503195520586635e-01,4.523008275954593649e-01,8.733977006308875080e-01,3.371450062663768108e+02
1.361928928832214858e+01,-4.539415369513275778e+01,-3.402240900099335619e+01,1.932903131678916919e-01,4.544468031898654670e-01,8.695487093355858121e-01,3.389468768291577589e+02
1.310080085194567445e+01,-4.446340702042895998e+01,-3.347412035192173363e+01,2.059951805293359084e-01,4.565101931844314231e-01,8.655416969266216398e-01,3.407487473919387071e+02
1.262945735633768152e+01,-4.363939849770948598e+01,-3.297843576173706737e+01,2.186626128146202663e-01,4.584906226054887846e-01,8.613773915892691813e-01,3.422586678572885148e+02
1.212812829037014062e+01,-4.277812160358273985e+01,-3.245200601671189844e+01,2.312903080049689142e-01,4.603877315554913974e-01,8.570565500930357183e-01,3.437685883226383226e+02
1.159696764646274758e+01,-4.187890627793745324e+01,-3.189408126323175807e+01,2.438759713029305665e-01,4.622011752784155325e-01,8.525799576541350788e-01,3.452785087879881303e+02
1.097704295597081980e+01,-4.084337093688640863e+01,-3.124140232518609039e+01,2.564173155493943979e-01,4.639306242224086052e-01,8.479484277927952229e-01,3.469386984345326255e+02
1.031859672380525694e+01,-3.975576197484378582e+01,-3.054474831246991329e+01,2.689120616392183805e-01,4.655757640996764368e-01,8.431628021854221666e-01,3.485988880810771207e+02
9.622856701893468312e+00,-3.861509190048641926e+01,-2.980298292096521351e+01,2.813579389353949578e-01,4.671362959435952922e-01,8.382239505116463318e-01,3.502590777276216158e+02
8.849974933631164831e+00,-3.735278368172442498e+01,-2.896968242571077212e+01,2.937526856816769505e-01,4.686119361630401436e-01,8.331327702962809667e-01,3.520088635867855942e+02
8.037980195759661939e+00,-3.602615377656245954e+01,-2.808080674802020127e+01,3.060940494135890311e-01,4.700024165939197807e-01,8.278901867462217234e-01,3.537586494459495725e+02
7.190018974102373228e+00,-3.463399396506185468e+01,-2.713491081894557055e+01,3.183797873677527979e-01,4.713074845479080510e-01,8.224971525823140395e-01,3.555084353051135508e+02
6.273310228718133708e+00,-3.311384505735009753e+01,-2.608775934903766469e+01,3.306076668894474269e-01,4.725269028583630737e-01,8.169546478662235156e-01,3.573283425339731707e+02
5.325550698415954187e+00,-3.151738765913339790e+01,-2.497311052563749456e+01,3.427754658383329600e-01,4.736604499234256527e-01,8.112636798223352708e-01,3.591482497628327906e+02
4.512516638651069556e+00,-3.012279196647416057e+01,-2.398891916566854476e+01,3.548809729922656753e-01,4.747079197462900635e-01,8.054252826547202426e-01,3.606746455612080240e+02
3.688540444029169585e+00,-2.868122658190522856e+01,-2.296300477766542159e+01,3.669219884491261019e-01,4.756691219726386644e-01,7.994405173591963010e-01,3.622010413595832574e+02
2.857011853326124395e+00,-2.719203046814278224e+01,-2.189449600984234223e+01,3.788963240265929566e-01,4.765438819252343916e-01,7.933104715305238086e-01,3.637274371579584908e+02
1.208458022425658918e+00,-2.404269575006761883e+01,-1.958758933078548026e+01,3.908018036597858957e-01,4.773320406356641454e-01,7.870362591647648287e-01,3.667233625326052788e+02
9.290786618245141515e-01,-2.348048325746905718e+01,-1.916960153797208832e+01,4.026362637967063063e-01,4.780334548732282918e-01,7.806190204568470570e-01,3.672284575757428229e+02
-2.683321571048005172e-01,-2.097204879652721843e+01,-1.729047948755582809e+01,4.143975537914060259e-01,4.786479971709697856e-01,7.740599215933658961e-01,3.694131690822193832e+02
-1.436579740938925376e+00,-1.831774670779208236e+01,-1.527424589653952047e+01,4.260835362948092730e-01,4.791755558488391964e-01,7.673601545406640856e-01,3.715978805886959435e+02
-2.526543683139471863e+00,-1.559403977055338153e+01,-1.317869685850067363e+01,4.376920876431187879e-01,4.796160350339910838e-01,7.605209368282269677e-01,3.737239837334024060e+02
-3.549353231287925681e+00,-1.273125183980885566e+01,-1.094990793037801247e+01,4.492210982437366829e-01,4.799693546782077824e-01,7.535435113274304708e-01,3.758500868781088684e+02
-4.549509133404619377e+00,-9.464090204016903485e+00,-8.374497112857330450e+00,4.606684729586264515e-01,4.802354505724477085e-01,7.464291460256877730e-01,3.781531696799910947e+02
-5.420573759275593595e+00,-5.902661066694820491e+00,-5.529553856799154232e+00,0.000000000000000000e+00,3.410856895399912991e-01,-9.400311443731407257e-01,3.805275593676896619e+02
-5.983471882408528231e+00,-2.719136517655609708e+00,-2.897041244375412106e+00,-4.477014130561516314e-01,5.740342474317470245e-01,-6.855991011684057224e-01,3.825859711819858262e+02
-6.288365761318454261e+00,-1.611348778642354707e-02,-5.646974486314888519e-01,4.157246280601000765e-01,9.043401909062455113e-01,9.664291353565998555e-02,3.843477663807043427e+02
-6.439166322654175545e+00,2.627802351539722192e+00,1.739704846142650752e+00,-3.179997568430791639e-04,9.704192579737763724e-02,9.952792389647165949e-01,3.861095615794228593e+02
-6.451683404452325021e+00,5.212906140541432976e+00,3.968050475346549533e+00,3.421418352598457613e-01,-8.417995946762986750e-03,9.396095475811320208e-01,3.878713567781413758e+02
-6.183496941736620123e+00,8.985715830551782801e+00,7.160537076709776905e+00,-6.700796228875678662e-02,-0.000000000000000000e+00,-9.977514384779677670e-01,3.905416662036265052e+02
-5.874520667636810245e+00,1.115870883089032084e+01,8.965640795932225515e+00,-5.300915303214140950e-01,-8.479392486978485355e-01,-0.000000000000000000e+00,3.921377518445078181e+02
-5.497034770950201654e+00,1.328871752248009841e+01,1.071792039836686961e+01,0.000000000000000000e+00,8.584009604374345237e-01,5.129773787610866220e-01,3.937338374853891310e+02
-4.941558002456385879e+00,1.584674628678497044e+01,1.279624436292076695e+01,-4.499992964603244145e-04,3.515004504557788789e-01,9.361865363435515341e-01,3.956998775320587924e+02
-4.292500596389330347e+00,1.832655903383523111e+01,1.477991742793397201e+01,-0.000000000000000000e+00,9.419726912952748332e-01,-3.356865336228355701e-01,3.976659175787284539e+02
-3.505034196680016478e+00,2.090472665610826297e+01,1.680668649208767107e+01,9.334680231831153918e-01,2.330827560932287046e-01,2.725947147463936293e-01,3.997808184345842051e+02
-2.640023511041714954e+00,2.338841233581508305e+01,1.872133267661793710e+01,6.818411546863434314e-01,5.506893172820425536e-02,-7.294230956965562784e-01,4.018957192904399562e+02
-1.883028961211521635e+00,2.537044047302882532e+01,2.022334741761047638e+01,4.606684729586386640e-01,4.802354505724604761e-01,7.464291460257076460e-01,4.036386057486217851e+02
-1.097619992788266385e+00,2.730056631918261800e+01,2.166553015382017477e+01,-2.031297923577761802e-02,9.495260293807026297e-01,-3.130266800195815047e-01,4.053814922068036140e+02
-2.901569313888935908e-01,2.917950594197570169e+01,2.304917692766005288e+01,-4.525244665821584467e-01,-6.821651958908010460e-01,5.743433229869360224e-01,4.071243786649854428e+02
7.486974614671704220e-01,3.146166197613203863e+01,2.469684443911500793e+01,-0.000000000000000000e+00,3.025597526116469496e-02,-9.995411827239251146e-01,4.093164075096505599e+02
1.804581138624553382e+00,3.364672198178073614e+01,2.623381991176566075e+01,-1.405218985060111003e-01,4.256286925834744661e-01,8.939193543537200526e-01,4.115084363543156769e+02
3.173569685470183810e+00,3.630689142328076713e+01,2.803476233100569104e+01,6.426236280060870776e-01,1.961598864494230529e-02,-7.659295566282963152e-01,4.143394460944676894e+02
4.079240598919951388e+00,3.797864613039075010e+01,2.912343103687764767e+01,8.084710213412543700e-01,5.885342875759150827e-01,-0.000000000000000000e+00,4.162202302066826292e+02
4.834966976983309905e+00,3.933982716163716731e+01,2.999126779030108381e+01,7.364161080999043207e-01,-4.016585135368948012e-01,-5.443893406704447546e-01,4.177986149269111706e+02
5.584822716220920746e+00,4.066680921442574714e+01,3.082213729486095843e+01,4.034587101635577766e-01,-5.855715793374167699e-01,-7.030824949199910856e-01,4.193769996471397121e+02
6.326629918155617816e+00,4.196012252796102615e+01,3.161680863121296881e+01,-8.479704324501969870e-01,5.300416452411312873e-01,-0.000000000000000000e+00,4.209553843673682536e+02
7.058409584114925472e+00,4.322030154755450582e+01,3.237604315225875240e+01,-0.000000000000000000e+00,5.892782266480474096e-01,-8.079289396970823489e-01,4.225337690875967951e+02
7.810487718543206448e+00,4.450282852006797896e+01,3.313223609156693072e+01,4.608364502586879130e-01,4.800774273057292763e-01,-7.464271095716964455e-01,4.241847532976448747e+02
8.546419055245612739e+00,4.574883004426234834e+01,3.384961671561114116e+01,0.000000000000000000e+00,-9.695091808009852208e-02,9.952881590187122596e-01,4.258357375076929543e+02
9.264554211919401538e+00,4.695895967164620544e+01,3.452906877621678916e+01,8.965938298732629708e-01,2.929696176511912761e-02,-4.418814233093617538e-01,4.274867217177410339e+02
9.963458461516962572e+00,4.813387258567294680e+01,3.517146607591276108e+01,7.364161080990846431e-01,-4.016585135364477699e-01,-5.443893406698389059e-01,4.291377059277891135e+02
1.070346041574401141e+01,4.937907159656946021e+01,3.583142571042473179e+01,9.334680231830139174e-01,2.330827560932033637e-01,2.725947147463639864e-01,4.309456491506165889e+02
1.141389336465874926e+01,5.058013025166113152e+01,3.644507604227663933e+01,9.360262369447575059e-01,-2.510647953301940460e-01,2.466157989570475217e-01,4.327535923734440644e+02
1.209323424917394441e+01,5.173799223817301396e+01,3.701361496065604939e+01,8.849807075424662717e-01,-1.526297770940048849e-02,-4.653753203492080326e-01,4.345615355962715398e+02
1.263800552929784793e+01,5.267518346965521658e+01,3.745735234098290789e+01,9.421051217342627515e-01,-0.000000000000000000e+00,-3.353146874070691563e-01,4.360720957677014553e+02
1.316350848407710217e+01,5.358785792480294674e+01,3.787599884805378991e+01,0.000000000000000000e+00,-9.950534475071191043e-01,-9.933094484754562137e-02,4.375826559391313708e+02
1.366937536481647442e+01,5.447647297521883303e+01,3.827011514264920322e+01,0.000000000000000000e+00,-0.000000000000000000e+00,-9.999989999999949752e-01,4.390932161105612863e+02
1.415533547543897797e+01,5.534148396769680289e+01,3.864025403409308979e+01,-0.000000000000000000e+00,8.051988582391039415e-03,-9.999665820611528533e-01,4.406037762819912018e+02
1.482973373728999888e+01,5.657750067427547691e+01,3.913656134004920517e+01,-0.000000000000000000e+00,8.052988511417209436e-03,-9.999665734241703907e-01,4.428572311856444799e+02
1.543290697480356144e+01,5.774074238269675163e+01,3.955781036982937593e+01,9.999988887662600415e-07,-4.977924468356228482e-01,-8.672950362314221229e-01,4.451106860892977579e+02
1.586788704330587763e+01,5.862218047585667335e+01,3.984626118128787198e+01,8.649910223442305313e-01,4.315195122752376461e-02,4.999264349583396605e-01,4.469081891462044496e+02
1.626733161839875308e+01,5.946831049213820819e+01,4.009890426070342784e+01,8.849408409610034498e-01,2.539496673929442228e-02,-4.650083909617074296e-01,4.487056922031111412e+02
1.663142895866202053e+01,6.028001155695824309e+01,4.031673323287576238e+01,9.968779763702703134e-01,0.000000000000000000e+00,-7.894491893655197767e-02,4.505031952600178329e+02
1.696059865434154901e+01,6.105815524453673504e+01,4.050072344770073585e+01,8.847879010075998529e-01,3.147796090131910196e-02,-4.649274225150418216e-01,4.523006983169245245e+02
1.724785662236199357e+01,6.178386811939015644e+01,4.064849532238314112e+01,0.000000000000000000e+00,-9.968312352734686188e-01,-7.953293898571150988e-02,4.540486153051133442e+02
1.750358807073805423e+01,6.248024084707993353e+01,4.076683312269492632e+01,-6.799996278746933513e-05,-9.702994690100219533e-02,9.952804553393420628e-01,4.557965322933021639e+02
1.772872102389817428e+01,6.314803193527661307e+01,4.085655985485306019e+01,9.421051217398740407e-01,-0.000000000000000000e+00,-3.353146874090663365e-01,4.575444492814909836e+02
1.792418302568255939e+01,6.378798998205789417e+01,4.091848014479568008e+01,9.474105094606788402e-01,1.330340827836802402e-02,-3.197410606919449116e-01,4.592923662696798033e+02
1.809031451563069126e+01,6.440084961360693683e+01,4.095336160942855486e+01,9.522917732520759238e-01,2.660086126421780037e-02,-3.040242963599754100e-01,4.610402832578686230e+02
1.825085974539254607e+01,6.512175293893510286e+01,4.095534793191631451e+01,9.567467279144740155e-01,3.988640612586743378e-02,-2.881714302842233177e-01,4.632146124760731709e+02
1.835715904294434608e+01,6.579387039221499833e+01,4.090859156373281280e+01,9.607733790931457518e-01,5.315409536175248750e-02,-2.721895592651262796e-01,4.653889416942777189e+02
1.840431182636340424e+01,6.623589370385599295e+01,4.085176941214594137e+01,9.643699241711407577e-01,6.639798946296385229e-02,-2.560858378554787818e-01,4.668978939869770670e+02
1.843474576673589738e+01,6.666251119782039325e+01,4.077959154674447007e+01,9.675347530763409587e-01,7.961215957221064177e-02,-2.398674751575512465e-01,4.684068462796764152e+02
1.844843751088471251e+01,6.707410656871815036e+01,4.069243455700243572e+01,9.702664490023151789e-01,9.279069013801699572e-02,-2.235417315957839157e-01,4.699157985723757633e+02
1.844562130281150658e+01,6.747106313392632160e+01,4.059067512656173449e+01,9.725637890426537258e-01,1.059276815629654339e-01,-2.071159156665018097e-01,4.714247508650751115e+02
1.842638244335688924e+01,6.785375951609717049e+01,4.047468122194636209e+01,9.744257447384937487e-01,1.190172528447995676e-01,-1.905973806661041547e-01,4.729337031577744597e+02
1.839024663606044641e+01,6.822256726541513672e+01,4.034480328133192728e+01,9.758514825389960068e-01,1.320535442092052314e-01,-1.739935213991951612e-01,4.744426554504738078e+02
1.833658035657602170e+01,6.857785626733414119e+01,4.020138302124247787e+01,9.768403641745599941e-01,1.450307197330898967e-01,-1.573117708681278926e-01,4.759516077431731560e+02
1.826146510664203859e+01,6.893268903953263305e+01,4.003818279829035021e+01,9.773919469426169959e-01,1.579429699571865131e-01,-1.405595969454454530e-01,4.775188745708272791e+02
1.816606578560019614e+01,6.927321551650508979e+01,3.986059495342227166e+01,9.775059839058670708e-01,1.707845144868120058e-01,-1.237444990307077219e-01,4.790861413984814021e+02
1.805051784724059871e+01,6.959986960830258340e+01,3.966901744051240541e+01,9.771824240028732511e-01,1.835496045796152498e-01,-1.068740046932010745e-01,4.806534082261355252e+02
1.791525307265979805e+01,6.991308417261926422e+01,3.946384830825847700e+01,9.764214120709650002e-01,1.962325257191564476e-01,-8.995566630203512271e-02,4.822206750537896482e+02
