6.558675604209760479e+00,-6.315736357412993662e+00,5.644639901865163623e+00,-9.089331001746141503e-01,-0.000000000000000000e+00,-4.169395872382412604e-01,7.288157932499296976e+01
6.284184088727001516e+00,-6.491481271157209854e+00,5.591541362719173236e+00,-2.327097549703283641e-01,-7.626911969310716799e-01,-6.034453646075578215e-01,7.451672791455071376e+01
5.995563916212917732e+00,-6.667814229493957967e+00,5.536647310977260261e+00,-0.000000000000000000e+00,2.371197228180181582e-02,-9.997178313761230228e-01,7.615187650410845777e+01
5.714032367437289928e+00,-6.833421686542786588e+00,5.483588263473180291e+00,-5.939584362336596257e-01,-8.044922364017137451e-01,-1.901998194684179598e-03,7.768280078376331232e+01
5.423045107454893987e+00,-6.999509720120234313e+00,5.428891055467810922e+00,-0.000000000000000000e+00,-2.291096583325744410e-02,-9.997365091095600231e-01,7.921372506341816688e+01
5.085154303854023894e+00,-7.187176864805588039e+00,5.365137141123484277e+00,-9.089459700192470404e-01,4.169115275727455772e-01,-4.199995240735530157e-05,8.093663741242184528e+01
4.737514549848818923e+00,-7.375819984227184101e+00,5.298814699836744246e+00,4.817995168104916535e-03,-1.888798105752711315e-02,-9.998089973065537039e-01,8.265954976142552368e+01
4.382126304868076971e+00,-7.565517480481491752e+00,5.229799847739230678e+00,5.646663325349560170e-01,-6.706362072730392976e-01,-4.810374313886771058e-01,8.438246211042920208e+01
4.020877019562166588e+00,-7.756355675579024833e+00,5.157968723034536573e+00,-2.327328258591174481e-01,7.626824293276385225e-01,6.034475484741429474e-01,8.610537445943288049e+01
3.655541120102505648e+00,-7.948428351016160853e+00,5.083197487018903615e+00,-2.327326561483562817e-01,6.034521084276577296e-01,7.626788731775399066e-01,8.782828680843655889e+01
3.287779993417182300e+00,-8.141836287285029172e+00,5.005362325101780918e+00,-7.895990730975157440e-03,0.000000000000000000e+00,9.999678261477323860e-01,8.955119915744023729e+01
2.862523710009426736e+00,-8.367128950474995719e+00,4.911240051005361096e+00,-0.000000000000000000e+00,5.332983833114216532e-01,8.459260217991800834e-01,9.153933715512734182e+01
2.438534253965393361e+00,-8.595148604609008203e+00,4.812004310885758862e+00,-4.039896372715058581e-02,7.947932863822599892e-01,6.055324563130938254e-01,9.352747515281444635e+01
2.004264181201054207e+00,-8.833885691685164687e+00,4.703788837078082707e+00,-0.000000000000000000e+00,6.060361314456015336e-01,7.954358600030937421e-01,9.558130081828336699e+01
1.575752925691170425e+00,-9.076197758519827019e+00,4.589441782194596087e+00,-0.000000000000000000e+00,-7.954388900857851663e-01,-6.060321543741309380e-01,9.763512648375228764e+01
1.192713728052859246e+00,-9.299136050220525362e+00,4.480427689173702710e+00,-8.555062347860055150e-01,6.122994523241436643e-02,-5.141575401079161445e-01,9.949857698293118347e+01
8.154974452191423584e-01,-9.524976855024103628e+00,4.366473157843028474e+00,1.016999272028908802e-02,-9.999472842347719714e-01,-0.000000000000000000e+00,1.013620274821100793e+02
5.012362598085523535e-01,-9.718006712958983329e+00,4.266460454040304384e+00,-9.494871526040852272e-01,-0.000000000000000000e+00,-3.138027199381347998e-01,1.029371329879297292e+02
1.912068949828689135e-01,-9.912821206318765732e+00,4.163268918715198552e+00,-7.580441341990505899e-01,2.125597572246373107e-02,-6.518552554827963252e-01,1.045122384937493791e+02
-1.658649385005452614e-01,-1.014417782449517702e+01,4.037621397687599867e+00,1.014498516991661249e-02,0.000000000000000000e+00,-9.999475382624886111e-01,1.063603139060494271e+02
-5.142684347280678248e-01,-1.037904200161341350e+01,3.906522529556883949e+00,0.000000000000000000e+00,2.371197228091300943e-02,-9.997178313386502202e-01,1.082083893183494752e+02
-8.183765407188737795e-01,-1.059219050556374775e+01,3.784641355945169927e+00,6.426236280060879658e-01,1.961598864494233305e-02,-7.659295566282972034e-01,1.098626880608249223e+02
-1.114778517185333717e+00,-1.080799568115755882e+01,3.658602304383930193e+00,2.883107282156757156e-01,-5.998124345697151139e-01,-7.463912963929738575e-01,1.115169868033003695e+02
-1.412940764907756108e+00,-1.103482159122580697e+01,3.523283884238281427e+00,6.818411546861415928e-01,5.506893172818796284e-02,-7.294230956963404511e-01,1.132325929909867881e+02
-1.704770869381751597e+00,-1.126867980127111757e+01,3.380730505359546001e+00,0.000000000000000000e+00,3.025597526115800934e-02,-9.995411827237042912e-01,1.149755390244822024e+02
-1.983844171481161878e+00,-1.150617730931223726e+01,3.232857680388010913e+00,-6.696665005624393707e-01,1.278249046681317891e-01,7.315774543892237247e-01,1.167184850579776167e+02
-2.248389044166531736e+00,-1.174747703616542438e+01,3.079498586358286438e+00,5.171696928924845310e-02,7.942155283761577200e-01,-6.054296404816538191e-01,1.184614310914730311e+02
-2.470898083331112272e+00,-1.196555676963008530e+01,2.938368564211200962e+00,-6.700796228891355011e-02,0.000000000000000000e+00,-9.977514384803017888e-01,1.200141501763386742e+02
-2.680358040406007447e+00,-1.218646017115315239e+01,2.793131808228145552e+00,0.000000000000000000e+00,8.584009604376872105e-01,5.129773787612377234e-01,1.215668692612043174e+02
-2.875899893952654107e+00,-1.241029999583656718e+01,2.643686797046694625e+00,8.084710213412715785e-01,5.885342875759276282e-01,0.000000000000000000e+00,1.231195883460699605e+02
-3.056884751901259190e+00,-1.263719159260694624e+01,2.489934307035897909e+00,-4.525244665822401036e-01,-6.821651958909240587e-01,5.743433229870396062e-01,1.246723074309356036e+02
-3.222538109045394172e+00,-1.286725073021273680e+01,2.331775231909677171e+00,4.034587101641474716e-01,-5.855715793382726408e-01,-7.030824949210187080e-01,1.262250265158012468e+02
-3.371755006228033036e+00,-1.310059251172362238e+01,2.169110671968141002e+00,-4.477014130565296068e-01,5.740342474322315258e-01,-6.855991011689843706e-01,1.277777456006668899e+02
-3.460925639593217085e+00,-1.325412035139714639e+01,2.061025151653016252e+00,8.849807075428485215e-01,-1.526297770940707871e-02,-4.653753203494089274e-01,1.287891956471853803e+02
-3.640764744310988288e+00,-1.367568548044795840e+01,1.758046742626403258e+00,4.608364502589873957e-01,4.800774273060412489e-01,-7.464271095721816129e-01,1.314930740415271373e+02
-3.704791061065584312e+00,-1.394170120067939145e+01,1.562632117766073803e+00,3.527428715682119909e-01,4.565300933942704198e-01,-8.167929605370227719e-01,1.331447388182745044e+02
-3.738840097010336372e+00,-1.421252164784303318e+01,1.361589390440511638e+00,2.385856231822948426e-01,4.251349710957800232e-01,-8.731180657629767916e-01,1.347964035950218715e+02
-3.740941458186393120e+00,-1.448835372851867653e+01,1.154922451325896215e+00,1.203270505382326716e-01,3.864317371867918571e-01,-9.144342039769065567e-01,1.364480683717692386e+02
-3.712033331967420580e+00,-1.476940581840876732e+01,9.426489803928825850e-01,0.000000000000000000e+00,3.410856895397151867e-01,-9.400311443723797789e-01,1.380997331485166058e+02
-3.656827131837673051e+00,-1.504721055603178570e+01,7.314243842580860910e-01,4.606684729585627802e-01,4.802354505723814282e-01,7.464291460255845223e-01,1.397023360546264996e+02
-3.577246290741574075e+00,-1.533013253521673391e+01,5.151266192918250164e-01,1.684088557896393779e-01,4.765176251843111777e-01,8.628831961396951078e-01,1.413049389607363935e+02
-3.475281191022691285e+00,-1.561832859809047847e+01,2.937802268674136741e-01,-1.405218985060698034e-01,4.256286925836522128e-01,8.939193543540933096e-01,1.429075418668462873e+02
-3.352961356462500930e+00,-1.591194431035262191e+01,6.740992503486789578e-02,-1.395317333357266598e-01,4.233580835036676593e-01,8.951518466279378972e-01,1.445101447729561812e+02
-3.212326734469585165e+00,-1.621111023510744076e+01,-1.639592509241989959e-01,-1.385405000442555268e-01,4.210842335895775834e-01,8.963774863676341464e-01,1.461127476790660751e+02
-3.033983329138175922e+00,-1.655426233330588204e+01,-4.301169590389707365e-01,-1.375482062193927602e-01,4.188071602472746569e-01,8.975962641903362238e-01,1.479125925835833755e+02
-2.835960974652669275e+00,-1.690553341671849452e+01,-7.032796982433175970e-01,-1.365548594571385776e-01,4.165268809077685708e-01,8.988081707666588649e-01,1.497124374881006759e+02
-2.610033703190939747e+00,-1.728371200057262413e+01,-9.979665569824360816e-01,-1.355604673615519729e-01,4.142434130266065551e-01,9.000131968198135102e-01,1.516033948563057550e+02
-2.369263357479102439e+00,-1.767159522308860531e+01,-1.300682907624484130e+00,-1.345650375446921510e-01,4.119567740837399294e-01,9.012113331256782489e-01,1.534943522245108340e+02
-2.217298282054176006e+00,-1.791269176598546764e+01,-1.488923460772769269e+00,-1.335685776265605751e-01,4.096669815833900441e-01,9.024025705128689845e-01,1.546492817387693890e+02
-1.865897622159764513e+00,-1.846816060046823083e+01,-1.923088326759984978e+00,-1.325710952350424576e-01,4.073740530539147753e-01,9.035868998628091564e-01,1.572381599301258746e+02
-1.580826107301511740e+00,-1.892125078400295735e+01,-2.277741628960754383e+00,-1.315725980058484179e-01,4.050780060476740219e-01,9.047643121098001284e-01,1.592757807236200449e+02
-1.293943884544168421e+00,-1.938670500997642776e+01,-2.642230086583431614e+00,-1.305730935824561956e-01,4.027788581408953128e-01,9.059347982410900224e-01,1.613134015171142153e+02
-1.046981734556521770e+00,-1.979842682399716836e+01,-2.964679157199486603e+00,-1.295725896160519475e-01,4.004766269335397477e-01,9.070983492969424411e-01,1.630746862746346437e+02
-8.027078541820003021e-01,-2.021822465592543239e+01,-3.293416604730612818e+00,-1.285710937654718777e-01,3.981713300491669938e-01,9.082549563707061901e-01,1.648359710321550722e+02
-5.622802045585010289e-01,-2.064604632547239760e+01,-3.628410274134102220e+00,-1.275686136971433959e-01,3.958629851348001716e-01,9.094046106088817805e-01,1.665972557896755006e+02
-2.551728599258424324e-01,-2.122083211516881107e+01,-4.078681182883930667e+00,-1.265651570850267194e-01,3.935516098607913515e-01,9.105473032111905951e-01,1.689064121708143489e+02
-5.117709991379911644e-02,-2.162208886716909362e+01,-4.393143665887770943e+00,-1.255607316105560034e-01,3.912372219206859403e-01,9.116830254306413917e-01,1.704833263511160624e+02
1.485042375551195448e-01,-2.202898679009465610e+01,-4.712002727476918729e+00,-1.245553449625805553e-01,3.889198390310873998e-01,9.128117685735974707e-01,1.720602405314177759e+02
3.438586227587076549e-01,-2.244145091813087589e+01,-5.035228085008919940e+00,-1.235490048373059369e-01,3.865994789315215230e-01,9.139335239998432892e-01,1.736371547117194893e+02
5.692413030681626740e-01,-2.293685670798845777e+01,-5.423584932078165721e+00,-1.225417189382352612e-01,3.842761593843011525e-01,9.150482831226500746e-01,1.755018574284269164e+02
7.887757753322200971e-01,-2.344097493116553466e+01,-5.819050534115723927e+00,-1.215334949761099903e-01,3.819498981743894017e-01,9.161560374088424386e-01,1.773665601451343434e+02
1.003325648631763212e+00,-2.395362916596205594e+01,-6.221559822766506542e+00,-1.205243406688511626e-01,3.796207131092644294e-01,9.172567783788626583e-01,1.792312628618417705e+02
1.185689678280261283e+00,-2.440297050420954506e+01,-6.574633523933935741e+00,-1.195142637415001208e-01,3.772886220187825490e-01,9.183504976068361803e-01,1.808425461474889175e+02
1.366316113085222383e+00,-2.485767918109097607e+01,-6.932163336440120283e+00,-1.185032719261596007e-01,3.749536427550421158e-01,9.194371867206359017e-01,1.824538294331360646e+02
1.546192361683923711e+00,-2.531764824119434820e+01,-7.294108669356698549e+00,-1.174913729619343483e-01,3.726157931922468025e-01,9.205168374019462307e-01,1.840651127187832117e+02
1.726258463872266224e+00,-2.578276848811049859e+01,-7.660427345171384239e+00,-1.164785745948720697e-01,3.702750912265686534e-01,9.215894413863267021e-01,1.856763960044303587e+02
1.907272006574427969e+00,-2.625292194778877430e+01,-8.031074045380668380e+00,-1.154648845779040478e-01,3.679315547760114713e-01,9.226549904632752597e-01,1.872876792900775058e+02
2.116296631895436153e+00,-2.679582064240166872e+01,-8.459665744713060320e+00,-1.144503106707858153e-01,3.655852017802734277e-01,9.237134764762909844e-01,1.891264312842747870e+02
2.324507817890359096e+00,-2.733366868912387559e+01,-8.885014502948816784e+00,-1.134348606400378823e-01,3.632360502006097835e-01,9.247648913229365997e-01,1.909254521062549657e+02
2.536982501816929858e+00,-2.787784918892092278e+01,-9.316165228555467692e+00,-1.124185422588861727e-01,3.608841180196955545e-01,9.258092269549003106e-01,1.927244729282351443e+02
2.754133257589534978e+00,-2.842813709691711921e+01,-9.753028201723578761e+00,-1.114013633072025444e-01,3.585294232414878435e-01,9.268464753780574217e-01,1.945234937502153230e+02
2.984237340519736215e+00,-2.900382058525429940e+01,-1.021109758341936313e+01,-1.103833315714454061e-01,3.561719838910880620e-01,9.278766286525320650e-01,1.963850754527980484e+02
3.010840422591456012e+00,-2.906994825638510704e+01,-1.026377580209735996e+01,-1.093644548445998899e-01,3.538118180146040959e-01,9.288996788927568193e-01,1.965977098893566506e+02
3.289981316480906859e+00,-2.975715182503602207e+01,-1.081233633005495953e+01,-1.083447409261184546e-01,3.514489436790119159e-01,9.299156182675338833e-01,1.987919218826332894e+02
3.577989457926033623e+00,-3.045342662804357659e+01,-1.137058910997206063e+01,-1.073241976218609894e-01,3.490833789720173552e-01,9.309244390000949165e-01,2.009861338759099283e+02
3.893222632681872852e+00,-3.120434378645309792e+01,-1.197579823547855504e+01,-1.063028327440352916e-01,3.467151420019184416e-01,9.319261333681602144e-01,2.033230477967875345e+02
4.103893777971773460e+00,-3.170334442245843931e+01,-1.237957423394987622e+01,-1.052806541111371147e-01,3.443442508974655647e-01,9.329206937039981051e-01,2.048620966673256021e+02
4.314788953363534851e+00,-3.220492922346505793e+01,-1.278636268323691993e+01,-1.042576695478902860e-01,3.419707238077235312e-01,9.339081123944830143e-01,2.064011455378636697e+02
4.524919034460519462e+00,-3.270887122548171533e+01,-1.319607024637451076e+01,-1.032338868851871011e-01,3.395945789019328975e-01,9.348883818811549729e-01,2.079401944084017373e+02
4.733298590708872489e+00,-3.321493535980003742e+01,-1.360859974248116622e+01,-1.022093139600281642e-01,3.372158343693700266e-01,9.358614946602762386e-01,2.094792432789398049e+02
4.938753712017252440e+00,-3.372287336169814864e+01,-1.402384632278758581e+01,-1.011839586154624354e-01,3.348345084192088650e-01,9.368274432828886944e-01,2.110182921494778725e+02
5.148111771865034214e+00,-3.425309405688806663e+01,-1.445872094275479292e+01,-1.001578287005273349e-01,3.324506192803811100e-01,9.377862203548719133e-01,2.126196247326285231e+02
5.351867600866974328e+00,-3.478479756273001300e+01,-1.489640824889559134e+01,-9.913093207018852659e-02,3.300641852014363220e-01,9.387378185369988914e-01,2.142209573157791738e+02
5.549193802552720989e+00,-3.531767453476803098e+01,-1.533678088182922394e+01,-9.810327658527993877e-02,3.276752244504033129e-01,9.396822305449923363e-01,2.158222898989298244e+02
5.739325694979931392e+00,-3.585140753346409070e+01,-1.577970550068839017e+01,-9.707487011244349262e-02,3.252837553146493144e-01,9.406194491495802890e-01,2.174236224820804750e+02
5.921365236018390377e+00,-3.638566554987459511e+01,-1.622503682185748275e+01,-9.604572052406899763e-02,3.228897961007407003e-01,9.415494671765517465e-01,2.190249550652311257e+02
6.115312683144728645e+00,-3.698814411863617124e+01,-1.672998793887181179e+01,-9.501583569823388031e-02,3.204933651343025991e-01,9.424722775068115066e-01,2.208303364716693977e+02
6.296063322638240756e+00,-3.759022842954966848e+01,-1.723793625080518055e+01,-9.398522351864289914e-02,3.180944807598787283e-01,9.433878730764343468e-01,2.226357178781076698e+02
6.463303107819347915e+00,-3.819136478095091292e+01,-1.774863761713474730e+01,-9.295389187456769287e-02,3.156931613407908399e-01,9.442962468767195361e-01,2.244410992845459418e+02
6.616878518602237413e+00,-3.879099076140744273e+01,-1.826183711857481029e+01,-9.192184866078664807e-02,3.132894252589986661e-01,9.451973919542439040e-01,2.262464806909842139e+02
6.736428345131233897e+00,-3.929650703947122281e+01,-1.869734767344216309e+01,-9.088910177752432262e-02,3.108832909149586987e-01,9.460913014109153529e-01,2.277728269828524503e+02
6.847067632717723562e+00,-3.980052735648094853e+01,-1.913404481653866895e+01,-8.985565913039098018e-02,3.084747767274836905e-01,9.469779684040258161e-01,2.292991732747206868e+02
6.948936820480088983e+00,-4.030274978628877136e+01,-1.957178156941012048e+01,-8.882152863032216628e-02,3.060639011336016568e-01,9.478573861463031047e-01,2.308255195665889232e+02
7.042147373731898696e+00,-4.080286920803359152e+01,-2.001040528216393355e+01,-8.778671819351810401e-02,3.036506825884148220e-01,9.487295479059634218e-01,2.323518658584571597e+02
7.126518523696304896e+00,-4.130057275248806548e+01,-2.044975196992802680e+01,-8.675123574138321469e-02,3.012351395649582320e-01,9.495944470067625431e-01,2.338782121503253961e+02
7.215274950223605543e+00,-4.189709735035198435e+01,-2.098080110676214360e+01,-8.571508920046541635e-02,2.988172905540585345e-01,9.504520768280467768e-01,2.357203943000762081e+02
7.288995129047903809e+00,-4.248805884989244674e+01,-2.151248339224377304e+01,-8.467828650239540844e-02,2.963971540641924807e-01,9.513024308048039224e-01,2.375625764498270200e+02
7.348486322042939278e+00,-4.307278815953840478e+01,-2.204443937702040657e+01,-8.364083558382613692e-02,2.939747486213451499e-01,9.521455024277133417e-01,2.394047585995778320e+02
7.394604852626859959e+00,-4.365061269567878810e+01,-2.257629621503619077e+01,-8.260274438637195404e-02,2.915500927688683408e-01,9.529812852431958081e-01,2.412469407493286440e+02
7.427063675412464150e+00,-4.420528877364944975e+01,-2.309297440668930079e+01,-8.156402085654784750e-02,2.891232050673387954e-01,9.538097728534628006e-01,2.430381597588659872e+02
7.447793906062114999e+00,-4.475237356882738027e+01,-2.360882204603341705e+01,-8.052467294570865575e-02,2.866941040944155361e-01,9.546309589165657972e-01,2.448293787684033305e+02
7.457730963908292487e+00,-4.529125131795902348e+01,-2.412346989051980373e+01,-7.948470860998825549e-02,2.842628084446984782e-01,9.554448371464441259e-01,2.466205977779406737e+02
7.457979954932411282e+00,-4.582130456080384562e+01,-2.463653618047907301e+01,-7.844413581023852722e-02,2.818293367295857665e-01,9.562514013129737034e-01,2.484118167874780170e+02
7.449740820475215131e+00,-4.633083127763670461e+01,-2.513658393794275625e+01,-7.740296251196872312e-02,2.793937075771313894e-01,9.570506452420144416e-01,2.501642124378294341e+02
7.434153330836836382e+00,-4.683093242531422362e+01,-2.563438337848818804e+01,-7.636119668528415505e-02,2.769559396319024591e-01,9.578425628154577653e-01,2.519166080881808512e+02
7.412504398815194406e+00,-4.732103049574346443e+01,-2.612953864445068319e+01,-7.531884630482552079e-02,2.745160515548369928e-01,9.586271479712727972e-01,2.536690037385322682e+02
7.386968559974015136e+00,-4.778772207824459883e+01,-2.660826756764850387e+01,-7.427591934970760590e-02,2.720740620231004714e-01,9.594043947035533204e-01,2.553735019126669386e+02
7.358619386365298887e+00,-4.824414413838781712e+01,-2.708378878872008144e+01,-7.323242380345849900e-02,2.696299897299435644e-01,9.601742970625635198e-01,2.570780000868015804e+02
7.329501450176129751e+00,-4.868978020005253171e+01,-2.755571657222157711e+01,-7.218836765395827970e-02,2.671838533845587449e-01,9.609368491547835012e-01,2.587824982609362223e+02
7.301763483743248351e+00,-4.912411635708136259e+01,-2.802365383313842884e+01,-7.114375889337798409e-02,2.647356717119369596e-01,9.616920451429546990e-01,2.604869964350708642e+02
7.276282600966103686e+00,-4.956820535643835512e+01,-2.851133837000492832e+01,-7.009860551811843143e-02,2.622854634527246320e-01,9.624398792461238417e-01,2.622813080703589890e+02
7.257128585284211120e+00,-4.999788060703471615e+01,-2.899335542084088146e+01,-6.905291552874909256e-02,2.598332473630803330e-01,9.631803457396878043e-01,2.640756197056471137e+02
7.247429285458497183e+00,-5.041251999307652909e+01,-2.946917570279702403e+01,-6.800669692994670834e-02,2.573790422145308954e-01,9.639134389554375737e-01,2.658699313409352385e+02
7.250250257115336439e+00,-5.081150708612687339e+01,-2.993825509748280922e+01,-6.695995773043425525e-02,2.549228667938279180e-01,9.646391532816006587e-01,2.676642429762233633e+02
7.268262280721291546e+00,-5.119840433866562535e+01,-3.040521348670975854e+01,-6.591270594291941121e-02,2.524647399028042138e-01,9.653574831628850550e-01,2.694790839320903615e+02
7.303942230237500333e+00,-5.156781413775253498e+01,-3.086398876440120276e+01,-6.486494958403350719e-02,2.500046803582295918e-01,9.660684231005213229e-01,2.712939248879573597e+02
7.371667701460033584e+00,-5.196804019945992081e+01,-3.137937877783043206e+01,-6.381669667426989601e-02,2.475427069916670553e-01,9.667719676523045536e-01,2.733795550726703141e+02
7.471812285566064915e+00,-5.233955680364505980e+01,-3.188025717776055501e+01,-6.276795523792287612e-02,2.450788386493286675e-01,9.674681114326364462e-01,2.754651852573832684e+02
7.575152109917744347e+00,-5.261993583725138990e+01,-3.227456137750107956e+01,-6.171873330302601879e-02,2.426130941919314443e-01,9.681568491125657205e-01,2.771503241305571805e+02
7.696286549182031145e+00,-5.288411387426062049e+01,-3.266000521546881430e+01,-6.066903890129090454e-02,2.401454924945527758e-01,9.688381754198299722e-01,2.788354630037310926e+02
7.834684966999777345e+00,-5.313156286997210742e+01,-3.303602123457908846e+01,-5.961888006804560297e-02,2.376760524464861801e-01,9.695120851388951966e-01,2.805206018769050047e+02
7.990926511443520397e+00,-5.336354356833516732e+01,-3.340504683961611931e+01,-5.856826484217320800e-02,2.352047929510967250e-01,9.701785731109958677e-01,2.822201010611022980e+02
8.163216468783881297e+00,-5.357722401093931808e+01,-3.376317112411418719e+01,-5.751720126605022743e-02,2.327317329256761713e-01,9.708376342341749066e-01,2.839196002452995913e+02
8.350992362187259488e+00,-5.377201870354647184e+01,-3.410975766921146857e+01,-5.646569738548520845e-02,2.302568913012987550e-01,9.714892634633217616e-01,2.856190994294968846e+02
8.581467203644280062e+00,-5.396658349954859091e+01,-3.448490728125857885e+01,-5.541376124965700922e-02,2.277802870226755261e-01,9.721334558102122658e-01,2.875356173344138142e+02
8.832197427868566209e+00,-5.413207888114315836e+01,-3.484150124571287677e+01,-5.436140091105330641e-02,2.253019390480101858e-01,9.727702063435453850e-01,2.894521352393307438e+02
9.072270801535404772e+00,-5.425586473633098450e+01,-3.514428207223761547e+01,-5.330862442540892226e-02,2.228218663488533424e-01,9.733995101889824086e-01,2.911639216021561083e+02
9.326470594008579695e+00,-5.435766025393094480e+01,-3.543231129337517871e+01,-5.225543985164422811e-02,2.203400879099578491e-01,9.740213625291831434e-01,2.928757079649814727e+02
9.414414536950880930e+00,-5.438769498233455835e+01,-3.552616053895019377e+01,-5.120185525180338815e-02,2.178566227291332258e-01,9.746357586038434384e-01,2.934503363860486616e+02
9.670326301474961639e+00,-5.446185353861674372e+01,-3.578497364908648137e+01,-5.014787869099275597e-02,2.153714898171002756e-01,9.752426937097310455e-01,2.950832174921559385e+02
9.935710585829255592e+00,-5.451555567524270884e+01,-3.602940446239563244e+01,-4.909351823731911146e-02,2.128847081973457844e-01,9.758421632007223678e-01,2.967160985982632155e+02
1.020821127485510971e+01,-5.454816966765137209e+01,-3.625874425803991841e+01,-4.803878196182795324e-02,2.103962969059769150e-01,9.764341624878372095e-01,2.983489797043704925e+02
1.056436385233475050e+01,-5.455259942614905810e+01,-3.652599858741876915e+01,-4.698367793844168000e-02,2.079062749915752961e-01,9.770186870392746359e-01,3.004448179621692248e+02
1.092302090681889837e+01,-5.450872674972365672e+01,-3.675786522578700755e+01,-4.592821424389785523e-02,2.054146615150516109e-01,9.775957323804471688e-01,3.025406562199679570e+02
1.123518279050869495e+01,-5.443158272289698374e+01,-3.693226564591557803e+01,-4.487239895768738857e-02,2.029214755494994915e-01,9.781652940940150920e-01,3.043780171839029549e+02
1.154076595043995646e+01,-5.431964376358276780e+01,-3.708020482252723582e+01,-4.381624016199269639e-02,2.004267361800495806e-01,9.787273678199200910e-01,3.062153781478379528e+02
1.183467807526545101e+01,-5.417171499404014412e+01,-3.720042115490360146e+01,-4.275974594162592485e-02,1.979304625037238141e-01,9.792819492554196703e-01,3.080527391117729508e+02
1.211113285076178059e+01,-5.398633311053705341e+01,-3.729167957388326471e+01,-4.170292438396692308e-02,1.954326736292886502e-01,9.798290341551186833e-01,3.098919162615485448e+02
1.236393003199116514e+01,-5.376232274737824923e+01,-3.735251592333637660e+01,-4.064578357890153565e-02,1.929333886771094908e-01,9.803686183310023061e-01,3.117310934113241387e+02
1.258843217266842984e+01,-5.349837595326159345e+01,-3.738161281988811879e+01,-3.958833161875956880e-02,1.904326267790039107e-01,9.809006976524686783e-01,3.135702705610997327e+02
1.276737692585952999e+01,-5.322221998824043965e+01,-3.738050949716578941e+01,-3.853057659825295106e-02,1.879304070780955516e-01,9.814252680463600997e-01,3.152534647345256644e+02
1.292044747274828786e+01,-5.291356112989335259e+01,-3.735312972397647258e+01,-3.747252661441370647e-02,1.854267487286674621e-01,9.819423254969935622e-01,3.169366589079515961e+02
1.304617843107893904e+01,-5.257144746004897939e+01,-3.729853702795816162e+01,-3.641418976653206657e-02,1.829216708960156035e-01,9.824518660461927233e-01,3.186198530813775278e+02
1.314243506957951979e+01,-5.219490342235327773e+01,-3.721576941006235728e+01,-3.535557415609449222e-02,1.804151927563021895e-01,9.829538857933174389e-01,3.203030472548034595e+02
1.320394989459197177e+01,-5.182231174848872257e+01,-3.711608925137134207e+01,-3.429668788672157048e-02,1.779073334964087483e-01,9.834483808952936279e-01,3.218368154976241158e+02
1.324075252855646490e+01,-5.142225295815539710e+01,-3.699367049991423073e+01,-3.323753906410614745e-02,1.753981123137896558e-01,9.839353475666429150e-01,3.233705837404447720e+02
1.325252149404313329e+01,-5.099403619372299090e+01,-3.684784148151803151e+01,-3.217813579595119738e-02,1.728875484163249765e-01,9.844147820795114967e-01,3.249043519832654283e+02
1.323886196933175263e+01,-5.053696463059952038e+01,-3.667792198458043629e+01,-3.111848619190783760e-02,1.703756610221735801e-01,9.848866807636987852e-01,3.264381202260860846e+02
1.319870480912313759e+01,-5.005032871753182633e+01,-3.648321457476493634e+01,-3.005859836351324962e-02,1.678624693596260375e-01,9.853510400066852748e-01,3.279718884689067409e+02
1.313092243909613721e+01,-4.953340951617629884e+01,-3.626301328929561407e+01,-2.899848042412860732e-02,1.653479926669574329e-01,9.858078562536607414e-01,3.295056567117273971e+02
1.299818806510415570e+01,-4.882613184786198701e+01,-3.594008121108146980e+01,-2.793814048887697035e-02,1.628322501922802035e-01,9.862571260075504442e-01,3.314514830423502190e+02
1.280666175264799911e+01,-4.805379050723655610e+01,-3.556186005162291508e+01,-2.687758667458121919e-02,1.603152611933968963e-01,9.866988458290431030e-01,3.333973093729730408e+02
1.255398035111218036e+01,-4.721447067606508341e+01,-3.512645679523432563e+01,-2.581682709970194514e-02,1.577970449376527862e-01,9.871330123366164333e-01,3.353431357035958627e+02
1.226573083341526349e+01,-4.637802143491990137e+01,-3.467252434738379208e+01,-2.475586988427526391e-02,1.552776207017882992e-01,9.875596222065632368e-01,3.371450062663768108e+02
1.192633808596890965e+01,-4.548532909101806609e+01,-3.417022928707848450e+01,-2.369472314985077155e-02,1.527570077717916586e-01,9.879786721730166033e-01,3.389468768291577589e+02
1.153447224840988561e+01,-4.453493785387418313e+01,-3.361811990723619914e+01,-2.263339501942927823e-02,1.502352254427512246e-01,9.883901590279758897e-01,3.407487473919387071e+02
1.116814786540408733e+01,-4.369635538041053024e+01,-3.311901000737231726e+01,-2.157189361740077110e-02,1.477122930187078631e-01,9.887940796213299244e-01,3.422586678572885148e+02
1.077040842423658873e+01,-4.282202591424294269e+01,-3.258897568003764889e+01,-2.051022706948217589e-02,1.451882298125072857e-01,9.891904308608819862e-01,3.437685883226383226e+02
1.034100973037749505e+01,-4.191121336074220238e+01,-3.202727265296208969e+01,-1.944840350265516701e-02,1.426630551456521123e-01,9.895792097123733422e-01,3.452785087879881303e+02
9.830353876316483053e+00,-4.086458377625738336e+01,-3.137023646511758201e+01,-1.838643104510401596e-02,1.401367883481541288e-01,9.899604131995062284e-01,3.469386984345326255e+02
9.277947287801428189e+00,-3.976757922433890968e+01,-3.066901141336732195e+01,-1.732431782615335286e-02,1.376094487583863768e-01,9.903340384039670541e-01,3.485988880810771207e+02
8.684565171149914775e+00,-3.861910528614389904e+01,-2.992246982373178099e+01,-1.626207197620599051e-02,1.350810557229351339e-01,9.907000824654483839e-01,3.502590777276216158e+02
8.015115110837681911e+00,-3.735020424197448108e+01,-2.908391773859218787e+01,-1.519970162668068600e-02,1.325516285964518093e-01,9.910585425816710314e-01,3.520088635867855942e+02
7.301596204372486909e+00,-3.601855524542041564e+01,-2.818957234836912917e+01,-1.413721490994991788e-02,1.300211867415050071e-01,9.914094160084053753e-01,3.537586494459495725e+02
6.546825655917103859e+00,-3.462280746349090066e+01,-2.723799972990030227e+01,-1.307461995927767726e-02,1.274897495284321725e-01,9.917527000594926756e-01,3.555084353051135508e+02
5.721133487266707007e+00,-3.310030652506936377e+01,-2.618473302543525705e+01,-1.201192490875716869e-02,1.249573363351914185e-01,9.920883921068650579e-01,3.573283425339731707e+02
4.858185994931343288e+00,-3.150275610334819376e+01,-2.506376297013052934e+01,-1.094913789324863766e-02,1.224239665472132838e-01,9.924164895805664965e-01,3.591482497628327906e+02
4.111712373465992165e+00,-3.010805117175679158e+01,-2.407413005272395523e+01,-9.886267048317078435e-03,1.198896595572523510e-01,9.927369899687717991e-01,3.606746455612080240e+02
3.350390790066702262e+00,-2.866696497497517626e+01,-2.304266503614507755e+01,-8.823320510169986933e-03,1.173544347652389075e-01,9.930498908178058137e-01,3.622010413595832574e+02
2.577600124274772142e+00,-2.717874580486400404e+01,-2.196850336209330834e+01,-7.760306415595088526e-03,1.148183115781303831e-01,9.933551897321629687e-01,3.637274371579584908e+02
1.027485044648700274e+00,-2.403263461524688083e+01,-1.965012975484827251e+01,-6.697232901898081403e-03,1.122813094097628861e-01,9.936528843745245920e-01,3.667233625326052788e+02
7.624358530083765739e-01,-2.347111528225918065e+01,-1.923016083691333122e+01,-5.634108106840374740e-03,1.097434476807027520e-01,9.939429724657782295e-01,3.672284575757428229e+02
-3.790854845317461197e-01,-2.096581209317655592e+01,-1.734236268798107261e+01,-4.570940168576786110e-03,1.072047458180976631e-01,9.942254517850329654e-01,3.694131690822193832e+02
-1.503120370236362024e+00,-1.831461466060743959e+01,-1.531726738318991998e+01,-3.507737225593297870e-03,1.046652232555283363e-01,9.945003201696390738e-01,3.715978805886959435e+02
-2.561169073306296617e+00,-1.559352271893380859e+01,-1.321294542430437957e+01,-2.444507416644750228e-03,1.021248994328595033e-01,9.947675755152021182e-01,3.737239837334024060e+02
-3.562436311651731913e+00,-1.273257674312931620e+01,-1.097526525295894473e+01,-1.381258880692593730e-03,9.958379379609132165e-02,9.950272157756007152e-01,3.758500868781088684e+02
-4.550463918031097954e+00,-9.466032917737132735e+00,-8.390121301597030623e+00,-3.179997568425312082e-04,9.704192579721042378e-02,9.952792389630015224e-01,3.781531696799910947e+02
-5.420129079835420249e+00,-5.903131061660431556e+00,-5.535070630808154313e+00,-0.000000000000000000e+00,1.466799147854173403e-02,9.998914191070392699e-01,3.805275593676896619e+02
-5.983471882408631259e+00,-2.719136517655569296e+00,-2.897041244375429869e+00,-5.300915303214144281e-01,-8.479392486978490906e-01,0.000000000000000000e+00,3.825859711819858262e+02
-6.283083387563483946e+00,-2.020178935986451096e-02,-5.646974421701578262e-01,-6.799996278746909119e-05,-9.702994690100186226e-02,9.952804553393387321e-01,3.843477663807043427e+02
-6.423156873525515564e+00,2.613904169273471911e+00,1.738031397658315491e+00,0.000000000000000000e+00,-9.950534475071196594e-01,-9.933094484754566300e-02,3.861095615794228593e+02
-6.421571337551789327e+00,5.183586548660111148e+00,3.965193130650996434e+00,9.334680231830900787e-01,2.330827560932223763e-01,2.725947147463862463e-01,3.878713567781413758e+02
-6.134682814782275173e+00,8.919474136343469084e+00,7.157053978694412066e+00,9.421051217393431321e-01,0.000000000000000000e+00,-3.353146874088773766e-01,3.905416662036265052e+02
-5.817602266945573142e+00,1.106288018284427288e+01,8.962420759140311333e+00,0.000000000000000000e+00,9.419726912952690601e-01,-3.356865336228335717e-01,3.921377518445078181e+02
-5.433145362314556692e+00,1.315946226246230744e+01,1.071526528905387821e+01,-4.348255654854416563e-01,8.976721029699533672e-01,7.148092857019787416e-02,3.937338374853891310e+02
-4.872423222100069395e+00,1.567053249153702943e+01,1.279472772908523304e+01,-8.479704324497325807e-01,5.300416452408409640e-01,0.000000000000000000e+00,3.956998775320587924e+02
-4.223387314714198482e+00,1.809660268648853432e+01,1.478004431711347522e+01,9.360262369442550190e-01,-2.510647953300592650e-01,2.466157989569151276e-01,3.976659175787284539e+02
-3.443070919454196410e+00,2.060935029049053568e+01,1.680912500606228122e+01,9.334680231820720042e-01,2.330827560929681630e-01,2.725947147460889286e-01,3.997808184345842051e+02
-2.593503762695861248e+00,2.301972675473166774e+01,1.872662255979360069e+01,-4.499992964605684142e-04,3.515004504559695042e-01,9.361865363440591281e-01,4.018957192904399562e+02
-1.855014249476823140e+00,2.493605997587032874e+01,2.023132978648115454e+01,5.752485914331315620e-01,0.000000000000000000e+00,-8.179774190364347275e-01,4.036386057486217851e+02
-1.092637554091385077e+00,2.679637331598576822e+01,2.167645452748552160e+01,0.000000000000000000e+00,1.173078338872239057e-01,9.930945937367146037e-01,4.053814922068036140e+02
-3.125734751726308436e-01,2.860150876554582311e+01,2.306327171011212585e+01,4.157246280601069044e-01,9.043401909062603883e-01,9.664291353566159537e-02,4.071243786649854428e+02
6.853533372107468713e-01,3.078457317014155237e+01,2.471526253828173836e+01,8.649910223442348611e-01,4.315195122752397971e-02,4.999264349583422140e-01,4.093164075096505599e+02
1.693469525062746506e+00,3.286309877294613102e+01,2.625693300475153791e+01,9.999988887671178742e-07,-4.977924468360499510e-01,-8.672950362321663054e-01,4.115084363543156769e+02
2.992836000104109662e+00,3.537339570221869423e+01,2.806449085673106225e+01,4.606684729581139170e-01,4.802354505719134692e-01,7.464291460248573262e-01,4.143394460944676894e+02
3.848689753274931125e+00,3.693845454053580113e+01,2.915784430651389059e+01,9.421051217399151190e-01,0.000000000000000000e+00,-3.353146874090809360e-01,4.162202302066826292e+02
4.561377793960556204e+00,3.820713768250424636e+01,3.002970659991782298e+01,0.000000000000000000e+00,1.466999104715406566e-02,9.998913897832973907e-01,4.177986149269111706e+02
5.267328850017456432e+00,3.943926336756825179e+01,3.086466342470000512e+01,-0.000000000000000000e+00,5.892782266476873643e-01,-8.079289396965886327e-01,4.193769996471397121e+02
5.964569770843513474e+00,4.063542227357851999e+01,3.166347115441643822e+01,-0.000000000000000000e+00,-9.978448059153781635e-01,-6.560292149536757489e-02,4.209553843673682536e+02
6.651326195686061205e+00,4.179620744923207099e+01,3.242687854191657948e+01,-0.000000000000000000e+00,-0.000000000000000000e+00,-9.999989999999978618e-01,4.225337690875967951e+02
7.355959402644420386e+00,4.297237543173040564e+01,3.318746245206135370e+01,8.847879010088411933e-01,3.147796090136326108e-02,-4.649274225156941887e-01,4.241847532976448747e+02
8.044232729050433406e+00,4.410957613705417657e+01,3.390924741346587012e+01,3.421418352604598812e-01,-8.417995946778096192e-03,9.396095475828185606e-01,4.258357375076929543e+02
8.714738301838732326e+00,4.520852756139982631e+01,3.459310246969474179e+01,-7.142513392295714025e-01,-6.601633892675845550e-01,-2.324377849664308049e-01,4.274867217177410339e+02
9.366273301899584069e+00,4.626994714890504667e+01,3.523988684830225537e+01,-0.000000000000000000e+00,1.466999104715451842e-02,9.998913897833281439e-01,4.291377059277891135e+02
1.005493413103531175e+01,4.738814144271696449e+01,3.590461373147870461e+01,7.342455860439269788e-01,2.131448798322807814e-01,6.445546366102687941e-01,4.309456491506165889e+02
1.071482026344317440e+01,4.845929506004716103e+01,3.652297262120268329e+01,0.000000000000000000e+00,-9.695091808013278634e-02,9.952881590190642003e-01,4.327535923734440644e+02
1.134453498122376125e+01,4.948443161527316647e+01,3.709614119593189940e+01,-0.000000000000000000e+00,1.466999104703812888e-02,9.998913897753952673e-01,4.345615355962715398e+02
1.184835366975066506e+01,5.030878767807802632e+01,3.754367770659503378e+01,-3.571165318402551581e-01,-5.924852232851008926e-01,-7.220990533686388879e-01,4.360720957677014553e+02
1.233313437135064028e+01,5.110708734629449168e+01,3.796605484886008952e+01,-0.000000000000000000e+00,8.052988517099970989e-03,-9.999665741298180421e-01,4.375826559391313708e+02
1.279852633289178776e+01,5.187982553970753941e+01,3.836382376244718273e+01,-9.494871526040347121e-01,0.000000000000000000e+00,-3.138027199381181465e-01,4.390932161105612863e+02
1.324426186035619857e+01,5.262749430235427894e+01,3.873752783502333585e+01,-0.000000000000000000e+00,-5.697617808905033332e-01,-8.218086839625030615e-01,4.406037762819912018e+02
1.385994570486488797e+01,5.368497290523671950e+01,3.923891917806818697e+01,5.328913625202522653e-01,-5.120993873929823373e-03,8.461669877593148703e-01,4.428572311856444799e+02
1.440652715308102749e+01,5.466494181305377964e+01,3.966489785362053766e+01,8.849408409611625448e-01,2.539496673929898807e-02,-4.650083909617910294e-01,4.451106860892977579e+02
1.479724078449479840e+01,5.539720725097310350e+01,3.995686316122554871e+01,2.505768424027182695e-01,-9.347684120886856629e-01,2.518278416159174804e-01,4.469081891462044496e+02
1.515237769470852847e+01,5.609194517386600154e+01,4.021279648606378032e+01,-9.789433609090828492e-01,-2.146098598946398137e-02,-2.029958674766893789e-01,4.487056922031111412e+02
1.547180370981568842e+01,5.675010046335582103e+01,4.043367395881874415e+01,7.364161080997713160e-01,-4.016585135368222481e-01,-5.443893406703463889e-01,4.505031952600178329e+02
1.575559325267320432e+01,5.737261048047099621e+01,4.062045366406555047e+01,6.355972790766519775e-01,2.092487626605343820e-01,7.431211571181780551e-01,4.523006983169245245e+02
1.599753612610190068e+01,5.794507074730885421e+01,4.077067733866652333e+01,3.588155418937137298e-01,-5.920762440855600328e-01,-7.215920787303535811e-01,4.540486153051133442e+02
1.620625801764110463e+01,5.848639517569731083e+01,4.089119820057516819e+01,9.999988887656806710e-07,-4.977924468353345233e-01,-8.672950362309198580e-01,4.557965322933021639e+02
1.638229924877900245e+01,5.899740352589870440e+01,4.098282444014032677e+01,-9.359985444642060937e-04,-1.157798199551984819e-01,9.932734553981670267e-01,4.575444492814909836e+02
1.652609797644054268e+01,5.947890616798200369e+01,4.104634609870998219e+01,7.364161080998458120e-01,-4.016585135368629378e-01,-5.443893406704015669e-01,4.592923662696798033e+02
1.663719158864884307e+01,5.993169986990847775e+01,4.108251666887910147e+01,-8.471320701131859199e-01,-2.337197434486129599e-01,4.772214761596524357e-01,4.610402832578686230e+02
1.672280296297484270e+01,6.045101300361820762e+01,4.108558818447296801e+01,-0.000000000000000000e+00,-7.950793855538058896e-02,9.968332296361908096e-01,4.632146124760731709e+02
1.674514011027836702e+01,6.091863785734079784e+01,4.103926059593754161e+01,-7.270129289258948635e-01,2.249116686481702765e-01,6.487410442401975175e-01,4.653889416942777189e+02
1.672829110303549527e+01,6.121735530968231842e+01,4.098238424355393050e+01,8.965938298717907040e-01,2.929696176507102026e-02,-4.418814233086361121e-01,4.668978939869770670e+02
1.668971465036680613e+01,6.149985980083025794e+01,4.090991217197267105e+01,0.000000000000000000e+00,2.192496970816493890e-02,-9.997586187199533070e-01,4.684068462796764152e+02
1.662856667294320445e+01,6.176657899801303131e+01,4.082221376254287293e+01,4.789225235540290337e-01,-2.317097694884231174e-01,8.467241576543310666e-01,4.699157985723757633e+02
1.654430807596539665e+01,6.201794303523131902e+01,4.071965849234100432e+01,0.000000000000000000e+00,-9.967539354453212042e-01,8.049591402862947553e-02,4.714247508650751115e+02
1.643670475241597728e+01,6.225438342508221723e+01,4.060261593183901141e+01,-2.031297923571249997e-02,9.495260293776588423e-01,-3.130266800185780851e-01,4.729337031577744597e+02
1.630582758437441271e+01,6.247633197057528065e+01,4.047145574257193346e+01,-0.000000000000000000e+00,1.080298527117794366e-01,9.941466445775256622e-01,4.744426554504738078e+02
1.615205244239490057e+01,6.268421967694729346e+01,4.032654767480516966e+01,1.270998420099415504e-03,1.158168560351329895e-01,9.932687653282034068e-01,4.759516077431731560e+02
1.596838315265007147e+01,6.288542544219745167e+01,4.016161145531884102e+01,0.000000000000000000e+00,2.016697227929927991e-02,9.997956257215542264e-01,4.775188745708272791e+02
1.576098649539249585e+01,6.307182861722564837e+01,3.998212148707717972e+01,-0.000000000000000000e+00,-2.786296520814821737e-02,9.996107518087591348e-01,4.790861413984814021e+02
1.553138242925972001e+01,6.324392005225372060e+01,3.978850834837680139e+01,-0.000000000000000000e+00,1.466699169408391436e-02,9.998914337615704140e-01,4.806534082261355252e+02
1.528145888723353707e+01,6.340218428197028544e+01,3.958120271324580131e+01,9.703928888894781668e-01,2.415277234481023882e-01,0.000000000000000000e+00,4.822206750537896482e+02
1.501347176348802748e+01,6.354709816189193816e+01,3.936063534851263057e+01,-9.986869598498341327e-01,-5.120894666497460140e-02,0.000000000000000000e+00,4.837879418814437713e+02
1.472945159130801152e+01,6.367912465313867187e+01,3.912722734404509595e+01,-0.000000000000000000e+00,-9.705539409184399391e-01,-2.408797371487796657e-01,4.853552087090978944e+02
1.443060347021617851e+01,6.379870954729152288e+01,3.888138034305532642e+01,9.968779763718003117e-01,-0.000000000000000000e+00,-7.894491893667313076e-02,4.869224755367520174e+02
1.411789023542572608e+01,6.390628939790494911e+01,3.862348630619630541e+01,-9.796745246527556183e-01,-0.000000000000000000e+00,2.005886979221412070e-01,4.884897423644061405e+02
1.379262238129859064e+01,6.400229654541858793e+01,3.835393727572438394e+01,8.220322628894005668e-01,6.371394286815161567e-02,-5.658634925941510296e-01,4.900570091920602636e+02
1.345645805218485513e+01,6.408715782879598066e+01,3.807312537283200982e+01,-6.476833636047824028e-01,2.256807782524979378e-01,-7.277172849657317366e-01,4.916242760197143866e+02
1.311140303087994674e+01,6.416129329720168073e+01,3.778144279498005886e+01,-4.199765354728376976e-01,-5.494543922601190511e-01,-7.223002010790260385e-01,4.931915428473685097e+02
1.260698752829651781e+01,6.424441954309831715e+01,3.734312192706877909e+01,-9.546707119070017011e-01,-0.000000000000000000e+00,-2.976605983803338185e-01,4.954266676423670219e+02
1.209322399109942658e+01,6.429814376856519686e+01,3.687611897103663949e+01,-8.368809030181217912e-01,4.998393448115481114e-02,-5.450962854888373732e-01,4.976617924373655342e+02
1.157763843281984073e+01,6.432399774277108406e+01,3.638206624117832888e+01,5.328913625197225779e-01,-5.120993873924732827e-03,8.461669877584736543e-01,4.998965018445167061e+02
1.106602640253782077e+01,6.432343725131805456e+01,3.586236323738098264e+01,8.088332836539762205e-01,-2.128178115171616147e-01,-5.481745145073259051e-01,5.021312112516678781e+02
1.051073979025592564e+01,6.429213691602714675e+01,3.525988756183384965e+01,0.000000000000000000e+00,-9.968312352734344239e-01,-7.953293898570877596e-02,5.045951062264240363e+02
1.016938409668179411e+01,6.425878461147227938e+01,3.487125393713890276e+01,4.595995113955145817e-01,-5.348094314391539372e-01,-7.090452462074500195e-01,5.061295306835615975e+02
9.830692141119369509e+00,6.421841187769122428e+01,3.447549469161626945e+01,8.370268619318710357e-01,-1.940497361592199432e-01,5.115943044080193403e-01,5.076639551406991586e+02
9.495055544196771891e+00,6.417128792765046796e+01,3.407289894579515988e+01,8.312525197024929202e-01,-1.787704087208492609e-01,5.263633625696976237e-01,5.091983795978367198e+02
9.162828244982097914e+00,6.411767458975910472e+01,3.366374988305368277e+01,8.250750808181854801e-01,-1.634043908731598327e-01,5.408771728016343872e-01,5.107328040549742809e+02
8.834033485171492117e+00,6.405782128636063533e+01,3.324831876635722949e+01,8.184975408960328824e-01,-1.479591340078483808e-01,5.551286969815718564e-01,5.122672285121118421e+02
8.508639466652219596e+00,6.399197176721342828e+01,3.282687091790893419e+01,8.115230895718932302e-01,-1.324421279408751206e-01,5.691110241770538369e-01,5.138016529692494032e+02
8.150820270698615033e+00,6.391141469294915822e+01,3.235043262701697131e+01,8.041551089535906582e-01,-1.168608972804771051e-01,5.828173739966266975e-01,5.155103037859190636e+02
7.798640437278673510e+00,6.382312223709921994e+01,3.186647627671118244e+01,7.963971719808080607e-01,-1.012229977783206530e-01,5.962410998777541993e-01,5.172189546025887239e+02
7.453154039337303693e+00,6.372746333911082672e+01,3.137540975846841818e+01,7.882530406924456168e-01,-8.553601266555536931e-02,6.093756923098367917e-01,5.189276054192583842e+02
7.115465382821957618e+00,6.362479421016413994e+01,3.087763116143270636e+01,7.797266644022859960e-01,-6.980754897554544702e-02,6.222147819907698496e-01,5.206362562359280446e+02
6.786381117326257595e+00,6.351545091256066655e+01,3.037351890982967717e+01,7.708221777838479838e-01,-5.404523385506254662e-02,6.347521429155119632e-01,5.223449070525977049e+02
6.466731405096061813e+00,6.339975828456613272e+01,2.986344161928207797e+01,7.615438988653623342e-01,-3.825671086572732249e-02,6.469816953951659233e-01,5.240535578692673653e+02
6.123674827820226874e+00,6.326314124400035865e+01,2.928765194798167570e+01,7.518963269358365231e-01,-2.244963627749418239e-02,6.588975090051080175e-01,5.259590404929377883e+02
5.797408468662376357e+00,6.311845859681183413e+01,2.870467348585112788e+01,7.418841403632296938e-01,-6.631675355976063800e-03,6.704938054607373354e-01,5.278645231166082112e+02
5.490001806147813745e+00,6.296615672285632570e+01,2.811503211008448488e+01,7.315121943257901771e-01,9.189501354591532445e-03,6.817649614194492003e-01,5.297700057402786342e+02
5.406686328948458353e+00,6.292230123156161170e+01,2.794846592205554714e+01,7.207855184576599239e-01,2.500622175094338248e-02,6.927055112074768095e-01,5.303051421552729607e+02
5.157050831701675442e+00,6.278448118667329680e+01,2.743166526246277215e+01,7.097093144098844952e-01,4.081081589113211977e-02,7.033101494702762579e-01,5.319586480055789934e+02
4.921643107709672726e+00,6.264238349422047492e+01,2.691116463566147488e+01,6.982889533280153271e-01,5.659561971382638668e-02,7.135737337451728557e-01,5.336121538558850261e+02
4.700337301815784130e+00,6.249620337350267363e+01,2.638719907017445720e+01,6.865299732475214078e-01,7.235297875475588114e-02,7.234912869550179648e-01,5.352656597061910588e+02
4.470995211228337318e+00,6.232833842072766117e+01,2.579906520560462013e+01,6.744380764082785751e-01,8.807525185850192950e-02,7.330579998216520954e-01,5.371089915179090895e+02
4.260548443213756364e+00,6.215524703087756819e+01,2.520679820225740997e+01,6.620191264894368377e-01,1.037548148838333406e-01,7.422692331979986458e-01,5.389523233296271201e+02
4.068163677379799559e+00,6.197719804669375776e+01,2.461071056529177881e+01,6.492791457660043175e-01,1.193840644007916479e-01,7.511205203176627432e-01,5.407956551413451507e+02
3.896885684012366013e+00,6.179910118150162646e+01,2.402604288175257352e+01,6.362243121885308161e-01,1.349554213777326706e-01,7.596075689609410597e-01,5.425932934815199360e+02
