8.978693219573475659e+00,-1.396385805444058725e+01,1.507784390030874500e+00,-3.536277332437569587e-01,1.588618515946333132e-01,9.217962564418168414e-01,1.277777456006668899e+02
8.800559303378703291e+00,-1.413484497572203047e+01,1.395228046004920452e+00,-7.895990730979509861e-03,0.000000000000000000e+00,9.999678261482837227e-01,1.287891956471853803e+02
8.270162596996261328e+00,-1.460111665531600345e+01,1.082104202431257267e+00,-0.000000000000000000e+00,5.332983833114216532e-01,8.459260217991800834e-01,1.314930740415271373e+02
7.910990668748214993e+00,-1.489268113131111271e+01,8.818282612517486241e-01,-2.327328258591808419e-01,7.626824293278462452e-01,6.034475484743073714e-01,1.331447388182745044e+02
7.535796761428664503e+00,-1.518760396306983296e+01,6.766442485373552751e-01,-2.327326561483562817e-01,6.034521084276577296e-01,7.626788731775399066e-01,1.347964035950218715e+02
7.149619752582311527e+00,-1.548594190177778707e+01,4.665515895201197694e-01,-4.039896372713496636e-02,7.947932863819529015e-01,6.055324563128597903e-01,1.364480683717692386e+02
6.757179597750346822e+00,-1.578776675760557069e+01,2.515509431898342307e-01,-0.000000000000000000e+00,6.060361314456015336e-01,7.954358600030937421e-01,1.380997331485166058e+02
6.374353494426584277e+00,-1.608396336651349401e+01,3.831652784204919726e-02,-0.000000000000000000e+00,9.522095684558443685e-01,-3.054422003223045134e-01,1.397023360546264996e+02
5.993082199544775612e+00,-1.638345810140171466e+01,-1.793951814760867403e-01,-0.000000000000000000e+00,3.025597526115429356e-02,-9.995411827235815005e-01,1.413049389607363935e+02
5.616775716894099268e+00,-1.668634569031968695e+01,-4.015802988395010265e-01,5.171696928923773251e-02,7.942155283759930740e-01,-6.054296404815283639e-01,1.429075418668462873e+02
5.248476015697370656e+00,-1.699272943874818154e+01,-6.282345569117094852e-01,-8.546310827774190877e-03,4.438962004049118448e-01,-8.960363406901238337e-01,1.445101447729561812e+02
4.890571222658470774e+00,-1.730271527649290420e+01,-8.593529574217717570e-01,-6.700796228891355011e-02,0.000000000000000000e+00,-9.977514384803017888e-01,1.461127476790660751e+02
4.504217640243748377e+00,-1.765568054626138306e+01,-1.124576552729572576e+00,-0.000000000000000000e+00,3.410856895394125399e-01,-9.400311443715456683e-01,1.479125925835833755e+02
4.137691445760860454e+00,-1.801429449771504210e+01,-1.396105422469055446e+00,-4.477014130561516314e-01,5.740342474317470245e-01,-6.855991011684057224e-01,1.497124374881006759e+02
3.777130409748415296e+00,-1.839756336743233334e+01,-1.688337586404330848e+00,-4.538174581827626453e-01,5.840034984203451573e-01,-6.730435561554521939e-01,1.516033948563057550e+02
3.444117606642779439e+00,-1.878791308545853056e+01,-1.987860057129835489e+00,-4.597998839781561875e-01,5.938007988983723395e-01,-6.602898438733986186e-01,1.534943522245108340e+02
3.253295407823336927e+00,-1.902926381005913115e+01,-2.173851805069162424e+00,-4.656469290137109640e-01,6.034232642109552680e-01,-6.473417194265389529e-01,1.546492817387693890e+02
2.865546377232817132e+00,-1.958199475590680549e+01,-2.601942398708174675e+00,-4.713568717203097669e-01,6.128680611790129351e-01,-6.342029951598431303e-01,1.572381599301258746e+02
2.602296890172772326e+00,-2.002988076917193894e+01,-2.950751865636266125e+00,-4.769280308954662040e-01,6.221324089337368912e-01,-6.208775395369483530e-01,1.592757807236200449e+02
2.373049209933122405e+00,-2.048764043862993489e+01,-3.308643774310620067e+00,-4.823587661983181896e-01,6.312135797353494171e-01,-6.073692760012461278e-01,1.613134015171142153e+02
2.200379224213709239e+00,-2.089084179131409513e+01,-3.624853308330108881e+00,-4.876474786325935007e-01,6.401088997762253152e-01,-5.936821818207782542e-01,1.630746862746346437e+02
2.049459951536156677e+00,-2.130050486891022743e+01,-3.946919413339887495e+00,-4.927926110174035701e-01,6.488157499681351803e-01,-5.798202869172899288e-01,1.648359710321550722e+02
1.919462871592286568e+00,-2.171669367522689598e+01,-4.274832786704219068e+00,-4.977926484457307343e-01,6.573315667133846629e-01,-5.657876726797791411e-01,1.665972557896755006e+02
1.781647457093656239e+00,-2.227418498479518405e+01,-4.715133360714585997e+00,-5.026461187304689382e-01,6.656538426596165792e-01,-5.515884707628916361e-01,1.689064121708143489e+02
1.707604002064830651e+00,-2.266242698253184784e+01,-5.022371067013694734e+00,-5.073515928378907747e-01,6.737801274380594840e-01,-5.372268618705183796e-01,1.704833263511160624e+02
1.647287547751850045e+00,-2.305540628038594164e+01,-5.333762943967360393e+00,-5.119076853084115752e-01,6.817080283849999978e-01,-5.227070745249489114e-01,1.720602405314177759e+02
1.600267688077177342e+00,-2.345312171741477414e+01,-5.649291843713803551e+00,-5.163130546645257057e-01,6.894352112462706073e-01,-5.080333838219477371e-01,1.736371547117194893e+02
1.562339496567195729e+00,-2.393012965683089632e+01,-6.028241452254272659e+00,-5.205664038057968845e-01,6.969594008645438876e-01,-4.932101101721136360e-01,1.755018574284269164e+02
1.544051096962267389e+00,-2.441494322073129908e+01,-6.413963253259626462e+00,-5.246664803907847840e-01,7.042783818492285297e-01,-4.782416180289001395e-01,1.773665601451343434e+02
1.545121800116651789e+00,-2.490750877934742391e+01,-6.806416456296052075e+00,-5.286120772057959494e-01,7.113899992287757712e-01,-4.631323146036630534e-01,1.792312628618417705e+02
1.561006858751273985e+00,-2.533893824001808781e+01,-7.150581985594317125e+00,-5.324020325203498993e-01,7.182921590851972793e-01,-4.478866485681212151e-01,1.808425461474889175e+02
1.590243601697671538e+00,-2.577528147593561414e+01,-7.499032115268563281e+00,-5.360352304292571590e-01,7.249828291706127414e-01,-4.325091087446040206e-01,1.824538294331360646e+02
1.633075775453303624e+00,-2.621649417040309871e+01,-7.851739190249639400e+00,-5.395106011812063063e-01,7.314600395056418680e-01,-4.170042227844799609e-01,1.840651127187832117e+02
1.689688351667498534e+00,-2.666252672622000475e+01,-8.208673779060529085e+00,-5.428271214937649969e-01,7.377218829594686111e-01,-4.013765558351459206e-01,1.856763960044303587e+02
1.760066423032620619e+00,-2.711331748150388776e+01,-8.569802928359196770e+00,-5.459838148547009329e-01,7.437665158114024067e-01,-3.856307091959783051e-01,1.872876792900775058e+02
1.857916455098360675e+00,-2.763386835258941687e+01,-8.987374643612536573e+00,-5.489797518095351769e-01,7.495921582937737915e-01,-3.697713189636335218e-01,1.891264312842747870e+02
1.972152736970836484e+00,-2.814967456875407947e+01,-9.401786068969387955e+00,-5.518140502352414378e-01,7.551970951160036361e-01,-3.538030546671026011e-01,1.909254521062549657e+02
2.104031520814365397e+00,-2.867170395151123330e+01,-9.821865962598501198e+00,-5.544858756000125011e-01,7.605796759696916709e-01,-3.377306178929184166e-01,1.927244729282351443e+02
2.252815715609992164e+00,-2.919979359500113603e+01,-1.024754207867741229e+01,-5.569944412090165331e-01,7.657383160145756484e-01,-3.215587409009197928e-01,1.945234937502153230e+02
2.423902830048654700e+00,-2.975252278928866900e+01,-1.069392950099234696e+01,-5.593390084360680969e-01,7.706714963452164779e-01,-3.052921852309834483e-01,1.963850754527980484e+02
2.444427836410762112e+00,-2.981603061354826778e+01,-1.074526753810768653e+01,-5.615188869411521511e-01,7.753777644382746637e-01,-2.889357403011282854e-01,1.965977098893566506e+02
2.668025184487757162e+00,-3.047629475006808164e+01,-1.127992907364246378e+01,-5.635334348737289778e-01,7.798557345802432650e-01,-2.724942219974095248e-01,1.987919218826332894e+02
2.913766770050553401e+00,-3.114589984583096083e+01,-1.182416148388612065e+01,-5.653820590617657516e-01,7.841040882755124786e-01,-2.559724712560161319e-01,2.009861338759099283e+02
3.196775741614447330e+00,-3.186881291113142467e+01,-1.241433585137628093e+01,-5.670642151864367930e-01,7.881215746346472706e-01,-2.393753526379856500e-01,2.033230477967875345e+02
3.392541865056623696e+00,-3.234959573819372736e+01,-1.280817317867779437e+01,-5.685794079424407732e-01,7.919070107427592653e-01,-2.227077528969626241e-01,2.048620966673256021e+02
3.592864946291843609e+00,-3.283310694746887748e+01,-1.320501322961894175e+01,-5.699271911838876825e-01,7.954592820078693061e-01,-2.059745795404157032e-01,2.064011455378636697e+02
3.796365247443853619e+00,-3.331913611386957541e+01,-1.360476912862035626e+01,-5.711071680557143759e-01,7.987773424891535523e-01,-1.891807593847399938e-01,2.079401944084017373e+02
4.001685225146399461e+00,-3.380746319256314791e+01,-1.400734999954578797e+01,-5.721189911105857284e-01,8.018602152049797427e-01,-1.723312371046700486e-01,2.094792432789398049e+02
4.207311848864817350e+00,-3.429785341071239202e+01,-1.441265698503181980e+01,-5.729623624112515357e-01,8.047069924206398106e-01,-1.554309737774301758e-01,2.110182921494778725e+02
4.419988868672011684e+00,-3.481003453231716804e+01,-1.483720592831909357e+01,-5.736370336183250762e-01,8.073168359156969176e-01,-1.384849454220488663e-01,2.126196247326285231e+02
4.629976673380916452e+00,-3.532393792807467037e+01,-1.526459087812782123e+01,-5.741428060634597985e-01,8.096889772308643041e-01,-1.214981415342715060e-01,2.142209573157791738e+02
4.836101468675747306e+00,-3.583926582378461489e+01,-1.569469132425008340e+01,-5.744795308079017060e-01,8.118227178943475675e-01,-1.044755636174971719e-01,2.158222898989298244e+02
5.037274612885772385e+00,-3.635571094418647675e+01,-1.612738058631897076e+01,-5.746471086863987887e-01,8.137174296275785368e-01,-8.742222371017643878e-02,2.174236224820804750e+02
5.232316332229959066e+00,-3.687295104847402172e+01,-1.656251966404630238e+01,-5.746454903364567324e-01,8.153725545302848987e-01,-7.034314291010353160e-02,2.190249550652311257e+02
5.443237634602141384e+00,-3.745659521854148011e+01,-1.705604299700032911e+01,-5.744746762129304685e-01,8.167876052448369562e-01,-5.324334989603181356e-02,2.208303364716693977e+02
5.643346252656719741e+00,-3.804024664332175831e+01,-1.755264284781153350e+01,-5.741347165879472358e-01,8.179621650998242233e-01,-3.612787944705726090e-02,2.226357178781076698e+02
5.831957048945801247e+00,-3.862336222562693422e+01,-1.805208500416437545e+01,-5.736257115361622638e-01,8.188958882328213340e-01,-1.900177096019657619e-02,2.244410992845459418e+02
6.008569888871020837e+00,-3.920538842226650189e+01,-1.855412418461088464e+01,-5.729478109053498525e-01,8.195884996923028520e-01,-1.870066966601695909e-03,2.262464806909842139e+02
6.148431121541993782e+00,-3.969634026912759595e+01,-1.898027713539426031e+01,-5.721012142723376215e-01,8.200397955186810028e-01,1.526218835315146932e-02,2.277728269828524503e+02
6.279703502696543538e+00,-4.018606736430499637e+01,-1.940768693402585754e+01,-5.710861708843012474e-01,8.202496428044390164e-01,3.238995065426982650e-02,2.292991732747206868e+02
6.402387972240176417e+00,-4.067426888955218089e+01,-1.983621101266215803e+01,-5.699029795854304581e-01,8.202179797333443156e-01,4.950817691299722045e-02,2.308255195665889232e+02
6.516468506155129070e+00,-4.116064026614777305e+01,-2.026570098784386076e+01,-5.685519887289918195e-01,8.199448155987272280e-01,6.661182691148995194e-02,2.323518658584571597e+02
6.621653897914692166e+00,-4.164486857544775944e+01,-2.069599685323509775e+01,-5.670335960748144055e-01,8.194302308008243330e-01,8.369586472186703319e-02,2.338782121503253961e+02
6.735711970080539679e+00,-4.222552326548161261e+01,-2.121625162095424599e+01,-5.653482486722251066e-01,8.186743768231812268e-01,1.007552601890046862e-01,2.357203943000762081e+02
6.835125396869575987e+00,-4.280107445180330927e+01,-2.173729986815271786e+01,-5.634964427284711030e-01,8.176774761881250297e-01,1.177849904116346075e-01,2.375625764498270200e+02
6.920494163456699432e+00,-4.337085419821423216e+01,-2.225879047426727197e+01,-5.614787234626673618e-01,8.164398223913194030e-01,1.347800412213115140e-01,2.394047585995778320e+02
6.992484616606342129e+00,-4.393419003603217021e+01,-2.278035863054293131e+01,-5.592956849453099011e-01,8.149617798154199511e-01,1.517354086588119100e-01,2.412469407493286440e+02
7.049914166813983307e+00,-4.447521453415660631e+01,-2.328720677501273073e+01,-5.569479699234053394e-01,8.132437836228557648e-01,1.686461004475353631e-01,2.430381597588659872e+02
7.095274139544643255e+00,-4.500907133989200304e+01,-2.379339998106306808e+01,-5.544362696312655769e-01,8.112863396277686379e-01,1.855071374634646442e-01,2.448293787684033305e+02
7.129385027797097152e+00,-4.553514236291895401e+01,-2.429857537239600518e+01,-5.517613235870244548e-01,8.090900241471472576e-01,2.023135552012632621e-01,2.466205977779406737e+02
7.153246452740952499e+00,-4.605280721782138187e+01,-2.480235730433073016e+01,-5.489239193749351209e-01,8.066554838312000042e-01,2.190604052360662080e-01,2.484118167874780170e+02
7.167473472715121474e+00,-4.655061203940055492e+01,-2.529350722565230214e+01,-5.459248924135134962e-01,8.039834354730173160e-01,2.357427566805452290e-01,2.501642124378294341e+02
7.173648650411808880e+00,-4.703937760709234084e+01,-2.578259496511537563e+01,-5.427651257095951198e-01,8.010746657975765794e-01,2.523556976368104277e-01,2.519166080881808512e+02
7.173014328987548538e+00,-4.751852226442315441e+01,-2.626922932684051659e+01,-5.394455495983773163e-01,7.979300312301549347e-01,2.688943366427241632e-01,2.536690037385322682e+02
7.167173647980683349e+00,-4.797491820335607571e+01,-2.673985460512711754e+01,-5.359671414695245106e-01,7.945504576442162792e-01,2.853538041122027358e-01,2.553735019126669386e+02
7.157772920818438855e+00,-4.842138964007786939e+01,-2.720745493251230229e+01,-5.323309254794159617e-01,7.909369400888460744e-01,3.017292537690785537e-01,2.570780000868015804e+02
7.146853703292367577e+00,-4.885741576741266101e+01,-2.767164811358271592e+01,-5.285379722496209576e-01,7.870905424958157814e-01,3.180158640741014286e-01,2.587824982609362223e+02
7.136566350986687013e+00,-4.928247825026861761e+01,-2.813204040284930940e+01,-5.245893985516908442e-01,7.830123973663611903e-01,3.342088396446576404e-01,2.604869964350708642e+02
7.128584312634763442e+00,-4.971717128646826467e+01,-2.861199666067522429e+01,-5.204863669783590385e-01,7.787037054377687895e-01,3.503034126667933790e-01,2.622813080703589890e+02
7.125953734074744084e+00,-5.013782847651776819e+01,-2.908651438898088415e+01,-5.162300856012482786e-01,7.741657353298662114e-01,3.662948442991186826e-01,2.640756197056471137e+02
7.131761738815053597e+00,-5.054382148100798133e+01,-2.955506775680373011e+01,-5.118218076151832552e-01,7.693998231715217795e-01,3.821784260681845291e-01,2.658699313409352385e+02
7.149035827822487477e+00,-5.093452736231924405e+01,-3.001711585538721394e+01,-5.072628309692149839e-01,7.644073722072635135e-01,3.979494812549194682e-01,2.676642429762233633e+02
7.180532018969936203e+00,-5.131341497281324848e+01,-3.047720652497901028e+01,-5.025544979844644988e-01,7.591898523841327240e-01,4.136033662717182868e-01,2.694790839320903615e+02
7.228489636175327249e+00,-5.167517788563397119e+01,-3.092936362806472417e+01,-4.976981949588997756e-01,7.537487999188935417e-01,4.291354720297743119e-01,2.712939248879573597e+02
7.307739570508756444e+00,-5.206708576470042971e+01,-3.143748813700396383e+01,-4.926953517591612375e-01,7.480858168457265034e-01,4.445412252962566702e-01,2.733795550726703141e+02
7.415605050908296469e+00,-5.243079729109404497e+01,-3.193149482470776235e+01,-4.875474413995548040e-01,7.422025705445384203e-01,4.598160900409309915e-01,2.754651852573832684e+02
7.523404147946256337e+00,-5.270519803617803944e+01,-3.232050815342321926e+01,-4.822559796083397132e-01,7.361007932500290840e-01,4.749555687718233221e-01,2.771503241305571805e+02
7.648555314769969193e+00,-5.296364883570184645e+01,-3.270086429522132931e+01,-4.768225243814354641e-01,7.297822815416562525e-01,4.899552038595406667e-01,2.788354630037310926e+02
7.790545908548581089e+00,-5.320561719187801231e+01,-3.307199593950833361e+01,-4.712486755236822700e-01,7.232488958146539026e-01,5.048105788498503665e-01,2.805206018769050047e+02
7.949969391274182229e+00,-5.343231673769453494e+01,-3.343630227116081244e+01,-4.655360741777864186e-01,7.165025597322538520e-01,5.195173197641381746e-01,2.822201010611022980e+02
8.124988670802819613e+00,-5.364095949148235576e+01,-3.378991549707598807e+01,-4.596864023410939804e-01,7.095452596592768391e-01,5.340710963873566142e-01,2.839196002452995913e+02
8.315059934048992574e+00,-5.383095501291041529e+01,-3.413219862846079167e+01,-4.537013823703304749e-01,7.023790440772567090e-01,5.484676235430896440e-01,2.856190994294968846e+02
8.547110298701534603e+00,-5.402040790458227093e+01,-3.450276379946043193e+01,-4.475827764744564896e-01,6.950060229812723422e-01,5.627026623553502693e-01,2.875356173344138142e+02
8.797890570960815282e+00,-5.418111845004997207e+01,-3.485507593712210195e+01,-4.413323861957850203e-01,6.874283672586627425e-01,5.767720214967487768e-01,2.894521352393307438e+02
9.037129238926127073e+00,-5.430088211357605843e+01,-3.515427127584057843e+01,-4.349520518795168544e-01,6.796483080498103568e-01,5.906715584226543969e-01,2.911639216021561083e+02
9.290087585251976421e+00,-5.439886972137077237e+01,-3.543892226776341658e+01,-4.284436521318462088e-01,6.716681360911785914e-01,6.043971805909956752e-01,2.928757079649814727e+02
9.377594961342794022e+00,-5.442766506752437294e+01,-3.553167557291505574e+01,-4.218091032668009333e-01,6.634902010407999207e-01,6.179448466673320706e-01,2.934503363860486616e+02
9.632325713679120938e+00,-5.449840018004769604e+01,-3.578747137868975869e+01,-4.150503587419766549e-01,6.551169107864113217e-01,6.313105677148475037e-01,2.950832174921559385e+02
9.896369750499223628e+00,-5.454885374332148018e+01,-3.602905775132563804e+01,-4.081694085833322272e-01,6.465507307364410927e-01,6.444904083689115826e-01,2.967160985982632155e+02
1.016734539840669704e+01,-5.457838942182025477e+01,-3.625572305232241632e+01,-4.011682787992157384e-01,6.377941830940546675e-01,6.574804879958687787e-01,2.983489797043704925e+02
1.052093302276612974e+01,-5.457915949083238161e+01,-3.651984296982048761e+01,-3.940490307837954398e-01,6.288498461144789164e-01,6.702769818357008358e-01,3.004448179621692248e+02
1.087632683921959575e+01,-5.453198662208230729e+01,-3.674895218755813886e+01,-3.868137607100681219e-01,6.197203533458145452e-01,6.828761221282440008e-01,3.025406562199679570e+02
1.118533304188338207e+01,-5.445221324698775334e+01,-3.692121510800335216e+01,-3.794645989126267382e-01,6.104083928535698478e-01,6.952741992226123546e-01,3.043780171839029549e+02
1.148762930650602598e+01,-5.433785971679064630e+01,-3.706724627091328017e+01,-3.720037092603671325e-01,6.009167064291360827e-01,7.074675626695127173e-01,3.062153781478379528e+02
1.177828703083623374e+01,-5.418772384956973553e+01,-3.718577816854183027e+01,-3.644332885193204419e-01,5.912480887824439479e-01,7.194526222961212802e-01,3.080527391117729508e+02
1.205171154914054554e+01,-5.400033382809782978e+01,-3.727556819306627034e+01,-3.567555657057973617e-01,5.814053867190359659e-01,7.312258492632092155e-01,3.098919162615485448e+02
1.230189668761375188e+01,-5.377451066867048723e+01,-3.733514752717192664e+01,-3.489728014300353953e-01,5.713914983017965854e-01,7.427837771042065107e-01,3.117310934113241387e+02
1.252435572426834653e+01,-5.350894111350091009e+01,-3.736319218722213975e+01,-3.410872872305426018e-01,5.612093719975898010e-01,7.541230027458956098e-01,3.135702705610997327e+02
1.270154872284590652e+01,-5.323145291008685831e+01,-3.736128895619216905e+01,-3.331013448993348502e-01,5.508620058090528682e-01,7.652401875104337670e-01,3.152534647345256644e+02
1.285252303997740775e+01,-5.292159191765706794e+01,-3.733324859832556086e+01,-3.250173257982631458e-01,5.403524463918049081e-01,7.761320580984126805e-01,3.169366589079515961e+02
1.297581309386663051e+01,-5.257839941631630865e+01,-3.727812955423408425e+01,-3.168376101666346423e-01,5.296837881573259743e-01,7.867954075526625290e-01,3.186198530813775278e+02
1.306928145976403322e+01,-5.220089287599738981e+01,-3.719496439976502700e+01,-3.085646064203300676e-01,5.188591723617768103e-01,7.972270962025180818e-01,3.203030472548034595e+02
1.312754797558211095e+01,-5.182751297632037080e+01,-3.709502208692371994e+01,-3.002007504426254525e-01,5.078817861810233092e-01,8.074240525882665498e-01,3.218368154976241158e+02
1.315999576112687564e+01,-5.142673639760995741e+01,-3.697242451606587821e+01,-2.917485048669243297e-01,4.967548617721393445e-01,8.173832743655096156e-01,3.233705837404447720e+02
1.316629354530072860e+01,-5.099786426534632966e+01,-3.682649597316228096e+01,-2.832103583516162315e-01,4.854816753216658620e-01,8.271018291891677476e-01,3.249043519832654283e+02
1.314603440661270106e+01,-5.054019166055350354e+01,-3.665655209056480857e+01,-2.745888248472701521e-01,4.740655460809051758e-01,8.365768555768701153e-01,3.264381202260860846e+02
1.309811338145479276e+01,-5.005300074884807771e+01,-3.646189104605596043e+01,-2.658864428563825766e-01,4.625098353885349067e-01,8.458055637514756420e-01,3.279718884689067409e+02
1.302136536528522548e+01,-4.953556411212503008e+01,-3.624180237284495121e+01,-2.571057746858965154e-01,4.508179456808306118e-01,8.547852364624755062e-01,3.295056567117273971e+02
1.287799270996480594e+01,-4.882769920407054798e+01,-3.591913546017848802e+01,-2.482494056927120607e-01,4.389933194897872037e-01,8.635132297860359518e-01,3.314514830423502190e+02
1.267891092771185768e+01,-4.805487181679198017e+01,-3.554133750573119244e+01,-2.393199435224110661e-01,4.270394384294359802e-01,8.719869739034467049e-01,3.333973093729730408e+02
1.242192581003560825e+01,-4.721517104199340764e+01,-3.510650447729574353e+01,-2.303200173414198804e-01,4.149598221706545242e-01,8.802039738577452921e-01,3.353431357035958627e+02
1.213177011471603173e+01,-4.637845799568108163e+01,-3.465321021960584602e+01,-2.212522770628361224e-01,4.027580274047719566e-01,8.881618102882933297e-01,3.371450062663768108e+02
1.179155740930984031e+01,-4.548557697771657615e+01,-3.415163817066107299e+01,-2.121193925661492286e-01,3.904376467962763497e-01,8.958581401430911750e-01,3.389468768291577589e+02
1.140003007573373850e+01,-4.453506871148984203e+01,-3.360032731483532586e+01,-2.029240529110818148e-01,3.780023079249303364e-01,9.032906973686182228e-01,3.407487473919387071e+02
1.103378542064376866e+01,-4.369643200655350768e+01,-3.310192625349516504e+01,-1.936689655457859149e-01,3.654556722176083294e-01,9.104572935769992270e-01,3.422586678572885148e+02
1.063472095634249293e+01,-4.282207113043250502e+01,-3.257261822306282539e+01,-1.843568555096262995e-01,3.528014338701691566e-01,9.173558186902963651e-01,3.437685883226383226e+02
1.020260870664010255e+01,-4.191124065718512526e+01,-3.201165357834899083e+01,-1.749904646307861855e-01,3.400433187596836881e-01,9.239842415617414151e-01,3.452785087879881303e+02
9.688064076875075870e+00,-4.086460046075524133e+01,-3.135544257557329573e+01,-1.655725507189308165e-01,3.271850833473343712e-01,9.303406105737225262e-01,3.469386984345326255e+02
9.131506744651611385e+00,-3.976759074205567401e+01,-3.065505508203145979e+01,-1.561058867531681382e-01,3.142305135723137410e-01,9.364230542123506140e-01,3.485988880810771207e+02
8.533780099031002209e+00,-3.861910972018674926e+01,-2.990935532775912975e+01,-1.465932600655444895e-01,3.011834237370449863e-01,9.422297816184359576e-01,3.502590777276216158e+02
7.860113803930756760e+00,-3.735019441245083271e+01,-2.907169042869885089e+01,-1.370374715203162563e-01,2.880476553840535248e-01,9.477590831147151285e-01,3.520088635867855942e+02
7.143304810154455176e+00,-3.601852195737580331e+01,-2.817822679920362816e+01,-1.274413346892400711e-01,2.748270761648228810e-01,9.530093307091681565e-01,3.537586494459495725e+02
6.386245634864545551e+00,-3.462273736940178992e+01,-2.722752019793169609e+01,-1.178076750231234204e-01,2.615255787009641009e-01,9.579789785742844899e-01,3.555084353051135508e+02
5.559687069387004854e+00,-3.310018229152475300e+01,-2.617513017561962130e+01,-1.081393290198791740e-01,2.481470794380365164e-01,9.626665635021303125e-01,3.573283425339731707e+02
4.697822288207233576e+00,-3.150256199453992068e+01,-2.505500441380352328e+01,-9.843914338933132391e-02,2.346955174923581744e-01,9.670707053350897642e-01,3.591482497628327906e+02
3.953001381586662255e+00,-3.010778078775950561e+01,-2.406603739420211596e+01,-8.870997421501553015e-02,2.211748534911432140e-01,9.711901073721475042e-01,3.606746455612080240e+02
3.193287741446179329e+00,-2.866659277046783316e+01,-2.303518273862567867e+01,-7.895468611322278840e-02,2.075890684063100566e-01,9.750235567505972645e-01,3.622010413595832574e+02
2.422277034999772649e+00,-2.717824138840486725e+01,-2.196156908810509378e+01,-6.917615138953338294e-02,1.939421623823029961e-01,9.785699248030634845e-01,3.637274371579584908e+02
8.877429768482602013e-01,-2.403200510227922493e+01,-1.964453944006404740e+01,-5.937724919308901700e-02,1.802381535582711913e-01,9.818281673897290007e-01,3.667233625326052788e+02
6.273155876663475405e-01,-2.347049871444680136e+01,-1.922485074604676925e+01,-4.956086466885394753e-02,1.664810768849552536e-01,9.847973252056743121e-01,3.672284575757428229e+02
-4.923720135157788613e-01,-2.096527239629022432e+01,-1.733821381188772293e+01,-3.972988810811247523e-02,1.526749829366260691e-01,9.874765240632356056e-01,3.694131690822193832e+02
-1.591646721340065351e+00,-1.831418312462039566e+01,-1.531418703576003360e+01,-2.988721409745467156e-02,1.388239367184285200e-01,9.898649751493007187e-01,3.715978805886959435e+02
-2.624060167578798453e+00,-1.559321524720228425e+01,-1.321078471671975763e+01,-2.003574066649994184e-02,1.249320164694793650e-01,9.919619752574653226e-01,3.737239837334024060e+02
-3.599543803268704600e+00,-1.273239431050525816e+01,-1.097387452496154303e+01,-1.017836843461017264e-02,1.110033124620737333e-01,9.937669069949840450e-01,3.758500868781088684e+02
-4.563649808495552129e+00,-9.465967290823208202e+00,-8.389398067523192282e+00,-3.179997568429946504e-04,9.704192579735186619e-02,9.952792389644522508e-01,3.781531696799910947e+02
-5.420145364657426690e+00,-5.903113849746838504e+00,-5.534868598347486568e+00,-8.479704324504668822e-01,5.300416452413000412e-01,0.000000000000000000e+00,3.805275593676896619e+02
-5.983471882409554077e+00,-2.719136517655204255e+00,-2.897041244375600844e+00,-0.000000000000000000e+00,5.892782266480474096e-01,-8.079289396970823489e-01,3.825859711819858262e+02
-6.285094267316331695e+00,-2.033262261213167332e-02,-5.646974603097156820e-01,-6.696665005626335487e-01,1.278249046681688428e-01,7.315774543894357773e-01,3.843477663807043427e+02
-6.423209393385148402e+00,2.613443409304757825e+00,1.737915317241388591e+00,-2.031297923577800660e-02,9.495260293807207264e-01,-3.130266800195874999e-01,3.861095615794228593e+02
-6.415795641950359673e+00,5.182585322818539453e+00,3.964689470804861227e+00,-9.789433609091207078e-01,-2.146098598946481056e-02,-2.029958674766971782e-01,3.878713567781413758e+02
-6.145692224298398010e+00,8.917303035830018487e+00,7.155605988695584507e+00,9.999988887672233298e-07,-4.977924468361022980e-01,-8.672950362322575657e-01,3.905416662036265052e+02
-5.853182502000993104e+00,1.105991245744801255e+01,8.960217876577432961e+00,-1.405218985054277336e-01,4.256286925817074351e-01,8.939193543500089101e-01,3.921377518445078181e+02
-5.488503078076747421e+00,1.315564215090541289e+01,1.071211556620155037e+01,9.334680231831015140e-01,2.330827560932252351e-01,2.725947147463895770e-01,3.937338374853891310e+02
-4.949151907964489006e+00,1.566556091314192578e+01,1.279016214681653096e+01,8.849807075425046854e-01,-1.526297770940114942e-02,-4.653753203492281276e-01,3.956998775320587924e+02
-4.320908046715064899e+00,1.809035977161007835e+01,1.477380300303503624e+01,4.606684729586478788e-01,4.802354505724701350e-01,7.464291460257225230e-01,3.976659175787284539e+02
-3.562910201128379750e+00,2.060161023176366157e+01,1.680081620051890567e+01,4.608364502592177114e-01,4.800774273062812236e-01,-7.464271095725546479e-01,3.997808184345842051e+02
-2.735940825158544421e+00,2.301036408360067398e+01,1.871599701950939476e+01,0.000000000000000000e+00,9.419726912948929165e-01,-3.356865336226995122e-01,4.018957192904399562e+02
-2.014818624103762446e+00,2.492527341784785477e+01,2.021860882042427576e+01,0.000000000000000000e+00,8.584009604375735236e-01,5.129773787611696667e-01,4.036386057486217851e+02
-1.267590700564257933e+00,2.678408512940688979e+01,2.166146823929587484e+01,0.000000000000000000e+00,1.466799147870240586e-02,9.998914191179918420e-01,4.053814922068036140e+02
-5.006663843761430810e-01,2.858763665821934552e+01,2.304585869902522788e+01,9.421051217398734856e-01,0.000000000000000000e+00,-3.353146874090661700e-01,4.071243786649854428e+02
4.832311404117597409e-01,3.076858277202390468e+01,2.469460648937208447e+01,-4.499992964605723173e-04,3.515004504559725573e-01,9.361865363440673438e-01,4.093164075096505599e+02
1.480133669034658261e+00,3.284484052600185322e+01,2.623285836348984290e+01,7.364161080997230213e-01,-4.016585135367958803e-01,-5.443893406703107507e-01,4.115084363543156769e+02
2.772093111420209866e+00,3.535200946473302963e+01,2.803593612431454218e+01,-4.348255654855781027e-01,8.976721029702350307e-01,7.148092857022030067e-02,4.143394460944676894e+02
3.627175038124005546e+00,3.691484889116588874e+01,2.912627746408342588e+01,3.588155418935788932e-01,-5.920762440853375441e-01,-7.215920787300824646e-01,4.162202302066826292e+02
4.339957861052128330e+00,3.818156621880967094e+01,2.999551164273182380e+01,0.000000000000000000e+00,8.052988517099979662e-03,-9.999665741298190413e-01,4.177986149269111706e+02
5.046151234076050152e+00,3.941163643522404669e+01,3.082774985546268454e+01,9.334680231830868591e-01,2.330827560932215436e-01,2.725947147463853026e-01,4.193769996471397121e+02
5.743633507190788023e+00,4.060565225046333637e+01,3.162375313298398183e+01,9.421051217393431321e-01,0.000000000000000000e+00,-3.353146874088773766e-01,4.209553843673682536e+02
6.430491980685313358e+00,4.176420923832506560e+01,3.238427478804064208e+01,0.000000000000000000e+00,-9.695091808015361690e-02,9.952881590192779182e-01,4.225337690875967951e+02
7.135087489266272343e+00,4.293795760760990277e+01,3.314175871693938547e+01,-8.471320701135903741e-01,-2.337197434487245096e-01,4.772214761598801980e-01,4.241847532976448747e+02
7.823194903510871434e+00,4.407264974929245938e+01,3.386036584606615918e+01,-9.494871526037788056e-01,-0.000000000000000000e+00,-3.138027199380335475e-01,4.258357375076929543e+02
8.493298387682294504e+00,4.516900689719301454e+01,3.454097021265495471e+01,0.000000000000000000e+00,-9.950534475071192153e-01,-9.933094484754562137e-02,4.274867217177410339e+02
9.144094952771578022e+00,4.622775009353547659e+01,3.518443591741355192e+01,-6.799996278746933513e-05,-9.702994690100219533e-02,9.952804553393420628e-01,4.291377059277891135e+02
9.831993681833420595e+00,4.734292181637963637e+01,3.584545981237506851e+01,1.270998420251030769e-03,1.158168560489485771e-01,9.932687654466887395e-01,4.309456491506165889e+02
1.049159405017980085e+01,4.841095717324688508e+01,3.646005300393543536e+01,4.157246280601070154e-01,9.043401909062606103e-01,9.664291353566160925e-02,4.327535923734440644e+02
1.112143704735863103e+01,4.943288106782922853e+01,3.702939911025084996e+01,3.421418352604539970e-01,-8.417995946777950475e-03,9.396095475828023513e-01,4.345615355962715398e+02
1.162492734535655714e+01,5.025448432884684280e+01,3.747369814859338533e+01,2.505768424027042252e-01,-9.347684120886332604e-01,2.518278416159033251e-01,4.360720957677014553e+02
1.210815707990990298e+01,5.104997620658937052e+01,3.789279681305738023e+01,9.999988887672093537e-07,-4.977924468360954147e-01,-8.672950362322454643e-01,4.375826559391313708e+02
1.257072946666967894e+01,5.181985762164698173e+01,3.828724918079438311e+01,-7.142513392295322117e-01,-6.601633892675482507e-01,-2.324377849664180373e-01,4.390932161105612863e+02
1.301233835304259756e+01,5.256462673400002217e+01,3.865760148470668156e+01,-0.000000000000000000e+00,1.173078338873017323e-01,9.930945937373735211e-01,4.406037762819912018e+02
1.362476748875841892e+01,5.361770290332798794e+01,3.915397603444623797e+01,4.034587101639294793e-01,-5.855715793379562273e-01,-7.030824949206387897e-01,4.428572311856444799e+02
1.417582902118355115e+01,5.459314946062473695e+01,3.957495949736281915e+01,4.789225235544457560e-01,-2.317097694886247616e-01,8.467241576550679216e-01,4.451106860892977579e+02
1.457321844605605499e+01,5.532169942287832498e+01,3.986294034299881872e+01,8.649910223436608758e-01,4.315195122749535678e-02,4.999264349580104239e-01,4.469081891462044496e+02
1.493510671970915027e+01,5.601262174697516372e+01,4.011487055239651767e+01,0.000000000000000000e+00,1.466999104715269349e-02,9.998913897832037989e-01,4.487056922031111412e+02
1.526135825838079363e+01,5.666686343416812832e+01,4.033173010238603950e+01,8.084710213413999202e-01,5.885342875760211090e-01,0.000000000000000000e+00,4.505031952600178329e+02
1.555204825284728010e+01,5.728536392912076280e+01,4.051448072528166477e+01,-4.525244665822401036e-01,-6.821651958909240587e-01,5.743433229870396062e-01,4.523006983169245245e+02
1.580059812394084595e+01,5.785383550897145000e+01,4.066077746083117006e+01,-9.796745246595633949e-01,-0.000000000000000000e+00,2.005886979235350920e-01,4.540486153051133442e+02
1.601565194791272262e+01,5.839108584046644523e+01,4.077736395625760935e+01,4.606684729586260629e-01,4.802354505724473754e-01,7.464291460256871069e-01,4.557965322933021639e+02
1.619776578258427335e+01,5.889793780848139448e+01,4.086505121122853268e+01,-5.300915303212460072e-01,-8.479392486975795284e-01,0.000000000000000000e+00,4.575444492814909836e+02
1.634739827251874189e+01,5.937520479439984200e+01,4.092463187721681805e+01,-0.000000000000000000e+00,-7.950793855539235733e-02,9.968332296363383582e-01,4.592923662696798033e+02
1.646412576224548729e+01,5.982368635942601998e+01,4.095686165849154037e+01,8.847879010088405272e-01,3.147796090136324026e-02,-4.649274225156938001e-01,4.610402832578686230e+02
1.655964900056800815e+01,6.033752932538907032e+01,4.095505830577621253e+01,0.000000000000000000e+00,1.466699169441209455e-02,9.998914337839435174e-01,4.632146124760731709e+02
1.659788055454021460e+01,6.079954659043047371e+01,4.090391051511965514e+01,-0.000000000000000000e+00,-9.705539409184080757e-01,-2.408797371487717276e-01,4.653889416942777189e+02
1.659352426832922944e+01,6.109427939160102028e+01,4.084370766348377657e+01,5.752485914334396488e-01,-0.000000000000000000e+00,-8.179774190368729325e-01,4.668978939869770670e+02
1.656623717393764395e+01,6.137272463788254839e+01,4.076790778996283393e+01,9.703928888892788818e-01,2.415277234480527890e-01,0.000000000000000000e+00,4.684068462796764152e+02
1.651516875528214712e+01,6.163531527306474089e+01,4.067688114610324845e+01,7.342455860437525628e-01,2.131448798322301552e-01,6.445546366101156943e-01,4.699157985723757633e+02
1.643978490998398456e+01,6.188248670997516854e+01,4.057099807918298495e+01,-9.546707119060939828e-01,0.000000000000000000e+00,-2.976605983800508226e-01,4.714247508650751115e+02
1.633986795258796221e+01,6.211467570167729946e+01,4.045062902987414333e+01,8.965938298729622113e-01,2.929696176510929520e-02,-4.418814233092134280e-01,4.729337031577744597e+02
1.621551661577223058e+01,6.233231921266070685e+01,4.031614452990517350e+01,0.000000000000000000e+00,-9.978448059155613503e-01,-6.560292149537960693e-02,4.744426554504738078e+02
1.606714604954869685e+01,6.253585329003048798e+01,4.016791519972262137e+01,9.360262369457846843e-01,-2.510647953304694924e-01,2.466157989573181386e-01,4.759516077431731560e+02
1.588809413389009606e+01,6.273249063122052860e+01,3.999953434443971645e+01,7.364161080997176922e-01,-4.016585135367929937e-01,-5.443893406703068649e-01,4.775188745708272791e+02
1.568449490053450290e+01,6.291428213866561947e+01,3.981660656539276033e+01,0.000000000000000000e+00,-5.697617808903195913e-01,-8.218086839622380513e-01,4.790861413984814021e+02
1.545793487577999237e+01,6.308172269395752352e+01,3.961956340985862113e+01,-0.000000000000000000e+00,1.466999104714333119e-02,9.998913897825657537e-01,4.806534082261355252e+02
1.521037784993598052e+01,6.323530059985233009e+01,3.940883652079450172e+01,0.000000000000000000e+00,-9.968312352734641779e-01,-7.953293898571116294e-02,4.822206750537896482e+02
1.494416486365247465e+01,6.337549618233060045e+01,3.918485763390022925e+01,8.220322628906613360e-01,6.371394286824934305e-02,-5.658634925950190020e-01,4.837879418814437713e+02
1.466140367621784790e+01,6.350277552823853000e+01,3.894804872026362830e+01,-9.494871526038445309e-01,0.000000000000000000e+00,-3.138027199380552523e-01,4.853552087090978944e+02
1.436335128970208075e+01,6.361758724801545384e+01,3.869881212907255019e+01,-0.000000000000000000e+00,1.466999104715418709e-02,9.998913897833056064e-01,4.869224755367520174e+02
1.405101403696690454e+01,6.372037051420148401e+01,3.843754043929362041e+01,5.328913625199914739e-01,-5.120993873927316697e-03,8.461669877589007571e-01,4.884897423644061405e+02
1.372575461715621437e+01,6.381156010929645106e+01,3.816462631141764916e+01,-9.359985444640517033e-04,-1.157798199551793861e-01,9.932734553980031578e-01,4.900570091920602636e+02
1.338929208617847166e+01,6.389158510524929824e+01,3.788046248478816835e+01,-9.986869598540498716e-01,-5.120894666519076877e-02,0.000000000000000000e+00,4.916242760197143866e+02
1.304370184474752925e+01,6.396086754298703170e+01,3.758544177492964167e+01,-0.000000000000000000e+00,-9.967539354453678335e-01,8.049591402863325029e-02,4.931915428473685097e+02
1.253926309388409699e+01,6.403704922158117085e+01,3.714241222932845687e+01,-6.476833636047583109e-01,2.256807782524895556e-01,-7.277172849657046472e-01,4.954266676423670219e+02
1.202676139404311861e+01,6.408380025688747139e+01,3.667078433981953367e+01,5.328913625190374592e-01,-5.120993873918150419e-03,8.461669877573859688e-01,4.976617924373655342e+02
1.151287019174221271e+01,6.410265185987699965e+01,3.617219108814099826e+01,-3.571165318401853250e-01,-5.924852232849850964e-01,-7.220990533684977786e-01,4.998965018445167061e+02
1.100270873883497735e+01,6.409506035651672562e+01,3.564803072957020191e+01,-0.000000000000000000e+00,1.080298527117165980e-01,9.941466445769474580e-01,5.021312112516678781e+02
1.044802121120170213e+01,6.405598455790520518e+01,3.504075054096367126e+01,-0.000000000000000000e+00,-2.786296520852291070e-02,9.996107518222014932e-01,5.045951062264240363e+02
1.010669286855983273e+01,6.401777973558000667e+01,3.464917286755980541e+01,-4.199765354728122735e-01,-5.494543922600859664e-01,-7.223002010789824068e-01,5.061295306835615975e+02
9.768213459035099078e+00,6.397254325934483177e+01,3.425048570989296337e+01,8.088332836539642301e-01,-2.128178115171584783e-01,-5.481745145073176895e-01,5.076639551406991586e+02
9.432993196376612488e+00,6.392054413374071942e+01,3.384497839901532501e+01,-8.368809030202472021e-01,4.998393448128175126e-02,-5.450962854902217103e-01,5.091983795978367198e+02
9.101402815311876893e+00,6.386204387957955930e+01,3.343293430243583231e+01,8.370268619270404553e-01,-1.940497361581000890e-01,5.115943044050667021e-01,5.107328040549742809e+02
8.773470797844256097e+00,6.379729151275786592e+01,3.301462481456946563e+01,9.968779763711572706e-01,-0.000000000000000000e+00,-7.894491893662221316e-02,5.122672285121118421e+02
8.449168190887606400e+00,6.372653033818045287e+01,3.259031536267479368e+01,6.355972790765108682e-01,2.092487626604879469e-01,7.431211571180130759e-01,5.138016529692494032e+02
8.092759446825681380e+00,6.364048874447895088e+01,3.211071273903025514e+01,0.000000000000000000e+00,0.000000000000000000e+00,-9.999989999995055889e-01,5.155103037859190636e+02
7.742121606586922056e+00,6.354669576578172041e+01,3.162361772551445327e+01,4.595995113954317590e-01,-5.348094314390575699e-01,-7.090452462073222328e-01,5.172189546025887239e+02
7.398306507384513786e+00,6.344552033262279167e+01,3.112943824508260704e+01,8.849408409607694148e-01,2.539496673928770890e-02,-4.650083909615844169e-01,5.189276054192583842e+02
7.062415460034419112e+00,6.333731862912784294e+01,3.062857237856622916e+01,0.000000000000000000e+00,2.192496970816461277e-02,-9.997586187199386520e-01,5.206362562359280446e+02
6.735253025651651626e+00,6.322242664140451041e+01,3.012139846250098074e+01,-7.270129289258798755e-01,2.249116686481656135e-01,6.487410442401840838e-01,5.223449070525977049e+02
6.417646621332835366e+00,6.310116911045300014e+01,2.960828498502966610e+01,-0.000000000000000000e+00,2.016697227948319876e-02,9.997956257306721550e-01,5.240535578692673653e+02
6.076662594114289995e+00,6.295832777966033689e+01,2.902914243490333845e+01,-0.000000000000000000e+00,3.330540167147989089e-02,9.994442206646103610e-01,5.259590404929377883e+02
5.751873628285710360e+00,6.280740435315744463e+01,2.844284863693820498e+01,-0.000000000000000000e+00,4.643807742395060500e-02,9.989201694658014219e-01,5.278645231166082112e+02
5.445251496654045731e+00,6.264884855831184751e+01,2.784992892173999479e+01,-0.000000000000000000e+00,5.956273098947397621e-02,9.982235626739740519e-01,5.297700057402786342e+02
5.362105012201286769e+00,6.260323493905681147e+01,2.768244751560693118e+01,-0.000000000000000000e+00,7.267709520694144720e-02,9.973545206358437332e-01,5.303051421552729607e+02
5.113285672847633911e+00,6.245997709436072398e+01,2.716283080099129421e+01,-0.000000000000000000e+00,8.577890469314056188e-02,9.963131934839276616e-01,5.319586480055789934e+02
4.878955581684940590e+00,6.231243200501994295e+01,2.663953572071365983e+01,-0.000000000000000000e+00,9.886589623403779781e-02,9.950997611105938390e-01,5.336121538558850261e+02
4.658985570318007419e+00,6.216079413301261525e+01,2.611279698787851800e+01,-0.000000000000000000e+00,1.119358091756862128e-01,9.937144331369686112e-01,5.352656597061910588e+02
4.431038222523427272e+00,6.198683249908224724e+01,2.552159844276621925e+01,-0.000000000000000000e+00,1.249863858146898210e-01,9.921574488767114230e-01,5.371089915179090895e+02
4.221518208494789093e+00,6.180763335162294680e+01,2.492629657176430769e+01,-0.000000000000000000e+00,1.380153717881582309e-01,9.904290772946633403e-01,5.389523233296271201e+02
4.029611196008542784e+00,6.162346781896221160e+01,2.432720316010220074e+01,-0.000000000000000000e+00,1.510205164630834263e-01,9.885296169603733363e-01,5.407956551413451507e+02
3.858471917148024399e+00,6.143939947592247819e+01,2.373963106827712011e+01,-0.000000000000000000e+00,1.639995733250721732e-01,9.864593959965147763e-01,5.425932934815199360e+02
3.702522882701540397e+00,6.125123224585502157e+01,2.314908736649035603e+01,-0.000000000000000000e+00,1.769503003663662200e-01,9.842187720221972080e-01,5.443909318216947213e+02
3.561233557627974111e+00,6.105920171389513484e+01,2.255583059073407881e+01,-0.000000000000000000e+00,1.898704604730843126e-01,9.818081320911843379e-01,5.461885701618695066e+02
3.433684827833587860e+00,6.086352909547711931e+01,2.196009513294886517e+01,-0.000000000000000000e+00,2.027578218116179720e-01,9.792278926250318483e-01,5.479862085020442919e+02
3.324806168795210404e+00,6.067573439035789562e+01,2.139561925720450475e+01,-0.000000000000000000e+00,2.156101582141158601e-01,9.764784993411508296e-01,5.496834087643603652e+02
3.226332000344511286e+00,6.048525622235300148e+01,2.082941601662980702e+01,-0.000000000000000000e+00,2.284252495629886248e-01,9.735604271758153683e-01,5.513806090266764386e+02
3.137890491238103596e+00,6.029227059040579206e+01,2.026166225808340116e+01,-0.000000000000000000e+00,2.412008821743696907e-01,9.704741802021226160e-01,5.530778092889925119e+02
3.059175447102129741e+00,6.009694727556443894e+01,1.969252604769560833e+01,-0.000000000000000000e+00,2.539348491804633290e-01,9.672202915429225500e-01,5.547750095513085853e+02
2.989791231463920340e+00,5.989944249850063329e+01,1.912215787675450329e+01,-0.000000000000000000e+00,2.666249509107170845e-01,9.637993232787319675e-01,5.564722098136246586e+02
2.929383586411835161e+00,5.969990659746643047e+01,1.855069945329356429e+01,-0.000000000000000000e+00,2.792689952717503643e-01,9.602118663506467033e-01,5.581694100759407320e+02
2.877257281502044517e+00,5.949609498185717626e+01,1.797153722313226965e+01,-0.000000000000000000e+00,2.918647981259743229e-01,9.564585404582726103e-01,5.598866112920228488e+02
2.834075658900851558e+00,5.929048447941764977e+01,1.739153175272251062e+01,-0.000000000000000000e+00,3.044101836688389295e-01,9.525399939526880688e-01,5.616038125081049657e+02
2.821171724802842284e+00,5.922077476057372536e+01,1.719563811667384456e+01,-0.000000000000000000e+00,3.169029848046396869e-01,9.484569037244603429e-01,5.621833500229890888e+02
2.790944505771503437e+00,5.903922605360737919e+01,1.668685266876978446e+01,-0.000000000000000000e+00,3.293410435208216636e-01,9.442099750867340990e-01,5.636877504491147874e+02
2.766109610886263503e+00,5.885665200369616201e+01,1.617762821207906043e+01,-0.000000000000000000e+00,3.417222112607146145e-01,9.397999416534116301e-01,5.651921508752404861e+02
2.746233858148078966e+00,5.867310816324552292e+01,1.566800493087841062e+01,-0.000000000000000000e+00,3.540443492946356296e-01,9.352275652124449890e-01,5.666965513013661848e+02
2.730950814803254634e+00,5.848865150662548018e+01,1.515802301178817757e+01,-0.000000000000000000e+00,3.663053290892949732e-01,9.304936355942653448e-01,5.682009517274918835e+02
2.719878144289237021e+00,5.830333504314654647e+01,1.464771729194890604e+01,-0.000000000000000000e+00,3.785030326754411090e-01,9.255989705353677710e-01,5.697053521536175822e+02
2.712528634628915913e+00,5.811720282951245764e+01,1.413711190723148370e+01,-0.000000000000000000e+00,3.906353530136830177e-01,9.205444155370783310e-01,5.712097525797432809e+02
2.708383378883840731e+00,5.793029551115969866e+01,1.362622564366693823e+01,-0.000000000000000000e+00,4.027001943584233024e-01,9.153308437195261105e-01,5.727141530058689796e+02
2.706971274460457710e+00,5.774265549409460618e+01,1.311507728890981461e+01,-0.000000000000000000e+00,4.146954726198436858e-01,9.099591556708463980e-01,5.742185534319946782e+02
2.707869026081260788e+00,5.755432677486238902e+01,1.260368563212530368e+01,-0.000000000000000000e+00,4.266191157238773402e-01,9.044302792916403266e-01,5.757229538581203769e+02
2.710739177348659101e+00,5.736372724566732728e+01,1.208767568777363444e+01,-0.000000000000000000e+00,4.384690639701060988e-01,8.987451696347176222e-01,5.772402692419877894e+02
2.715253940689975387e+00,5.717251609349916208e+01,1.157145518109283522e+01,-0.000000000000000000e+00,4.502432703875224318e-01,8.929048087401513234e-01,5.787575846258552019e+02
2.721125218478612329e+00,5.698074274209211154e+01,1.105504354422562230e+01,-0.000000000000000000e+00,4.619397010880933463e-01,8.869102054656708978e-01,5.802749000097226144e+02
2.728114668590834846e+00,5.678845755940864848e+01,1.053846021041697512e+01,-0.000000000000000000e+00,4.735563356180662042e-01,8.807623953124256166e-01,5.817922153935900269e+02
2.736033705933311744e+00,5.659571167915015621e+01,1.002172461389533531e+01,-0.000000000000000000e+00,4.850911673069540075e-01,8.744624402461453894e-01,5.833095307774574394e+02
2.744743503651126737e+00,5.640255682226275269e+01,9.504856189753809304e+00,-0.000000000000000000e+00,4.965422036141432516e-01,8.680114285137325858e-01,5.848268461613248519e+02
2.754154994016247748e+00,5.620904511843928475e+01,8.987874373831354902e+00,-0.000000000000000000e+00,5.079074664730602873e-01,8.614104744553139348e-01,5.863441615451922644e+02
2.764228868996458477e+00,5.601522892761878580e+01,8.470798602593974991e+00,-0.000000000000000000e+00,5.191849926328406806e-01,8.546607183117869155e-01,5.878614769290596769e+02
2.774892882785982895e+00,5.582115473658629412e+01,7.953645561994002300e+00,-0.000000000000000000e+00,5.303728339974397299e-01,8.477633260278930605e-01,5.893787923129270894e+02
2.785951860742529540e+00,5.562685745986172492e+01,7.436426436346937230e+00,-0.000000000000000000e+00,5.414690579621276312e-01,8.407194890508518093e-01,5.908961076967945019e+02
2.797159457649947001e+00,5.543236682737090604e+01,6.919149659287230136e+00,-0.000000000000000000e+00,5.524717477473092275e-01,8.335304241245902190e-01,5.924134230806619144e+02
