3.886910651344381407e+00,-7.040434024319599082e+00,3.926073994187811333e+00,1.016999272028910883e-02,-9.999472842347740809e-01,-0.000000000000000000e+00,1.524076952534799823e+01
4.762325565182740306e+00,-7.424555671105256494e+00,3.823427314374089558e+00,-8.555062347860347138e-01,6.122994523241645504e-02,-5.141575401079336860e-01,1.815605956739700133e+01
5.228146813708880458e+00,-7.632175463569407903e+00,3.764121458422855060e+00,1.014498516991811650e-02,0.000000000000000000e+00,-9.999475382626369369e-01,1.974848370193529945e+01
5.680296611386420835e+00,-7.836756383736937615e+00,3.700920472927696991e+00,0.000000000000000000e+00,-7.954388900877817914e-01,-6.060321543756520546e-01,2.134090783647359757e+01
6.117369853628741083e+00,-8.038282749958396423e+00,3.633198605295500538e+00,2.955617850170670358e-01,-7.673838476349185145e-01,-5.690019873665150829e-01,2.293333197101189569e+01
6.537961070429924249e+00,-8.236728285089608192e+00,3.560330134695452564e+00,5.646663325346070739e-01,-6.706362072726250734e-01,-4.810374313883799546e-01,2.452575610555019381e+01
7.043415582532260188e+00,-8.482309604956133953e+00,3.461659761719582562e+00,4.628277311757560963e-01,-5.536263926512055011e-01,-6.923050690381681305e-01,2.652533359334440988e+01
7.524007903838883848e+00,-8.724659589795932035e+00,3.355269199854510109e+00,3.291944730933443752e-01,-3.985843684376028095e-01,-8.560137265974218090e-01,2.852491108113862595e+01
7.662304858599729762e+00,-8.797277385347539891e+00,3.320437820273537621e+00,1.729466766923015986e-01,-2.161609572946157076e-01,-9.609172116075265224e-01,2.913362935672616416e+01
8.040968990315356280e+00,-9.005676585436608761e+00,3.211855804989757424e+00,4.817995168104184482e-03,-1.888798105752424739e-02,-9.998089973064018254e-01,3.090782960766502896e+01
8.393683972886691436e+00,-9.211826598372594432e+00,3.096730661966057951e+00,0.000000000000000000e+00,-2.291096582971970108e-02,-9.997365089551880635e-01,3.268202985860389020e+01
8.852597538067557892e+00,-9.501157781547590275e+00,2.926786750870425724e+00,-5.163343074812717370e-01,-6.993530620125641972e-01,-4.942693370752867521e-01,3.518645707134481881e+01
9.230620345140721383e+00,-9.761313606279708566e+00,2.769344259935796249e+00,-0.000000000000000000e+00,2.371197228180407096e-02,-9.997178313762181689e-01,3.744802111816400725e+01
9.463953587755456809e+00,-9.936303925571220219e+00,2.661447424621768310e+00,-5.939584362336596257e-01,-8.044922364017137451e-01,-1.901998194684179598e-03,3.898881665366430127e+01
9.674077301576314625e+00,-1.010719938355130765e+01,2.554703182724940014e+00,-2.327097549702372981e-01,-7.626911969307731409e-01,-6.034453646073216770e-01,4.052961218916459529e+01
9.861796129622700136e+00,-1.027252868893822679e+01,2.450714613003771358e+00,-0.000000000000000000e+00,2.371197228180181582e-02,-9.997178313761230228e-01,4.207040772466488932e+01
1.004570710922155463e+01,-1.044776990977880082e+01,2.340464451466667040e+00,-2.825976753810878761e-01,-1.070233364102715912e-01,-9.532484247740289351e-01,4.377617604217215330e+01
1.020666937872250735e+01,-1.061351217020547644e+01,2.237003477917551830e+00,-5.371863059412806951e-01,-2.271512627400683326e-01,-8.122999301650482007e-01,4.548194435967941729e+01
1.034575418893811793e+01,-1.076792483079787210e+01,2.142210028454221149e+00,-7.385329077004711973e-01,-3.247655950749830378e-01,-5.908421553177489738e-01,4.718771267718668128e+01
1.046414022716250436e+01,-1.090908677251460546e+01,2.057789704349755944e+00,-8.666814728582389327e-01,-3.901915116869909550e-01,-3.108244018946803577e-01,4.889348099469394526e+01
1.057615115179795140e+01,-1.105163332513009955e+01,1.975854055668350151e+00,-9.089308576325502154e-01,-4.169444759735642103e-01,-0.000000000000000000e+00,5.082457685872098807e+01
1.066758148651458527e+01,-1.117455234671838760e+01,1.909275712767702693e+00,-8.408884039309241221e-01,-3.843519368877716391e-01,3.810226774702731301e-01,5.275567272274803088e+01
1.072488494179347462e+01,-1.125475591570151934e+01,1.869509479171018063e+00,-6.459805756366608920e-01,-2.937719737058942515e-01,7.045602340229750737e-01,5.428935416995535945e+01
1.076761986307491270e+01,-1.131602587901684842e+01,1.843309590450559643e+00,-3.536132220421598915e-01,-1.588704345246518268e-01,9.218003440183171193e-01,5.582303561716268803e+01
1.077444762037538162e+01,-1.132594083234236670e+01,1.840311706118787249e+00,-7.895990730979508126e-03,-0.000000000000000000e+00,9.999678261482836117e-01,5.618967786719811386e+01
1.079216024098297666e+01,-1.135188217849161241e+01,1.841187764399248028e+00,-0.000000000000000000e+00,6.060361314468605265e-01,7.954358600047460870e-01,5.806687395902331161e+01
1.079243051924584762e+01,-1.135258340741851235e+01,1.857236550092396410e+00,-2.327326561483993583e-01,6.034521084277693070e-01,7.626788731776810160e-01,5.998797066354698160e+01
1.077432795207539229e+01,-1.132746251704186591e+01,1.886264168020250764e+00,-4.039896372713496636e-02,7.947932863819529015e-01,6.055324563128597903e-01,6.190906736807065158e+01
1.074241891457581666e+01,-1.128413417097591420e+01,1.920279098154178632e+00,-2.327328258585658616e-01,7.626824293258308574e-01,6.034475484727127581e-01,6.355435669480449690e+01
1.069324718528461204e+01,-1.121951308687999393e+01,1.961594483581892145e+00,-0.000000000000000000e+00,5.332983833110829242e-01,8.459260217986427355e-01,6.519964602153834221e+01
1.062591023885272001e+01,-1.113431347225905199e+01,2.008352435450458273e+00,-9.089331001752559702e-01,0.000000000000000000e+00,-4.169395872385357471e-01,6.684493534827218753e+01
1.051041548651003943e+01,-1.099407730716017539e+01,2.075310028835298137e+00,-9.089459700185427149e-01,4.169115275724224468e-01,-4.199995240732275518e-05,6.904568304185370664e+01
1.036821138983187041e+01,-1.082916240532548713e+01,2.143282511827011572e+00,-9.165453713775328914e-01,3.996471358728010959e-01,-1.499163081364607471e-02,7.124643073543522576e+01
1.024159019059838727e+01,-1.068962748314023870e+01,2.192045533240305932e+00,-9.236138151143105102e-01,3.821512284604557386e-01,-2.993257615992319168e-02,7.288157932499296976e+01
1.009308752842506784e+01,-1.053429982353963013e+01,2.236970835688550263e+00,-9.301472065954093926e-01,3.644339406647298385e-01,-4.485618077582708557e-02,7.451672791455071376e+01
9.921982562646933346e+00,-1.036429655558912799e+01,2.276342607824705766e+00,-9.361417611302212949e-01,3.465055360502304338e-01,-5.975379949465047663e-02,7.615187650410845777e+01
9.739904446571575392e+00,-1.019253249669097272e+01,2.306761898723241888e+00,-9.415940061625494018e-01,3.283764004719024188e-01,-7.461680220568674138e-02,7.768280078376331232e+01
9.535231542282419426e+00,-1.000932283780813492e+01,2.329702337366660103e+00,-9.465007832816161315e-01,3.100570360594014363e-01,-8.943657885279258923e-02,7.921372506341816688e+01
9.278675726093489118e+00,-9.791624998995107632e+00,2.346145932021057146e+00,-9.508592500511775514e-01,2.915580551341602766e-01,-1.042045444213265809e-01,8.093663741242184528e+01
8.996283263729909052e+00,-9.563171629970344867e+00,2.352740834526128921e+00,-9.546668816556901360e-01,2.728901740626678563e-01,-1.189121439105787076e-01,8.265954976142552368e+01
8.690959853134065938e+00,-9.322991150797973248e+00,2.349409796214110724e+00,-9.579214723625746331e-01,2.540642070495156002e-01,-1.335508572888157997e-01,8.438246211042920208e+01
8.366997888383155058e+00,-9.069085608200040838e+00,2.336184430731342410e+00,-9.606211367997359307e-01,2.350910598738004675e-01,-1.481122044280768768e-01,8.610537445943288049e+01
8.028738866137407726e+00,-8.799446777489897897e+00,2.313099955016999942e+00,-9.627643110475981869e-01,2.159817235725092766e-01,-1.625877500158646738e-01,8.782828680843655889e+01
7.680539841206360130e+00,-8.512101470474073395e+00,2.280191667194218841e+00,-9.643497535450225033e-01,1.967472680745348257e-01,-1.769691084408920034e-01,8.955119915744023729e+01
7.272623683213246260e+00,-8.157640769723512264e+00,2.230922944469537317e+00,-9.653765458085862283e-01,1.773988357890078083e-01,-1.912479486500580084e-01,9.153933715512734182e+01
6.864058573317719514e+00,-7.777947678576354384e+00,2.170527335589512496e+00,-9.658440929648034468e-01,1.579476351516510002e-01,-2.054159989738448822e-01,9.352747515281444635e+01
6.446524252800781341e+00,-7.357722850766647227e+00,2.097075623324163196e+00,-9.657521240949792363e-01,1.384049341328885407e-01,-2.194650519173435843e-01,9.558130081828336699e+01
6.038069021531113911e+00,-6.908150768129443620e+00,2.013318360379224625e+00,-9.651006923924966285e-01,1.187820537114648023e-01,-2.333869689141379322e-01,9.763512648375228764e+01
5.678668321029264554e+00,-6.473290336148032509e+00,1.929074976352341375e+00,-9.638901751324429057e-01,9.909036131734674790e-02,-2.471736850402966590e-01,9.949857698293118347e+01
5.332429563665953332e+00,-6.011839938037509157e+00,1.837999415887233479e+00,-9.621212734535918853e-01,7.934126424770268637e-02,-2.608172136857466739e-01,1.013620274821100793e+02
5.052097373420146198e+00,-5.599923797060199604e+00,1.756487141450029377e+00,-9.597950119528628754e-01,5.954620305976491418e-02,-2.743096511803249649e-01,1.029371329879297292e+02
4.784993227894264400e+00,-5.166912703515246008e+00,1.671658739372415825e+00,-9.569127380924913329e-01,3.971664494439709064e-02,-2.876431813718322017e-01,1.045122384937493791e+02
4.488246103822974398e+00,-4.635093551703959314e+00,1.569648774269926550e+00,-9.534761214202477353e-01,1.986407708420064727e-02,-3.008100801534391300e-01,1.063603139060494271e+02
4.209101747198088717e+00,-4.080887725013441880e+00,1.466581933891440093e+00,-9.494871526031550824e-01,0.000000000000000000e+00,-3.138027199378273790e-01,1.082083893183494752e+02
3.975355251570246384e+00,-3.566360072788890889e+00,1.374528419851839711e+00,-9.494871519338571320e-01,-0.000000000000000000e+00,-3.138027197166264326e-01,1.098626880608249223e+02
3.757842200680474143e+00,-3.035104555782992097e+00,1.283576236713204421e+00,-9.494871519338571320e-01,-0.000000000000000000e+00,-3.138027197166263771e-01,1.115169868033003695e+02
3.549111403075023929e+00,-2.468617968166413768e+00,1.191075216803850090e+00,-9.494871519336460786e-01,-0.000000000000000000e+00,-3.138027197165566551e-01,1.132325929909867881e+02
3.353829925570995130e+00,-1.879324889262685039e+00,1.099239159558893730e+00,-9.991208579615935559e-01,1.593368839876698265e-02,-3.875085496323731060e-02,1.149755390244822024e+02
3.174598670268791167e+00,-1.278460672137067711e+00,1.009374695807970790e+00,-9.704523892051253320e-01,3.061863677775827214e-02,2.393379605662435961e-01,1.167184850579776167e+02
3.010550885350280481e+00,-6.682939009777496553e-01,9.211446175579084406e-01,-8.657284703648403523e-01,4.290397375221704362e-02,4.986696949239715071e-01,1.184614310914730311e+02
2.877044641727750651e+00,-1.184274155303499110e-01,8.436306671857572992e-01,-8.384119159062300985e-01,4.243704677249263146e-02,5.433806734947862482e-01,1.200141501763386742e+02
2.755317570541997441e+00,4.358540463676391918e-01,7.666955418533656363e-01,-8.087935122630640628e-01,4.185360937252161767e-02,5.865998038728762465e-01,1.215668692612043174e+02
2.644646255046629868e+00,9.927618683245205133e-01,6.897620953265688470e-01,-7.769545766655675534e-01,4.115526338929518385e-02,6.282084288624781854e-01,1.231195883460699605e+02
2.544294560235499603e+00,1.550512799140491893e+00,6.122531813636826747e-01,-7.429825227070133709e-01,4.034392613696905633e-02,6.680923129148379491e-01,1.246723074309356036e+02
2.453513647686283328e+00,2.107329022289071929e+00,5.335916575751451507e-01,-7.069706203488022034e-01,3.942182514262194959e-02,7.061419557470103303e-01,1.262250265158012468e+02
2.371541990552633816e+00,2.661438225334300522e+00,4.532003892835175241e-01,-6.690177398489872695e-01,3.839149203040839037e-02,7.422528929598197767e-01,1.277777456006668899e+02
2.323207540773303492e+00,3.019568415857535992e+00,3.994013128829734804e-01,-6.292280803174346016e-01,3.725575557090966133e-02,7.763259828300811405e-01,1.287891956471853803e+02
2.207752255359370697e+00,3.966985557891389291e+00,2.515253240286817182e-01,-5.877108836428069916e-01,3.601773391476810471e-02,8.082676784900336697e-01,1.314930740415271373e+02
2.145348573620546873e+00,4.537908894891903522e+00,1.589136279722501432e-01,-5.445801345766645429e-01,3.468082603192750718e-02,8.379902847470539484e-01,1.331447388182745044e+02
2.089665217146797094e+00,5.099310714766240871e+00,6.427499882950842014e-02,-4.999542477979302957e-01,3.324870237998038547e-02,8.654121988388538966e-01,1.347964035950218715e+02
2.040150870837447172e+00,5.649852412518342248e+00,-3.203895521312118827e-02,-4.539557428166752229e-01,3.172529482723784877e-02,8.904581344634505680e-01,1.364480683717692386e+02
1.996345153357629076e+00,6.188332571923614189e+00,-1.294122182217208594e-01,-4.067109076095122844e-01,3.011478585818082657e-02,9.130593284690730060e-01,1.380997331485166058e+02
1.958946094685902084e+00,6.698022448027042053e+00,-2.242003035061540805e-01,-3.583494519098043285e-01,2.842159709092057993e-02,9.331537296367399259e-01,1.397023360546264996e+02
1.926217072263437746e+00,7.193845050178662603e+00,-3.185858271493479665e-01,-3.090041511042556643e-01,2.665037713818252385e-02,9.506861690373534790e-01,1.413049389607363935e+02
1.897734217299535064e+00,7.674883230363976239e+00,-4.116898010079638182e-01,-2.588104817132367841e-01,2.480598884512902683e-02,9.656085114956963755e-01,1.429075418668462873e+02
1.873039938586223307e+00,8.140507183089717103e+00,-5.022841091486485166e-01,-2.079062494552773588e-01,2.289349593904577498e-02,9.778797877455324139e-01,1.445101447729561812e+02
1.851658726210307249e+00,8.590232534391381236e+00,-5.889660850635455303e-01,-1.564312109165323650e-01,2.091814912753077113e-02,9.874663069129702153e-01,1.461127476790660751e+02
1.830929385725554415e+00,9.076899611342090779e+00,-6.802988004230486885e-01,-1.045266898635756614e-01,1.888537168333793634e-02,9.943417490192048014e-01,1.479125925835833755e+02
1.812773037473382365e+00,9.544657939984661610e+00,-7.638194006851183326e-01,-5.233518925260823712e-02,1.680074455543710890e-02,9.984872372485527059e-01,1.497124374881006759e+02
1.795051866858904610e+00,1.001586307746885751e+01,-8.412424018027190309e-01,-0.000000000000000000e+00,1.466999104715270737e-02,9.998913897832047981e-01,1.516033948563057550e+02
1.777310353242165908e+00,1.046650299558848118e+01,-9.062664777619457990e-01,-8.471320701136050291e-01,-2.337197434487285619e-01,4.772214761598884691e-01,1.534943522245108340e+02
1.765846178141204259e+00,1.072896701196333780e+01,-9.375371025450561779e-01,-8.718334572391867043e-01,-3.302814460708273780e-01,3.616885251439361237e-01,1.546492817387693890e+02
1.739587912642710066e+00,1.128810841404086851e+01,-9.879745063251864634e-01,-8.762366165066598489e-01,-4.191534679192582824e-01,2.377346466654757240e-01,1.572381599301258746e+02
1.719493064266409466e+00,1.170429990380526597e+01,-1.012270193573610921e+00,-8.602390252113096825e-01,-4.982666718316965948e-01,1.082457539398956614e-01,1.592757807236200449e+02
1.699927840190440298e+00,1.209531982707533793e+01,-1.021591362691084637e+00,-8.242131315735393704e-01,-5.657791229927955357e-01,-2.376336945339001597e-02,1.613134015171142153e+02
1.683442975515285767e+00,1.241036755750736020e+01,-1.017208196413181609e+00,-7.689976857658149534e-01,-6.201189733881207200e-01,-1.552192582483921945e-01,1.630746862746346437e+02
1.667389061039106224e+00,1.270119597462845995e+01,-1.000921711079865162e+00,-6.958782148488453778e-01,-6.600210590582352710e-01,-2.830613214455335314e-01,1.648359710321550722e+02
1.651891360382473195e+00,1.296642695899176445e+01,-9.731550957298835680e-01,-6.065570955981786083e-01,-6.845563578650133429e-01,-4.043130998198581905e-01,1.665972557896755006e+02
1.632693603047277620e+00,1.327848642129522361e+01,-9.219163966069271465e-01,-5.031139214140878391e-01,-6.931536215381953747e-01,-5.161515659450353066e-01,1.689064121708143489e+02
1.620432076011413480e+00,1.346559267634881074e+01,-8.767875127049500339e-01,-3.879570856300170734e-01,-6.856126778833318003e-01,-6.159728530014085823e-01,1.704833263511160624e+02
1.608950186437070107e+00,1.362512330210444667e+01,-8.214276178141181051e-01,-2.637677082729556477e-01,-6.621090929805801828e-01,-7.014528815711126297e-01,1.720602405314177759e+02
1.598355703192455568e+00,1.375558836316701949e+01,-7.557635971069619485e-01,-1.334372118674784224e-01,-6.231900844695406061e-01,-7.706014722977568843e-01,1.736371547117194893e+02
1.587094083553398871e+00,1.387364518468599606e+01,-6.660036838542308102e-01,-0.000000000000000000e+00,-5.697617808905031112e-01,-8.218086839625026174e-01,1.755018574284269164e+02
1.577334491312650133e+00,1.395346985279979890e+01,-5.642936206955324607e-01,-0.000000000000000000e+00,-9.705539409179420041e-01,-2.408797371486560701e-01,1.773665601451343434e+02
1.569256624583757809e+00,1.399296616005903182e+01,-4.508023035905233122e-01,-1.300309544717739296e-01,-9.520773391918653239e-01,-2.768369395108039588e-01,1.792312628618417705e+02
1.563907087247819350e+00,1.399062591692074697e+01,-3.427316924169680479e-01,-2.576508188094102092e-01,-9.159469486624507439e-01,-3.076609218019851211e-01,1.808425461474889175e+02
1.560447710835749957e+00,1.395057289404743273e+01,-2.248966171439576167e-01,-3.804932144587875875e-01,-8.628327161789055566e-01,-3.327801340877706848e-01,1.824538294331360646e+02
1.559179144303411979e+00,1.387174772152384250e+01,-9.756653277531367185e-02,-4.962803499393637074e-01,-7.937195100081030352e-01,-3.517288070345576667e-01,1.840651127187832117e+02
1.560224460312557682e+00,1.375322017841517130e+01,3.890742819247938744e-02,-6.028652566535633861e-01,-7.098888573970301152e-01,-3.641555882655637122e-01,1.856763960044303587e+02
1.563360877506651647e+00,1.359432290851571068e+01,1.840108491785404088e-01,-6.982715986728351698e-01,-6.128951813888121603e-01,-3.698300570786465236e-01,1.872876792900775058e+02
1.568805767770413695e+00,1.336628824512862579e+01,3.587422563071569481e-01,-7.807303183530502899e-01,-5.045369776203000312e-01,-3.686469967593885011e-01,1.891264312842747870e+02
1.575165476791400287e+00,1.309701638052289674e+01,5.378316583766281633e-01,-8.487124383418196416e-01,-3.868234656337512511e-01,-3.606283453094420999e-01,1.909254521062549657e+02
1.581292970628770833e+00,1.278148830345905473e+01,7.240666443649129702e-01,-9.009574118387706498e-01,-2.619373331152132778e-01,-3.459227884585758805e-01,1.927244729282351443e+02
1.585541097117185716e+00,1.241991777130147767e+01,9.162456414684458927e-01,-9.364964955300676408e-01,-1.321942638774641909e-01,-3.248030025407639965e-01,1.945234937502153230e+02
1.586001984455420066e+00,1.199858259599019661e+01,1.119715879657866120e+00,-9.546707119072562753e-01,-0.000000000000000000e+00,-2.976605983804131994e-01,1.963850754527980484e+02
1.585508287020213514e+00,1.194525029753040002e+01,1.143329874216238107e+00,-9.987421919058823150e-01,-0.000000000000000000e+00,-5.012019659993331017e-02,1.965977098893566506e+02
1.572607692412621994e+00,1.134195240772051427e+01,1.389287043836402447e+00,-9.796745246587165168e-01,-0.000000000000000000e+00,2.005886979233616751e-01,1.987919218826332894e+02
1.547231055870484262e+00,1.068598754490151848e+01,1.634705691707851516e+00,-8.610980435139656830e-01,-3.816511123333345967e-01,-3.359324156926402627e-01,2.009861338759099283e+02
1.503062690880804686e+00,9.934342935446931477e+00,1.891925215533310833e+00,-3.571165318404133648e-01,-5.924852232853634604e-01,-7.220990533689588542e-01,2.033230477967875345e+02
1.462122422873516125e+00,9.407120258529543477e+00,2.056974045114038585e+00,-5.054669557749984499e-01,-4.919271495351359991e-01,-7.088785764649491172e-01,2.048620966673256021e+02
1.410198415663487248e+00,8.850235962834188896e+00,2.216950910352704085e+00,-6.374935112513185897e-01,-3.754824805784743313e-01,-6.727651372449767742e-01,2.064011455378636697e+02
1.348077551215442593e+00,8.265910665396699386e+00,2.371477396166448148e+00,-7.489324676832178618e-01,-2.469117352807291554e-01,-6.149249985417477582e-01,2.079401944084017373e+02
1.276562479599797184e+00,7.656358862889078409e+00,2.520175123327922595e+00,-8.361849488086984250e-01,-1.103670365295090772e-01,-5.372260684611149806e-01,2.094792432789398049e+02
1.196471601569009779e+00,7.023788846156179488e+00,2.662665750928377317e+00,-8.964331543916693734e-01,2.974197194430045280e-02,-4.421775828924378038e-01,2.110182921494778725e+02
1.105044946731084998e+00,6.343989441500945681e+00,2.804066754944585238e+00,-8.935195152407698904e-01,2.822592445950891302e-02,-4.481341015563475305e-01,2.126196247326285231e+02
1.006246744931861281e+00,5.644931314579501702e+00,2.938178812625986236e+00,-8.905645351046611591e-01,2.670857114638275354e-02,-4.540698855312986781e-01,2.142209573157791738e+02
9.005967732280779625e-01,4.929020408306467260e+00,3.064510973297231100e+00,-8.875683493308721417e-01,2.518998153342970336e-02,-4.599846627889901396e-01,2.158222898989298244e+02
7.884932960877045760e-01,4.198670283137651893e+00,3.182545177660184965e+00,-8.919444568366668991e-01,3.059098137115009997e-02,-4.511067252916023396e-01,2.174236224820804750e+02
6.703525770495089020e-01,3.456291219789469515e+00,3.291763425418849032e+00,-6.702956458571872611e-01,2.623152550353747767e-02,-7.416290543225710907e-01,2.190249550652311257e+02
5.306556933316791680e-01,2.608584981291585336e+00,3.404356035843106199e+00,-3.591286429202497077e-01,1.836883818612549193e-02,-9.331062123999321889e-01,2.208303364716693977e+02
3.848150291303532589e-01,1.753150749107349027e+00,3.505765394350561781e+00,-0.000000000000000000e+00,8.052988517102505420e-03,-9.999665741301326793e-01,2.226357178781076698e+02
2.333876606713630453e-01,8.930745282154305409e-01,3.595411637757774503e+00,8.849408409610504123e-01,2.539496673929576842e-02,-4.650083909617320210e-01,2.244410992845459418e+02
7.686674808913515622e-02,3.150589351969756285e-02,3.672871707137051356e+00,8.847879008682200119e-01,3.147796089636040184e-02,-4.649274224418022960e-01,2.262464806909842139e+02
-5.914475950203097743e-02,-6.956227589382980581e-01,3.727778037914029952e+00,9.999988887671562024e-07,-4.977924468360690469e-01,-8.672950362321995010e-01,2.277728269828524503e+02
-1.982266862089644976e-01,-1.419145851696503202e+00,3.771846283823129031e+00,5.180214865438629872e-07,-2.536963608414780080e-01,-9.672828730498397309e-01,2.292991732747206868e+02
-3.400034171142177208e-01,-2.136836850298284407e+00,3.804875195186808057e+00,0.000000000000000000e+00,8.051988583360010845e-03,-9.999665821814880395e-01,2.308255195665889232e+02
-4.840787814227851538e-01,-2.846548820427847293e+00,3.826753355556891112e+00,1.070435838421227998e-01,1.572826930712995647e-02,-9.941289115119344988e-01,2.323518658584571597e+02
-6.300389653356436304e-01,-3.546176091531340280e+00,3.837414301479362688e+00,2.128506562500520893e-01,2.322286628869045175e-02,-9.768077070828300457e-01,2.338782121503253961e+02
-8.082440040692919769e-01,-4.375663086022344217e+00,3.836657110930325132e+00,3.161990102338669839e-01,3.044920737386128118e-02,-9.482030540441216404e-01,2.357203943000762081e+02
-9.881801917050803130e-01,-5.187242847625755715e+00,3.822181792230551878e+00,4.158948401986298227e-01,3.732381909077839288e-02,-9.086453733034421942e-01,2.375625764498270200e+02
-1.169261972780129222e+00,-5.977947127225174739e+00,3.793895271119114732e+00,5.107865308861909703e-01,4.376729080206390871e-02,-8.585916049683274265e-01,2.394047585995778320e+02
-1.351058644837404454e+00,-6.744988674266120476e+00,3.751711390380978450e+00,5.997779591029527291e-01,4.970519193881031000e-02,-7.986199306737985504e-01,2.412469407493286440e+02
-1.528124824165669082e+00,-7.465210267183886472e+00,3.697102057133613950e+00,6.818411546861097294e-01,5.506893172818538851e-02,-7.294230956963063672e-01,2.430381597588659872e+02
-1.705076980986653945e+00,-8.157278956092030242e+00,3.628821947972144191e+00,6.506014094351377786e-01,-8.179514871907574147e-02,-7.550002382036330451e-01,2.448293787684033305e+02
-1.881580989315640773e+00,-8.818837307225161126e+00,3.546816700590706528e+00,6.061141644982365184e-01,-2.169937218468697970e-01,-7.652041193525281892e-01,2.466205977779406737e+02
-2.057390868102968895e+00,-9.447901293519636923e+00,3.451079122026904145e+00,5.492852564004970795e-01,-3.477739036636814385e-01,-7.598269665073542622e-01,2.484118167874780170e+02
-2.228480422476618816e+00,-1.002980061505578036e+01,3.343998062712520980e+00,4.812718159193227763e-01,-4.714727709303347947e-01,-7.389782577808593489e-01,2.501642124378294341e+02
-2.398334868475974879e+00,-1.057674055486952014e+01,3.223509186966058593e+00,4.034587101639421358e-01,-5.855715793379746570e-01,-7.030824949206608832e-01,2.519166080881808512e+02
-2.566480594379220825e+00,-1.108787621174309201e+01,3.089612268298095543e+00,8.084710213413998092e-01,5.885342875760209980e-01,-0.000000000000000000e+00,2.536690037385322682e+02
-2.727797055241119040e+00,-1.154969339427470487e+01,2.946328379607793035e+00,0.000000000000000000e+00,3.025597526117207101e-02,-9.995411827241688085e-01,2.553735019126669386e+02
-2.886312489527885994e+00,-1.197565183709115466e+01,2.789992791515742532e+00,-6.700796228808578170e-02,0.000000000000000000e+00,-9.977514384679764259e-01,2.570780000868015804e+02
-3.041233938603922216e+00,-1.236536292641975798e+01,2.620576447502768858e+00,5.171696928923958519e-02,7.942155283760216067e-01,-6.054296404815501242e-01,2.587824982609362223e+02
-3.191261582402295183e+00,-1.271869403050189362e+01,2.438002317049097645e+00,-2.059830620600783535e-01,7.117353703972734147e-01,-6.715666315931738684e-01,2.604869964350708642e+02
-3.342425812879362468e+00,-1.305233090544995989e+01,2.231848937961680157e+00,-4.477014130561331462e-01,5.740342474317232657e-01,-6.855991011683773007e-01,2.622813080703589890e+02
-3.485086589737615093e+00,-1.334770210000488433e+01,2.011651696262399369e+00,-0.000000000000000000e+00,3.410856895397668120e-01,-9.400311443725219984e-01,2.640756197056471137e+02
-3.617303988526876957e+00,-1.360498205405285255e+01,1.777376338364899500e+00,8.849807075427553738e-01,-1.526297770940547235e-02,-4.653753203493599666e-01,2.658699313409352385e+02
-3.737410611084031498e+00,-1.382448266785088009e+01,1.529245317487984313e+00,4.608364502589873957e-01,4.800774273060412489e-01,-7.464271095721816129e-01,2.676642429762233633e+02
-3.845813206410158891e+00,-1.400885567417528854e+01,1.265111649183561005e+00,5.286341537788289413e-01,5.507527648539752851e-01,-6.459220722854910335e-01,2.694790839320903615e+02
-3.940967840656356191e+00,-1.415643918388823153e+01,9.892153987662558601e-01,5.860215545112484881e-01,6.105822215570541056e-01,-5.326969948929478615e-01,2.712939248879573597e+02
-4.035413743906773654e+00,-1.428505403128383122e+01,6.607761874599136220e-01,6.318685307482787561e-01,6.583875846562216028e-01,-4.089815988792508406e-01,2.733795550726703141e+02
-4.115840426527753060e+00,-1.437443153595193657e+01,3.237980819856063341e-01,6.652722241730166797e-01,6.932274295872927761e-01,-2.772121905921912655e-01,2.754651852573832684e+02
-4.170444183390341841e+00,-1.441629959833677610e+01,4.718916896705986630e-02,6.855748199362023954e-01,7.144156595462221038e-01,-1.399836835698823889e-01,2.771503241305571805e+02
-4.215764013241722452e+00,-1.442856331117986279e+01,-2.312276874093621981e-01,6.923765011415901061e-01,7.215350169367155120e-01,1.502706441736681066e-06,2.788354630037310926e+02
-4.252967859820300234e+00,-1.441142362472869465e+01,-5.088712021125411100e-01,6.855433225868167169e-01,7.144453005769270115e-01,1.399866612979883962e-01,2.805206018769050047e+02
-4.283429664523803027e+00,-1.436469058112655617e+01,-7.853774684735893574e-01,6.652098486663284849e-01,6.932861268064099969e-01,2.772150854774560469e-01,2.822201010611022980e+02
-4.307939935363013895e+00,-1.428933844479678861e+01,-1.055615002662405377e+00,6.317765034637239374e-01,6.584741800933849865e-01,4.089843564522879227e-01,2.839196002452995913e+02
-4.327618033186706903e+00,-1.418660256086899629e+01,-1.316830278380812569e+00,5.859016852095162431e-01,6.106950072771165638e-01,5.326995620015729793e-01,2.856190994294968846e+02
-4.345645510664448707e+00,-1.404128569301172114e+01,-1.598022686797662573e+00,5.284888004028932551e-01,5.508895170503259608e-01,6.459243979398923141e-01,2.875356173344138142e+02
-4.360746596372509387e+00,-1.386810258420583963e+01,-1.862677327289387286e+00,4.606684729586455473e-01,4.802354505724676370e-01,7.464291460257186372e-01,2.894521352393307438e+02
-4.372571242013373549e+00,-1.369128167417425246e+01,-2.082630263930280279e+00,3.185044984148543423e-01,4.844081092160748003e-01,8.148016127961723587e-01,2.911639216021561083e+02
-4.383361927570820882e+00,-1.349709958347625793e+01,-2.286377594202952057e+00,1.684088557896393779e-01,4.765176251843111777e-01,8.628831961396951078e-01,2.928757079649814727e+02
-4.386783036903031174e+00,-1.342758017732051812e+01,-2.349639797833138033e+00,1.411931796060538098e-02,4.567604884283678612e-01,8.894765320516312412e-01,2.934503363860486616e+02
-4.395818463804529230e+00,-1.322043908758420905e+01,-2.515487441599731255e+00,-1.405218985060698034e-01,4.256286925836522128e-01,8.939193543540933096e-01,2.950832174921559385e+02
-4.403587912806161242e+00,-1.300638333918618272e+01,-2.668136154639927149e+00,-1.279651347178602794e-01,4.788023721933147847e-01,8.685454580376654743e-01,2.967160985982632155e+02
-4.409546986690809689e+00,-1.278820273298926580e+01,-2.808359366362543241e+00,-1.149439944042813938e-01,5.302384879573071030e-01,8.400196569357899490e-01,2.983489797043704925e+02
-4.413890021869971925e+00,-1.250635399716920659e+01,-2.973382840330243582e+00,-1.015057305854498160e-01,5.797503833326205225e-01,8.084454710638000474e-01,3.004448179621692248e+02
-4.413844048544866006e+00,-1.222628744294787673e+01,-3.124654591288531069e+00,-8.769910986337166314e-02,6.271583847856849747e-01,7.739374823084333999e-01,3.025406562199679570e+02
-4.409169589732113259e+00,-1.198496957958167108e+01,-3.246430806053035134e+00,-7.357423546306832152e-02,6.722904537074556597e-01,7.366209186071924764e-01,3.043780171839029549e+02
-4.399181676226261217e+00,-1.174975348581389056e+01,-3.358748181302411595e+00,-5.918236542745426709e-02,7.149828106228586222e-01,6.966311995139105040e-01,3.062153781478379528e+02
-4.383277039807850883e+00,-1.152188524055763708e+01,-3.463295999608549280e+00,-4.457572662514061590e-02,7.550805294330051876e-01,6.541134447991425738e-01,3.080527391117729508e+02
-4.360890960468422506e+00,-1.130210908473261000e+01,-3.562036873256729130e+00,-2.980732524542174453e-02,7.924380995372175551e-01,6.092219478675660049e-01,3.098919162615485448e+02
-4.331653419263838956e+00,-1.109137062113491545e+01,-3.656720762241289169e+00,-1.493075446735169648e-02,8.269199537981882786e-01,5.621196159016346172e-01,3.117310934113241387e+02
-4.295483430627969668e+00,-1.088989912531721949e+01,-3.749172228875763402e+00,0.000000000000000000e+00,8.584009604371716229e-01,5.129773787609296365e-01,3.135702705610997327e+02
-4.256129901094548806e+00,-1.071397301447591488e+01,-3.833361697531403323e+00,1.636904152847983018e-01,7.663471302515930672e-01,6.212209944130279160e-01,3.152534647345256644e+02
-4.210614936739876413e+00,-1.054648231661574798e+01,-3.918681900259607165e+00,3.196897751881203620e-01,6.382863228956739965e-01,7.002763866109679158e-01,3.169366589079515961e+02
-4.159044580890536302e+00,-1.038712405624343482e+01,-4.006533453923231569e+00,4.606684729583496174e-01,4.802354505721591615e-01,7.464291460252392429e-01,3.186198530813775278e+02
-4.101794025281748191e+00,-1.023489849217136261e+01,-4.097977612925009616e+00,6.095136414887005090e-03,-1.511285481652919760e-01,9.884943152303538039e-01,3.203030472548034595e+02
-4.045150854160348253e+00,-1.010131338620602293e+01,-4.185229565411352048e+00,-4.525244665824906254e-01,-6.821651958913017566e-01,5.743433229873575740e-01,3.218368154976241158e+02
-3.984844819910621450e+00,-9.971433185739218885e+00,-4.276935350791465140e+00,6.387054259223068353e-02,-8.634482472555339294e-01,5.003755370720162077e-01,3.233705837404447720e+02
-3.921637135390605433e+00,-9.843874308099806569e+00,-4.373609814884142466e+00,5.607855417970455392e-01,-7.813800574481513106e-01,2.737933197370934768e-01,3.249043519832654283e+02
-3.856278903343347331e+00,-9.717247739040658416e+00,-4.475767771084974811e+00,8.866611177877851135e-01,-4.609909641663229030e-01,-3.629591105817491642e-02,3.264381202260860846e+02
-3.789618281578816195e+00,-9.590307604640038619e+00,-4.583820809728108792e+00,9.421051217396739785e-01,-0.000000000000000000e+00,-3.353146874089951712e-01,3.279718884689067409e+02
-3.722709080036953555e+00,-9.462098709285307052e+00,-4.697974108121316661e+00,0.000000000000000000e+00,9.419726912952690601e-01,-3.356865336228335717e-01,3.295056567117273971e+02
-3.638998178815753715e+00,-9.296772859163748848e+00,-4.850670061950493661e+00,-2.031297923515115039e-02,9.495260293514184990e-01,-3.130266800099275049e-01,3.314514830423502190e+02
-3.558136614663282682e+00,-9.127557928324685932e+00,-5.011393117097998839e+00,9.456480439429920670e-02,9.718644216827269089e-01,-2.157198267127787006e-01,3.333973093729730408e+02
-3.481924384694865982e+00,-8.953355041779577306e+00,-5.180167373321551416e+00,2.072520161242489278e-01,9.716899857066276791e-01,-1.134159313754500992e-01,3.353431357035958627e+02
-3.417245815521023022e+00,-8.786835823874840301e+00,-5.343682238911119597e+00,3.151383307689245017e-01,9.490067653559847161e-01,-8.484797489511568952e-03,3.371450062663768108e+02
-3.359958404467798587e+00,-8.614753289859205410e+00,-5.514079394311169224e+00,4.157246280598050348e-01,9.043401909056038024e-01,9.664291353559141540e-02,3.389468768291577589e+02
-3.311361394479100273e+00,-8.436855364858219630e+00,-5.690821659178422642e+00,3.924833669591956675e-01,9.197576801769090649e-01,7.851220633490225021e-04,3.407487473919387071e+02
-3.278793965016407519e+00,-8.282845271811334342e+00,-5.843501566712345330e+00,3.653303888230131635e-01,9.260083203014869424e-01,-9.508048030843338494e-02,3.422586678572885148e+02
-3.255079730036237962e+00,-8.123913125984715933e+00,-5.999924113402959058e+00,3.345363177933524113e-01,9.230298177661016013e-01,-1.899984410276085167e-01,3.437685883226383226e+02
-3.240657469213932274e+00,-7.960099870690120483e+00,-6.159144707531759799e+00,3.004080668295337486e-01,9.108518619318618503e-01,-2.830227535024576468e-01,3.452785087879881303e+02
-3.235070599620120557e+00,-7.774710163063072166e+00,-6.335881300987733056e+00,2.632857787357265611e-01,8.895958287901806205e-01,-3.732262854031825339e-01,3.469386984345326255e+02
-3.239605805195554744e+00,-7.584168606539775759e+00,-6.512641168803051883e+00,2.235394360498373645e-01,8.594735709637746357e-01,-4.597100187581473762e-01,3.485988880810771207e+02
-3.254009363253436593e+00,-7.388579376714672797e+00,-6.687636236709357362e+00,1.815651735859873384e-01,8.207853060390498667e-01,-5.416120097749500539e-01,3.502590777276216158e+02
-3.279011257977771265e+00,-7.177183006045053659e+00,-6.868080626304544190e+00,1.377813303813694712e-01,7.739166242955579644e-01,-6.181159791161658923e-01,3.520088635867855942e+02
-3.313094601800872230e+00,-6.960588184367948905e+00,-7.042226126767010541e+00,9.262428039076162078e-02,7.193346456663953781e-01,-6.884594470464737714e-01,3.537586494459495725e+02
-3.355532442224349765e+00,-6.738857253212803045e+00,-7.207739473932483598e+00,4.654408347282868591e-02,6.575833642332811202e-01,-7.519413324048220826e-01,3.555084353051135508e+02
-3.407579245000052381e+00,-6.502966444710375882e+00,-7.368455922189808938e+00,0.000000000000000000e+00,5.892782266480061093e-01,-8.079289396970256165e-01,3.573283425339731707e+02
-3.466660552162558862e+00,-6.261822580195278931e+00,-7.515208347066701045e+00,-4.499992964605078615e-04,3.515004504559221532e-01,9.361865363439332288e-01,3.591482497628327906e+02
-3.521362561105668032e+00,-6.055123467977621132e+00,-7.624470619996613685e+00,-8.479704324504528934e-01,5.300416452412911594e-01,0.000000000000000000e+00,3.606746455612080240e+02
-3.580458135422697641e+00,-5.843916518029860008e+00,-7.717989397463783874e+00,9.334680231828020869e-01,2.330827560931504616e-01,2.725947147463021469e-01,3.622010413595832574e+02
-3.643133630523411881e+00,-5.628151207202060746e+00,-7.794006015295110501e+00,7.968007682775103406e-01,2.307432233720817794e-01,5.584479389712967423e-01,3.637274371579584908e+02
-3.770661182500699926e+00,-5.195357743239219950e+00,-7.905064411923179435e+00,5.801381524653429489e-01,2.052380671323519590e-01,7.882354089070221503e-01,3.667233625326052788e+02
-3.792728980002409767e+00,-5.120816760395175748e+00,-7.916778767670789918e+00,3.052321163641065205e-01,1.591278847373048810e-01,9.388874647366569626e-01,3.672284575757428229e+02
-3.890182018259416896e+00,-4.791344403791247153e+00,-7.935598932561240382e+00,-3.179997568430700024e-04,9.704192579737484781e-02,9.952792389646879512e-01,3.694131690822193832e+02
-3.988425686624410105e+00,-4.453855924651062281e+00,-7.921348178596500311e+00,9.334680231830799757e-01,2.330827560932198783e-01,2.725947147463833597e-01,3.715978805886959435e+02
-4.084242019739522611e+00,-4.116519096229025898e+00,-7.874220553087321939e+00,7.190558704947099811e-01,1.266425949170194021e-01,6.833142090284889392e-01,3.737239837334024060e+02
-4.179705767666063387e+00,-3.768935066580113347e+00,-7.793033282937888551e+00,3.421418352603874946e-01,-8.417995946776314631e-03,9.396095475826197196e-01,3.758500868781088684e+02
-4.281712907401526991e+00,-3.379517822900634183e+00,-7.667323638904035121e+00,-6.799996278734420465e-05,-9.702994690082364371e-02,9.952804553375105279e-01,3.781531696799910947e+02
-4.383913439032565584e+00,-2.962799917816290041e+00,-7.497490900929665969e+00,-0.000000000000000000e+00,-9.695091801188839009e-02,9.952881583184741698e-01,3.805275593676896619e+02
-4.468747369264559843e+00,-2.587093939758208450e+00,-7.313678854496609816e+00,-5.300915303214127627e-01,-8.479392486978463150e-01,0.000000000000000000e+00,3.825859711819858262e+02
-4.537454390945420357e+00,-2.252596634042679291e+00,-7.123305101629956226e+00,1.496668758973628277e-01,-9.064513677667209723e-01,-3.948971310784702426e-01,3.843477663807043427e+02
-4.601701925742502475e+00,-1.904874234150279344e+00,-6.898016059271070866e+00,7.364161080999558351e-01,-4.016585135369229453e-01,-5.443893406704828353e-01,3.861095615794228593e+02
-4.660994247921125933e+00,-1.543826700358712500e+00,-6.635692401015260700e+00,9.190094093915927020e-01,-3.586723966456981660e-01,-1.636270678552897428e-01,3.878713567781413758e+02
-4.742358893126983332e+00,-9.759672718080004694e-01,-6.182211359316596599e+00,9.360262369455074616e-01,-2.510647953303951629e-01,2.466157989572450859e-01,3.905416662036265052e+02
-4.785975043826915964e+00,-6.237037059288835783e-01,-5.881667512271372189e+00,9.900979183841531750e-01,-1.323542762302336306e-01,-4.675957201260826090e-02,3.921377518445078181e+02
-4.825042506385655905e+00,-2.580946973456269000e-01,-5.556209994271230634e+00,9.421051217393062727e-01,-0.000000000000000000e+00,-3.353146874088642204e-01,3.937338374853891310e+02
-4.867281784238393527e+00,2.093369430651004504e-01,-5.129180128031419095e+00,2.505768424027162156e-01,-9.347684120886778913e-01,2.518278416159153710e-01,3.956998775320587924e+02
-4.903286593116342296e+00,6.944159875534812176e-01,-4.680631122043021897e+00,7.364161080998806730e-01,-4.016585135368818671e-01,-5.443893406704273241e-01,3.976659175787284539e+02
-4.935102143228887073e+00,1.235337165091707323e+00,-4.179902723672277887e+00,0.000000000000000000e+00,-9.950534475069982010e-01,-9.933094484753354769e-02,3.997808184345842051e+02
-4.959882511440172337e+00,1.794925349839552764e+00,-3.665883916444340862e+00,8.649910223443330048e-01,4.315195122752887857e-02,4.999264349583988909e-01,4.018957192904399562e+02
-4.974644164629784093e+00,2.270820527187051852e+00,-3.235339354068555551e+00,9.999988887671178742e-07,-4.977924468360499510e-01,-8.672950362321663054e-01,4.036386057486217851e+02
-4.983748343073887810e+00,2.760649457858437295e+00,-2.801603080600470808e+00,8.977855712621592072e-07,-4.459739819518029336e-01,-8.950448074933191611e-01,4.053814922068036140e+02
-4.986844902234085275e+00,3.263786846021081267e+00,-2.368117873565901199e+00,7.924702402119531325e-07,-3.926145955321036496e-01,-9.197020057465608023e-01,4.071243786649854428e+02
-4.982151195528849108e+00,3.913183270603230124e+00,-1.827358890292482441e+00,6.844167795477604831e-07,-3.378986540989815102e-01,-9.411814381709323607e-01,4.093164075096505599e+02
-4.967624493667202046e+00,4.579372719503296274e+00,-1.295405299509970076e+00,5.739985329345527324e-07,-2.820152108154947990e-01,-9.594088913848767275e-01,4.115084363543156769e+02
-4.933957658757477382e+00,5.461317377186787780e+00,-6.258171847942728405e-01,4.615970139615688167e-07,-2.251573523545680744e-01,-9.743213877774298259e-01,4.143394460944676894e+02
-4.900507512462072057e+00,6.060837650769697937e+00,-1.961684467715641145e-01,3.476005881343270156e-07,-1.675215318463353364e-01,-9.858674030354341866e-01,4.162202302066826292e+02
-4.862639343618337051e+00,6.574207717697372111e+00,1.496806817629672270e-01,2.324031312147669693e-07,-1.093068902050893104e-01,-9.940070441167467852e-01,4.177986149269111706e+02
-4.814026650617639014e+00,7.096291663941806327e+00,4.796802788644891069e-01,1.164026685380790167e-07,-5.071456817716571419e-02,-9.987121870562081227e-01,4.193769996471397121e+02
-4.753563685203048728e+00,7.625449569730924360e+00,7.928839235297923116e-01,0.000000000000000000e+00,8.052988517095573465e-03,-9.999665741292721455e-01,4.209553843673682536e+02
-4.680156536762855701e+00,8.160033442717447016e+00,1.088345310803240595e+00,8.965938298732633038e-01,2.929696176511913802e-02,-4.418814233093619204e-01,4.225337690875967951e+02
-4.588606644421182601e+00,8.723058907876234613e+00,1.377925543902492667e+00,9.498937998041210307e-01,-1.397806889475467218e-01,2.795731176139459873e-01,4.241847532976448747e+02
-4.481481577986314413e+00,9.287928382494500923e+00,1.647434165810046425e+00,4.789225235544631865e-01,-2.317097694886331716e-01,8.467241576550987858e-01,4.258357375076929543e+02
-4.358987970771544873e+00,9.852533593116330479e+00,1.896665060610244868e+00,8.634285659263324364e-01,5.849059702097421203e-03,5.044352287898187237e-01,4.274867217177410339e+02
-4.222135551126513064e+00,1.041474215627403410e+01,2.125758152625332187e+00,9.703928888893853522e-01,2.415277234480792956e-01,0.000000000000000000e+00,4.291377059277891135e+02
-4.058452695885079287e+00,1.102539192660249157e+01,2.355305065440362000e+00,5.752485914333331785e-01,0.000000000000000000e+00,-8.179774190367213871e-01,4.309456491506165889e+02
-3.883617995292167446e+00,1.162865339961697408e+01,2.564868966538678130e+00,3.588155418935178864e-01,-5.920762440852369579e-01,-7.215920787299597849e-01,4.327535923734440644e+02
-3.700499687125535786e+00,1.222218045068641068e+01,2.756127537190120602e+00,6.070178029584684110e-01,-4.919934205239061553e-01,-6.240752046461456315e-01,4.345615355962715398e+02
-3.542985079827535522e+00,1.270812972630317361e+01,2.902045814777031385e+00,8.059723192759185029e-01,-3.519948608499167686e-01,-4.759267154695600577e-01,4.360720957677014553e+02
-3.383178066994851019e+00,1.318248970406367171e+01,3.035375937955784753e+00,9.395378056232503994e-01,-1.834387079172067891e-01,-2.891659596900780227e-01,4.375826559391313708e+02
-3.222948637960147078e+00,1.364368700403123214e+01,3.157357371442790051e+00,9.968779763717017239e-01,-0.000000000000000000e+00,-7.894491893666531757e-02,4.390932161105612863e+02
-3.063973864333473518e+00,1.409021592274134882e+01,3.269246094036787564e+00,7.071496252785545167e-01,-7.070616641984891482e-01,1.100222864366724122e-03,4.406037762819912018e+02
-2.830780585999255194e+00,1.473179647658328406e+01,3.423219561693009449e+00,0.000000000000000000e+00,-9.967539354453689437e-01,8.049591402863333356e-02,4.428572311856444799e+02
-2.603878068199016571e+00,1.534582565515272634e+01,3.566892327938987695e+00,5.666746878019284228e-01,-6.047727220965032346e-01,5.595781918668621957e-01,4.451106860892977579e+02
-2.430018173626387945e+00,1.581171412631037043e+01,3.675553733038537718e+00,7.342455860441465809e-01,2.131448798323445082e-01,6.445546366104615288e-01,4.469081891462044496e+02
-2.264945822461586822e+00,1.625213756399888609e+01,3.780352297853700083e+00,8.597905853221550210e-01,2.102694487389045741e-01,4.653438602997320150e-01,4.487056922031111412e+02
-2.109706865342309889e+00,1.666570743094587215e+01,3.883203952143158055e+00,9.441632859998093652e-01,1.973249712522163468e-01,2.638494743045314284e-01,4.505031952600178329e+02
-1.964779167105769941e+00,1.705136649623572254e+01,3.985951004326830027e+00,9.833234072749834631e-01,1.749313170805136264e-01,4.972032793726299804e-02,4.523006983169245245e+02
-1.834087425948424999e+00,1.739839252840170758e+01,4.087505767264506318e+00,9.753957369120072052e-01,1.441608408672708508e-01,-1.667897130372237025e-01,4.540486153051133442e+02
-1.713849176987358947e+00,1.771658401800105054e+01,4.192422225557577597e+00,9.207599180347354473e-01,1.064870296329973876e-01,-3.753127840366894952e-01,4.557965322933021639e+02
-1.603989696617829974e+00,1.800539033432390212e+01,4.302250510274723716e+00,8.220322628906339135e-01,6.371394286824720588e-02,-5.658634925950000172e-01,4.575444492814909836e+02
-1.503886742921160868e+00,1.826484089922234944e+01,4.418226531475008656e+00,6.978066892864511761e-01,5.920584188765157935e-02,-7.138336589669952437e-01,4.592923662696798033e+02
-1.412641627158032209e+00,1.849524971328424527e+01,4.541429057415046877e+00,5.475197965437750280e-01,5.248654993547725162e-02,-8.351438405865286851e-01,4.610402832578686230e+02
-1.308831335954839137e+00,1.874608418748477590e+01,4.705097594128317517e+00,3.767844401630603413e-01,4.380701748019320135e-02,-9.252634386334568362e-01,4.632146124760731709e+02
-1.213168973420031049e+00,1.896191274055629350e+01,4.880168445945569644e+00,1.919771522809057274e-01,3.349140363166853290e-02,-9.808267425423780050e-01,4.653889416942777189e+02
-1.151531251683323598e+00,1.908868935441503467e+01,5.009302431321176918e+00,0.000000000000000000e+00,2.192496970816276702e-02,-9.997586187198543861e-01,4.668978939869770670e+02
-1.093956079082680777e+00,1.919419777600144883e+01,5.144978348451323846e+00,-0.000000000000000000e+00,-6.784882429445567020e-02,-9.976946111128519590e-01,4.684068462796764152e+02
-1.039787696136149631e+00,1.928020391627369889e+01,5.285892759649220451e+00,-0.000000000000000000e+00,-1.570755117887180641e-01,-9.875855829233608496e-01,4.699157985723757633e+02
-9.883579146543749472e-01,1.934846873984875160e+01,5.430742194118898247e+00,-0.000000000000000000e+00,-2.450356040664592172e-01,-9.695130492889401097e-01,4.714247508650751115e+02
-9.390960273212811682e-01,1.940075204905459216e+01,5.578135810600246991e+00,-0.000000000000000000e+00,-3.310198256826571983e-01,-9.436227397677324769e-01,4.729337031577744597e+02
-8.916386814491190638e-01,1.943881730882226577e+01,5.726508060565827840e+00,-0.000000000000000000e+00,-4.143348337254990077e-01,-9.101234232582863237e-01,4.744426554504738078e+02
-8.457199395883631121e-01,1.946442929143659484e+01,5.874206043685067158e+00,-0.000000000000000000e+00,-4.943088086216063104e-01,-8.692852246074257438e-01,4.759516077431731560e+02
-7.993311911032422445e-01,1.947994136856356207e+01,6.025177862428179765e+00,-0.000000000000000000e+00,-5.702968713975000714e-01,-8.214374464777517426e-01,4.775188745708272791e+02
-7.539345543638089620e-01,1.948624171290641982e+01,6.171948716809338542e+00,-0.000000000000000000e+00,-6.416862837168997302e-01,-7.669659140347954152e-01,4.790861413984814021e+02
-7.092019592226747049e-01,1.948522715116973814e+01,6.312735513051198843e+00,-0.000000000000000000e+00,-7.079013887640231983e-01,-7.063098638611590152e-01,4.806534082261355252e+02
-6.647913590189543642e-01,1.947879194011495230e+01,6.445755198075707959e+00,-0.000000000000000000e+00,-7.684082531316432929e-01,-6.399584021799726852e-01,4.822206750537896482e+02
-6.203467379547361604e-01,1.946882768922765194e+01,6.569224771646640981e+00,-0.000000000000000000e+00,-8.227189722824969076e-01,-5.684465609430368049e-01,4.837879418814437713e+02
