4.815860131702023317e+00,1.477153350027219680e+01,4.416624356258819439e+00,-8.778520623534421530e-01,1.400828366887578724e-01,4.579853223502050041e-01,5.275567272274803088e+01
4.631661319177408309e+00,1.473283544861864947e+01,4.367308747303177974e+00,-8.638162378637983529e-01,1.500768538454739509e-01,4.809328904783597425e-01,5.428935416995535945e+01
4.431264623160594773e+00,1.469325374377129911e+01,4.317702601366823600e+00,-8.490690804454823493e-01,1.599472860480444236e-01,5.034844211279284609e-01,5.582303561716268803e+01
4.381325109709701238e+00,1.468369440440164198e+01,4.305805199716949083e+00,-8.336227339812563031e-01,1.696860052732735713e-01,5.256213437496725094e-01,5.618967786719811386e+01
4.111121657377834637e+00,1.463375534339910899e+01,4.244564223252253576e+00,-8.174899181053133512e-01,1.792849919580389306e-01,5.473254292063959303e-01,5.806687395902331161e+01
3.806387490423924991e+00,1.458037646689996869e+01,4.181188011877646105e+00,-8.006839177298126220e-01,1.887363416026762164e-01,5.685788047829938296e-01,5.998797066354698160e+01
3.474862474361512632e+00,1.452447956885963798e+01,4.116999121076800883e+00,-7.832185721060357375e-01,1.980322712796372120e-01,5.893639689030677475e-01,6.190906736807065158e+01
3.172499555401648852e+00,1.447468939367097818e+01,4.061354270223985097e+00,-7.651082634291658247e-01,2.071651260420658835e-01,6.096638055400086520e-01,6.355435669480449690e+01
2.855937859514219745e+00,1.442323258414743847e+01,4.005075716920254436e+00,-7.463679049960647571e-01,2.161273852270181317e-01,6.294615983106798263e-01,6.519964602153834221e+01
2.526716072681275627e+00,1.436997337997964586e+01,3.948103495423356257e+00,-7.270129289257907246e-01,2.249116686481380523e-01,6.487410442401044808e-01,6.684493534827218753e+01
2.067234799230684317e+00,1.429461445918899010e+01,3.870460205726141023e+00,-8.964331543918484524e-01,2.974197194430639249e-02,-4.421775828925261775e-01,6.904568304185370664e+01
1.588131065689318611e+00,1.421326787751346288e+01,3.790809664964636561e+00,-8.915992138658624944e-01,-2.193297512650038417e-01,-3.961607022966269209e-01,7.124643073543522576e+01
1.223589710355337035e+00,1.414929736847349773e+01,3.730374232441446836e+00,-8.295444381929206745e-01,-4.543253402922227679e-01,-3.247191251403027112e-01,7.288157932499296976e+01
8.554873822062907252e-01,1.408281406034762995e+01,3.668963853404524578e+00,-7.142513392293400321e-01,-6.601633892673706150e-01,-2.324377849663554763e-01,7.451672791455071376e+01
4.861825141913778126e-01,1.401361787677573112e+01,3.606515339581223056e+00,-3.571165318401633426e-01,-5.924852232849486811e-01,-7.220990533684533697e-01,7.615187650410845777e+01
1.415191435833129674e-01,1.394630901797521005e+01,3.547083100971309300e+00,-8.471320701137158293e-01,-2.337197434487591485e-01,4.772214761599509192e-01,7.768280078376331232e+01
-1.999980067727835376e-01,1.387650145638484567e+01,3.486700181817083966e+00,-9.796745246581555211e-01,-0.000000000000000000e+00,2.005886979232468226e-01,7.921372506341816688e+01
-5.774413850793786995e-01,1.379439754233986548e+01,3.417468999687239162e+00,-9.546707119062373126e-01,-0.000000000000000000e+00,-2.976605983800955091e-01,8.093663741242184528e+01
-9.438826627943913694e-01,1.370795697821099424e+01,3.346747662170828086e+00,-0.000000000000000000e+00,-9.967539354453688327e-01,8.049591402863331968e-02,8.265954976142552368e+01
-1.295771318332468836e+00,1.361684493964734877e+01,3.274466419001487161e+00,-0.000000000000000000e+00,2.016697227948963458e-02,9.997956257309910111e-01,8.438246211042920208e+01
-1.629805175958379593e+00,1.352071263531475864e+01,3.200555532696017558e+00,8.370268619317432490e-01,-1.940497361591903558e-01,5.115943044079412916e-01,8.610537445943288049e+01
-1.942930433320793071e+00,1.341919831924072071e+01,3.124945279129628606e+00,0.000000000000000000e+00,-9.705539409184390509e-01,-2.408797371487794436e-01,8.782828680843655889e+01
-2.233325115284647389e+00,1.331196944014860684e+01,3.047546874586025467e+00,-0.000000000000000000e+00,-5.697617808902302183e-01,-8.218086839621091544e-01,8.955119915744023729e+01
-2.538736139516417634e+00,1.318005903831777204e+01,2.955642171671243990e+00,-0.000000000000000000e+00,1.080298527116637236e-01,9.941466445764608473e-01,9.153933715512734182e+01
-2.813032535353793495e+00,1.303836935925837537e+01,2.860563479527490571e+00,8.220322628904948026e-01,6.371394286823642283e-02,-5.658634925949043160e-01,9.352747515281444635e+01
-3.066545694410832468e+00,1.288113046104282411e+01,2.758700691619130119e+00,6.355972790766478697e-01,2.092487626605330497e-01,7.431211571181732811e-01,9.558130081828336699e+01
-3.292512634165369434e+00,1.271223932967257220e+01,2.652821724453791497e+00,7.342455860396148726e-01,2.131448798310290049e-01,6.445546366064833776e-01,9.763512648375228764e+01
-3.477345457690155239e+00,1.254908184275172722e+01,2.553235739483499689e+00,3.588155418937317709e-01,-5.920762440855897868e-01,-7.215920787303898853e-01,9.949857698293118347e+01
-3.646290474970659723e+00,1.237670805676000718e+01,2.450282908849680030e+00,5.328913625204048099e-01,-5.120993873931289214e-03,8.461669877595571210e-01,1.013620274821100793e+02
-3.778867076264190050e+00,1.222418701211276648e+01,2.360710451415529931e+00,0.000000000000000000e+00,-2.786296520867598964e-02,9.996107518276934334e-01,1.029371329879297292e+02
-3.903937184253213566e+00,1.206586657933533324e+01,2.268912680803900184e+00,4.086756024190250636e-01,-4.161136111537828974e-02,9.117295358889341284e-01,1.045122384937493791e+02
-4.041179445580357132e+00,1.187174424317844057e+01,2.157967537351933807e+00,7.458628287707030902e-01,-4.808075984919236989e-02,6.643605054388868059e-01,1.063603139060494271e+02
-4.168200952193382491e+00,1.166763953474452897e+01,2.043124208806140096e+00,9.525773651291568056e-01,-4.613943374885257770e-02,3.007748594745393578e-01,1.082083893183494752e+02
-4.274233021759858531e+00,1.147670237087279510e+01,1.937055521848094486e+00,9.926579453379937856e-01,-3.612694764533717212e-02,-1.154255050078253214e-01,1.098626880608249223e+02
-4.373804657025258891e+00,1.127826824268327499e+01,1.827961833455944873e+00,8.590932817682280787e-01,-1.979479997312330944e-02,-5.114341591168314327e-01,1.115169868033003695e+02
-4.470097132306029231e+00,1.106419837034698261e+01,1.711446633906522630e+00,5.752485914330272010e-01,-0.000000000000000000e+00,-8.179774190362865127e-01,1.132325929909867881e+02
-4.560136907815479645e+00,1.083761984483401974e+01,1.589325972430513101e+00,9.703928888892788818e-01,2.415277234480527890e-01,0.000000000000000000e+00,1.149755390244822024e+02
-4.641789555959140223e+00,1.060155691928907373e+01,1.463255369372437942e+00,9.697955892164575875e-01,1.681527820750746138e-01,1.766894366336928812e-01,1.167184850579776167e+02
-4.714415665887821127e+00,1.035576030976321427e+01,1.333087856585595921e+00,9.337004112386365628e-01,8.862287241148472661e-02,3.469114131008129709e-01,1.184614310914730311e+02
-4.771484542479929480e+00,1.012883863429804343e+01,1.213744567095477844e+00,8.634285659263324364e-01,5.849059702097421203e-03,5.044352287898187237e-01,1.200141501763386742e+02
-4.821539528707596389e+00,9.894718782543749924e+00,1.091305673590749814e+00,7.615522386263113841e-01,-7.713885395508116027e-02,6.434949767130212495e-01,1.215668692612043174e+02
-4.864408384088383386e+00,9.653238952997334366e+00,9.656776851443045206e-01,6.318004413208069270e-01,-1.573032280445931241e-01,7.590005907735325463e-01,1.231195883460699605e+02
-4.899878748625998703e+00,9.404235828809564879e+00,8.367665923337541667e-01,4.789225235544178338e-01,-2.317097694886112447e-01,8.467241576550186277e-01,1.246723074309356036e+02
-4.927551543365062514e+00,9.147543171413195395e+00,7.044773280681567718e-01,2.494365143153851605e-01,-1.130405118714515600e-01,9.617698622858654733e-01,1.262250265158012468e+02
-4.946989945351972118e+00,8.882992216968032650e+00,5.687143080281672480e-01,0.000000000000000000e+00,1.466999104714234586e-02,9.998913897824985852e-01,1.277777456006668899e+02
-4.955760711462969148e+00,8.706960736091010844e+00,4.786329177040627991e-01,-4.690008155332768308e-04,-5.066311160103591921e-02,9.987146885619816450e-01,1.287891956471853803e+02
-4.947662236757518706e+00,8.211494553273546160e+00,2.266996552063792192e-01,-9.359985444585989254e-04,-1.157798199545048978e-01,9.932734553922167864e-01,1.314930740415271373e+02
-4.918045708609207978e+00,7.890250511383676724e+00,6.451713738268097242e-02,-7.813483214039919009e-03,-9.031830837291848768e-01,4.291820902617477507e-01,1.331447388182745044e+02
-4.873114688252166538e+00,7.558540489220390235e+00,-1.023398266688870517e-01,-7.359466079023748754e-03,-8.431163871906850460e-01,-5.376788965204665205e-01,1.347964035950218715e+02
-4.811322890353889825e+00,7.216119478856098723e+00,-2.739859028796987062e-01,-0.000000000000000000e+00,8.052988517036820115e-03,-9.999665741219762038e-01,1.364480683717692386e+02
-4.730735028387435648e+00,6.862735961729414136e+00,-4.505321501425640918e-01,-0.000000000000000000e+00,-7.950793855435993318e-02,9.968332296233941570e-01,1.380997331485166058e+02
-4.632756214088160185e+00,6.509279871997667222e+00,-6.265482961215679270e-01,-0.000000000000000000e+00,-4.815249848558253443e-02,9.988389944686932864e-01,1.397023360546264996e+02
-4.513535342256576932e+00,6.145325765323512712e+00,-8.072322128135848152e-01,-0.000000000000000000e+00,-1.674952637601225675e-02,9.998587166933662340e-01,1.413049389607363935e+02
-4.371178023016549119e+00,5.770629073355452832e+00,-9.926774973015575210e-01,-0.000000000000000000e+00,1.466999104701379592e-02,9.998913897737367051e-01,1.429075418668462873e+02
-4.203887449344487770e+00,5.384938736364151879e+00,-1.182977197245702383e+00,1.270998420244483272e-03,1.158168560483519294e-01,9.932687654415717216e-01,1.445101447729561812e+02
-4.009930288658465791e+00,4.987997973477035885e+00,-1.378223294715310798e+00,0.000000000000000000e+00,1.173078338390019654e-01,9.930945933284813787e-01,1.461127476790660751e+02
-3.755859127451235846e+00,4.527617454376209771e+00,-1.603907688294392786e+00,-0.000000000000000000e+00,1.466999104702684451e-02,9.998913897746261048e-01,1.479125925835833755e+02
-3.459075516597991840e+00,4.050620536277281580e+00,-1.836874621935189911e+00,-6.277913306350095812e-01,3.759644576841414398e-02,7.774718981702115617e-01,1.497124374881006759e+02
-3.100042045717032568e+00,3.530653375022321239e+00,-2.089889684262673963e+00,-9.767687279903014552e-01,4.382560694602377627e-02,2.097621705534729875e-01,1.516033948563057550e+02
-2.696534544952251533e+00,2.990465300601020004e+00,-2.351853961574215113e+00,-8.919444569141580237e-01,3.059098137380781082e-02,-4.511067253307939895e-01,1.534943522245108340e+02
-2.433990309186257583e+00,2.651765604871336279e+00,-2.515704809838075651e+00,-8.875683492961607968e-01,2.518998153244456778e-02,-4.599846627710009184e-01,1.546492817387693890e+02
-1.801903661386037081e+00,1.861073650992669970e+00,-2.897042955944959974e+00,9.999988887671568377e-07,-4.977924468360692689e-01,-8.672950362322000561e-01,1.572381599301258746e+02
-1.265034056554596997e+00,1.205813279887713252e+00,-3.211771210855002057e+00,2.505768424027111085e-01,-9.347684120886589065e-01,2.518278416159102640e-01,1.592757807236200449e+02
-7.089060224918660724e-01,5.257499063254201799e-01,-3.537306868297187545e+00,0.000000000000000000e+00,1.466699169441355519e-02,9.998914337840429933e-01,1.613134015171142153e+02
-2.190328150632793180e-01,-8.051669045021596360e-02,-3.826822182461341537e+00,-3.420037210420897034e-01,2.783739946567559062e-02,9.392851185792827629e-01,1.630746862746346437e+02
2.743415635982133227e-01,-7.022779089095217975e-01,-4.123256771146225574e+00,-6.426887696862271238e-01,3.764467571373304733e-02,7.652006427792596988e-01,1.648359710321550722e+02
7.680507380747142454e-01,-1.339133984858103865e+00,-4.426579219204064053e+00,-8.657284703650010016e-01,4.290397375222500947e-02,4.986696949240640997e-01,1.665972557896755006e+02
1.410857640109068001e+00,-2.199536922793155380e+00,-4.836455107156496069e+00,-9.494871526037625964e-01,0.000000000000000000e+00,-3.138027199380282184e-01,1.689064121708143489e+02
1.844925274141171023e+00,-2.802888395178557701e+00,-5.124045470829348581e+00,-9.789433609016954252e-01,-2.146098598930203105e-02,-2.029958674751574932e-01,1.704833263511160624e+02
2.273792408748008143e+00,-3.416251878841120249e+00,-5.416483988957064177e+00,-9.494871525968816561e-01,-0.000000000000000000e+00,-3.138027199357540376e-01,1.720602405314177759e+02
2.696532183610550693e+00,-4.039334187711701496e+00,-5.713739196305182233e+00,-0.000000000000000000e+00,1.466799147870419956e-02,9.998914191181141886e-01,1.736371547117194893e+02
3.186912650107609934e+00,-4.789231283285713126e+00,-6.072023005060688483e+00,-4.348255654857680619e-01,8.976721029706270505e-01,7.148092857025152569e-02,1.755018574284269164e+02
3.665665285234827930e+00,-5.553715207413977062e+00,-6.438155445837162816e+00,-8.555062347859629934e-01,6.122994523241132719e-02,-5.141575401078907204e-01,1.773665601451343434e+02
4.132343625399741427e+00,-6.332188389078778457e+00,-6.812067655996910887e+00,2.883107282158183238e-01,-5.998124345700117654e-01,-7.463912963933430067e-01,1.792312628618417705e+02
4.526294285032631315e+00,-7.015111273065111952e+00,-7.140982905091770583e+00,1.016999272028653624e-02,-9.999472842345212831e-01,-0.000000000000000000e+00,1.808425461474889175e+02
4.912361621704989467e+00,-7.706532235594207414e+00,-7.474823043816195778e+00,5.646663325348396656e-01,-6.706362072729011858e-01,-4.810374313885780184e-01,1.824538294331360646e+02
5.291061053783635337e+00,-8.406111373006329046e+00,-7.813544836916975989e+00,0.000000000000000000e+00,-2.291096583325397118e-02,-9.997365091094085887e-01,1.840651127187832117e+02
5.662992348407906995e+00,-9.113508449143397527e+00,-8.157103312515769034e+00,4.817995167360955219e-03,-1.888798105461056767e-02,-9.998089971521703090e-01,1.856763960044303587e+02
6.028671471677912841e+00,-9.828380218779377842e+00,-8.505450061043783094e+00,1.014498516941425392e-02,-0.000000000000000000e+00,-9.999475382129733303e-01,1.872876792900775058e+02
6.438917250936047942e+00,-1.065336709780760671e+01,-8.909193931844198389e+00,-6.696665005624222733e-01,1.278249046681285139e-01,7.315774543892049619e-01,1.891264312842747870e+02
6.833799275173340959e+00,-1.146990358633636298e+01,-9.310877315806520116e+00,-0.000000000000000000e+00,-7.954388900878329727e-01,-6.060321543756910234e-01,1.909254521062549657e+02
7.223153752527235127e+00,-1.229508379953749930e+01,-9.718988332229280047e+00,-5.163343074808738331e-01,-6.993530620120250729e-01,-4.942693370749057791e-01,1.927244729282351443e+02
7.607699784579864399e+00,-1.312836530033493254e+01,-1.013343125955645618e+01,-7.580441341999771820e-01,2.125597572248971029e-02,-6.518552554835931323e-01,1.945234937502153230e+02
8.001263966936697614e+00,-1.399867137772002401e+01,-1.056895794835338442e+01,-0.000000000000000000e+00,5.332983833117878048e-01,8.459260217997610631e-01,1.963850754527980484e+02
8.045959858109565488e+00,-1.409855183645702681e+01,-1.061910038285468971e+01,-9.089331001752559702e-01,0.000000000000000000e+00,-4.169395872385357471e-01,1.965977098893566506e+02
8.504000571896778382e+00,-1.513509114645328602e+01,-1.114204493971242549e+01,-0.000000000000000000e+00,2.371197228180496955e-02,-9.997178313762560276e-01,1.987919218826332894e+02
8.955604024700503984e+00,-1.618236902813404399e+01,-1.167576561331526008e+01,-5.939584362336596257e-01,-8.044922364017137451e-01,-1.901998194684179598e-03,2.009861338759099283e+02
9.427900019830318001e+00,-1.730832245820427318e+01,-1.225605875824539304e+01,-9.089308576315796584e-01,-4.169444759731190109e-01,-0.000000000000000000e+00,2.033230477967875345e+02
9.733317430223452860e+00,-1.805473557264801698e+01,-1.264402548433054285e+01,-9.089459700189567171e-01,4.169115275726124059e-01,-4.199995240734188457e-05,2.048620966673256021e+02
1.003348340364717473e+01,-1.880390724607977404e+01,-1.303536063474414775e+01,-0.000000000000000000e+00,6.060361314472341165e-01,7.954358600052363615e-01,2.064011455378636697e+02
1.032747909291030375e+01,-1.955549356357970936e+01,-1.342996629519810448e+01,-2.327326561483993583e-01,6.034521084277693070e-01,7.626788731776810160e-01,2.079401944084017373e+02
1.061441055706380965e+01,-2.030914525699599693e+01,-1.382774066749697717e+01,-7.895990730975157440e-03,0.000000000000000000e+00,9.999678261477323860e-01,2.094792432789398049e+02
1.089318247361125280e+01,-2.106450505185036803e+01,-1.422857420791667238e+01,5.171696928923926601e-02,7.942155283760166107e-01,-6.054296404815463495e-01,2.110182921494778725e+02
1.117327125359264350e+01,-2.185185682938660179e+01,-1.464881788314518829e+01,-2.327097549703504020e-01,-7.626911969311439554e-01,-6.034453646076149980e-01,2.126196247326285231e+02
1.144215305830459073e+01,-2.264024982377680217e+01,-1.507224875336283709e+01,-4.039896372711712647e-02,7.947932863816017379e-01,6.055324563125923376e-01,2.142209573157791738e+02
1.169920903799361156e+01,-2.342925143074480587e+01,-1.549873390049070565e+01,-0.000000000000000000e+00,2.371197228180178460e-02,-9.997178313761216906e-01,2.158222898989298244e+02
1.194388064951262152e+01,-2.421842444152808227e+01,-1.592813440690262006e+01,-2.327328258594780208e-01,7.626824293288199108e-01,6.034475484750777552e-01,2.174236224820804750e+02
1.217541519918991888e+01,-2.500732408858464950e+01,-1.636029937876811502e+01,-2.251762575443190528e-01,7.619205807380945439e-01,6.072649188663392650e-01,2.190249550652311257e+02
1.241893380245367062e+01,-2.589570112953598269e+01,-1.685085669276406151e+01,-2.176034193886928481e-01,7.611036799013538579e-01,6.110384114854580107e-01,2.208303364716693977e+02
1.264257863105906665e+01,-2.678217525221253936e+01,-1.734490698434802880e+01,-2.100148585646191557e-01,7.602317858470397649e-01,6.147677536839688539e-01,2.226357178781076698e+02
1.284639579754507110e+01,-2.766601676721474590e+01,-1.784219698814105115e+01,-2.024111233800680587e-01,7.593049615771929606e-01,6.184526760036122006e-01,2.244410992845459418e+02
1.303058290131120067e+01,-2.854649282677373279e+01,-1.834246266813599036e+01,-1.947927632392994213e-01,7.583232740627569024e-01,6.220929121956901842e-01,2.262464806909842139e+02
1.317182366319789644e+01,-2.928800908730861607e+01,-1.876737867192197839e+01,-1.871603286031670588e-01,7.572867942387367934e-01,6.256881992403003911e-01,2.277728269828524503e+02
1.330075253665131285e+01,-3.002674390164147056e+01,-1.919375956843458653e+01,-1.795143709493458029e-01,7.561955969990720172e-01,6.292382773653385497e-01,2.292991732747206868e+02
1.341764682605772308e+01,-3.076231570431256657e+01,-1.962145375163518679e+01,-1.718554427324860134e-01,7.550497611912219131e-01,6.327428900652644073e-01,2.308255195665889232e+02
1.352276607515634765e+01,-3.149434213166335894e+01,-2.005030396056855224e+01,-1.641840973442970086e-01,7.538493696104670017e-01,6.362017841196341283e-01,2.323518658584571597e+02
1.361607360756074492e+01,-3.222243734877844901e+01,-2.048014163414196531e+01,-1.565008890735631319e-01,7.525945089939241051e-01,6.396147096113924402e-01,2.338782121503253961e+02
1.371151426886700264e+01,-3.309465643463865092e+01,-2.100009848018733649e+01,-1.488063730660951212e-01,7.512852700142779172e-01,6.429814199449285228e-01,2.357203943000762081e+02
1.378740978545506302e+01,-3.395836801451617504e+01,-2.152113585848850619e+01,-1.411011052846193603e-01,7.499217472732264689e-01,6.463016718638906477e-01,2.375625764498270200e+02
1.384497276235371821e+01,-3.481275665817431531e+01,-2.204288459307596426e+01,-1.333856424686083730e-01,7.485040392946442633e-01,6.495752254687593430e-01,2.394047585995778320e+02
1.388549012074823708e+01,-3.565700888382703226e+01,-2.256496217819364958e+01,-1.256605420940554996e-01,7.470322485174616389e-01,6.528018442341795291e-01,2.412469407493286440e+02
1.390941899437235563e+01,-3.646756285434431533e+01,-2.307252764430679548e+01,-1.179263623331958666e-01,7.455064812882603587e-01,6.559812950260468511e-01,2.430381597588659872e+02
1.391901495522842680e+01,-3.726731976662318147e+01,-2.357963881809987683e+01,-1.101836620141777301e-01,7.439268478535892015e-01,6.591133481183500953e-01,2.448293787684033305e+02
1.391563016360010963e+01,-3.805555256065454728e+01,-2.408591800973291441e+01,-1.024330005806859956e-01,7.422934623519951147e-01,6.621977772097680237e-01,2.466205977779406737e+02
1.390075217122256035e+01,-3.883153715344160162e+01,-2.459097509197731668e+01,-9.467493805152166209e-02,7.406064428057749227e-01,6.652343594400171867e-01,2.484118167874780170e+02
1.387624710339982137e+01,-3.957829283445188651e+01,-2.508352363609740010e+01,-8.691003498013967488e-02,7.388659111124462608e-01,6.682228754059517106e-01,2.501642124378294341e+02
1.384317270618496742e+01,-4.031223531421904482e+01,-2.557414534365101488e+01,-7.913885241414833627e-02,7.370719930359377337e-01,6.711631091774145075e-01,2.519166080881808512e+02
1.380293202761329852e+01,-4.103270321123737574e+01,-2.606243700327074464e+01,-7.136195185477268998e-02,7.352248181975008512e-01,6.740548483128353530e-01,2.536690037385322682e+02
1.375816851052949019e+01,-4.172010874656784551e+01,-2.653478058807684548e+01,-6.357989521628575058e-02,7.333245200663426333e-01,6.768978838745793869e-01,2.553735019126669386e+02
1.370927740603524825e+01,-4.239390782155685145e+01,-2.700419262614137494e+01,-5.579324478540969440e-02,7.313712359499803251e-01,6.796920104440399291e-01,2.570780000868015804e+02
1.365811178358123890e+01,-4.305351486250619075e+01,-2.747028103234016783e+01,-4.800256318068989864e-02,7.293651069843194445e-01,6.824370261364790524e-01,2.587824982609362223e+02
1.360660140075189162e+01,-4.369834854551759662e+01,-2.793264246186430455e+01,-4.020841331184570044e-02,7.273062781234538310e-01,6.851327326156121389e-01,2.604869964350708642e+02
1.355389514948830332e+01,-4.436010226158352765e+01,-2.841474271304150534e+01,-3.241135833909971481e-02,7.251948981291920227e-01,6.877789351079354185e-01,2.622813080703589890e+02
1.350486797227961056e+01,-4.500324576958857392e+01,-2.889146830292353485e+01,-2.461196163248918767e-02,7.230311195603058572e-01,6.903754424167973802e-01,2.640756197056471137e+02
1.346225538160840074e+01,-4.562707923882226169e+01,-2.936228257729677793e+01,-1.681078673116229855e-02,7.208150987615079552e-01,6.929220669362108342e-01,2.658699313409352385e+02
1.342877981822121747e+01,-4.623090997000424807e+01,-2.982663417120478400e+01,-9.008397302662648001e-03,7.185469958521532030e-01,6.954186246644054048e-01,2.676642429762233633e+02
1.340638885489030763e+01,-4.682047101778153575e+01,-3.028908805140495986e+01,-1.205357102203746551e-03,7.162269747146678966e-01,6.978649352171211184e-01,2.694790839320903615e+02
1.339773987550956669e+01,-4.738789873012630238e+01,-3.074363220213398051e+01,6.597770068062306856e-03,7.138552029827086587e-01,7.002608218406383145e-01,2.712939248879573597e+02
1.340935402405101051e+01,-4.800941093172342988e+01,-3.125451322214762584e+01,1.440042039977891368e-02,7.114318520290490167e-01,7.026061114245473194e-01,2.733795550726703141e+02
1.344778546766348093e+01,-4.859498676158059283e+01,-3.175127365792444678e+01,2.220203011912106131e-02,7.089570969531956424e-01,7.049006345142542207e-01,2.754651852573832684e+02
1.349746708132475170e+01,-4.904341875510245785e+01,-3.214250576439454221e+01,3.000203552752668187e-02,7.064311165687363614e-01,7.071442253232216313e-01,2.771503241305571805e+02
1.356191171139622220e+01,-4.947171138942402280e+01,-3.252507429526033889e+01,3.779987304242486690e-02,7.038540933904193775e-01,7.093367217449462192e-01,2.788354630037310926e+02
1.364080790154393341e+01,-4.987930594319093558e+01,-3.289840744026569297e+01,4.559497923795352570e-02,7.012262136209651553e-01,7.114779653646686741e-01,2.805206018769050047e+02
1.373439845769833667e+01,-5.026873548984103479e+01,-3.326491879142493957e+01,5.338679088566730679e-02,6.985476671376122937e-01,7.135678014708179973e-01,2.822201010611022980e+02
1.384155399342668957e+01,-5.063574780812928111e+01,-3.362071777353477842e+01,6.117474499523011672e-02,6.958186474783963904e-01,7.156060790661882276e-01,2.839196002452995913e+02
1.396183122333830973e+01,-5.097973837160655819e+01,-3.396516392157325726e+01,6.895827885509087096e-02,6.930393518281677823e-01,7.175926508788459390e-01,2.856190994294968846e+02
1.411336817161939194e+01,-5.133725676648910508e+01,-3.433813067176250655e+01,7.673683007313948645e-02,6.902099810043411665e-01,7.195273733727700627e-01,2.875356173344138142e+02
1.428209442911351168e+01,-5.165978242306162826e+01,-3.469279415191527960e+01,8.450983661733876828e-02,6.873307394423880945e-01,7.214101067582204818e-01,2.894521352393307438e+02
1.444627584516917018e+01,-5.191904253433136063e+01,-3.499404946658098936e+01,9.227673685633072664e-02,6.844018351810634559e-01,7.232407150018365094e-01,2.911639216021561083e+02
1.462194299746136217e+01,-5.215204742389396841e+01,-3.528072629734855781e+01,1.000369696000144443e-01,6.814234798473747245e-01,7.250190658364641383e-01,2.928757079649814727e+02
1.468298208460779719e+01,-5.222531878397869320e+01,-3.537415362842892108e+01,1.077899741400908523e-01,6.783958886412900791e-01,7.267450307707113977e-01,2.934503363860486616e+02
1.486088580686140403e+01,-5.242022490618501962e+01,-3.563185012762125581e+01,1.155351902905738803e-01,6.753192803201905070e-01,7.284184850982300397e-01,2.950832174921559385e+02
1.504555477482296943e+01,-5.259097773857950386e+01,-3.587530930168833265e+01,1.232720584282632897e-01,6.721938771830627823e-01,7.300393079067247770e-01,2.967160985982632155e+02
1.523455186783654192e+01,-5.273696307366461156e+01,-3.610382062164901384e+01,1.310000195331762762e-01,6.690199050544377579e-01,7.316073820866879629e-01,2.983489797043704925e+02
1.547884481945854773e+01,-5.288077773486642741e+01,-3.637024889668467154e+01,1.387185152289368006e-01,6.657975932680740838e-01,7.331225943398600453e-01,3.004448179621692248e+02
1.571964969590074546e+01,-5.296877077254288935e+01,-3.660157925587446925e+01,1.464269878231168887e-01,6.625271746503880177e-01,7.345848351874132431e-01,3.025406562199679570e+02
1.592356058692472942e+01,-5.300142078186753025e+01,-3.677573240990381009e+01,1.541248803475294971e-01,6.592088855036311035e-01,7.359939989778614411e-01,3.043780171839029549e+02
1.611650928757523360e+01,-5.299424870815782640e+01,-3.692361702614407193e+01,1.618116365984691440e-01,6.558429655888167176e-01,7.373499838946921958e-01,3.062153781478379528e+02
1.629356273532136257e+01,-5.294611456541463212e+01,-3.704396981893242469e+01,1.694867011768962373e-01,6.524296581083968150e-01,7.386526919637218525e-01,3.080527391117729508e+02
1.644922751439983344e+01,-5.285570746436207656e+01,-3.713555487052720139e+01,1.771495195285643642e-01,6.489692096886899852e-01,7.399020290601735494e-01,3.098919162615485448e+02
1.657784796790612347e+01,-5.272181769982226740e+01,-3.719690688273752244e+01,1.847995379840855767e-01,6.454618703620629283e-01,7.410979049154762244e-01,3.117310934113241387e+02
1.667500109760334936e+01,-5.254320768640585015e+01,-3.722670728305095622e+01,1.924362037989333918e-01,6.419078935488643500e-01,7.422402331237868411e-01,3.135702705610997327e+02
1.673479561955072370e+01,-5.234116459363495721e+01,-3.722640543921370693e+01,2.000589651933760704e-01,6.383075360391154973e-01,7.433289311482317308e-01,3.152534647345256644e+02
1.676625978464590716e+01,-5.210301687252440672e+01,-3.719997066296267718e+01,2.076672713923433389e-01,6.346610579739572211e-01,7.443639203268687110e-01,3.169366589079515961e+02
1.676781987761935611e+01,-5.182786433446876373e+01,-3.714646580992795322e+01,2.152605726652185580e-01,6.309687228268534565e-01,7.453451258783710953e-01,3.186198530813775278e+02
1.673744025110838507e+01,-5.151478808592168690e+01,-3.706492845295972671e+01,2.228383203655557865e-01,6.272307973845568929e-01,7.462724769074285947e-01,3.203030472548034595e+02
1.668166029128021322e+01,-5.119714460797990085e+01,-3.696648834547242757e+01,2.303999669707192943e-01,6.234475517278311729e-01,7.471459064098699976e-01,3.218368154976241158e+02
1.659948863473055880e+01,-5.084944092541508098e+01,-3.684541793138356525e+01,2.379449661214404210e-01,6.196192592119400544e-01,7.479653512775026325e-01,3.233705837404447720e+02
1.649048761204005231e+01,-5.047102763308656392e+01,-3.670104535094936438e+01,2.454727726612921934e-01,6.157461964468953219e-01,7.487307523026729417e-01,3.249043519832654283e+02
1.635421468271853840e+01,-5.006125045614790281e+01,-3.653269028858662892e+01,2.529828426760750704e-01,6.118286432774733274e-01,7.494420541825423943e-01,3.264381202260860846e+02
1.618978897770197989e+01,-4.961944564406518765e+01,-3.633965536986197975e+01,2.604746335331148965e-01,6.078668827629952753e-01,7.500992055230831790e-01,3.279718884689067409e+02
1.599633397912924693e+01,-4.914494245513651549e+01,-3.612123477349281586e+01,2.679476039204668480e-01,6.038612011568770255e-01,7.507021588427916781e-01,3.295056567117273971e+02
1.570168424215582270e+01,-4.848767242877870842e+01,-3.580073773210261123e+01,2.754012138860240655e-01,5.998118878859471925e-01,7.512508705761179462e-01,3.314514830423502190e+02
1.534528241997472087e+01,-4.776082829848397182e+01,-3.542516643039552093e+01,2.828349248765297808e-01,5.957192355295360953e-01,7.517453010766135257e-01,3.333973093729730408e+02
1.492567702747892966e+01,-4.696263196046724175e+01,-3.499262859855382146e+01,2.902481997764853050e-01,5.915835397983377764e-01,7.521854146197956004e-01,3.353431357035958627e+02
1.448202647644906449e+01,-4.616059579884201014e+01,-3.454153687015177354e+01,2.976405029469573194e-01,5.874050995130442043e-01,7.525711794057279302e-01,3.371450062663768108e+02
1.398734654858783522e+01,-4.529902310966311063e+01,-3.404225755952528232e+01,3.050113002642761972e-01,5.831842165827570978e-01,7.529025675613187918e-01,3.389468768291577589e+02
1.344120375115690003e+01,-4.437657832465306029e+01,-3.349334013626672402e+01,3.123600591586265240e-01,5.789211959831745968e-01,7.531795551423338120e-01,3.407487473919387071e+02
1.294703836731020097e+01,-4.355919413731722045e+01,-3.299703279995797800e+01,3.196862486525235969e-01,5.746163457345572212e-01,7.534021221351270281e-01,3.422586678572885148e+02
1.242328832390595039e+01,-4.270426326033545195e+01,-3.246990882323212446e+01,3.269893393991769037e-01,5.702699768794743385e-01,7.535702524580861761e-01,3.437685883226383226e+02
1.187017475363257546e+01,-4.181111932227650385e+01,-3.191122484035299323e+01,3.342688037207343088e-01,5.658824034603316955e-01,7.536839339627955381e-01,3.452785087879881303e+02
1.122673804021324528e+01,-4.078193581704860549e+01,-3.125764051268461330e+01,3.415241156464061123e-01,5.614539424966820125e-01,7.537431584349125746e-01,3.469386984345326255e+02
1.054551663986781662e+01,-3.970033426741822069e+01,-3.056001276773798025e+01,3.487547509504661525e-01,5.569849139623213041e-01,7.537479215947633371e-01,3.485988880810771207e+02
9.827815386299613820e+00,-3.856533404066824033e+01,-2.981721557996874949e+01,3.559601871901264536e-01,5.524756407621717047e-01,7.536982230976505548e-01,3.502590777276216158e+02
9.032747185412082658e+00,-3.730863697221747088e+01,-2.898277487944964292e+01,3.631399037432834764e-01,5.479264487089512414e-01,7.535940665338798361e-01,3.520088635867855942e+02
8.199618076584663129e+00,-3.598724574858100311e+01,-2.809271588799632013e+01,3.702933818461320858e-01,5.433376664996358851e-01,7.534354594284996542e-01,3.537586494459495725e+02
7.331632145727856376e+00,-3.459996212829069151e+01,-2.714560707916334792e+01,3.774201046306461804e-01,5.387096256917107695e-01,7.532224132407592254e-01,3.555084353051135508e+02
6.395327435364979607e+00,-3.308450554790750431e+01,-2.609717718699216960e+01,3.845195571619220432e-01,5.340426606792165742e-01,7.529549433632806155e-01,3.573283425339731707e+02
5.429261854439671353e+00,-3.149235998835970562e+01,-2.498124789589221351e+01,3.915912264753818595e-01,5.293371086685901838e-01,7.526330691209469625e-01,3.591482497628327906e+02
4.601827898170562925e+00,-3.010111312987578103e+01,-2.399599220524396870e+01,3.986346016138352932e-01,5.245933096543021756e-01,7.522568137695069268e-01,3.606746455612080240e+02
3.764268126854200869e+00,-2.866267833207045612e+01,-2.296903180552135026e+01,4.056491736643956236e-01,5.198116063942933573e-01,7.518262044938954780e-01,3.622010413595832574e+02
2.919970855474799620e+00,-2.717640149131570482e+01,-2.189950392913618415e+01,4.126344357952490549e-01,5.149923443852107985e-01,7.513412724062702441e-01,3.637274371579584908e+02
1.249885642426338483e+00,-2.403191330977618634e+01,-1.959075971510444347e+01,4.195898832922722588e-01,5.101358718374474632e-01,7.508020525437643089e-01,3.667233625326052788e+02
9.673514516449379652e-01,-2.347039980302729134e+01,-1.917248543138631334e+01,4.265150135954985933e-01,5.052425396499840016e-01,7.502085838659555694e-01,3.672284575757428229e+02
-2.424402956108131779e-01,-2.096471976164528073e+01,-1.729221501861899313e+01,4.334093263354277803e-01,5.003127013850376947e-01,7.495609092520532091e-01,3.694131690822193832e+02
-1.420632827706017620e+00,-1.831269229957712241e+01,-1.527502464954759809e+01,4.402723233691772653e-01,4.953467132425186659e-01,7.488590754978000641e-01,3.715978805886959435e+02
-2.517948733553297291e+00,-1.559077494912996009e+01,-1.317876187093648355e+01,4.471035088164737048e-01,4.903449340342949103e-01,7.481031333120925497e-01,3.737239837334024060e+02
-3.545908691867642126e+00,-1.272939440889215312e+01,-1.094950626765521839e+01,4.539023890954795304e-01,4.853077251582691987e-01,7.472931373133182564e-01,3.758500868781088684e+02
-4.549128484711836506e+00,-9.463345272006948861e+00,-8.373921880062452416e+00,4.606684729584555327e-01,4.802354505722695732e-01,7.464291460254107724e-01,3.781531696799910947e+02
-5.420600108759122904e+00,-5.902633217139621635e+00,-5.529226960314184147e+00,0.000000000000000000e+00,3.410856895399912991e-01,-9.400311443731407257e-01,3.805275593676896619e+02
-5.983471882408488263e+00,-2.719136517655626584e+00,-2.897041244375402780e+00,-8.479704324504537816e-01,5.300416452412918256e-01,-0.000000000000000000e+00,3.825859711819858262e+02
-6.290076783983852060e+00,-1.534787325469191138e-02,-5.646974559162379892e-01,3.421418352604471136e-01,-8.417995946777782207e-03,9.396095475827834775e-01,3.843477663807043427e+02
-6.444430526706886653e+00,2.630200265823306793e+00,1.740095872016933498e+00,0.000000000000000000e+00,5.892782266477543107e-01,-8.079289396966804482e-01,3.861095615794228593e+02
-6.461854250980049841e+00,5.217791255433110287e+00,3.969201558415353492e+00,-3.179997568429244483e-04,9.704192579733042501e-02,9.952792389642323156e-01,3.878713567781413758e+02
-6.201286187827989238e+00,8.996435918561417111e+00,7.163693351088779693e+00,-0.000000000000000000e+00,3.025597526096432052e-02,-9.995411827173055208e-01,3.905416662036265052e+02
-5.896571865141567059e+00,1.117406463201684730e+01,8.970462728896736238e+00,-1.405218985060111003e-01,4.256286925834744661e-01,8.939193543537200526e-01,3.921377518445078181e+02
-5.523461607521796601e+00,1.330930164751952205e+01,1.072464462842126309e+01,7.364161080995580422e-01,-4.016585135367058967e-01,-5.443893406701887372e-01,3.937338374853891310e+02
-4.973062263920682291e+00,1.587466372410147208e+01,1.280565848794234540e+01,4.606684729586321692e-01,4.802354505724537592e-01,7.464291460256970989e-01,3.956998775320587924e+02
-4.328298303232664956e+00,1.836285746972227173e+01,1.479241826843546548e+01,6.818411546864107109e-01,5.506893172820968851e-02,-7.294230956966283319e-01,3.976659175787284539e+02
-3.544165637458166707e+00,2.095121657868996579e+01,1.682293982913277475e+01,8.849807075410990320e-01,-1.526297770937690840e-02,-4.653753203484889966e-01,3.997808184345842051e+02
-2.680814044494519877e+00,2.344631295776345326e+01,1.874177353183958772e+01,-6.799996278746067507e-05,-9.702994690098984409e-02,9.952804553392153863e-01,4.018957192904399562e+02
-1.923957649463814201e+00,2.543856207964457639e+01,2.024752448708991892e+01,9.334680231830928543e-01,2.330827560932230702e-01,2.725947147463870235e-01,4.036386057486217851e+02
-1.137669036574572745e+00,2.737954776106516519e+01,2.169366106678210215e+01,-4.477014130564699324e-01,5.740342474321551425e-01,-6.855991011688931103e-01,4.053814922068036140e+02
-3.282665932234282713e-01,2.926996608316337500e+01,2.308146695266091797e+01,9.360262369453731246e-01,-2.510647953303591362e-01,2.466157989572096976e-01,4.071243786649854428e+02
7.147864545250417478e-01,3.156752698693222214e+01,2.473467239231084847e+01,4.034587101641272655e-01,-5.855715793382433310e-01,-7.030824949209835140e-01,4.093164075096505599e+02
1.776962590714592727e+00,3.376913678636699245e+01,2.627753462722832367e+01,0.000000000000000000e+00,8.051988583364715416e-03,-9.999665821820722389e-01,4.115084363543156769e+02
3.157204889502293721e+00,3.645256004017372220e+01,2.808660913359103617e+01,-4.525244665823903167e-01,-6.821651958911505442e-01,5.743433229872303425e-01,4.143394460944676894e+02
4.072090248408708035e+00,3.814084860754486783e+01,2.918097622296026472e+01,7.364161080998999909e-01,-4.016585135368925252e-01,-5.443893406704417570e-01,4.162202302066826292e+02
4.836305926740211980e+00,3.951635227162674369e+01,3.005371729545604254e+01,-2.031297923577755210e-02,9.495260293806996321e-01,-3.130266800195805610e-01,4.177986149269111706e+02
5.595275690270261393e+00,4.085801118014602906e+01,3.088958529882862436e+01,6.426236280064250295e-01,1.961598864495262343e-02,-7.659295566286991042e-01,4.193769996471397121e+02
6.346800703380768738e+00,4.216634457737265507e+01,3.168934291936012571e+01,-4.499992964604068680e-04,3.515004504558433274e-01,9.361865363437231746e-01,4.209553843673682536e+02
7.088876425071628518e+00,4.344187613892452049e+01,3.245374525713208413e+01,0.000000000000000000e+00,8.584009604373091795e-01,5.129773787610117930e-01,4.225337690875967951e+02
7.852334320883760377e+00,4.474081508321205547e+01,3.321542611193315508e+01,9.421051217399171174e-01,0.000000000000000000e+00,-3.353146874090816021e-01,4.241847532976448747e+02
8.600253572637805988e+00,4.600358677907645699e+01,3.393837387919801074e+01,9.421051210747046767e-01,-0.000000000000000000e+00,-3.353146871723188260e-01,4.258357375076929543e+02
9.330937202937814590e+00,4.723083269605167089e+01,3.462346534184234059e+01,8.965938298667486261e-01,2.929696176490626316e-02,-4.418814233061510999e-01,4.274867217177410339e+02
1.004289861455217192e+01,4.842319629369746536e+01,3.527156750978786448e+01,4.157246280600864208e-01,9.043401909062158683e-01,9.664291353565682141e-02,4.291377059277891135e+02
1.079773892627378018e+01,4.968789610002167478e+01,3.593784453239383225e+01,-5.300915303186211069e-01,-8.479392486933807760e-01,0.000000000000000000e+00,4.309456491506165889e+02
1.152351798482412804e+01,5.090887002477013823e+01,3.655788000888056644e+01,-0.000000000000000000e+00,9.419726912946514430e-01,-3.356865336226134144e-01,4.327535923734440644e+02
1.221864488008951355e+01,5.208704673554895237e+01,3.713286311671473783e+01,-6.700796228892624828e-02,0.000000000000000000e+00,-9.977514384804909708e-01,4.345615355962715398e+02
1.277692026561621397e+01,5.304148171676772705e+01,3.758202184299232584e+01,9.999988887662456420e-07,-4.977924468356157428e-01,-8.672950362314099104e-01,4.360720957677014553e+02
1.331619787154189005e+01,5.397160991523127649e+01,3.800611623893131963e+01,0.000000000000000000e+00,-9.695091808008918233e-02,9.952881590186164473e-01,4.375826559391313708e+02
1.383607215199991458e+01,5.487788176770824577e+01,3.840570309592705911e+01,-0.000000000000000000e+00,8.052988517020987294e-03,-9.999665741200104430e-01,4.390932161105612863e+02
1.433623282846323299e+01,5.576074593148626946e+01,3.878133148525434137e+01,0.000000000000000000e+00,-9.950534475071155516e-01,-9.933094484754526055e-02,4.406037762819912018e+02
1.503188514473685089e+01,5.702387522394938912e+01,3.928585920499841677e+01,4.608364502591779099e-01,4.800774273062397568e-01,-7.464271095724901439e-01,4.428572311856444799e+02
1.565608300249034457e+01,5.821488669756886480e+01,3.971535728833256940e+01,9.334680231830644326e-01,2.330827560932159648e-01,2.725947147463787523e-01,4.451106860892977579e+02
1.610766722451032962e+01,5.911888346651580406e+01,4.001039899949046230e+01,8.649910223423233901e-01,4.315195122742862543e-02,4.999264349572374311e-01,4.469081891462044496e+02
1.652361937514690027e+01,5.998786862063780490e+01,4.026963568664626791e+01,0.000000000000000000e+00,0.000000000000000000e+00,-9.999989999998453172e-01,4.487056922031111412e+02
1.690404987333372944e+01,6.082271133434176136e+01,4.049405541361873873e+01,9.968779763717972031e-01,-0.000000000000000000e+00,-7.894491893667289484e-02,4.505031952600178329e+02
1.724929371695822411e+01,6.162427376286105130e+01,4.068462826462240400e+01,0.000000000000000000e+00,-9.968312352734686188e-01,-7.953293898571152376e-02,4.523006983169245245e+02
1.755188399729803095e+01,6.237301249137434667e+01,4.083878924154983991e+01,8.847879010089557683e-01,3.147796090136733421e-02,-4.649274225157543072e-01,4.540486153051133442e+02
1.782260088864392600e+01,6.309264859874408415e+01,4.096350060542955873e+01,8.084710213410183366e-01,5.885342875757431091e-01,-0.000000000000000000e+00,4.557965322933021639e+02
1.806228182269954985e+01,6.378393340881893891e+01,4.105958144122894282e+01,8.849408409607545378e-01,2.539496673928727868e-02,-4.650083909615765343e-01,4.575444492814909836e+02
1.827177007849587298e+01,6.444760887366609836e+01,4.112783274796272792e+01,8.921767837505653054e-01,4.000265704704536462e-02,-4.499092952664328071e-01,4.592923662696798033e+02
1.845136051725046045e+01,6.508440355155160262e+01,4.116901910413496779e+01,8.989722347342927744e-01,5.459059719170211017e-02,-4.345880668823446924e-01,4.610402832578686230e+02
1.862753026567992976e+01,6.583542485139717826e+01,4.117880075948757224e+01,9.053238387942769139e-01,6.915158471492691139e-02,-4.190522703000665317e-01,4.632146124760731709e+02
1.874785057287343548e+01,6.653807596861855700e+01,4.113977536493764120e+01,9.112284599506998983e-01,8.367843046451510503e-02,-4.033095759491532317e-01,4.653889416942777189e+02
1.880391559879248931e+01,6.700149408857384969e+01,4.108828336697095551e+01,9.166831829103384566e-01,9.816396214385339491e-02,-3.873677564111246974e-01,4.668978939869770670e+02
1.884280608835005211e+01,6.744962956225931805e+01,4.102141204296233212e+01,9.216853145060148744e-01,1.126010278530586578e-01,-3.712346825820061480e-01,4.684068462796764152e+02
1.886450383057919211e+01,6.788286349524155128e+01,4.093953704952935624e+01,9.262323850263807223e-01,1.269824996200513423e-01,-3.549183197863253758e-01,4.699157985723757633e+02
1.886923659571961309e+01,6.830157661815395898e+01,4.084303413760999035e+01,9.303221494353786092e-01,1.413012769198199181e-01,-3.384267238444820802e-01,4.714247508650751115e+02
1.885709468718070170e+01,6.870614508552813504e+01,4.073227046232016590e+01,9.339525884807816647e-01,1.555502901801398830e-01,-3.217680370954332236e-01,4.729337031577744597e+02
1.882764361852369106e+01,6.909693810446297846e+01,4.060759589286572435e+01,9.371219096912563051e-01,1.697225042720150179e-01,-3.049504843766552842e-01,4.744426554504738078e+02
1.878030174870311697e+01,6.947432314270032805e+01,4.046935169810544153e+01,9.398285482614636699e-01,1.838109219831190744e-01,-2.879823689633711492e-01,4.759516077431731560e+02
1.871140509345424974e+01,6.985222301264234090e+01,4.031149757456578442e+01,9.420711678247559728e-01,1.978085874725215298e-01,-2.708720684690426039e-01,4.775188745708272791e+02
1.862188816202908725e+01,7.021593557815795350e+01,4.013922416637066704e+01,9.438486611130895154e-01,2.117085897049933996e-01,-2.536280307091553499e-01,4.790861413984814021e+02
1.851190808089806339e+01,7.056589153789947488e+01,3.995292890999659363e+01,9.451601505038252915e-01,2.255040658631946304e-01,-2.362587695303374757e-01,4.806534082261355252e+02
1.838190525731814517e+01,7.090252048181119449e+01,3.975300933695962868e+01,9.460049884531496200e-01,2.391882047360621155e-01,-2.187728606068687909e-01,4.822206750537896482e+02
1.823260337612802218e+01,7.122624984076031751e+01,3.953986307110987752e+01,9.463827578158975351e-01,2.527542500817214766e-01,-2.011789372066601911e-01,4.837879418814437713e+02
1.806500939460075372e+01,7.153750383618327646e+01,3.931388782592556197e+01,9.462932720516225027e-01,2.661955039632646347e-01,-1.834856859287888886e-01,4.853552087090978944e+02
1.788001252144658082e+01,7.183669752254691332e+01,3.907547397199168415e+01,9.457365753168092137e-01,2.795053300557456266e-01,-1.657018424146971536e-01,4.869224755367520174e+02
1.767797744168329288e+01,7.212423281956425569e+01,3.882499710452881914e+01,9.447129424431832678e-01,2.926771569227599179e-01,-1.478361870351711238e-01,4.884897423644061405e+02
1.745913669546380120e+01,7.240050538211778530e+01,3.856282547065259791e+01,9.432228788021305155e-01,3.057044812609924223e-01,-1.298975405552280915e-01,4.900570091920602636e+02
1.722398881275775295e+01,7.266590950894536149e+01,3.828932739668331919e+01,9.412671200552864548e-01,3.185808711111293157e-01,-1.118947597790544424e-01,4.916242760197143866e+02
1.697329830977499299e+01,7.292083715638474928e+01,3.800487128564024886e+01,9.388466317914261339e-01,3.312999690335493574e-01,-9.383673317714252837e-02,4.931915428473685097e+02
1.658477720286053270e+01,7.326241004784104405e+01,3.757659686795455656e+01,9.359626090498276429e-01,3.438554952472260839e-01,-7.573237649778795377e-02,4.954266676423670219e+02
1.615894566320920234e+01,7.357548413684881439e+01,3.711924275027745779e+01,9.326164757303461172e-01,3.562412507302917808e-01,-5.759062836511164712e-02,4.976617924373655342e+02
1.570305773207489075e+01,7.386156701585628070e+01,3.663442768419755424e+01,9.288098838904891297e-01,3.684511202807311259e-01,-3.942044586578084819e-02,4.998965018445167061e+02
1.522446393501443040e+01,7.412221402385397084e+01,3.612356966848363982e+01,9.245447129298399735e-01,3.804790755356928234e-01,-2.123080012661062582e-02,5.021312112516678781e+02
1.467542659189893861e+01,7.438018043044854721e+01,3.553038639426765855e+01,9.198230686622302921e-01,3.923191779479292540e-01,-3.030671885224856497e-03,5.045951062264240363e+02
1.432464152415825964e+01,7.452761557481973398e+01,3.514732883406236397e+01,9.146472822761223531e-01,4.039655817178938735e-01,1.517095294403089656e-02,5.061295306835615975e+02
1.396989047401023143e+01,7.466840874130440397e+01,3.475703415179717126e+01,9.090199091837092293e-01,4.154125366800476282e-01,3.336508770674006391e-02,5.076639551406991586e+02
1.361199422369871037e+01,7.480283809699447772e+01,3.435979486330811028e+01,9.029437277593066469e-01,4.266543911419505286e-01,5.154274944543527776e-02,5.091983795978367198e+02
1.325172850195948548e+01,7.493117371336862220e+01,3.395589750950289698e+01,8.964217379676537867e-01,4.376855946747344461e-01,6.969496333479795191e-02,5.107328040549742809e+02
1.288956623022296100e+01,7.505367330280749627e+01,3.354561663459718801e+01,8.894571598828036052e-01,4.485007008535810136e-01,8.781276711284841108e-02,5.122672285121118421e+02
1.252592211635005093e+01,7.517058807276997356e+01,3.312922080422369930e+01,8.820534320983315357e-01,4.590943699468490458e-01,1.058872155059357306e-01,5.138016529692494032e+02
1.211993894700819929e+01,7.529405726627308582e+01,3.265828993912112566e+01,8.742142100296489415e-01,4.694613715525255970e-01,1.239093846453463155e-01,5.155103037859190636e+02
1.171392563735481929e+01,7.541035338185650971e+01,3.217971464196912024e+01,8.659433641092582068e-01,4.795965871806975311e-01,1.418703764733451056e-01,5.172189546025887239e+02
1.130945375426565569e+01,7.551985020004994453e+01,3.169390781640357702e+01,8.572449778758399752e-01,4.894950127807671802e-01,1.597613231364788111e-01,5.189276054192583842e+02
1.090810480210190825e+01,7.562290762611205253e+01,3.120127249667899960e+01,8.481233459581178913e-01,4.991517612121673664e-01,1.775733913639676309e-01,5.206362562359280446e+02
1.051114360327832564e+01,7.571986523152352788e+01,3.070219191701696460e+01,8.385829719544941607e-01,5.085620646573507653e-01,1.952977868290255437e-01,5.223449070525977049e+02
