1.032043877135769350e+01,-9.318325475636811461e+00,3.003665456931269073e+00,-2.327097549702372981e-01,-7.626911969307731409e-01,-6.034453646073216770e-01,1.273911243274876597e+02
1.050748048609953500e+01,-9.407530809480237011e+00,2.116063457124894853e+00,-5.263484776507382223e-01,-7.247512959434592172e-01,-4.446243797906320183e-01,1.324938421957636479e+02
1.067551662808371837e+01,-9.557438698085530149e+00,1.233800584444397996e+00,-7.605689945537787988e-01,-6.049961052540177020e-01,-2.356109444662113084e-01,1.375965600640396360e+02
1.080387692716166548e+01,-9.771376672772909444e+00,3.799739434777119063e-01,-9.089308576323877897e-01,-4.169444759734897143e-01,-0.000000000000000000e+00,1.426992779323156242e+02
1.081040455523213950e+01,-9.794165616621731019e+00,3.136208195989206859e-01,-8.866530527714409082e-01,-4.059228275564594757e-01,2.215198006525864183e-01,1.431156141482020701e+02
1.083662414874560120e+01,-1.013660381979678604e+01,-4.471425075635400703e-01,-8.203184329668984365e-01,-3.747313203106988899e-01,4.320325290003294572e-01,1.482183320164780582e+02
1.080179349546787293e+01,-1.053511542027785808e+01,-1.133608387759576175e+00,-7.132230891623883018e-01,-3.249198243793724461e-01,6.210780408389865448e-01,1.533210498847540464e+02
1.070618040117268244e+01,-1.098011715803055566e+01,-1.724733643596722654e+00,-5.706884671609919746e-01,-2.589634163611846951e-01,7.792628712041915762e-01,1.584237677530300346e+02
1.055026111348172613e+01,-1.146204153285786731e+01,-2.199481980387492541e+00,-3.997969528597440370e-01,-1.801393964042601603e-01,8.987269854347076370e-01,1.635264856213060227e+02
1.043258804370736392e+01,-1.174235445257477473e+01,-2.386064356427764377e+00,-2.090399578198087194e-01,-9.236444346539021688e-02,9.735343371547716673e-01,1.663264260758911064e+02
1.016020870091993444e+01,-1.227466514295194955e+01,-2.575110607708664734e+00,-7.895990730979508126e-03,-0.000000000000000000e+00,9.999678261482836117e-01,1.714291439441670946e+02
9.847373989315203247e+00,-1.281146438006587296e+01,-2.600129695382225492e+00,-6.112225613887134479e-03,1.620506729121875267e-01,9.867624942747121874e-01,1.765318618124430827e+02
9.672020942585843883e+00,-1.310843672570301521e+01,-2.521644370085114328e+00,-4.166865967388627169e-03,3.198169896502408016e-01,9.474691184201297078e-01,1.794648759035239607e+02
9.432463257319980698e+00,-1.358488932357572843e+01,-2.246896411509885727e+00,-2.111342934898795959e-03,4.691279594128291985e-01,8.831265480829681991e-01,1.845675937717999489e+02
9.298986373792525129e+00,-1.400539770757850278e+01,-1.871326381088235236e+00,-0.000000000000000000e+00,6.060361314468605265e-01,7.954358600047460870e-01,1.896703116400759370e+02
9.296978161157337439e+00,-1.402129213512094452e+01,-1.851986495777238062e+00,-2.327328258590702914e-01,7.626824293274838684e-01,6.034475484740206008e-01,1.898994675367348748e+02
9.305967926635338117e+00,-1.409032240198240515e+01,-1.736758603771867859e+00,-2.327326561483562817e-01,6.034521084276577296e-01,7.626788731775399066e-01,1.911467155104153335e+02
9.444336586050253501e+00,-1.429227300661172428e+01,-1.222902192931557552e+00,-4.039896372713496636e-02,7.947932863819529015e-01,6.055324563128597903e-01,1.962494333786913216e+02
9.503095359195897984e+00,-1.431892647729418044e+01,-1.087531497491923016e+00,-2.725877949399257635e-02,7.174963522392445725e-01,6.960272577001459515e-01,1.975325835370915115e+02
9.814266995653124326e+00,-1.431838321715421003e+01,-5.429106287501390682e-01,-1.372779641792679778e-02,6.299128392934081333e-01,7.765432135410819114e-01,2.026353014053674997e+02
1.015986018181357409e+01,-1.421526903613286663e+01,-1.756436373942203352e-02,-0.000000000000000000e+00,5.332983833109052885e-01,8.459260217983610719e-01,2.077380192736434878e+02
1.034692234298043267e+01,-1.410862975091818505e+01,2.546619775395767560e-01,-4.045609425019021654e-01,6.132634021930336576e-01,6.784072842577718587e-01,2.106030028449035569e+02
1.064433891122958542e+01,-1.385268958250065197e+01,7.072927635171569749e-01,-7.289674685087443873e-01,5.717244608703525577e-01,3.764778488833626091e-01,2.157057207131795451e+02
1.089181356222465524e+01,-1.355407812590805960e+01,1.157116689359816597e+00,-9.089459700192238367e-01,4.169115275727349190e-01,-4.199995240735423092e-05,2.208084385814555333e+02
1.107194850570819433e+01,-1.323771873182227843e+01,1.637272991798886856e+00,-9.405872167101108072e-01,3.211185942388013470e-01,-1.103473434007728460e-01,2.259111564497315214e+02
1.110047885215859331e+01,-1.314664242971989871e+01,1.792337378813454229e+00,-9.512112602123430349e-01,2.181503568812525884e-01,-2.181869845748226622e-01,2.273938973369207019e+02
1.111043402369116251e+01,-1.285766127754300747e+01,2.381609014502471755e+00,-9.405807137449809785e-01,1.103075936504528121e-01,-3.211512972321047821e-01,2.324966152051966901e+02
1.102901713616474133e+01,-1.262586446853216238e+01,3.014305409402591618e+00,-9.089331001746140393e-01,0.000000000000000000e+00,-4.169395872382412604e-01,2.375993330734726783e+02
1.086452286731792327e+01,-1.248654614329926105e+01,3.628959143619685968e+00,-7.549432378671402377e-01,7.339625410088090017e-03,-6.557475409779169873e-01,2.423669567763948578e+02
1.059519651142984920e+01,-1.241714549132363565e+01,4.287773046178606329e+00,-5.399569282443883456e-01,1.408623583508916699e-02,-8.415735818109640887e-01,2.474696746446708460e+02
1.023684479650304624e+01,-1.240985714490816605e+01,4.919680965149408891e+00,-2.813442296391111541e-01,1.969473267919998744e-02,-9.594037429334686395e-01,2.525723925129468341e+02
9.794106912845204960e+00,-1.244700023669227740e+01,5.496357002324244512e+00,-0.000000000000000000e+00,2.371197228180496955e-02,-9.997178313762560276e-01,2.576751103812227939e+02
9.652926387531161723e+00,-1.246562197632920643e+01,5.631449975017954301e+00,-0.000000000000000000e+00,2.371197226506861419e-02,-9.997178306706364648e-01,2.590543606268399799e+02
9.054687075585015066e+00,-1.255286628107979041e+01,6.038989689265622296e+00,-0.000000000000000000e+00,2.371197226507009911e-02,-9.997178306706989703e-01,2.641570784951159681e+02
8.385130747403366058e+00,-1.263734872376844010e+01,6.335618806206509745e+00,-0.000000000000000000e+00,2.371197226506861419e-02,-9.997178306706364648e-01,2.692597963633919562e+02
8.355475310325342519e+00,-1.264017555003322002e+01,6.344020867388319829e+00,-0.000000000000000000e+00,2.371197226506416636e-02,-9.997178306704488371e-01,2.694701935292031294e+02
7.593993815146417248e+00,-1.268615821395823495e+01,6.454145440732877326e+00,1.127344578353428259e-03,2.107779791111337800e-02,-9.997762026851745309e-01,2.745729113974791176e+02
6.790343831241577810e+00,-1.270366146736919077e+01,6.451069423076829956e+00,2.254679629425051027e-03,1.844345105174025404e-02,-9.998263626547617688e-01,2.796756292657551057e+02
5.966171303965944972e+00,-1.269132162649475504e+01,6.354924919545265283e+00,3.381995949843771831e-03,1.580895320927670072e-02,-9.998683108431661859e-01,2.847783471340310939e+02
5.143141231365233601e+00,-1.264829267839395754e+01,6.185850750490254235e+00,4.509284336404342439e-03,1.317432589137929218e-02,-9.999020469119663801e-01,2.898810650023070821e+02
4.342933015300527444e+00,-1.257424657395071144e+01,5.963990997555757012e+00,5.636535586137018938e-03,1.053959060671535129e-02,-9.999275705885666277e-01,2.949837828705830702e+02
3.587235810460975394e+00,-1.246937345571974198e+01,5.709493549185875594e+00,6.763740496377216097e-03,7.904768864800151146e-03,-9.999448816662003248e-01,3.000865007388590584e+02
2.971825160920563924e+00,-1.234940565274000868e+01,5.470960502266320802e+00,7.890889864835156503e-03,5.269882175834097321e-03,-9.999539800039299875e-01,3.046363360441407622e+02
2.367663120564697188e+00,-1.218635197573112627e+01,5.209479331587799855e+00,9.017974489665523188e-03,2.634952050539948396e-03,-9.999548655266486952e-01,3.097390539124167503e+02
1.871377672245823520e+00,-1.199089216281732462e+01,4.961643802492781141e+00,1.014498516953709489e-02,0.000000000000000000e+00,-9.999475382250813116e-01,3.148417717806927385e+02
1.632173434631560172e+00,-1.183562858547997010e+01,4.800541607859507565e+00,5.073140141397822558e-03,1.512990912943642380e-02,-9.998716662852316084e-01,3.181628790913359808e+02
1.413773969035335920e+00,-1.153941418627260340e+01,4.530384943104261097e+00,0.000000000000000000e+00,3.025597526025509965e-02,-9.995411826938754851e-01,3.232655969596119689e+02
1.348740722143954240e+00,-1.117559165889925943e+01,4.216724241176445176e+00,-2.828556409902083790e-01,2.958868327400432027e-02,-9.587049578377478953e-01,3.283683148278879571e+02
1.391702354449406931e+00,-1.085807849900623800e+01,3.943024524985525581e+00,-5.426088022117085963e-01,2.650472193257070661e-02,-8.395660709428667268e-01,3.321363363200186996e+02
1.527720199876218210e+00,-1.036860288040586120e+01,3.507006316395285150e+00,-7.580441342000368010e-01,2.125597572249138950e-02,-6.518552554836443136e-01,3.372390541882946877e+02
1.697446699055896069e+00,-9.826958211397876397e+00,3.001284739967398973e+00,-2.964650831193444414e-01,-3.651469748714774033e-01,-8.824818078773456476e-01,3.423417720565706759e+02
1.777866728383742378e+00,-9.542666175321302902e+00,2.724174851113022822e+00,2.883107282158098861e-01,-5.998124345699942239e-01,-7.463912963933211353e-01,3.448145525317626152e+02
1.912937890397806484e+00,-8.917895142854208146e+00,2.093151608371405015e+00,2.337193025931111889e-01,-7.670436647070613123e-01,-5.975092501616244833e-01,3.499172704000386034e+02
1.999396316375187777e+00,-8.258193451317756839e+00,1.417978628106639327e+00,1.667144711269536173e-01,-8.935352972032607477e-01,-4.168920217145787310e-01,3.550199882683145916e+02
2.002986316893002883e+00,-8.188237305049669956e+00,1.348258530662031829e+00,9.085501213059012093e-02,-9.725690699873311695e-01,-2.141326011494513737e-01,3.555309778770503613e+02
1.995566525249134804e+00,-7.444678378824608700e+00,6.517992151859106631e-01,1.016999272028653624e-02,-9.999472842345212831e-01,-0.000000000000000000e+00,3.606336957453263494e+02
1.960069293366670351e+00,-6.655357303027218840e+00,-1.640548930793754578e-02,-6.674278510729814151e-01,-7.105082036378794763e-01,-2.229712003285945765e-01,3.657364136136023376e+02
1.940419679907062545e+00,-6.272191016139481157e+00,-2.982419893665047006e-01,-9.494871526040852272e-01,-0.000000000000000000e+00,-3.138027199381347998e-01,3.681045877814036089e+02
1.911728044906408464e+00,-5.423105748024838135e+00,-8.222997103028917287e-01,-9.494871519338571320e-01,-0.000000000000000000e+00,-3.138027197166264326e-01,3.732073056496795971e+02
1.916394092751658285e+00,-4.562897293757301576e+00,-1.246683165752824118e+00,-9.494871519338571320e-01,-0.000000000000000000e+00,-3.138027197166263771e-01,3.783100235179555852e+02
1.926042629477732637e+00,-4.385887070427636480e+00,-1.311376169863609498e+00,-9.494871519336460786e-01,-0.000000000000000000e+00,-3.138027197165566551e-01,3.793598141183315420e+02
2.020228593138807316e+00,-3.529436234689621532e+00,-1.504903961248126087e+00,-9.885822134592247012e-01,9.641291358984335064e-03,-1.503670600006793701e-01,3.844625319866075301e+02
2.040295917146816240e+00,-3.406692281145037526e+00,-1.513994933120149655e+00,-9.996681208338087377e-01,1.900941862380612496e-02,1.732888318550487861e-02,3.851959836842198115e+02
2.219046117212438496e+00,-2.555366831268805150e+00,-1.443516086605238113e+00,-9.824307842652056921e-01,2.783895925783764699e-02,1.845338626800989146e-01,3.902987015524957997e+02
2.425564850296193509e+00,-1.710776435783876837e+00,-1.244611209150588982e+00,-9.373585705365357068e-01,3.587974989069190462e-02,3.465105392183278066e-01,3.954014194207717878e+02
2.636178432644284531e+00,-8.770282100307504880e-01,-9.332673138162292936e-01,-8.657284703648403523e-01,4.290397375221704362e-02,4.986696949239715071e-01,4.005041372890477760e+02
2.730375310862639182e+00,-4.779242885301204224e-01,-7.348305355758958379e-01,-9.279715973358017012e-01,4.280813163539385485e-02,3.701812777599179927e-01,4.029835074213354460e+02
2.899549164617345021e+00,3.327492902257516705e-01,-2.460316923294204317e-01,-9.712993814778677626e-01,4.183970891829479760e-02,2.341472833464740833e-01,4.080862252896114342e+02
3.043103721821232011e+00,1.136526537203935483e+00,3.010676000440331013e-01,-9.948286605083306311e-01,4.001844581137491141e-02,9.334056045650020172e-02,4.131889431578874223e+02
3.157195815232562985e+00,1.938486533145707291e+00,8.807910887213059592e-01,-9.980798321762506253e-01,3.738146621189153418e-02,-4.936876124847026925e-02,4.182916610261634105e+02
3.238093633420534356e+00,2.743799373041202472e+00,1.467460166149464840e+00,-9.809866288293045411e-01,3.398252096969315433e-02,-1.910717727111217734e-01,4.233943788944393987e+02
3.282177533607988362e+00,3.557724184532804035e+00,2.035395723417256164e+00,-9.438974676849887224e-01,2.989089228055000561e-02,-3.288800770140464236e-01,4.284970967627153868e+02
3.285940840928399442e+00,4.385607135193503758e+00,2.558920003665857479e+00,-8.875683493732114959e-01,2.518998153463133244e-02,-4.599846628109326430e-01,4.335998146309913750e+02
3.277040837475555524e+00,4.563951242956999721e+00,2.656045944401615344e+00,-8.897705436263932954e-01,2.789092454120835340e-02,-4.555529341908284291e-01,4.346758570963635862e+02
3.216006688988689799e+00,5.146796613322957903e+00,2.917620161898247577e+00,-8.919444568366668991e-01,3.059098137115009997e-02,-4.511067252916023396e-01,4.381166199131892540e+02
3.080757722579860136e+00,6.024898872918526216e+00,3.226202759813081133e+00,-8.942000504666580696e-01,3.016685593199477239e-02,-4.466477698972693422e-01,4.432193377814652422e+02
2.937195579554215286e+00,6.730392211839697048e+00,3.407467733994616221e+00,-8.964331543043122519e-01,2.974197194140211151e-02,-4.421775828493478278e-01,4.473147056441579821e+02
2.718931412807784387e+00,7.593507786356234135e+00,3.546058574617790171e+00,-8.361849488086984250e-01,-1.103670365295090772e-01,-5.372260684611149806e-01,4.524174235124339702e+02
2.474186568341864234e+00,8.421440909730725011e+00,3.586879537863934431e+00,-7.489324676832177508e-01,-2.469117352807292665e-01,-6.149249985417477582e-01,4.575201413807099584e+02
2.218357150483236229e+00,9.192657689134023258e+00,3.516472457716560029e+00,-6.374935112513183677e-01,-3.754824805784743869e-01,-6.727651372449767742e-01,4.626228592489859466e+02
1.966312611492138762e+00,9.885251680619138170e+00,3.321387195965951999e+00,-5.054669557749984499e-01,-4.919271495351361101e-01,-7.088785764649493393e-01,4.677255771172619347e+02
1.869861481486170707e+00,1.012556310027004081e+01,3.187712668128409810e+00,-3.571165318403222710e-01,-5.924852232852122480e-01,-7.220990533687745572e-01,4.697893172940536601e+02
1.651007625220264563e+00,1.061297320226455909e+01,2.722546601555155821e+00,-7.276310544702175864e-01,-4.777519535019162378e-01,-4.922439633936577796e-01,4.748920351623296483e+02
1.455044939332694298e+00,1.099750856214217620e+01,2.141280886236772041e+00,-9.502337949370633918e-01,-2.659020387987073297e-01,-1.623263402045622139e-01,4.799947530306056365e+02
1.281927553536488240e+00,1.128631754503500062e+01,1.471376337066666373e+00,-9.796745246597435841e-01,-0.000000000000000000e+00,2.005886979235719514e-01,4.850974708988816246e+02
1.132552567806770938e+00,1.148874799406692659e+01,7.405983296273362937e-01,-9.379772322935960860e-01,2.268746165032745586e-03,3.466865507798327362e-01,4.902001887671576128e+02
1.009594466542901081e+00,1.161853375636565922e+01,-2.268704442952281658e-02,-8.746235029071597333e-01,4.485110690766524327e-03,4.847799624018260256e-01,4.953029066354336010e+02
9.746263186393855360e-01,1.164068337830602928e+01,-2.857244502081177639e-01,-7.910760633628209915e-01,6.597921310226186400e-03,6.116805779247771468e-01,4.970480855765802630e+02
8.759794332858187316e-01,1.162140156120844559e+01,-1.032047756522959769e+00,-6.892638786403704199e-01,8.558396557719678832e-03,7.244584594380627518e-01,5.021508034448562512e+02
7.665324510811628578e-01,1.146886916547390456e+01,-1.717529019319573580e+00,-5.715376187776420869e-01,1.032127203306639103e-02,8.205097328287477287e-01,5.072535213131322394e+02
7.154802751942710426e-01,1.133376319020178258e+01,-1.952627947882367820e+00,-4.406153893217309436e-01,1.184584548812790163e-02,8.976167080877831550e-01,5.092935532491214303e+02
5.734362236395741386e-01,1.082442392549217658e+01,-2.421423886088805766e+00,-2.995199775033290934e-01,1.309691660613736437e-02,9.539990848278478985e-01,5.143962711173974185e+02
4.398752645571328279e-01,1.025110425466878716e+01,-2.763092754021914121e+00,-1.515090623889344124e-01,1.404559977039406167e-02,9.883550602599504575e-01,5.194989889856733498e+02
3.918432667396459790e-01,9.978723500532577617e+00,-2.874856781397772121e+00,-0.000000000000000000e+00,1.466999104715466413e-02,9.998913897833381359e-01,5.221589158503056751e+02
3.727086014023849869e-01,9.663261868967051527e+00,-2.941977963002906815e+00,-0.000000000000000000e+00,-7.950793855462741366e-02,9.968332296267479187e-01,5.260877688296433234e+02
4.307220174518600619e-01,9.398275066918737153e+00,-2.902894495304134903e+00,-0.000000000000000000e+00,1.466999104701379592e-02,9.998913897737367051e-01,5.311904866979192548e+02
5.392270007360177031e-01,9.320282254148857248e+00,-2.786632087722586526e+00,-0.000000000000000000e+00,1.466999103679639260e-02,9.998913890773289959e-01,5.348946455001930644e+02
7.712526053330500675e-01,9.356123785936144799e+00,-2.518765994589044599e+00,-2.559408592093331825e-01,-5.857140467358510488e-02,9.649153678650472798e-01,5.399973633684689958e+02
1.054349329503418087e+00,9.509176083340795671e+00,-2.167583835077565801e+00,-4.934299560183251221e-01,-1.275901562869279360e-01,8.603752847003389714e-01,5.451000812367449271e+02
1.266658833374884496e+00,9.687669684341576826e+00,-1.875650325598916535e+00,-6.953459415871657834e-01,-1.874104799707866642e-01,6.938078505727166556e-01,5.487578508758375619e+02
1.540794860153009926e+00,1.001333432023985637e+01,-1.437440278509028113e+00,-8.471320701136050291e-01,-2.337197434487285619e-01,4.772214761598884691e-01,5.538605687441134933e+02
1.764824208928855054e+00,1.039915059346180826e+01,-9.997792609904355698e-01,-9.376582250050564671e-01,-1.849393583952598230e-01,2.942660136638917123e-01,5.589632866123894246e+02
1.932376858726039925e+00,1.083805719976769311e+01,-6.074883550008040034e-01,-9.868830575700382468e-01,-1.280129138365524166e-01,9.834899375922126485e-02,5.640660044806653559e+02
1.996103078872808245e+00,1.109561620246555336e+01,-4.508281505060474648e-01,-9.926383869082484601e-01,-6.544785878668080148e-02,-1.019000030305497878e-01,5.667325292824807548e+02
2.087810748711200759e+00,1.164428545056290965e+01,-2.866756525000386246e-01,-9.546707119069326453e-01,-0.000000000000000000e+00,-2.976605983803122801e-01,5.718352471507566861e+02
2.128001768633970059e+00,1.197057557836740926e+01,-2.876842685064524563e-01,-9.441565229189653463e-01,-1.437109568725497277e-01,-2.965023121412883045e-01,5.745878449669344263e+02
2.188122289983646773e+00,1.262631202636746863e+01,-4.444689475471252926e-01,-9.140371420476195441e-01,-2.844377831992065397e-01,-2.891872238652484772e-01,5.796905628352103577e+02
2.226124586088216173e+00,1.331939649967943851e+01,-7.068846798824137689e-01,-8.649379847696366808e-01,-4.192583392747804005e-01,-2.758672279408275196e-01,5.847932807034862890e+02
2.228358033209569378e+00,1.403337193592253307e+01,-1.015672138359721144e+00,-7.978785670953160158e-01,-5.453731215221876427e-01,-2.568189060239068344e-01,5.898959985717622203e+02
2.221239713574933106e+00,1.414444169833887699e+01,-1.063214009158726103e+00,-7.142513392292927366e-01,-6.601633892673268722e-01,-2.324377849663400997e-01,5.906809412960609507e+02
2.116684174401936236e+00,1.485886264649772137e+01,-1.355536891280416656e+00,-8.971751246285712966e-01,-4.296103845413990485e-01,1.025168924770933632e-01,5.957836591643368820e+02
1.939242433085963668e+00,1.553375000197455513e+01,-1.635319884832201032e+00,-9.017308211791938977e-01,-1.136463540324677418e-01,4.170899571463849709e-01,6.008863770326128133e+02
1.667084909136561821e+00,1.612717354418332860e+01,-1.912031249316194170e+00,-7.270129289260844896e-01,2.249116686482289518e-01,6.487410442403667155e-01,6.059890949008887446e+02
1.390673201458464847e+00,1.647862763276129172e+01,-2.114344583125542520e+00,-5.766679590211620798e-01,1.840762286713729101e-01,7.959698531213631467e-01,6.097110450391924132e+02
9.183010522301109368e-01,1.684366022556336873e+01,-2.383330899819281701e+00,-3.998265333040793013e-01,1.347829435961762079e-01,9.066257780270718936e-01,6.148137629074683446e+02
3.824287565828919933e-01,1.709970976291886302e+01,-2.626627452721793432e+00,-2.046140494825976486e-01,7.929671018452973119e-02,9.756244782239158475e-01,6.199164807757442759e+02
-1.853445639725898597e-01,1.725366693366528281e+01,-2.825682792162425905e+00,-0.000000000000000000e+00,2.016697227948319876e-02,9.997956257306721550e-01,6.250191986440202072e+02
-7.532754175519486006e-01,1.731164508216832587e+01,-2.961948684017021716e+00,1.385579368567454450e-01,6.228477539240686450e-02,9.883927887683322533e-01,6.301219165122961385e+02
-1.287130509965975556e+00,1.727855198415460336e+01,-3.028249863832427557e+00,2.741919707132784434e-01,1.030882234004354553e-01,9.561326170534463209e-01,6.352246343805720699e+02
-1.460504919573971661e+00,1.723283782972432832e+01,-3.031436436980526228e+00,4.040399347418084375e-01,1.417162767469933027e-01,9.036958714300191708e-01,6.371174584142792128e+02
-1.833142572328146258e+00,1.702056190226285182e+01,-3.005007634486411838e+00,5.253617572762757648e-01,1.773538001814737586e-01,8.321890731999486146e-01,6.422201762825551441e+02
-1.890560772357820829e+00,1.695273174336311683e+01,-2.996123333850807757e+00,6.355972790763313451e-01,2.092487626604288553e-01,7.431211571178032438e-01,6.433725468516915953e+02
-2.015167297277893343e+00,1.656600366534074809e+01,-2.951983251091575777e+00,7.342455860396148726e-01,2.131448798310290049e-01,6.445546366064833776e-01,6.484752647199675266e+02
-2.027921111454482617e+00,1.610139130573497468e+01,-2.899586383360092778e+00,5.812959914901835168e-01,1.990286530683558486e-01,7.889743757153016013e-01,6.535779825882434579e+02
-1.987582934990746342e+00,1.557534799565771877e+01,-2.835172729039315609e+00,4.025079073448499245e-01,1.760656198896312363e-01,8.983241519732182434e-01,6.586807004565193893e+02
-1.973403439792595027e+00,1.523558424539945477e+01,-2.787593775522449135e+00,2.058284601293040306e-01,1.452764952999834602e-01,9.677434499469058649e-01,6.617323382391290352e+02
-2.029186232135489654e+00,1.464389176362068845e+01,-2.690071953487900291e+00,0.000000000000000000e+00,1.080298527117454360e-01,9.941466445772128013e-01,6.668350561074049665e+02
-2.073471862150981782e+00,1.449979149479631779e+01,-2.661226987726653004e+00,-0.000000000000000000e+00,-7.531993749848340247e-01,6.577907733643384436e-01,6.680650890504787185e+02
-2.119153479676378016e+00,1.441561599261830295e+01,-2.639991002260647424e+00,-0.000000000000000000e+00,-9.705539409183779886e-01,-2.408797371487642613e-01,6.687884314097042306e+02
-2.556095016336561887e+00,1.382346360559656340e+01,-2.435485239519701306e+00,-0.000000000000000000e+00,-5.697617808902302183e-01,-8.218086839621091544e-01,6.738911492779801620e+02
-3.045809288527595360e+00,1.320848004600568792e+01,-2.156803807165099229e+00,2.131312961374292048e-01,-4.060027702931307547e-01,-8.886702431840003413e-01,6.789938671462560933e+02
-3.493229730824005230e+00,1.259607018617166929e+01,-1.843047678924469635e+00,4.099126642819997390e-01,-2.110983224603022457e-01,-8.873596260341958253e-01,6.837170244028750403e+02
-3.956972111521375179e+00,1.190340976216966773e+01,-1.459739378132595133e+00,5.752485914332494676e-01,-0.000000000000000000e+00,-8.179774190366023712e-01,6.888197422711509716e+02
-4.201861453298601390e+00,1.151826861915412969e+01,-1.221230721480681680e+00,4.789225235544157244e-01,-2.317097694886102177e-01,8.467241576550147419e-01,6.916667660166650649e+02
-4.574630284676802994e+00,1.084573882339271655e+01,-7.432990429572609026e-01,8.634285659263324364e-01,5.849059702097421203e-03,5.044352287898187237e-01,6.967694838849409962e+02
-4.808935282493973951e+00,1.018638844905305696e+01,-2.125674553643099041e-01,9.703928888893853522e-01,2.415277234480792956e-01,0.000000000000000000e+00,7.018722017532169275e+02
-4.861826344915125553e+00,9.531498212408797244e+00,3.592977448545988106e-01,9.369209888934338926e-01,2.352784228970579705e-01,-2.584978226046630301e-01,7.069749196214928588e+02
-4.743554045060816904e+00,8.874547848517943649e+00,9.519612890347801670e-01,8.397565702575573443e-01,2.130347368457559398e-01,-4.994227704137607637e-01,7.120776374897687901e+02
-4.482650158960757025e+00,8.208439079262682014e+00,1.543599178608003886e+00,6.855049578732343996e-01,1.763088115661882727e-01,-7.063965994375299706e-01,7.171803553580447215e+02
-4.433321652397553159e+00,8.120080690810157265e+00,1.618429151587283288e+00,4.846523007541291839e-01,1.275973054327113609e-01,-8.653491058652301726e-01,7.178445399228132828e+02
-3.955454963287544423e+00,7.424598288064488294e+00,2.166161109460060796e+00,2.508527023772874620e-01,7.021166081944148207e-02,-9.654746213116131015e-01,7.229472577910892142e+02
-3.414905997816197303e+00,6.704661401994834513e+00,2.681193599668199479e+00,0.000000000000000000e+00,8.052988517103475130e-03,-9.999665741302532496e-01,7.280499756593651455e+02
-2.861900138687944573e+00,5.951725056088935872e+00,3.164942919145952160e+00,-0.000000000000000000e+00,8.052988511418326598e-03,-9.999665734243091686e-01,7.331526935276410768e+02
-2.329954986998318489e+00,5.155378603736888721e+00,3.613353660630965081e+00,-0.000000000000000000e+00,8.052988511418999670e-03,-9.999665734243926574e-01,7.382554113959170081e+02
-1.840287874396992596e+00,4.304817092234487497e+00,4.015653075811757233e+00,-0.000000000000000000e+00,8.052988511419221715e-03,-9.999665734244203019e-01,7.433581292641929394e+02
-1.693891566639241342e+00,3.996912459622450342e+00,4.133083355688048854e+00,-0.000000000000000000e+00,8.052988511418999670e-03,-9.999665734243926574e-01,7.450817012064642313e+02
-1.331379865726337375e+00,3.017807338079459001e+00,4.418900464537838246e+00,-0.000000000000000000e+00,8.052988511418326598e-03,-9.999665734243091686e-01,7.501844190747401626e+02
-1.062266102982272642e+00,1.961658779211122638e+00,4.633437921329604414e+00,-0.000000000000000000e+00,8.052988511417207701e-03,-9.999665734241701687e-01,7.552871369430160939e+02
-9.018050605560049560e-01,8.249108804954196073e-01,4.770912517849232870e+00,-0.000000000000000000e+00,8.052738527956021172e-03,-9.999665754375060001e-01,7.603898548112920253e+02
-8.516533454192414254e-01,-3.846217322419056561e-01,4.835494653508496832e+00,-0.000000000000000000e+00,8.052488544554814442e-03,-9.999665774506535376e-01,7.654925726795679566e+02
-8.953230754829817339e-01,-1.418517686851511250e+00,4.835867969639331854e+00,-0.000000000000000000e+00,8.052238561151087159e-03,-9.999665794636134475e-01,7.696479731042927597e+02
-1.047658743241518975e+00,-2.736153149919948291e+00,4.780507057318812869e+00,-0.000000000000000000e+00,8.051988577682349379e-03,-9.999665814763863958e-01,7.747506909725686910e+02
-1.283462290165496178e+00,-4.086191350718224591e+00,4.680732273033076929e+00,2.476329703994841480e-01,2.566564820055045049e-02,-9.685128736752772749e-01,7.798534088408446223e+02
-1.563110262560970520e+00,-5.446901109360410942e+00,4.553853722880069732e+00,4.797587063238945015e-01,4.167207799635477133e-02,-8.764091633608867005e-01,7.849561267091205536e+02
-1.835338617142767470e+00,-6.794542945286188740e+00,4.419899788876701763e+00,6.818411546861097294e-01,5.506893172818538851e-02,-7.294230956963063672e-01,7.900588445773964850e+02
-2.058602726437214869e+00,-8.107295001850793881e+00,4.292439309482456444e+00,7.814430465531541081e-01,2.143387554472176992e-01,-5.860065382812189583e-01,7.951615624456724163e+02
-2.072323765926244121e+00,-8.218273579178566379e+00,4.281936627348932767e+00,8.373967794416222743e-01,3.616364852210647296e-01,-4.098581295266808255e-01,7.956096880932685735e+02
-2.155088676472475928e+00,-9.423060262000547027e+00,4.167051124833493603e+00,8.465770324587700291e-01,4.887347162828978298e-01,-2.108167574326576255e-01,8.007124059615445049e+02
-2.154028606225856457e+00,-1.055413854882039004e+01,4.052984391055880486e+00,8.084710213412127366e-01,5.885342875758847736e-01,-0.000000000000000000e+00,8.058151238298204362e+02
-2.056915381049714053e+00,-1.159338512151555811e+01,3.933923855756649157e+00,-6.700796228893025897e-02,0.000000000000000000e+00,-9.977514384805505898e-01,8.109178416980963675e+02
-1.859682162748032663e+00,-1.252619465048118741e+01,3.806044632444405273e+00,-5.620046974355681624e-02,5.802031763459423314e-02,-9.967312325491383129e-01,8.160205595663722988e+02
-1.599211068676646086e+00,-1.327283175931571257e+01,3.681411008572919030e+00,-4.519716679014736116e-02,1.158384614540052954e-01,-9.922382107937242068e-01,8.206767168190084476e+02
-1.245827427308247026e+00,-1.397151559269330612e+01,3.538161007649474943e+00,-3.403639019117830206e-02,1.732529874753498400e-01,-9.842880302385126345e-01,8.257794346872843789e+02
-8.455368236676548133e-01,-1.454516429882210282e+01,3.390332730147432638e+00,-2.275702523482872261e-02,2.300638582379879171e-01,-9.729083918501099104e-01,8.308821525555603102e+02
-4.192863293986565654e-01,-1.498748887667976071e+01,3.240065320250096637e+00,-1.139837030246011046e-02,2.860731394883783141e-01,-9.581389440028620363e-01,8.359848704238362416e+02
1.214430522162051121e-02,-1.529167892154764630e+01,3.089498099350567184e+00,-0.000000000000000000e+00,3.410856895394125399e-01,-9.400311443715456683e-01,8.410875882921121729e+02
3.327121504897778137e-01,-1.542061307128957282e+01,2.974949315167576103e+00,1.090891924036676598e-02,4.459356725706601909e-01,-8.949974141913840109e-01,8.450502774749064656e+02
6.930781470987101844e-01,-1.546583286714441208e+01,2.836797436430224639e+00,2.167448787692465365e-02,5.449257902459938574e-01,-8.382028988850935836e-01,8.501529953431823969e+02
9.578822326339183624e-01,-1.541851697360623952e+01,2.716497740524683735e+00,3.215524167642710984e-02,6.367552698078536855e-01,-7.703939036647724503e-01,8.552557132114583283e+02
1.080880719496945863e+00,-1.530701195037569740e+01,2.623061825937258007e+00,4.221345879724438394e-02,7.202174285454587821e-01,-6.924614642813350374e-01,8.603584310797342596e+02
1.050712053747584473e+00,-1.523032454217522869e+01,2.593402453908188132e+00,5.171696928920894304e-02,7.942155283755510942e-01,-6.054296404811914112e-01,8.629342386695808500e+02
7.921861106917925666e-01,-1.505129314650945460e+01,2.572072775717532789e+00,-3.473323315874537326e-02,7.733479660008051315e-01,-6.330280609859646468e-01,8.680369565378567813e+02
3.519831614107811757e-01,-1.484899282758224004e+01,2.584044160793634415e+00,-1.208822337337677605e-01,7.457748848799907737e-01,-6.551376242050676035e-01,8.731396744061327126e+02
-2.392157782287615830e-01,-1.462543633232158058e+01,2.622194934333102800e+00,-2.059830620600783535e-01,7.117353703972734147e-01,-6.715666315931738684e-01,8.782423922744086440e+02
-9.508415967074370645e-01,-1.438337070090326719e+01,2.679401534267674023e+00,-2.892978381581096659e-01,6.715245736696950907e-01,-6.821726378231309784e-01,8.833451101426845753e+02
-1.390121042653745587e+00,-1.424402314457554475e+01,2.717546065602629568e+00,-3.701041693902593077e-01,6.254911522947780300e-01,-6.868636853122853658e-01,8.861277674418493007e+02
-2.266100784209841734e+00,-1.397819335716540223e+01,2.794952290131289097e+00,-4.477014130561331462e-01,5.740342474317232657e-01,-6.855991011683773007e-01,8.912304853101252320e+02
-3.180637245661047441e+00,-1.370477753883389305e+01,2.873555931510286765e+00,-3.477300793291515646e-01,4.303231446540155547e-01,-8.330088733659291034e-01,8.963332031784011633e+02
-4.089855789351349635e+00,-1.343096603175725257e+01,2.945284698068669993e+00,-2.295457084171768081e-01,2.640730302989369727e-01,-9.367882377663426796e-01,9.014359210466770946e+02
-4.945470896310800057e+00,-1.316535046973436174e+01,3.001454497394205223e+00,-9.933841422260426823e-02,8.399154752309437311e-02,-9.915015377726561496e-01,9.065386389149530260e+02
-5.539470349252733072e+00,-1.297135372847011858e+01,3.026900434548184027e+00,3.607195691687796468e-02,-1.004892030494376198e-01,-9.942830250967448213e-01,9.105434102222230877e+02
-6.154841208481654391e+00,-1.275232830551433594e+01,3.027827707271890212e+00,1.695930221365176127e-01,-2.797066794354690078e-01,-9.449869736257795472e-01,9.156461280904990190e+02
-6.590778627685986102e+00,-1.258410546327896462e+01,2.986529477374860075e+00,2.942313395062802206e-01,-4.442739938260208410e-01,-8.461953304424982836e-01,9.207488459587749503e+02
-6.689558428699402981e+00,-1.255235329038334235e+01,2.945946408639583680e+00,4.034587101641544660e-01,-5.855715793382828549e-01,-7.030824949210309205e-01,9.228909053869982699e+02
-6.712857313020162309e+00,-1.261393408655286485e+01,2.780663729682083751e+00,8.849807075425089042e-01,-1.526297770940122228e-02,-4.653753203492303481e-01,9.279936232552742013e+02
-6.527417668113185911e+00,-1.285502718816803025e+01,2.526906964032913816e+00,7.198068816811192816e-01,2.486047794752558882e-01,-6.481293981201834420e-01,9.330963411235501326e+02
-6.245847981399410109e+00,-1.317965362149987740e+01,2.239935525018010853e+00,4.608364502589873957e-01,4.800774273060412489e-01,-7.464271095721816129e-01,9.370807486005321607e+02
-5.759026790303287235e+00,-1.367693484671596416e+01,1.736876592577325074e+00,4.373905155541369938e-01,2.487418955177593816e-01,-8.641845904144006552e-01,9.421834664688080920e+02
-5.196610645258822991e+00,-1.411092168253199830e+01,1.078299856715426719e+00,3.842310814040070799e-01,5.073670085259796144e-04,-9.232357329781933908e-01,9.472861843370840234e+02
-4.608552617481969094e+00,-1.438877133387388163e+01,2.744537210345892597e-01,3.049688699339501707e-01,-2.477632957300351935e-01,-9.195680168638746821e-01,9.523889022053599547e+02
-4.394513868824529546e+00,-1.443152586958280637e+01,-5.438385873543797461e-02,2.049880349514833222e-01,-4.792038021386282320e-01,-8.534293301235490459e-01,9.542783250778740012e+02
-3.838295331889521211e+00,-1.435374338905490355e+01,-9.349699502715702604e-01,9.108067170138929580e-02,-6.780903340003635593e-01,-7.293118744039476242e-01,9.593810429461499325e+02
-3.302580082335018652e+00,-1.398047594344897959e+01,-1.681073364375449186e+00,-2.901457449235360711e-02,-8.309103433716229503e-01,-5.556475103102251900e-01,9.644837608144258638e+02
-2.792456265046610486e+00,-1.326228060234533501e+01,-2.200199353774414668e+00,-1.471384713347675122e-01,-9.272812838528743384e-01,-3.442349355336765671e-01,9.695864786827017952e+02
-2.607386480627045700e+00,-1.286655408683030011e+01,-2.321939550956702458e+00,-2.552658616186975205e-01,-9.606564153258362326e-01,-1.094376149412674831e-01,9.716224547865216437e+02
-2.213519561662695256e+00,-1.172203087046817238e+01,-2.471140150191591722e+00,-3.460511278213405095e-01,-9.287694577099345761e-01,1.327927382977868442e-01,9.767251726547975750e+02
-1.914274963272063035e+00,-1.054602361208417705e+01,-2.525310037052287626e+00,-4.133272397289937117e-01,-8.337879420565919020e-01,3.660003559713500554e-01,9.818278905230735063e+02
-1.816335107220390377e+00,-9.921940049277550244e+00,-2.531189948900303133e+00,-4.525244665812265255e-01,-6.821651958893960588e-01,5.743433229857531908e-01,9.846617216642423500e+02
-1.783152998849622417e+00,-8.900247759377990064e+00,-2.535460397439388114e+00,-7.667148683491479266e-01,-1.479072019139385519e-01,6.247157515795045413e-01,9.897644395325182813e+02
-1.896227989554437388e+00,-8.024897807517126225e+00,-2.580158824755120150e+00,-7.844274623936443591e-01,4.435458037912078377e-01,4.335189455803467040e-01,9.948671574007942127e+02
-1.964586126620872175e+00,-7.825827632399259493e+00,-2.617711088159107025e+00,-4.988117285376060805e-01,8.634853235322721421e-01,7.468571158113404551e-02,9.963080721445891186e+02
-2.099132469843122184e+00,-7.622564999789206652e+00,-2.712449406712293509e+00,-2.031297923576306369e-02,9.495260293800222851e-01,-3.130266800193572951e-01,9.982628499524549852e+02
-2.538943381773435259e+00,-7.250262836030831437e+00,-3.068740534233403761e+00,-0.000000000000000000e+00,9.419726912662017559e-01,-3.356865336124749688e-01,1.003365567820730917e+03
-3.037231976011353307e+00,-6.998108159167839126e+00,-3.495139502949885291e+00,1.465530756393183254e-01,9.692395083634876007e-01,-1.977244836845678810e-01,1.008468285689006848e+03
-3.559813030237109821e+00,-6.820397293787022974e+00,-3.937268547460432533e+00,2.870601383785731930e-01,9.565204487243047504e-01,-5.160531102850275664e-02,1.013571003557282779e+03
-3.697738073897839151e+00,-6.783798913365205685e+00,-4.047307338801252818e+00,4.157246280598060895e-01,9.043401909056060228e-01,9.664291353559165132e-02,1.014927113146262741e+03
-4.194991269178511395e+00,-6.662724195064797073e+00,-4.400048035612397435e+00,5.628030632182259296e-01,8.140344849025946683e-01,1.435220172031731467e-01,1.020029831014538672e+03
-4.653991503150424869e+00,-6.535460298725455530e+00,-4.650043499956900916e+00,6.918802690347403139e-01,6.976919979720470621e-01,1.858105736681865128e-01,1.025132548882814717e+03
-4.976505171460008370e+00,-6.419680788533917770e+00,-4.729701315916924109e+00,7.988277512490004062e-01,5.590339321830637420e-01,2.221559958749443342e-01,1.029186408249044007e+03
-5.325400863407167229e+00,-6.262554309958810350e+00,-4.657979269330257743e+00,8.802248260146449121e-01,4.024952354149886613e-01,2.513957858366742681e-01,1.034289126117319938e+03
-5.625872922309247848e+00,-6.112204524880879397e+00,-4.433905470291097828e+00,9.334680231828603736e-01,2.330827560931650333e-01,2.725947147463191889e-01,1.039391843985595870e+03
-5.891953272809299591e+00,-5.988595825759309932e+00,-4.096963480798794244e+00,9.821473338339041792e-01,-9.914836638452220741e-02,-1.598568612464480176e-01,1.044494561853871801e+03
-6.057326807958559378e+00,-5.935758874622532488e+00,-3.818005678753126908e+00,7.364161080998709030e-01,-4.016585135368765935e-01,-5.443893406704199966e-01,1.047937477491331720e+03
-6.293978170342391820e+00,-5.918957539458578054e+00,-3.361137156731075493e+00,8.664785468158006099e-01,-2.073423519579342122e-01,-4.541168098540167564e-01,1.053040195359607651e+03
-6.536255419992821558e+00,-5.980661610789950622e+00,-2.897041173555308102e+00,9.421051217389178056e-01,-0.000000000000000000e+00,-3.353146874087259421e-01,1.058142913227883582e+03
-6.808038732277347904e+00,-6.147355822652922797e+00,-2.470893578684846492e+00,9.421051210747046767e-01,-0.000000000000000000e+00,-3.353146871723188260e-01,1.063245631096159514e+03
-7.028732172327418759e+00,-6.349777018665658801e+00,-2.234510429292617228e+00,9.854730899458079563e-01,1.659198547551929970e-01,-3.621313010073159977e-02,1.066707081701501465e+03
-7.406783786787646484e+00,-6.781160721224102517e+00,-1.975252204078079776e+00,9.116957700735475179e-01,3.121164333817185721e-01,2.671931040357766740e-01,1.071809799569777397e+03
-7.817463659438621093e+00,-7.328058139629603396e+00,-1.799003053260255891e+00,7.295432804412341765e-01,4.212110597067881823e-01,5.388374941900556658e-01,1.076912517438053328e+03
-8.237523729425838326e+00,-7.972754507232906462e+00,-1.698924222930451089e+00,4.606684729586406069e-01,4.802354505724624745e-01,7.464291460257106436e-01,1.082015235306329259e+03
-8.641989643059876158e+00,-8.694341970262614794e+00,-1.666408130293720591e+00,4.606684726334056013e-01,4.802354502334130748e-01,7.464291454987268537e-01,1.087117953174605191e+03
-8.818951034394798327e+00,-9.073349226115940525e+00,-1.678401390457783471e+00,4.606684726334360214e-01,4.802354502334448827e-01,7.464291454987761476e-01,1.089610721660217450e+03
-9.116774620898347337e+00,-9.880429751014947470e+00,-1.749668481047200297e+00,4.606684726334588920e-01,4.802354502334686970e-01,7.464291454988132291e-01,1.094713439528493382e+03
-9.326263892815049417e+00,-1.069122635175993530e+01,-1.855657564912346347e+00,4.606684726334741575e-01,4.802354502334845732e-01,7.464291454988378760e-01,1.099816157396769313e+03
-9.416894548202705550e+00,-1.147592980908722460e+01,-1.982459284524352938e+00,4.606684726334817626e-01,4.802354502334925113e-01,7.464291454988501995e-01,1.104918875265045244e+03
-9.357640721892876101e+00,-1.220546583511333694e+01,-2.116163488907620405e+00,4.606684726334817626e-01,4.802354502334925113e-01,7.464291454988501995e-01,1.110021593133321176e+03
-9.116732175440059649e+00,-1.285150746859258142e+01,-2.242859526344257226e+00,4.606684726334741575e-01,4.802354502334845732e-01,7.464291454988378760e-01,1.115124311001597107e+03
-8.681242317606756131e+00,-1.338637737988504917e+01,-2.348706973398326792e+00,4.606684726334588920e-01,4.802354502334686970e-01,7.464291454988132291e-01,1.120227028869873038e+03
-8.598890840514927802e+00,-1.344049632436476927e+01,-2.359105712310894276e+00,4.606684726334360769e-01,4.802354502334448827e-01,7.464291454987761476e-01,1.120916268133958056e+03
-7.839978985506098397e+00,-1.370193892941965075e+01,-2.411072697290435052e+00,4.606684726334056568e-01,4.802354502334131303e-01,7.464291454987267427e-01,1.126018986002233987e+03
-6.961474262036364102e+00,-1.383085430528360682e+01,-2.454404854350430210e+00,4.606684726333674651e-01,4.802354502333733843e-01,7.464291454986650143e-01,1.131121703870509918e+03
-6.005819064426010989e+00,-1.382956064899663851e+01,-2.502415525541360264e+00,3.185044984148543423e-01,4.844081092160748003e-01,8.148016127961723587e-01,1.136224421738785850e+03
-5.117616087086648946e+00,-1.371164530015484573e+01,-2.544668815630493519e+00,1.684088557896393779e-01,4.765176251843111777e-01,8.628831961396951078e-01,1.140774273705619635e+03
-4.114226815106468926e+00,-1.344681531922967466e+01,-2.577020878305677165e+00,1.411931796060538098e-02,4.567604884283678612e-01,8.894765320516312412e-01,1.145876991573895566e+03
-3.137641900428396191e+00,-1.304753976286796124e+01,-2.579506378863492877e+00,-1.405218985060698034e-01,4.256286925836522128e-01,8.939193543540933096e-01,1.150979709442171497e+03
-2.220626904938707291e+00,-1.252027566395940994e+01,-2.548946441143621122e+00,-1.082739884464854058e-01,5.552463642229278351e-01,8.246067053102311695e-01,1.156082427310447429e+03
-1.719183170879383660e+00,-1.213666817031619338e+01,-2.521224527786707803e+00,-7.357423546306832152e-02,6.722904537074556597e-01,7.366209186071924764e-01,1.159163147939665123e+03
-9.962625794497568243e-01,-1.142086057325415460e+01,-2.486406193779493456e+00,-3.720840817119418914e-02,7.741105450143723754e-01,6.319544275174542314e-01,1.164265865807941054e+03
-4.024608216831205287e-01,-1.065726301810748389e+01,-2.501226007932364048e+00,0.000000000000000000e+00,8.584009604371716229e-01,5.129773787609296365e-01,1.169368583676216986e+03
3.676787918737179500e-02,-9.879114139062165734e+00,-2.614306806706729436e+00,0.000000000000000000e+00,7.016964381356632918e-01,7.124746372389531013e-01,1.174471301544492917e+03
4.346790754207544016e-02,-9.863815438826129878e+00,-2.617992669159558528e+00,0.000000000000000000e+00,4.998337938806070024e-01,8.661201870962854654e-01,1.174572544216097185e+03
2.629548711151113993e-01,-9.115676691300517831e+00,-2.889107561632211496e+00,0.000000000000000000e+00,2.658039500808751510e-01,9.640260681754081462e-01,1.179675262084373117e+03
2.831259445115414386e-01,-8.410381697081595220e+00,-3.306362225441492608e+00,0.000000000000000000e+00,1.466799147870240586e-02,9.998914191179918420e-01,1.184777979952649048e+03
1.263245397146233739e-01,-7.763748174519477629e+00,-3.855197003814833323e+00,-2.952278191796333662e-01,6.194396006176400293e-01,7.274153668776508486e-01,1.189880697820924979e+03
2.971438419415631943e-02,-7.578721039754412914e+00,-4.065589007880594963e+00,-4.348255654857680619e-01,8.976721029706270505e-01,7.148092857025152569e-02,1.191515502964395637e+03
-3.918752515877135800e-01,-7.072399088852182381e+00,-4.812213634082347369e+00,-3.639629108228187859e-01,8.615322638629435703e-01,3.539649105064401891e-01,1.196618220832671568e+03
-9.041503602039958620e-01,-6.629485231281259772e+00,-5.627542878612384669e+00,-2.617540090244680484e-01,7.511930418151491207e-01,6.059635737317855542e-01,1.201720938700947499e+03
-1.473626731122383848e+00,-6.240956642963191747e+00,-6.485257494115256094e+00,-1.370016151564946161e-01,5.761574634713769738e-01,8.057736249919571492e-01,1.206823656569223431e+03
-1.772506262368845009e+00,-6.071268297928044788e+00,-6.923433334755990209e+00,-4.499992964605593069e-04,3.515004504559623433e-01,9.361865363440402543e-01,1.209372830102821126e+03
-2.375730636610005941e+00,-5.767138161477275204e+00,-7.797598965741583399e+00,-5.507150556154006837e-01,5.722147404087913891e-01,6.076851309508730647e-01,1.214475547971097058e+03
-2.957324058827873969e+00,-5.467912415851341912e+00,-8.637983429869466434e+00,-8.479704324504528934e-01,5.300416452412911594e-01,0.000000000000000000e+00,1.219578265839372989e+03
-3.186417967782269489e+00,-5.331673203041780162e+00,-8.968835013788583055e+00,-7.713961562552216211e-01,5.181255177012342727e-01,3.694481262936623600e-01,1.221754794283229785e+03
-3.662100273735928724e+00,-4.985675219967760086e+00,-9.653953076335872296e+00,-5.848996295885400265e-01,4.323776440822644784e-01,6.862506802951378049e-01,1.226857512151505716e+03
-4.057625941204946685e+00,-4.616414938331693918e+00,-1.021734675875934428e+01,-3.150562158018470060e-01,2.850169212231611904e-01,9.052640142530919976e-01,1.231960230019781648e+03
-4.352689076426493386e+00,-4.230207204681615707e+00,-1.062309916706160884e+01,-3.179997568430842055e-04,9.704192579737919155e-02,9.952792389647324711e-01,1.237062947888057579e+03
-4.363461172363825469e+00,-4.209306928511503010e+00,-1.063680686794020147e+01,-2.355382276100351560e-04,3.239664189454559418e-02,9.994740627490894536e-01,1.237332328512091181e+03
-4.474050185201945418e+00,-3.821589490202975892e+00,-1.074611440255403849e+01,-1.520882391755498469e-04,-3.238459369116603731e-02,9.994744693852617434e-01,1.242435046380367112e+03
-4.474336146021723692e+00,-3.486164968995049573e+00,-1.068002800115222861e+01,-6.799996278718530127e-05,-9.702994690059690841e-02,9.952804553351848327e-01,1.247523903139578806e+03
-4.441928531238909628e+00,-3.405936326605255804e+00,-1.060398723943580102e+01,-0.000000000000000000e+00,-9.695091801188839009e-02,9.952881583184741698e-01,1.249242141474109303e+03
-4.278637142231650259e+00,-3.293163616345633926e+00,-1.023697183492030760e+01,-2.532105750929020127e-01,-4.864908572068821768e-01,8.361872102083393044e-01,1.254344859342385234e+03
-4.102247459752630832e+00,-3.324406812551111479e+00,-9.760563292251177359e+00,-4.453542056003191862e-01,-7.587035138824045344e-01,4.754225589698183874e-01,1.259447577210661166e+03
-3.984442667909394498e+00,-3.497901559575674835e+00,-9.263822591178671573e+00,-5.300915303214127627e-01,-8.479392486978463150e-01,0.000000000000000000e+00,1.264106096728943839e+03
-3.947225688376751584e+00,-3.842690760628564739e+00,-8.686133140751584492e+00,-3.033953789773732312e-01,-7.955179744763823946e-01,5.245001394666647387e-01,1.269208814597219771e+03
-4.024870832840867330e+00,-4.306348325444617764e+00,-8.095128249052503833e+00,2.319088134961608955e-02,-4.811800201317880110e-01,8.763138543057100716e-01,1.274311532465495702e+03
-4.194631229179039522e+00,-4.751359896683694295e+00,-7.601742890964165333e+00,3.421418352604577162e-01,-8.417995946778044150e-03,9.396095475828125654e-01,1.278571302737332417e+03
-4.531107472560147897e+00,-5.297284584207779368e+00,-7.011379451627785642e+00,7.190558704947099811e-01,1.266425949170194021e-01,6.833142090284889392e-01,1.283674020605608348e+03
-4.782777835539406830e+00,-5.561392697085635106e+00,-6.685624946322286988e+00,9.334680231829169950e-01,2.330827560931791331e-01,2.725947147463356757e-01,1.286405957247521428e+03
-5.368102065391163080e+00,-5.939711875161224341e+00,-6.052215686214680979e+00,0.000000000000000000e+00,5.892782266480764974e-01,-8.079289396971222059e-01,1.291508675115797359e+03
-5.751326609267053414e+00,-6.068038482300324610e+00,-5.681820322194851336e+00,3.148225256157479168e-01,5.435678502352160324e-01,-7.780866080050741207e-01,1.294483184371301149e+03
