-6.121128758523678215e+00,-4.827880445513205387e+00,-1.104309121403317917e+01,9.726792459778155209e-02,0.000000000000000000e+00,9.952572284753349319e-01,1.965392043258218564e+02
-6.270433739402927920e+00,-5.061997542495419111e+00,-1.101362543135920902e+01,2.256946820626183625e-01,2.128232751725413485e-01,9.506661685545141349e-01,1.984780225039535253e+02
-6.616239461502961383e+00,-5.799081988571693991e+00,-1.066521554470989486e+01,3.397275968525452217e-01,4.120735794769192495e-01,8.454457552289637023e-01,2.050234078042236376e+02
-6.771128855096033128e+00,-6.403238366053176200e+00,-1.009361464534939046e+01,4.320941475240951402e-01,5.850435929654864697e-01,6.863065219029055308e-01,2.115687931044937500e+02
-6.754587279681826928e+00,-6.507049100179812307e+00,-9.920606615790763527e+00,4.969036124266056342e-01,7.207020606924369188e-01,4.833977034205470535e-01,2.131970330455634439e+02
-6.746228853561421879e+00,-6.517869956699601452e+00,-9.893445024162748069e+00,5.300227472350482749e-01,8.103973094857669368e-01,2.496599451112791190e-01,2.134401989332307039e+02
-6.363374171069468233e+00,-6.686633152315498485e+00,-9.161000757787398641e+00,5.293393743997391043e-01,8.484089973069909307e-01,0.000000000000000000e+00,2.199855842335008163e+02
-5.775817603618615514e+00,-6.668068721821529543e+00,-8.471293085964999747e+00,6.075376243234049678e-01,7.797075178605343826e-01,1.514999063186102668e-01,2.265309695337709286e+02
-5.677847009868824735e+00,-6.641839559932160242e+00,-8.390085098053294388e+00,3.715197477323548547e-01,8.371586713734338048e-01,-4.014180314711996989e-01,2.274044568476214181e+02
-4.845138298664367404e+00,-6.258397129910405532e+00,-7.894709223934591513e+00,0.000000000000000000e+00,5.892782266480418585e-01,-8.079289396970746884e-01,2.339498421478915304e+02
-4.263647781039502149e+00,-5.862820017604694733e+00,-7.664670798882371017e+00,-1.682238917093378250e-01,9.562311025884084881e-01,-2.394176282168214709e-01,2.383110764775583164e+02
-3.447413993828277068e+00,-5.051805823311924293e+00,-7.455318703920103651e+00,-2.546641145136200879e-01,8.583026270091766996e-01,4.454893817456701544e-01,2.448564617778284287e+02
-2.825800423042193810e+00,-4.067909738375816708e+00,-7.325641147961700739e+00,-2.172967494851674730e-01,3.431016044485655225e-01,9.138169464881557014e-01,2.511634238544540949e+02
-2.435579521907598188e+00,-2.894761774799706533e+00,-7.148592810320286262e+00,-9.983881034639477958e-01,0.000000000000000000e+00,-5.673794905025742602e-02,2.577088091547242357e+02
-2.348431426832235491e+00,-2.052963641270838302e+00,-6.888103764837569365e+00,2.187648692057442834e-01,-3.412217959916918897e-01,9.141704534394644588e-01,2.622794179026915344e+02
-2.470683398077279325e+00,-1.001478261167442874e+00,-6.150625256967730436e+00,-8.509987894245948231e-03,-3.496795025687336467e-01,9.368296673271827579e-01,2.688248032029616752e+02
-2.780514780510168205e+00,-3.322608833407542650e-01,-4.947670822657330270e+00,-4.323826470861320652e-03,-1.776676047596140728e-01,9.840800408207758254e-01,2.748759631991309789e+02
-3.255416094902348512e+00,3.761525198981506557e-02,-2.897042325455933653e+00,-0.000000000000000000e+00,9.999989999976411521e-07,9.999989999976411914e-01,2.814213484994011196e+02
-3.787215384254663864e+00,8.253359979908687916e-02,-5.646961345391180442e-01,7.364161080998153919e-01,-4.016585135368463400e-01,-5.443893406703790294e-01,2.879667337996712604e+02
-4.335090661212316121e+00,-1.768939322498992162e-01,1.027635701548297753e+00,3.783536023995333064e-01,-7.581172033173414482e-01,-5.311354418456750714e-01,2.945109145187357740e+02
-4.922012930058832225e+00,-6.717655918329568099e-01,1.590027179837325111e+00,5.199815503391085336e-01,-6.708955318217832975e-01,-5.286930798575796286e-01,3.010562998190059147e+02
-5.320903481272773128e+00,-1.056165488219400483e+00,1.512889825598605187e+00,6.472205067459357863e-01,-5.651087629211852814e-01,-5.116206619341853168e-01,3.049459099440690011e+02
-6.086372158128121157e+00,-1.778909534579492746e+00,9.318507520206035233e-01,7.565495113756589562e-01,-4.436842279372155695e-01,-4.803906147268329763e-01,3.114912952443391418e+02
-6.162666722060631486e+00,-1.847528401867511105e+00,8.538847730451644136e-01,8.449432009118188480e-01,-3.099819847241822579e-01,-4.358671315661941104e-01,3.120989834406892101e+02
-6.999574037586629771e+00,-2.552011015472942290e+00,-1.632537852138841450e-01,9.099555255856397462e-01,-1.677018429925762888e-01,-3.792822607414834124e-01,3.186443687409593508e+02
-7.301822349602785422e+00,-2.783650565452240766e+00,-6.090553932607609688e-01,9.497874378629806991e-01,-2.078098770065593681e-02,-3.122018152216055609e-01,3.211354544923415233e+02
-7.917332630775926638e+00,-3.238218351607989209e+00,-1.873444096321080554e+00,9.781178483123764700e-01,-1.045222640696684066e-02,-2.077840844948606325e-01,3.276808397926116641e+02
-8.169522513563510557e+00,-3.442270364373020364e+00,-2.897040606601475332e+00,9.948943569111597940e-01,-0.000000000000000000e+00,-1.009119347716281312e-01,3.329351214666612009e+02
-8.194915559086616952e+00,-3.463810138869432453e+00,-3.702274301562743730e+00,9.973505985551252007e-01,-0.000000000000000000e+00,-7.273089780088957956e-02,3.374566577261890643e+02
-8.137216344836508242e+00,-3.395406940400532481e+00,-4.074233568645385439e+00,9.973505978851086029e-01,-0.000000000000000000e+00,-7.273089775202921936e-02,3.398844513119835824e+02
-7.924500828219789739e+00,-3.149006019164180437e+00,-4.643284589439181431e+00,9.984358224692105876e-01,-0.000000000000000000e+00,-5.589193408241993621e-02,3.443790851872035432e+02
-7.475150011990639776e+00,-2.724144802078886318e+00,-5.269972258989814584e+00,9.204840129749962685e-01,-3.782476554987396211e-01,-9.816258436073874161e-02,3.509244704874736840e+02
-6.937902800902483236e+00,-2.362673805030751861e+00,-5.653489997172153281e+00,7.035989891317584455e-01,-6.994046121372036184e-01,-1.256170809041238789e-01,3.574698557877438247e+02
-6.447994249133793154e+00,-2.106644286488470463e+00,-5.735826217824447681e+00,3.805161577449226451e-01,-9.149970168988228458e-01,-1.341115683371977008e-01,3.640152410880139655e+02
-6.428958097409357642e+00,-2.096611686895304860e+00,-5.728605375641668829e+00,0.000000000000000000e+00,-9.924842934886831669e-01,-1.223639128938464882e-01,3.643601103569671409e+02
-6.331819340819467179e+00,-2.016087789786580320e+00,-5.519127630631130543e+00,-0.000000000000000000e+00,-9.983890695156890649e-01,-5.672094713688979190e-02,3.680920722421590199e+02
-6.433356661325194459e+00,-1.907113164919219894e+00,-4.822005506318541634e+00,9.360262369457841292e-01,-2.510647953304693814e-01,2.466157989573179721e-01,3.746374575424291606e+02
-6.586734753218028260e+00,-1.851013343173256720e+00,-4.431559999148532825e+00,5.979255637563619663e-01,-7.960095227835458642e-01,9.408432305676626972e-02,3.772939840628650927e+02
-7.208719714447241245e+00,-1.632115176222935338e+00,-3.279849582665286700e+00,0.000000000000000000e+00,-9.950534475070934581e-01,-9.933094484754305398e-02,3.838393693631352335e+02
-7.996972481979812031e+00,-1.291849947733573867e+00,-2.037083129905116863e+00,0.000000000000000000e+00,-9.974737096893087074e-01,-7.102252087089834520e-02,3.903847546634053742e+02
-8.034434642191433440e+00,-1.272855845708443567e+00,-1.982408732625056347e+00,0.000000000000000000e+00,-9.990887847932493626e-01,-4.265677077202058992e-02,3.906701809640483702e+02
-8.909158020942996359e+00,-7.387469419003271920e-01,-7.545160543331286274e-01,0.000000000000000000e+00,-9.998973695526177652e-01,-1.425658985042697544e-02,3.972155662643185110e+02
-9.733839454698678395e+00,-6.931254636538787539e-02,4.176550576937055892e-01,0.000000000000000000e+00,-9.998988114651590209e-01,1.415509883213774897e-02,4.037609515645886518e+02
-1.040207480244468741e+01,7.109103490916108825e-01,1.512076735737269750e+00,0.000000000000000000e+00,-9.990931093136409258e-01,4.255536293210526039e-02,4.103063368648587925e+02
-1.080817557125270234e+01,1.574141363750245270e+00,2.506730346986886460e+00,0.000000000000000000e+00,-9.974809131672223161e-01,7.092127931152159004e-02,4.168517221651289333e+02
-1.084720614609579137e+01,2.489373333440615177e+00,3.379609105413677206e+00,0.000000000000000000e+00,-9.950635238591930554e-01,9.922995251817745554e-02,4.233971074653990740e+02
-1.046143641359852872e+01,3.428405204612519075e+00,4.111418388207988883e+00,-5.233593112550244397e-02,-9.936998224673663227e-01,9.909396117580050733e-02,4.299424927656692148e+02
-9.686551140858046693e+00,4.373780923125134557e+00,4.688275730452318157e+00,-1.045284126553198828e-01,-9.896124561254501240e-01,9.868635989376403628e-02,4.364878780659393556e+02
-8.604878744759119513e+00,5.315643581520555827e+00,5.099014766112888175e+00,-1.564343881901273658e-01,-9.828126281285115562e-01,9.800826588962338604e-02,4.430332633662094963e+02
-8.081922019183027217e+00,5.688832080879055120e+00,5.193971383431311928e+00,-2.079115866453254413e-01,-9.733189765029125473e-01,9.706153778891007944e-02,4.456396917800642541e+02
-6.594664817036636428e+00,6.616880011874169298e+00,5.252372891725205051e+00,-2.588189122163783162e-01,-9.611575229206191784e-01,9.584877053075285813e-02,4.521850770803343949e+02
-4.998296718104080050e+00,7.526357104915420315e+00,5.117966879440613681e+00,-3.090168311220049535e-01,-9.463616013698755713e-01,9.437328825475825578e-02,4.587304623806045356e+02
-3.375321607740108032e+00,8.416040240213161994e+00,4.779665393640028626e+00,-3.583677540649576887e-01,-9.289717667819357150e-01,9.263913518906470579e-02,4.652758476808746764e+02
-1.808228398723056296e+00,9.287248003106709504e+00,4.226404685439058007e+00,-4.067364133618807109e-01,-9.090356838644753079e-01,9.065106456456258066e-02,4.718212329811448171e+02
-3.794616570804137390e-01,1.014384004293275687e+01,3.447146525550872198e+00,-4.539902337083875361e-01,-8.866079964465883867e-01,8.841452558568591025e-02,4.783666182814149579e+02
8.564022177507261135e-01,1.096669311114857237e+01,2.453364787397372737e+00,-4.999996955629734674e-01,-8.617501776937159796e-01,8.593564849351140178e-02,4.849120035816850987e+02
1.929329042238467906e+00,1.170218766508534003e+01,1.326999075028618247e+00,-5.446386901536501846e-01,-8.345303616033069583e-01,8.322122776213002060e-02,4.914573888819552394e+02
2.917930829345787735e+00,1.231097845792879752e+01,1.788763508037697625e-01,-5.877848651341872621e-01,-8.050231562433318722e-01,8.027870347437533749e-02,4.980027741822253802e+02
3.855548521116260119e+00,1.278852920177675223e+01,-9.438103049543589140e-01,-6.293199599425254309e-01,-7.733094392458194077e-01,7.711614092798317610e-02,5.045481594824955209e+02
4.738383416692334649e+00,1.314064055346021576e+01,-2.038423924473997229e+00,-6.691301299421823501e-01,-7.394761361162233149e-01,7.374220852810758897e-02,5.110935447827656617e+02
5.562783284028637532e+00,1.337320068739839130e+01,-3.102330871632978049e+00,-7.071062584582700206e-01,-7.036159819665198656e-01,7.016615402681412872e-02,5.176389300830358025e+02
6.325243146917464365e+00,1.349218201255241567e+01,-4.132901150966990400e+00,-7.431442558529567366e-01,-6.658272673253593510e-01,6.639777917470174318e-02,5.241843153833059432e+02
6.945923615347465052e+00,1.350282938201752536e+01,-5.018525216438345815e+00,-7.771453448207698012e-01,-6.262135687222184499e-01,6.244741285415384563e-02,5.300117934853070665e+02
7.574661772731371201e+00,1.341359689445866188e+01,-5.974933167201622375e+00,-8.090163311219412678e-01,-5.848834647842088286e-01,5.832588276787929044e-02,5.365571787855772072e+02
8.132007225648941073e+00,1.322860920201005897e+01,-6.890426559955984409e+00,-8.386698590119427976e-01,-5.419502386238763680e-01,5.404448576036039592e-02,5.431025640858473480e+02
8.615035284915608216e+00,1.295413735033496572e+01,-7.762392731623724451e+00,-8.660246506673261457e-01,-4.975315673338662203e-01,4.961495685356875907e-02,5.496479493861174888e+02
9.020971964781152153e+00,1.259652037024053151e+01,-8.588224165706352053e+00,-8.910057289518670265e-01,-4.517491994396307109e-01,4.504943708183047069e-02,5.561933346863876295e+02
9.347194601549940529e+00,1.216216192136235996e+01,-9.365318798972483094e+00,-9.135446229126964468e-01,-4.047286211943233458e-01,4.036044021400905096e-02,5.627387199866577703e+02
9.591232443379073658e+00,1.165752692516530686e+01,-1.009108032766273588e+01,-9.335795554434329624e-01,-3.565987126305619204e-01,3.556081845422069676e-02,5.692841052869279110e+02
9.750767211192432171e+00,1.108913818776674454e+01,-1.076291851318468318e+01,-9.510556126002187582e-01,-3.074913943117780768e-01,3.066372721509143251e-02,5.758294905871980518e+02
9.823633630651871229e+00,1.046357301309224930e+01,-1.137824948726590968e+01,-9.659248941068386829e-01,-2.575412657513206360e-01,2.568258906010422588e-02,5.823748758874681926e+02
9.807819935130906330e+00,9.787459806871433798e+00,-1.193449605653825607e+01,-9.781466446366489098e-01,-2.068852364902757646e-01,2.063105691385686349e-02,5.889202611877383333e+02
9.701468339638131155e+00,9.067474671981727852e+00,-1.242908800652943668e+01,-9.876873655117123230e-01,-1.556621508450558022e-01,1.552297664105513689e-02,5.954656464880084741e+02
9.502875485641462561e+00,8.310337995649717868e+00,-1.285946240503482230e+01,-9.945209065131871418e-01,-1.040124073531192711e-01,1.037234909679178932e-02,6.020110317882786148e+02
9.210492856748460966e+00,7.522811029021184481e+00,-1.322306390484059335e+01,-9.986285375514998286e-01,-5.207757395969132147e-02,5.193291752108577727e-03,6.085564170885487556e+02
9.054831792314400829e+00,7.192822330478365167e+00,-1.334318466829921590e+01,-9.999989999999999712e-01,-0.000000000000000000e+00,0.000000000000000000e+00,6.112118990049212925e+02
8.581496765018098216e+00,6.358222521256854165e+00,-1.357038536032681186e+01,-9.999989992939563033e-01,-0.000000000000000000e+00,-0.000000000000000000e+00,6.177572843051914333e+02
8.021552488925284052e+00,5.508703870100943867e+00,-1.372639821892583534e+01,-9.999989992940097050e-01,-0.000000000000000000e+00,-0.000000000000000000e+00,6.243026696054615741e+02
7.384453646581774500e+00,4.649170567945057897e+00,-1.381039491111593698e+01,-9.999989992940542249e-01,-0.000000000000000000e+00,-0.000000000000000000e+00,6.308480549057317148e+02
6.679757864474192175e+00,3.784229870330896528e+00,-1.382155561077964379e+01,-9.999989992940897521e-01,-0.000000000000000000e+00,-0.000000000000000000e+00,6.373934402060018556e+02
5.917122240421038626e+00,2.918189873835848491e+00,-1.375906909575896542e+01,-9.999989992941163974e-01,-0.000000000000000000e+00,-0.000000000000000000e+00,6.439388255062719963e+02
5.106299852354508673e+00,2.055057355145694764e+00,-1.362213284418709591e+01,-9.999989992941342720e-01,-0.000000000000000000e+00,-0.000000000000000000e+00,6.504842108065421371e+02
4.257136248873282014e+00,1.198535673094256016e+00,-1.340995313004690992e+01,-9.999989992941431538e-01,-0.000000000000000000e+00,-0.000000000000000000e+00,6.570295961068122779e+02
3.379565921947930818e+00,3.520227339855043769e-01,-1.312174511794851917e+01,-9.999989992941431538e-01,-0.000000000000000000e+00,-0.000000000000000000e+00,6.635749814070824186e+02
2.483608762163528105e+00,-4.813909794923291185e-01,-1.275673295711728805e+01,-9.999989992941342720e-01,-0.000000000000000000e+00,-0.000000000000000000e+00,6.701203667073525594e+02
1.579366496888244153e+00,-1.298924315455649570e+00,-1.231414987458122567e+01,-9.999989992941163974e-01,-0.000000000000000000e+00,-0.000000000000000000e+00,6.766657520076227001e+02
6.770191117550262705e-01,-2.098107295820843543e+00,-1.179323826754968785e+01,-9.999989992940897521e-01,-0.000000000000000000e+00,-0.000000000000000000e+00,6.832111373078928409e+02
-2.131787441559887808e-01,-2.876782894815531400e+00,-1.119324979497752004e+01,-9.999989992940542249e-01,-0.000000000000000000e+00,-0.000000000000000000e+00,6.897565226081629817e+02
-8.518448763948597291e-01,-3.435408876403814649e+00,-1.069268303627424643e+01,-9.999989992940097050e-01,-0.000000000000000000e+00,-0.000000000000000000e+00,6.945787647614342859e+02
-1.686385301555702876e+00,-4.171918885414032552e+00,-9.933163442244145713e+00,-9.999989992939563033e-01,-0.000000000000000000e+00,-0.000000000000000000e+00,7.011241500617044267e+02
-2.480321823063858844e+00,-4.883786200698159163e+00,-9.092568716013397889e+00,-9.999989992938940198e-01,-0.000000000000000000e+00,-0.000000000000000000e+00,7.076695353619745674e+02
-3.211437146868682646e+00,-5.558193664973368087e+00,-8.158005713125763947e+00,-8.664031164304184518e-01,2.930847525437620948e-01,-4.042832765117006510e-01,7.142149206622447082e+02
-3.390248571431778934e+00,-5.732518629116190034e+00,-7.859823630577710496e+00,-5.013112323331756492e-01,5.078595901845154303e-01,-7.005452769059626883e-01,7.160708230758001491e+02
-3.882535279947788798e+00,-6.258257392475086611e+00,-6.659410427808059474e+00,-2.272997664908586214e-03,5.869383970276200735e-01,-8.096271682554371241e-01,7.226162083760702899e+02
-4.214924101970769499e+00,-6.657516815257719323e+00,-5.297851726678673323e+00,2.039378542714839482e-01,3.347537607939488069e-01,9.199713426131747029e-01,7.291615936763404306e+02
-4.407713412353210458e+00,-6.908070974482664717e+00,-3.826199605393549863e+00,1.625818074863619178e-01,7.057215066500730494e-01,6.895812576677053940e-01,7.357069789766105714e+02
-4.432171710485914851e+00,-6.935385574346054405e+00,-3.436018581841692399e+00,8.994383289453547481e-02,9.409032181987810883e-01,3.265107056560334065e-01,7.373958824033109067e+02
-4.462890945250771679e+00,-6.903802950220872425e+00,-1.936520382397782125e+00,0.000000000000000000e+00,9.950482571507053287e-01,-9.938292580607442639e-02,7.439412677035810475e+02
-4.470148739323557052e+00,-6.800712766977570212e+00,-1.074510526098630958e+00,7.901121582998402726e-01,4.634195063229082368e-02,6.112063488867673922e-01,7.479009542327726194e+02
-4.513664178354104273e+00,-6.480068847229303763e+00,2.032860838234541723e-01,8.904838859385163508e-01,4.657905541714726233e-02,4.526221829311368183e-01,7.544463395330427602e+02
-4.621338963101403685e+00,-5.986502138242251192e+00,1.257049093997254063e+00,9.594896156438641466e-01,4.517548043470783620e-02,2.780950438969512217e-01,7.609917248333129010e+02
-4.722882902176893438e+00,-5.612668551310670217e+00,1.683995706121484970e+00,9.946987135960412285e-01,4.218066407542046814e-02,9.377238799014468718e-02,7.646008626906512973e+02
-4.963101551771437414e+00,-4.766258708544490297e+00,2.169480190534015751e+00,9.948709779607906034e-01,3.770009380895395640e-02,-9.385329050616653124e-02,7.711462479909214380e+02
-5.214185342539352952e+00,-3.788495147430755772e+00,2.382155467294243323e+00,9.600003268320904670e-01,3.189159074297362451e-02,-2.781731455815422693e-01,7.776916332911915788e+02
-5.429045202595191633e+00,-2.724161001297780160e+00,2.342761904068700662e+00,8.913150168364509796e-01,2.495975077997706140e-02,-4.526947664854334974e-01,7.842370185914617196e+02
-5.561976383860086415e+00,-1.619449136526323496e+00,2.072069805094810757e+00,7.912343833433937990e-01,1.714873811878075971e-02,-6.112708658168907183e-01,7.907824038917318603e+02
-5.568674459431681711e+00,-5.219300526177722555e-01,1.590876943879951266e+00,6.632836248711104776e-01,8.733684908324657048e-03,-7.483158128264734144e-01,7.973277891920020011e+02
-5.423305835673184916e+00,4.216073173430965881e-01,9.834724675679740180e-01,5.119696326536137265e-01,1.099999210733002096e-05,-8.590023836520734868e-01,8.032508589282145977e+02
-5.076700136645303729e+00,1.357684400526397717e+00,1.416530034794103443e-01,0.000000000000000000e+00,-4.977924468361116794e-01,-8.672950362322737750e-01,8.097962442284847384e+02
-4.567085217247615070e+00,2.125923080548943300e+00,-8.517987939579823031e-01,4.388482805365123696e-01,-7.328862274201475291e-01,-5.198922622293987716e-01,8.163416295287548792e+02
-4.425896459037798714e+00,2.250797117808787551e+00,-1.101110328147152373e+00,7.159609931182473463e-01,-6.978770862250416318e-01,1.911619342960860224e-02,8.178054252697601214e+02
-3.693631458436602788e+00,2.559336715484961111e+00,-2.273024824134187050e+00,7.292076631243281648e-01,-4.056665109298185357e-01,5.510797273966736576e-01,8.243508105700302622e+02
-2.875406949021973357e+00,2.580631523830437590e+00,-3.366488914798271725e+00,4.737066590285227141e-01,3.605097405070491201e-02,8.799433666215495942e-01,8.308961958703004029e+02
-1.995476327212850176e+00,2.328853478866608206e+00,-4.187668368817655917e+00,4.000506717943037582e-01,-3.432949938082103247e-01,8.497682079378088282e-01,8.374415811705705437e+02
-1.952753360764651891e+00,2.309255748456366497e+00,-4.214613959641267726e+00,2.662911505517778776e-01,-6.710648093663555969e-01,6.919241611373782019e-01,8.377474125983546855e+02
-1.025619490796347621e+00,1.757902862643687447e+00,-4.402968793431206507e+00,9.252399957796138275e-02,-8.980141568838725386e-01,4.301254276785382302e-01,8.442927978986248263e+02
-1.211727153373683280e-01,1.072312814935376224e+00,-3.759553376401106206e+00,-9.514394191145582325e-02,-9.900459408722845911e-01,1.037047022930321777e-01,8.508381831988949671e+02
2.818003095249500545e-01,7.085388897806785824e-01,-2.897043280901954176e+00,-2.685173529501853618e-01,-9.333334204994215844e-01,-2.382963645175028289e-01,8.540388386169396426e+02
9.336637698234119265e-01,-6.460874538469534023e-02,-5.647238244417772668e-01,-4.015486972676738930e-01,-7.363974448212311508e-01,-5.444955894983162237e-01,8.605842239172097834e+02
1.275661629720850287e+00,-7.117653310678309087e-01,7.501908418479842355e-01,-6.047551811074511896e-01,-6.968305908353285005e-01,-3.856115903345739837e-01,8.659137601400203721e+02
1.522532995006252499e+00,-1.523827158671567705e+00,1.243260745959035685e+00,-7.667762024728004278e-01,-6.098077260643994801e-01,-2.004664374760223577e-01,8.724403359150708184e+02
1.688035068900560987e+00,-2.375687037604030216e+00,1.029768811645281001e+00,-8.765777104717308310e-01,-4.812553706999804781e-01,-1.669034929430308336e-03,8.789857212153409591e+02
1.813601034874056550e+00,-3.272162687215898202e+00,4.714860038672186726e-01,-9.266819723579445833e-01,-3.199283091559453895e-01,1.972419811011399404e-01,8.854289603144549119e+02
1.900759900176020700e+00,-4.251312844566034421e+00,-1.865531427894890071e-01,-9.136768055698892832e-01,-1.368133464338814331e-01,3.827202675619000849e-01,8.919743456147250527e+02
1.914394314292572119e+00,-5.012716896646714382e+00,-6.117977478099836386e-01,-8.384479280489679498e-01,5.561892889150747699e-02,5.421343068842915391e-01,8.967412072044597835e+02
1.841479382210938764e+00,-6.098590301126840529e+00,-1.069157339829844400e+00,-8.013278619086596777e-01,7.423695837081327464e-02,5.935996392660278786e-01,9.032865925047299243e+02
1.679170267147817031e+00,-7.166761880367433335e+00,-1.417203538851345312e+00,-7.607034122461576731e-01,9.253033371178619182e-02,6.424690311105314411e-01,9.098319778050000650e+02
1.449393557246838382e+00,-8.145983900697212121e+00,-1.682315846660834779e+00,-7.167522271798488775e-01,1.104190583268647996e-01,6.885287767307985973e-01,9.163773631052702058e+02
1.331535419907008855e+00,-8.505592670165677660e+00,-1.771176165638206346e+00,-6.696665005608543053e-01,1.278249046678292256e-01,7.315774543874919988e-01,9.192062492679181105e+02
1.044035491236528390e+00,-9.144440047338205702e+00,-1.936846376369552925e+00,-4.696473343659070543e-01,1.037658460488457973e-01,8.767337284014896648e-01,9.257516345681882513e+02
7.898500848933823759e-01,-9.540850036070841256e+00,-2.086478753278188325e+00,-2.406712046134722172e-01,7.330890909973368508e-02,9.678332372452507215e-01,9.322970198684583920e+02
7.312708670475465134e-01,-9.581944394939664988e+00,-2.142309873733012626e+00,3.143997210389546867e-03,3.833196598875702327e-02,9.992591133759092248e-01,9.346156455443504001e+02
6.740383136020846599e-01,-9.404783264419787514e+00,-2.316906430523829830e+00,0.000000000000000000e+00,4.167097441780489436e-02,9.991303866246508125e-01,9.411610308446205408e+02
7.019640420046533436e-01,-8.950150644624439877e+00,-2.501194356811548669e+00,-2.859314246070168153e-01,1.799423883882599606e-01,9.412023997439032952e-01,9.477064161448906816e+02
7.739130696530079900e-01,-8.249307407365073175e+00,-2.681492829817746060e+00,-5.420596835881904552e-01,2.994580835881854863e-01,7.851714179736554167e-01,9.542518014451608224e+02
8.478313052633230651e-01,-7.332174182400453155e+00,-2.844121491979280325e+00,-7.416881273277808884e-01,3.877607578610866579e-01,5.473009377347981541e-01,9.607971867454309631e+02
8.522767763748364533e-01,-7.214125900313829831e+00,-2.859324383780638357e+00,-8.640092972098788460e-01,4.356465512179055755e-01,2.523846602880329693e-01,9.615062579861255472e+02
8.368605210807043004e-01,-5.967050900448886530e+00,-2.969791849890144775e+00,-8.962736280310615866e-01,4.381243293421202556e-01,-6.883789462654008040e-02,9.680516432863956879e+02
7.646477842058965191e-01,-4.925045518632439112e+00,-3.020743424669943611e+00,-6.336277637610133739e-01,4.201362269486358936e-01,6.496148149467396715e-01,9.728923574258250255e+02
5.633132385711435708e-01,-3.369421078615782772e+00,-3.049217649088422188e+00,-3.999995304135573277e-06,1.561658166664089964e-01,9.877298404372834018e-01,9.794377427260951663e+02
2.503499097609776514e-01,-1.683472449872734922e+00,-3.043025353365981900e+00,-9.741568796143648123e-01,-4.289895066157300985e-02,-2.217567449557902581e-01,9.859831280263653071e+02
-1.758769216134632718e-01,1.069420250301409137e-01,-3.006564352172657273e+00,-7.127413081389296634e-01,-4.228955894934223192e-01,-5.596044567895336330e-01,9.925285133266354478e+02
-3.117053844055275857e-01,5.721248809951685610e-01,-2.990951163793543977e+00,-0.000000000000000000e+00,-9.999989999992932899e-07,9.999989999992933143e-01,9.941600517329895865e+02
-9.693325738086242538e-01,2.495881313799296564e+00,-2.904603373564384583e+00,-0.000000000000000000e+00,1.466699169343334101e-02,9.998914337172190026e-01,1.000705437033259727e+03
-1.717066456760874882e+00,4.457680028474769074e+00,-2.796998279522587616e+00,-0.000000000000000000e+00,1.466699168405752839e-02,9.998914330780426241e-01,1.007250822333529868e+03
-2.360459588622289218e+00,6.044484841091107619e+00,-2.700071198384759175e+00,2.204866156156566059e-01,2.303425473712938931e-02,9.751169547503389934e-01,1.012534515054157623e+03
-3.105627885074752292e+00,7.973006562834788369e+00,-2.585719899915152720e+00,4.301035175183402504e-01,3.026596604823504968e-02,9.022709878501662395e-01,1.019079900354427764e+03
-3.656350175630543209e+00,9.813866154806396125e+00,-2.502082212302248365e+00,8.515135732453830153e-01,1.802415477933044796e-02,5.240207671688039692e-01,1.025625285654697791e+03
-3.867379679343554866e+00,1.150852750349184284e+01,-2.475586635673167724e+00,9.997494087566847210e-01,0.000000000000000000e+00,-2.234098678773002375e-02,1.032170670954967818e+03
-3.667540397455021584e+00,1.260788859347016633e+01,-2.513670957930162597e+00,9.732079525580129564e-01,8.436643371830461133e-03,2.297675001519681459e-01,1.037160837249594579e+03
-2.890861553657940952e+00,1.361367566150612696e+01,-2.607004083744793199e+00,8.840556721622581104e-01,1.633052198835639734e-02,4.670940832088822381e-01,1.043706222549864606e+03
-1.724047632522946127e+00,1.398540730549198408e+01,-2.626482776523329399e+00,7.380281094612364257e-01,2.317378578611958145e-02,6.743704362565050570e-01,1.050251607850134633e+03
-3.971225718375199776e-01,1.361875116973825151e+01,-2.481192246376926924e+00,5.445198909479177507e-01,2.852617558812297477e-02,8.382615019597949857e-01,1.056796993150404660e+03
9.596122106810774099e-02,1.321947186581206246e+01,-2.367037697571239274e+00,3.159803134503539890e-01,3.204334794724809227e-02,9.482234258675159566e-01,1.059310682662409818e+03
1.225149200641465930e+00,1.170981979782521876e+01,-1.929565564333916683e+00,6.711239255195521058e-02,3.349902862311626706e-02,9.971819000801138699e-01,1.065856067962679845e+03
2.139442903774663840e+00,9.986347503821860982e+00,-1.335629506179083048e+00,-1.860730790107007482e-01,3.279956927010841544e-02,9.819872695323649259e-01,1.072401453262949872e+03
2.510383993773130484e+00,9.027996572259045394e+00,-9.286398669841018361e-01,-4.272875887420549690e-01,2.998997113509910967e-02,9.036171302819602236e-01,1.075989233689780121e+03
2.939613439455168287e+00,7.362456567689920739e+00,-5.573610155284077633e-02,-8.937831490307434068e-01,2.429597686784608357e-02,4.478385736137356354e-01,1.082534618990050149e+03
3.115687472128813251e+00,5.875405269317074186e+00,9.109731114829002774e-01,-9.883582010250796523e-01,2.727282882079828247e-02,1.496738429893562927e-01,1.089080004290320176e+03
3.059112751470231650e+00,4.627926862199746694e+00,1.897212354203842821e+00,-9.862167656753878520e-01,2.758087891120569388e-02,-1.631373231964951542e-01,1.095625389590590203e+03
3.012367306019306135e+00,4.443272030831563413e+00,2.071844681122568588e+00,-8.875683493731688634e-01,2.518998153463011813e-02,-4.599846628109104940e-01,1.096841725917567601e+03
2.592467640185795563e+00,3.719757153753723067e+00,2.926078992765170028e+00,-7.929889162718402051e-01,2.348173490788356410e-02,-6.087817234400488831e-01,1.103387111217837628e+03
2.039643817384912516e+00,3.294192944007034551e+00,3.660761816113315970e+00,-6.737564233258092061e-01,2.104346952223577413e-02,-7.386524584786653413e-01,1.109932496518107655e+03
1.851354541500386919e+00,3.257179015178073289e+00,3.837520860318781146e+00,-5.335776174011365169e-01,1.795098712834449980e-02,-8.455593936963387014e-01,1.111877068987771281e+03
1.173475004786858067e+00,3.425025738124729990e+00,4.286704974792864498e+00,-3.743866177412105700e-01,1.935856079735003357e-02,-9.270695262926781366e-01,1.118422454288041308e+03
4.905300532798952395e-01,3.852858848686352200e+00,4.601228395224904233e+00,-2.032198784526524915e-01,2.014689812426409196e-02,-9.789248099308833773e-01,1.124967839588311335e+03
-1.523450857866618657e-01,4.483057730239217165e+00,4.806083347712474030e+00,-2.555262735446115277e-02,2.029078237298563223e-02,-9.994665313989493649e-01,1.131513224888581362e+03
-7.117906358415655443e-01,5.256684568606302399e+00,4.926275070406477496e+00,1.529319800560061948e-01,1.978561124316039269e-02,-9.880376202678674558e-01,1.138058610188851389e+03
-7.677445964278667434e-01,5.361978270172562233e+00,4.934150601291070970e+00,3.265246469515879491e-01,1.864754402230164518e-02,-9.450036635038708832e-01,1.138860141434578054e+03
-1.099178749436592994e+00,6.273484598622636632e+00,4.956626735245792226e+00,4.896725565857655282e-01,1.691298468474890931e-02,-8.717412106103223923e-01,1.145405526734848081e+03
-1.172518185429299642e+00,6.650108422552386322e+00,4.950690074886135328e+00,4.780272641022016988e-01,1.671896069572938182e-02,-8.781847249053709170e-01,1.148053578703284984e+03
-1.218616477836790501e+00,7.549856973974659269e+00,4.905292319058609074e+00,4.662972870224132982e-01,1.652197473758049845e-02,-8.844726476241844271e-01,1.154598964003555011e+03
-1.192559853864280983e+00,8.361707706259959849e+00,4.824725061571032647e+00,3.561191598547778225e-01,-9.643417041000143866e-03,-9.343897198129749171e-01,1.161144349303825038e+03
-1.191339802987366303e+00,8.430466518780653118e+00,4.813551976718500214e+00,2.404868686156321766e-01,-3.566111160094296434e-02,-9.699960572821323401e-01,1.161785984944732490e+03
-1.269824354453734205e+00,8.998832368874390752e+00,4.657282912434174804e+00,1.211713624768790409e-01,-6.113263872904529939e-02,-9.907463355457399867e-01,1.168331370245002518e+03
-1.498138871282610030e+00,9.349628669814684656e+00,4.472104905393339713e+00,0.000000000000000000e+00,-8.566789209254577209e-02,-9.963227450298078880e-01,1.173990410582729510e+03
-1.977839518902841709e+00,9.642622694974825492e+00,4.196470739896327906e+00,1.907265185379168615e-01,-3.602513385871322638e-01,-9.131486013642159394e-01,1.180535795882999537e+03
-2.567390613266051336e+00,9.940088921886772511e+00,3.844735237853401433e+00,3.588155418935495278e-01,-5.920762440852891384e-01,-7.215920787300234007e-01,1.187081181183269564e+03
-3.051832699036061580e+00,1.026860462667420393e+01,3.453835898871163934e+00,5.623752087482116746e-01,-6.127230732625684739e-01,-5.552499978176599349e-01,1.192657969127693832e+03
-3.534252569867693872e+00,1.073363527251603422e+01,2.842489711232523142e+00,7.268315228409760742e-01,-5.907656121671474025e-01,-3.502997700310304663e-01,1.199203354427963859e+03
-3.642824991884576757e+00,1.087907159510670851e+01,2.608928012442977895e+00,9.417488280870767170e-01,-3.260227087557061032e-01,-8.256111780415367751e-02,1.201110968549146264e+03
-3.903528448257244321e+00,1.138322548156690495e+01,1.613933071744031889e+00,9.796526068681459254e-01,-0.000000000000000000e+00,2.006957145972041445e-01,1.207656353849416291e+03
-3.925577287945664740e+00,1.144559263145990435e+01,1.470955095633898813e+00,9.796526061767043547e-01,-0.000000000000000000e+00,2.006957144555525374e-01,1.208478945707734283e+03
-3.948514097321613292e+00,1.154921433290170718e+01,1.208046368831568351e+00,9.987454514614225731e-01,-0.000000000000000000e+00,-5.005520137800934660e-02,1.209865610689777441e+03
-3.942435723666190661e+00,1.205864626847577981e+01,-1.015405072019960470e-01,9.546769266714698610e-01,-0.000000000000000000e+00,-2.976406653671949121e-01,1.216410995990047468e+03
-3.867783036453735335e+00,1.228273840247496373e+01,-6.062435120543610001e-01,5.764363129601857150e-01,-1.163998612659590233e-03,-8.171400260715380170e-01,1.218977352460894735e+03
-3.662799087673715093e+00,1.262719074976114264e+01,-1.232460978341092472e+00,5.752485911879960945e-01,-0.000000000000000000e+00,-8.179774186878632225e-01,1.222448549475186155e+03
-3.478321849256708287e+00,1.285996200946758883e+01,-1.566604923112407288e+00,4.805962955018487359e-01,-1.277101077074349611e-01,-8.675916834197472394e-01,1.224607003153273808e+03
-2.730190843121589328e+00,1.353609457189288356e+01,-2.307293719733558124e+00,3.726168030278635968e-01,-2.518787345881435269e-01,-8.931471441836564829e-01,1.231152388453543836e+03
-1.786175694643049150e+00,1.399764474630998023e+01,-2.679010109037995857e+00,2.543044302187356664e-01,-3.690626327466520751e-01,-8.939351374014443685e-01,1.237697773753813863e+03
-1.485569007440112221e+00,1.402174174529556971e+01,-2.688035608695748202e+00,1.289400262683621790e-01,-4.760122386716992282e-01,-8.699338010792002640e-01,1.239535596146444504e+03
-3.917840543148702892e-01,1.372496224361354678e+01,-2.409590275945086457e+00,0.000000000000000000e+00,-5.697617808903234771e-01,-8.218086839622436024e-01,1.246080981446714532e+03
6.104078873987860421e-01,1.318335454628878622e+01,-1.817493615968906129e+00,-0.000000000000000000e+00,8.080491350120935778e-02,9.967289330370694422e-01,1.252626366746984559e+03
1.087345769066975443e+00,1.282921572951092237e+01,-1.327755887456187445e+00,-0.000000000000000000e+00,-9.950635238632340451e-01,9.922995251858043875e-02,1.256439075760270043e+03
1.287830413020805143e+00,1.264138373646603597e+01,-9.859136977769903387e-01,1.739659301870325192e-01,-9.811558037895792284e-01,8.406630611708369727e-02,1.258643091531374012e+03
1.559235789495489577e+00,1.230040712932680336e+01,-1.295535948841955998e-01,3.425932591262327298e-01,-9.371388027685851885e-01,6.632287046568138833e-02,1.263537512859439857e+03
1.705609632074255089e+00,1.195966764640859559e+01,1.101468853922269009e+00,5.007072176370755967e-01,-8.643633057389255026e-01,4.654414999157399646e-02,1.270082898159709885e+03
1.692406547220511870e+00,1.187636037404751654e+01,1.554544408475575734e+00,6.434556735587164678e-01,-7.650626295813032218e-01,2.533710685224212916e-02,1.272415143416737919e+03
1.504124109781797003e+00,1.173114791588350059e+01,2.837648661182904597e+00,7.664580329846413242e-01,-6.422840837107776091e-01,3.352534222735264156e-03,1.278960528717007946e+03
1.204672714156828528e+00,1.164384689142075402e+01,4.109294790646857543e+00,8.659396687511558000e-01,-4.997954511924700971e-01,-1.873491529811428802e-02,1.285505914017277973e+03
8.441652162432101703e-01,1.157234369366422477e+01,5.344424264557606108e+00,9.388477512083472920e-01,-3.419693614547780203e-01,-4.024743318725344104e-02,1.292051299317548001e+03
4.713557967020463035e-01,1.147300435000809138e+01,6.517982874201553756e+00,9.829449275863859636e-01,-1.736491038134734266e-01,-6.052485504312197367e-02,1.298596684617818028e+03
4.449852913241882368e-01,1.146193151981677794e+01,6.601266352848963237e+00,9.968779763718004228e-01,-0.000000000000000000e+00,-7.894491893667314464e-02,1.299084628259237661e+03
1.234504008475362791e-01,1.126242228744458096e+01,7.652077620806648994e+00,9.615748480723226299e-01,2.570136079442973953e-01,-9.651847951132912218e-02,1.305630013559507688e+03
-1.604987689985594990e-01,1.103187771708732434e+01,8.603155584686795976e+00,8.612584170858206267e-01,4.966502082827247144e-01,-1.075663033320747863e-01,1.312175398859777715e+03
-4.028956810999128058e-01,1.081428396846303208e+01,9.443735878027279540e+00,7.027111920888708951e-01,7.027076675327708077e-01,-1.113414321112484451e-01,1.318720784160047742e+03
-5.577033673971190098e-01,1.066457097641099061e+01,1.006858317623212606e+01,4.966527406121594712e-01,8.612541689158708103e-01,-1.075886228570319680e-01,1.324381940622837419e+03
-6.258023381505296578e-01,1.054746316828604336e+01,1.066947836099480007e+01,2.570149340969773433e-01,9.615701637793298007e-01,-9.656160614480699400e-02,1.330927325923107446e+03
-5.597183242455843200e-01,1.050926912213211573e+01,1.115592995891101324e+01,0.000000000000000000e+00,9.968731427319725835e-01,-7.900593205829646581e-02,1.337472711223377473e+03
-5.079031353128110604e-01,1.053530861786877892e+01,1.127962716729870252e+01,-0.000000000000000000e+00,9.968731420280737554e-01,-7.900593200250984049e-02,1.339529752796983757e+03
-4.425783258483831362e-01,1.060126159187026040e+01,1.137326413003141212e+01,-3.800619477630489684e-01,9.192149798887419010e-01,-1.029307369619464757e-01,1.341451046296087952e+03
-1.962942231898486822e-01,1.094885508186621337e+01,1.163159040315509607e+01,-7.027152663281615030e-01,7.027089221158548948e-01,-1.113077950963309581e-01,1.347996431596357979e+03
1.433300793185349198e-02,1.135888193504690236e+01,1.185817262979267994e+01,-9.192230414830961926e-01,3.800584184042906100e-01,-1.028717580677226823e-01,1.354541816896628006e+03
3.928674491655538559e-02,1.144798539339504018e+01,1.190744608819118433e+01,-9.968817776734337777e-01,0.000000000000000000e+00,-7.889690326056407466e-02,1.355968761765152522e+03
4.288385953702533032e-02,1.180853481451261011e+01,1.214854751094434704e+01,-7.027007806795227962e-01,-7.026648308841961788e-01,-1.116769818354378524e-01,1.362514147065422549e+03
-3.084629781872958582e-02,1.205970014080011765e+01,1.241190738175791175e+01,-0.000000000000000000e+00,-9.968312352734685078e-01,-7.953293898571150988e-02,1.369059532365692576e+03
-7.182892449733570273e-02,1.209318232801114235e+01,1.251415287786809394e+01,-0.000000000000000000e+00,-8.993944501121587942e-01,-4.371357033097414968e-01,1.371438322353818876e+03
-2.050604790556229962e-01,1.203167217242221021e+01,1.277321117673361250e+01,-0.000000000000000000e+00,-6.784043507465453704e-01,-7.346873735739525291e-01,1.377983707654088903e+03
-3.450162462654541295e-01,1.186213905415585579e+01,1.292867348949580020e+01,-0.000000000000000000e+00,-3.642192608852135582e-01,-9.313121549734011406e-01,1.384529092954358930e+03
-4.167247876817883334e-01,1.173617300432856325e+01,1.291102155692373898e+01,-0.000000000000000000e+00,-0.000000000000000000e+00,-9.999989999999967516e-01,1.388136004714354613e+03
-4.239911065453345618e-01,1.171991166676451179e+01,1.289880109655425855e+01,-0.000000000000000000e+00,-0.000000000000000000e+00,-9.999989992938940198e-01,1.388555737678094602e+03
-5.130785297971796055e-01,1.145859196521366741e+01,1.254071556051005132e+01,4.770155088648625474e-01,-0.000000000000000000e+00,-8.788937389147039037e-01,1.395101122978364629e+03
-5.592662644854075049e-01,1.120963737571265817e+01,1.195644303983396028e+01,8.384927114421110161e-01,-0.000000000000000000e+00,-5.449109770040920786e-01,1.401646508278634656e+03
-5.539744243637002574e-01,1.113506265939363438e+01,1.168028212283367040e+01,9.968779763717972031e-01,-0.000000000000000000e+00,-7.894491893667289484e-02,1.403961155374455302e+03
-4.694750082301740735e-01,1.097667070811469792e+01,1.072357472095323594e+01,9.968779756678982640e-01,-0.000000000000000000e+00,-7.894491888092960985e-02,1.410506540674725329e+03
-3.166941561478370804e-01,1.087786208333129423e+01,9.613750582872894412e+00,6.000999550062845467e-01,-0.000000000000000000e+00,7.999237737963292849e-01,1.417051925974995356e+03
-9.934747546925279393e-02,1.084413874827023250e+01,8.383793213303828651e+00,-3.547495365921337629e-01,-0.000000000000000000e+00,9.349603019259022929e-01,1.423597311275265383e+03
1.309794385038242082e-01,1.087473166156788018e+01,7.293598063241164553e+00,-9.796745246527556183e-01,-0.000000000000000000e+00,2.005886979221412070e-01,1.429009903517570365e+03
4.627061732733707689e-01,1.098271876933994307e+01,5.914957884696312895e+00,-8.610980435139656830e-01,-3.816511123333345967e-01,-3.359324156926402627e-01,1.435555288817840392e+03
8.295074713415432344e-01,1.115238740106676474e+01,4.501395482378062418e+00,-3.571165318404133648e-01,-5.924852232853634604e-01,-7.220990533689588542e-01,1.442100674118110419e+03
1.207642973350109283e+00,1.137075396402116212e+01,3.077833027060842497e+00,-8.610980435139656830e-01,-3.816511123333345967e-01,-3.359324156926402627e-01,1.448646059418380446e+03
1.572989547147481959e+00,1.162558486247017697e+01,1.669193861662834344e+00,-9.796745246597435841e-01,-0.000000000000000000e+00,2.005886979235719514e-01,1.455191444718650473e+03
1.736021640063358351e+00,1.176360846308207364e+01,9.953222261259134784e-01,-9.796745239680101358e-01,-0.000000000000000000e+00,2.005886977819393013e-01,1.458405581212226934e+03
2.023143715966229106e+00,1.205727491121057149e+01,-3.214854525120140472e-01,-5.759863546498642517e-01,0.000000000000000000e+00,-8.174580840986400698e-01,1.464950966512496962e+03
2.256449668040082734e+00,1.234339456635736809e+01,-1.559554208975168166e+00,-5.741094901531109684e-01,1.828998375729459346e-03,-8.187752728738456609e-01,1.471496351812766989e+03
2.423887961782770883e+00,1.260040873312106591e+01,-2.692810358947861804e+00,-9.546707119066503155e-01,0.000000000000000000e+00,-2.976605983802242950e-01,1.478041737113037016e+03
2.473439996925139273e+00,1.272780711042785384e+01,-3.271692610825538861e+00,-7.142513392292927366e-01,-6.601633892673268722e-01,-2.324377849663400997e-01,1.481816523951514682e+03
2.454100254304627082e+00,1.293905177012102570e+01,-4.116481889684507678e+00,-9.276742957905927955e-01,-3.573606550220198574e-01,-1.082208998854863463e-01,1.488361909251784709e+03
2.297001829874978807e+00,1.319344046055871367e+01,-4.763100519526119569e+00,-9.994701503665153197e-01,-0.000000000000000000e+00,3.251797235699518951e-02,1.494907294552054736e+03
1.982268195526229793e+00,1.351966610690832482e+01,-5.187128030852481864e+00,-9.451980947473781480e-01,-3.196831800882899977e-01,6.634173690280423252e-02,1.501423043705973669e+03
1.514446919350554532e+00,1.389119792768611461e+01,-5.410296483319900318e+00,-7.904637783949873819e-01,-6.053881033602401818e-01,9.311422746423757280e-02,1.507968429006243696e+03
9.151984124222346528e-01,1.424651581556621771e+01,-5.468807093975943445e+00,-5.517134353490490417e-01,-8.267481538648483452e-01,1.099898874308825047e-01,1.514513814306513723e+03
4.955452872441760692e-01,1.441550136007195171e+01,-5.428257202467900555e+00,-2.883779608520256610e-01,-9.545120556963128111e-01,7.578183968180839114e-02,1.518374598924670863e+03
-3.020540193197218115e-01,1.459760125980260881e+01,-5.271264155196167422e+00,-0.000000000000000000e+00,-9.993865585865699952e-01,3.499294952973203837e-02,1.524919984224940890e+03
-5.150895218699866884e-01,1.461052609411915704e+01,-5.219967977024929873e+00,1.734319989116226701e-01,-9.840283733444851189e-01,4.009366793382833360e-02,1.526550447678494493e+03
-1.400806065705070491e+00,1.451657570950125908e+01,-5.004798534978053048e+00,3.416019723347282766e-01,-9.388141642730022385e-01,4.397792013278609830e-02,1.533095832978764520e+03
-2.276664925128044636e+00,1.427114641059431932e+01,-4.840341173140597419e+00,4.994075450578623343e-01,-8.651157509889263464e-01,4.652785543998501361e-02,1.539641218279034547e+03
-2.394398495234323576e+00,1.421496218241325593e+01,-4.829967664666543925e+00,6.420607992255940033e-01,-7.651691789080142803e-01,4.766610691680435441e-02,1.540574001202621048e+03
-3.134510856382580535e+00,1.367585650989630963e+01,-4.853982039314117536e+00,7.652335419930841320e-01,-6.420068791675381803e-01,4.735813881187667107e-02,1.547119386502891075e+03
-3.729443864579244483e+00,1.299835107820935853e+01,-4.955610590019754014e+00,8.651886264156313233e-01,-4.993656657047938485e-01,4.561329452656663619e-02,1.553664771803161102e+03
-4.117960238966082542e+00,1.220975554364726001e+01,-5.090443386549146076e+00,9.388933410050912531e-01,-3.415733601281036314e-01,4.248451327626515811e-02,1.560210157103431129e+03
-4.143079114907846083e+00,1.207265815328734071e+01,-5.111874161057952115e+00,9.841114270656210472e-01,-1.734174836732075564e-01,3.806672400510931198e-02,1.561251238058522858e+03
-4.058036432151223671e+00,1.117069488129781263e+01,-5.220950979609623843e+00,9.994709311547945729e-01,-0.000000000000000000e+00,3.249396525059620316e-02,1.567796623358792885e+03
-3.725008444070228464e+00,1.027853816450286750e+01,-5.273995153844430739e+00,9.609611428857960380e-01,2.682510102099291416e-01,6.777224642228014961e-02,1.574342008659062913e+03
-3.662627146329237249e+00,1.018387461165980667e+01,-5.272868570721129799e+00,8.506807646955678592e-01,5.164672500191499482e-01,9.798885770682111418e-02,1.575088175139991336e+03
-2.943876578076227712e+00,9.451875357534275324e+00,-5.189390388093955586e+00,5.179124917781990911e-01,7.186022948435146773e-01,4.640855445979871208e-01,1.581633560440261363e+03
-2.118600340803420856e+00,8.855521337415636296e+00,-5.032804619600493190e+00,7.294162694248140788e-01,5.001404990648640192e-01,4.667005325579609010e-01,1.588178945740531390e+03
-2.025760397829835302e+00,8.806430786255495136e+00,-5.013068356969127670e+00,5.429301615514907642e-01,7.688362362510599013e-01,3.378101264113668734e-01,1.588887797873073396e+03
-1.191455286139770031e+00,8.506682941638892714e+00,-4.860349295102354361e+00,2.893447696904926647e-01,9.425134320924071218e-01,1.671706749981867746e-01,1.595433183173343423e+03
-5.657031024312246803e-01,8.405672539965538093e+00,-4.831538166319234051e+00,0.000000000000000000e+00,9.997078536728578602e-01,-2.412897233222106516e-02,1.600887889330697590e+03
-3.762277691453383976e-01,8.423302230915522770e+00,-4.884659869073422200e+00,-0.000000000000000000e+00,9.997078529671034053e-01,-2.412897231518696187e-02,1.602857601602921704e+03
1.162159558330655429e-01,8.643006022440230751e+00,-5.295901996049572347e+00,-0.000000000000000000e+00,9.993857527372194127e-01,3.501595629905780022e-02,1.609402986903191731e+03
4.505361504470729028e-01,8.983711041292323785e+00,-5.890063989097684249e+00,-2.689137579079395324e-01,9.253645835765438310e-01,2.671774284452785309e-01,1.615948372203461759e+03
6.013079601445399103e-01,9.394933358098111142e+00,-6.580823707798191258e+00,-5.024135394086214346e-01,7.294793312443546007e-01,4.641535744837311239e-01,1.622493757503731786e+03
5.864754020691118619e-01,9.529787323335897398e+00,-6.799852148782128403e+00,-4.064941449545114716e-01,6.246136357190450461e-01,6.667970577263045984e-01,1.624493894945130023e+03
3.528714370652212828e-01,9.972228162432713816e+00,-7.489282955231342243e+00,-2.856722249030643201e-01,4.814830239229320741e-01,8.285912608724884665e-01,1.631039280245400050e+03
4.905622681881714048e-02,1.030098900493300285e+01,-7.970622655639696852e+00,-1.473495533771775612e-01,3.088559511010720571e-01,9.396244518904808274e-01,1.636281754133308368e+03
-9.873602748227298942e-02,1.040479652292227364e+01,-8.111198309249134653e+00,-0.000000000000000000e+00,1.173078338872849818e-01,9.930945937372316346e-01,1.638253231754998524e+03
-6.870907294792785169e-01,1.065328436171569493e+01,-8.427275471726080269e+00,1.270998419732385096e-03,1.158168560016881454e-01,9.932687650413736247e-01,1.644798617055268551e+03
