-3.543730576043662706e-01,9.090015753712988200e+00,6.179051819102754806e+00,3.019874807648394999e-01,1.612168306788589189e-01,-9.395800630889619143e-01,1.509368224712883375e+02
-8.544018416907593616e-02,8.940540943939444318e+00,6.216142728996699951e+00,3.158020664767283159e-01,1.991898981541080638e-01,-9.276801384470310108e-01,1.572944390548497609e+02
1.978101137354128236e-01,8.720246007385020093e+00,6.253501311658022033e+00,2.414592449537170116e-01,2.135011544931992855e-01,-9.466322887196579883e-01,1.643129494035000278e+02
2.295919984402633729e-01,8.687854910008310227e+00,6.257552986014361274e+00,1.656457240265298558e-01,2.265120051424041880e-01,-9.598186316318877420e-01,1.651430091368838191e+02
4.830557110962389045e-01,8.361685919565291059e+00,6.288474702945705985e+00,-3.479895310511424075e-03,3.373902216999473680e-01,-9.413573862403629144e-01,1.721615194855340860e+02
7.201681235149327565e-01,7.984926739471774226e+00,6.314894660360630851e+00,-1.724619733782550013e-01,4.343550016165992345e-01,-8.840761281182388798e-01,1.791800298341843529e+02
8.544273096114339827e-01,7.731180750994820272e+00,6.327489807505640940e+00,-3.343320358908690171e-01,5.134077168621135057e-01,-7.903370205441019314e-01,1.833994686236469818e+02
1.064670585788080048e+00,7.268624861372014578e+00,6.342305898674187148e+00,-4.107383945319480478e-01,3.390376456685785245e-01,-8.463719312903580372e-01,1.904179789722972487e+02
1.261125153390370013e+00,6.770849409949978970e+00,6.350337402045406421e+00,-4.709686976450614404e-01,1.513153441933258458e-01,-8.690743077835751951e-01,1.974364893209475156e+02
1.433962418602371836e+00,6.274915052509840940e+00,6.351090176382229835e+00,-5.126509282141579193e-01,-4.236622583031700306e-02,-8.575500735869434621e-01,2.040470072003405733e+02
1.604493289468506223e+00,5.725545298747186429e+00,6.344529214129260630e+00,-5.079429680121352320e-01,-1.984553445056689291e-01,-8.382168081609923105e-01,2.110655175489908402e+02
1.761551952756436057e+00,5.159134072578813957e+00,6.330635042094505671e+00,-4.906584462109371270e-01,-3.496307104131377019e-01,-7.981294728911230152e-01,2.180840278976411071e+02
1.905074755717000246e+00,4.581639895748118363e+00,6.309448797260273523e+00,-4.612253254673096547e-01,-4.921492890792762975e-01,-7.382806217190330811e-01,2.251025382462913740e+02
1.971665520152045215e+00,4.288439139944145495e+00,6.295193919226830914e+00,-4.203723542355294329e-01,-6.224823795702003615e-01,-6.601520816586888829e-01,2.286335005360879222e+02
2.093067192677063648e+00,3.704804078937432799e+00,6.259743220054714286e+00,-4.034719396222106735e-01,-6.859979957291878483e-01,-6.054875257097027674e-01,2.356520108847381891e+02
2.201592995904913863e+00,3.125009301719511967e+00,6.217107932269149373e+00,-3.836229233657873494e-01,-7.445002641606149885e-01,-5.463980319604458957e-01,2.426705212333884560e+02
2.297308994359949619e+00,2.554540604851720520e+00,6.167520289090390406e+00,-3.609703602698802749e-01,-7.975616620360825859e-01,-4.833154190112022852e-01,2.496890315820387229e+02
2.373686309542227590e+00,2.038804653340561934e+00,6.115691522933469848e+00,-3.356797909236711730e-01,-8.447944237125519784e-01,-4.167006834964257500e-01,2.561927709839462750e+02
2.441637234687649816e+00,1.500208135726743830e+00,6.054184332540153868e+00,-3.235524414794589410e-01,-8.399740197478197112e-01,-4.356093017091186015e-01,2.632112813325965703e+02
2.493114928042044820e+00,9.823627560763094069e-01,5.988082931004426790e+00,-3.112543088824604176e-01,-8.347102402058279580e-01,-4.542879814300144758e-01,2.702297916812468657e+02
2.509399351335235284e+00,7.494892136193761489e-01,5.955545863259571249e+00,-2.987918791823040432e-01,-8.290058611922784815e-01,-4.727268714778435355e-01,2.735219638801244173e+02
2.524872440109091176e+00,2.737496100016021949e-01,5.884133625187074834e+00,-3.049198102489246165e-01,-6.866898889976646991e-01,-6.599082554922652832e-01,2.805404742287747126e+02
2.516084948252826692e+00,-1.821000939013710240e-01,5.812003518901939891e+00,-2.941770281567758771e-01,-5.063805113771701061e-01,-8.105779751529431643e-01,2.875589845774250080e+02
2.479607988883278935e+00,-6.198922646871525277e-01,5.740808154670773433e+00,-2.671579168555892059e-01,-2.980539434193688608e-01,-9.163997458938675233e-01,2.945774949260753033e+02
2.412106126477666201e+00,-1.043233880441881700e+00,5.671556362131440210e+00,-2.253573965709070315e-01,-7.323653105900475302e-02,-9.715186330328038355e-01,3.015960052747255986e+02
2.353503945670665232e+00,-1.284501100497492221e+00,5.632160344179995448e+00,-1.710882141457374384e-01,1.556329691022863004e-01,-9.728849890451386484e-01,3.056984539786553228e+02
2.217660327451528968e+00,-1.689447037357853398e+00,5.565900963229434062e+00,-1.528596815137371057e-01,4.287119395990481863e-01,-8.904145049431427816e-01,3.127169643273056181e+02
2.041596565975199340e+00,-2.089246770668341302e+00,5.499895344585548962e+00,-1.221416100726801235e-01,6.667625573994629962e-01,-7.351918927323518593e-01,3.197354746759559134e+02
1.921376172125147885e+00,-2.308640193206324742e+00,5.463126228823615982e+00,-8.144383791353872193e-02,8.503347551524644832e-01,-5.198997071029720640e-01,3.236072408917680150e+02
1.659965802690104741e+00,-2.704280194537130644e+00,5.394416473546985280e+00,-5.929526600730294222e-02,8.170328680251472964e-01,-5.735323565274093038e-01,3.306257512404183103e+02
1.564526950270117123e+00,-2.827323591992885188e+00,5.371783775626078672e+00,-3.688128504988041900e-02,7.800739037179691415e-01,-6.245978510521021931e-01,3.328217155200702564e+02
1.215852483527248618e+00,-3.216254545871422010e+00,5.294030009151663663e+00,1.655836656637545840e-02,7.243188494180491377e-01,-6.892648437808018835e-01,3.398402258687205517e+02
8.227951714184229548e-01,-3.595143829311738592e+00,5.207931729179742675e+00,6.983000354909776886e-02,6.612146772242641912e-01,-7.469383650780045958e-01,3.468587362173708470e+02
3.874168046943395893e-01,-3.959087833121365030e+00,5.109989899209365305e+00,1.223931308669879148e-01,5.914016444053554755e-01,-7.970332593492470696e-01,3.538772465660211424e+02
3.012378937840060056e-01,-4.022450645585847973e+00,5.089532319403335059e+00,1.737144411992307402e-01,5.155880720789866034e-01,-8.390412581309417694e-01,3.551547044580041756e+02
-2.080680684204382347e-01,-4.351375210298947138e+00,4.960826903555749290e+00,3.361131892595714543e-01,2.898388794869140583e-01,-8.961134682303624199e-01,3.621732148066544710e+02
-7.515145196731625177e-01,-4.653061266324499456e+00,4.813388385754519661e+00,4.714234030742747716e-01,4.073059942524580312e-02,-8.809648082101122490e-01,3.691917251553047663e+02
-1.324002577023050797e+00,-4.921750761494047666e+00,4.644349800813262874e+00,5.687399906133604466e-01,-2.116603119588780502e-01,-7.948161645429751010e-01,3.762102355039550616e+02
-1.658721262814038866e+00,-5.052646013341114184e+00,4.536010526729714165e+00,6.202198708566654117e-01,-4.469928333927465913e-01,-6.446105170488903857e-01,3.801537196123343278e+02
-2.272839615775334110e+00,-5.246201974661614642e+00,4.318310010400907117e+00,6.474901049022179222e-01,-5.096280515441141690e-01,-5.665984584612862029e-01,3.871722299609846232e+02
-2.900333568821125141e+00,-5.394478282875549091e+00,4.075020345446398018e+00,6.677980416002760045e-01,-5.667833553074203001e-01,-4.824939417020024934e-01,3.941907403096349185e+02
-3.534519801305904707e+00,-5.493537610714744446e+00,3.805425772475554247e+00,6.809253240275161545e-01,-6.178441858149628096e-01,-3.932013035970990389e-01,4.012092506582852138e+02
-3.556668929158539605e+00,-5.495354364011716619e+00,3.795086555220515301e+00,6.867308001842763465e-01,-6.622615110122732629e-01,-2.996806618844611303e-01,4.014541580934391050e+02
-4.139570384572731854e+00,-5.499295362883596994e+00,3.497072687880496744e+00,6.486634852139884222e-01,-7.075367902032384526e-01,-2.804021637386678867e-01,4.079308790662713591e+02
-4.763874637301976911e+00,-5.450721430214161778e+00,3.148354612888113024e+00,7.814373640603954341e-01,-5.614859889669286952e-01,-2.721895116339292375e-01,4.149493894149216544e+02
-5.374398968699715340e+00,-5.350342223543485431e+00,2.775728944956953104e+00,8.837138641594106669e-01,-3.935219572236756114e-01,-2.533540516246256535e-01,4.219678997635719497e+02
-5.447744632722177016e+00,-5.332264135407474903e+00,2.726833992404605223e+00,9.515014526023105601e-01,-2.101998027384405499e-01,-2.246308719284021704e-01,4.228373710671287995e+02
-6.017519248746813432e+00,-5.142575211280703940e+00,2.311635499388213333e+00,9.255076516694126232e-01,5.044098521007742142e-02,-3.753522261991593112e-01,4.298558814157790948e+02
-6.559227468304819730e+00,-4.907737744337250518e+00,1.878355155221065109e+00,8.149905845597144038e-01,3.064751421811661158e-01,-4.917939957993428535e-01,4.368743917644293902e+02
-6.863053646824895715e+00,-4.743357105341135416e+00,1.610519783300194963e+00,6.300433351998122600e-01,5.345200742634711455e-01,-5.633220091382460382e-01,4.410677709640517037e+02
-7.254796363090645350e+00,-4.483338848341853478e+00,1.227615190443069659e+00,5.432904186857695494e-01,6.531011426950894538e-01,-5.275342816953116909e-01,4.469065079916737773e+02
-7.682462522962883789e+00,-4.133183688019930635e+00,7.592043694796152264e-01,7.170111405592980436e-01,4.439549780754727948e-01,-5.373983641176051096e-01,4.539250183403240726e+02
-8.060893964430093206e+00,-3.745651119988304689e+00,2.878501530178435575e-01,8.376597906882009559e-01,2.019479920259950878e-01,-5.074850574956544236e-01,4.609435286889743679e+02
-8.384197677605317978e+00,-3.321326800128914236e+00,-1.807146325494397576e-01,8.963061765992237362e-01,-5.500686833373330531e-02,-4.400085024480878126e-01,4.679620390376246633e+02
-8.450044225956872879e+00,-3.207561138109853882e+00,-2.950983449363006605e-01,8.886093776734994565e-01,-3.078902465734007499e-01,-3.399631891482765012e-01,4.697030094220715455e+02
-8.654014783269188271e+00,-2.715641768663820788e+00,-7.453282877621357772e-01,8.148082555013064221e-01,-3.575558591486115989e-01,-4.563324603307085114e-01,4.767215197707218408e+02
-8.762694410020367641e+00,-2.298869810892056442e+00,-1.091007149742760696e+00,7.235253230071291286e-01,-3.995500624642076004e-01,-5.629110538512351880e-01,4.822949598108953637e+02
-8.827970565232853062e+00,-1.743519141946944018e+00,-1.507184648786452419e+00,5.475893538365237401e-01,-4.045792932560526856e-01,-7.324339526757301932e-01,4.893134701595456590e+02
-8.824865732088602144e+00,-1.525668644885910030e+00,-1.654439908340801013e+00,3.389530719186835683e-01,-3.854483094106548879e-01,-8.582181632940676375e-01,4.919358046918497962e+02
-8.739856091676678318e+00,-9.185393791349676373e-01,-2.025048134852549087e+00,3.638957872064483845e-01,-4.255868912645908719e-01,-8.285249869685358259e-01,4.989543150405000915e+02
-8.571900187963201745e+00,-2.931369108024364234e-01,-2.371659570554061958e+00,3.877049848251611919e-01,-4.643997879852530541e-01,-7.962510167372890413e-01,5.059728253891503869e+02
-8.316722274871859000e+00,3.436065634592841977e-01,-2.694077421300562492e+00,4.103065069775293505e-01,-5.017661100128054663e-01,-7.614967768602716180e-01,5.129913357378006822e+02
-8.082938483244342720e+00,7.833824295481073285e-01,-2.897041280928417173e+00,4.316299565033558938e-01,-5.375694723431301281e-01,-7.243705150317298891e-01,5.177964010943760513e+02
-7.663310283217347418e+00,1.425426261999156230e+00,-3.164328956109313307e+00,5.552444277582230248e-01,-6.374846885207434699e-01,-5.341487595653441334e-01,5.248149114430262898e+02
-7.177864260143204334e+00,2.059642571027241686e+00,-3.401570799990974781e+00,6.447402117453552295e-01,-6.982277211715203213e-01,-3.111046588309306360e-01,5.318334217916765283e+02
-6.823110187970037543e+00,2.469820168223201051e+00,-3.539518833601157599e+00,6.946180017409067098e-01,-7.160660523724863280e-01,-6.894374733721413129e-02,5.364701734136885989e+02
-6.245794969870558155e+00,3.070877277052703747e+00,-3.721693576465063824e+00,8.620342468308634931e-01,-4.903760401815218106e-01,1.281651142370501539e-01,5.434886837623388374e+02
-5.639185202859215984e+00,3.643842935498458946e+00,-3.879181342798041499e+00,9.278887887530139489e-01,-2.069117482675406905e-01,3.101740223424923060e-01,5.505071941109890759e+02
-5.016356147394030351e+00,4.181349842775829551e+00,-4.014419678245288559e+00,8.844229014222211305e-01,1.009301269556905772e-01,4.556393759469554161e-01,5.575257044596393143e+02
-4.551849249182224000e+00,4.548791965342931398e+00,-4.100185447980873477e+00,7.367575538388781986e-01,3.968808144635743718e-01,5.474229863393392792e-01,5.627246685012754597e+02
-3.930264991107998984e+00,4.996419395220579318e+00,-4.199326335642480146e+00,6.595663772690102400e-01,5.083768760266320630e-01,5.536453249990602732e-01,5.697431788499256982e+02
-3.742893827800035655e+00,5.118667254455369964e+00,-4.225618783530847189e+00,5.702203137118834197e-01,6.105042610471921316e-01,5.496647533440148781e-01,5.719118072143065774e+02
-3.158114728055381626e+00,5.458150040903070987e+00,-4.299115482800544008e+00,5.463704142054328639e-01,6.096467226400923423e-01,5.742893382638891708e-01,5.789303175629568159e+02
-2.600244153211238807e+00,5.733378285245641415e+00,-4.364277414835012969e+00,5.218780300143562867e-01,6.080722855281697203e-01,5.982385956701633534e-01,5.859488279116070544e+02
-2.077528116225884514e+00,5.939502654297350581e+00,-4.425342430171163244e+00,4.967719564976814106e-01,6.057828010140737796e-01,6.214843692494727012e-01,5.929673382602572929e+02
-1.914878302247038144e+00,5.985846187677544172e+00,-4.445949256340124833e+00,4.710817100574014038e-01,6.027809605332208331e-01,6.439993292357369947e-01,5.953434600765066307e+02
-1.481692425793020407e+00,6.051966111186368735e+00,-4.509807214665248587e+00,4.316296522256795609e-01,5.546268864709762436e-01,7.113950099057165799e-01,6.023619704251568692e+02
-1.100480047989123467e+00,6.044232137102428126e+00,-4.580306482047269867e+00,3.885443710051676991e-01,5.018042648146856521e-01,7.728025307733271676e-01,6.093804807738071077e+02
-7.767059088093720698e-01,5.964672545372586399e+00,-4.661315649589068855e+00,3.421885164831114379e-01,4.447577051106419432e-01,8.277050216876772337e-01,6.163797405699006049e+02
-5.122542077664190563e-01,5.816111754734656358e+00,-4.757144930083622825e+00,3.404401873869914441e-01,3.841208335806517993e-01,8.582247165016526624e-01,6.233982509185508434e+02
-3.109185290504938304e-01,5.602588689169666125e+00,-4.871390814630478516e+00,3.371219711485637927e-01,3.217126623766874416e-01,8.847868327617426365e-01,6.304167612672010819e+02
-2.138517210858091600e-01,5.409326939025290493e+00,-4.967569799534555131e+00,3.322491678436297891e-01,2.578209498962448221e-01,9.072688952314733601e-01,6.353740428898266828e+02
-1.397298162882429640e-01,5.080485824376095749e+00,-5.128140237545906643e+00,2.957667737383525286e-01,1.948253347977194627e-01,9.351807870512582888e-01,6.423925532384769213e+02
-1.264636788403036560e-01,4.701831355368641496e+00,-5.314474741529812363e+00,2.574865709805500558e-01,1.306454894554486823e-01,9.574081793290607489e-01,6.494110635871271597e+02
-1.695109312942082724e-01,4.279518525216093217e+00,-5.527588767358951216e+00,2.176412368933301200e-01,6.567151553111713613e-02,9.738159703187347915e-01,6.564295739357773982e+02
-1.705256527627432850e-01,4.274438149201484016e+00,-5.530237545326234461e+00,1.764729609370034036e-01,2.983410493799427705e-04,9.843044270177817578e-01,6.565067645609104829e+02
-3.091597535676476882e-01,3.776066957461916562e+00,-5.799055070892017660e+00,9.967937653220779182e-02,-1.613360476236417318e-01,9.818516698725942016e-01,6.635252749095607214e+02
-4.925961323163496330e-01,3.246492128375774833e+00,-6.095659219427839837e+00,1.969317682211862985e-02,-3.178029713185495098e-01,9.479511855618786287e-01,6.705437852582109599e+02
-7.133203787306643395e-01,2.691149908790357426e+00,-6.420041515824014944e+00,-6.092376876044720141e-02,-4.640909726045097106e-01,8.836887820649654834e-01,6.775622956068611984e+02
-9.640161028844871360e-01,2.114973317792875562e+00,-6.771157136619510908e+00,-1.395893908471017852e-01,-5.955146133485339499e-01,7.911227131435496496e-01,6.845808059555114369e+02
-1.032285901201752676e+00,1.965302458013628684e+00,-6.865639214872666152e+00,-2.137841170440759886e-01,-7.078645368152965967e-01,6.732177573557134309e-01,6.863459153387550487e+02
-1.320537015524819502e+00,1.353632503389953667e+00,-7.263299572621772171e+00,-1.647199382358543740e-01,-4.773600532367989202e-01,8.631296087621087576e-01,6.933644256874052871e+02
-1.624077536211597339e+00,7.301124416674751316e-01,-7.679385019315694727e+00,-1.005663883644194873e-01,-2.031264361126646212e-01,9.739733325322750268e-01,7.003829360360555256e+02
-1.723789287649515556e+00,5.261109411565447758e-01,-7.817973573897052830e+00,-2.720031570872727747e-02,8.971487913711767570e-02,9.955949895851057274e-01,7.026406468746947667e+02
-2.037230019443748041e+00,-1.164284821465083331e-01,-8.258704696142117996e+00,-3.058727502651158447e-01,-2.471650433850616502e-01,9.194287911384069201e-01,7.096591572233450051e+02
-2.311274524896881122e+00,-6.751134138804272267e-01,-8.641508502398156821e+00,-5.243041383038886671e-01,-5.353662934942696738e-01,6.621828315108404528e-01,7.157224089935780285e+02
-2.629782230724255765e+00,-1.322570680443075908e+00,-9.077445711557789565e+00,-6.392554201126757762e-01,-4.290219527082675399e-01,6.381932872958653302e-01,7.227409193422282669e+02
-2.948993175167315073e+00,-1.966528993033290984e+00,-9.494433825458955312e+00,-7.381623677699399311e-01,-3.119098260799420541e-01,5.981860740617813699e-01,7.297594296908785054e+02
-3.212479952979299558e+00,-2.492933902437115989e+00,-9.813326978414210089e+00,-8.185426013744722118e-01,-1.869691954958469515e-01,5.431652876137874619e-01,7.355654455436230137e+02
-3.530687431942063803e+00,-3.116002304431981340e+00,-1.015484930708897870e+01,-6.775394059479539210e-01,-2.659303229436021931e-02,7.350041931998231304e-01,7.425839558922732522e+02
-3.850306039832854132e+00,-3.718672005879091635e+00,-1.043905032122932575e+01,-4.807037604712592338e-01,1.359745141495666554e-01,8.662752600477848786e-01,7.496024662409234907e+02
-4.171907872059439804e+00,-4.293934265895899216e+00,-1.065204027941533305e+01,-2.442558532596474929e-01,2.873371138514707601e-01,9.261611421087502238e-01,7.566209765895737291e+02
-4.495730631972076452e+00,-4.834697424173898916e+00,-1.078042938877604051e+01,1.231989822127781305e-02,4.150217779159297571e-01,9.097269612161397179e-01,7.636394869382239676e+02
-4.775014547694680367e+00,-5.263847065847969020e+00,-1.080779440214809028e+01,2.678804459811148786e-01,5.085066858332346618e-01,8.183269622369919727e-01,7.696673601813268988e+02
-5.101037777008604834e+00,-5.715679407853152760e+00,-1.073207453363210462e+01,1.213469371152532117e-01,4.436253024602594408e-01,8.879580574928714887e-01,7.766858705299771373e+02
-5.311937426463731349e+00,-5.973759837796270844e+00,-1.060656663068765937e+01,-2.889133611816246602e-02,3.651999346105063715e-01,9.304796066835212542e-01,7.812348674731907749e+02
-5.635568184661344127e+00,-6.313260338581393682e+00,-1.029143359401439817e+01,2.265985407363690918e-02,6.150583871922238322e-01,7.881546240160633987e-01,7.882533778218410134e+02
-5.956802068750529422e+00,-6.589576320821274535e+00,-9.862562388971836569e+00,7.227716724945988658e-02,8.124256683377566457e-01,5.785659379193716090e-01,7.952718881704912519e+02
-6.273084016179933720e+00,-6.800014919124321544e+00,-9.333121503801571350e+00,1.157261052597928913e-01,9.404578485187992110e-01,3.196005377357113986e-01,8.022903985191414904e+02
-6.573177048401912081e+00,-6.938413573942312951e+00,-8.733138993352790536e+00,1.492985982078804397e-01,9.882282542678556547e-01,3.335934711399632380e-02,8.091169046551120800e+02
-6.871153738201587480e+00,-7.010308486535498318e+00,-8.041929299537047271e+00,3.599237981299558409e-01,9.280286359328875356e-01,9.599849180310789099e-02,8.161354150037623185e+02
-7.156051452172942362e+00,-7.009757735450709681e+00,-7.289665502383343210e+00,5.518650486129347277e-01,8.196543984037849562e-01,1.536542719783294542e-01,8.231539253524125570e+02
-7.425890154101699281e+00,-6.935248052029343135e+00,-6.490032662877965208e+00,7.151585688896660020e-01,6.687313440258600972e-01,2.033337425553803923e-01,8.301724357010627955e+02
-7.678166723770127433e+00,-6.786030625879237554e+00,-5.656602979341966986e+00,8.413277046884660715e-01,4.830939909877752236e-01,2.424580153256713777e-01,8.371909460497130340e+02
-7.682689835420938529e+00,-6.781714038295974412e+00,-5.639923590292809763e+00,9.238229421737591540e-01,2.723788822960110378e-01,2.689961263531565616e-01,8.373275260892681899e+02
-7.892378982839360013e+00,-6.487867735822540283e+00,-4.765643635591363392e+00,9.037178406312553758e-01,3.079377048928292893e-01,-2.974330755494681289e-01,8.443460364379184284e+02
-7.985880874368246118e+00,-6.301092225997783736e+00,-4.315028567549010319e+00,5.921534910075058056e-01,2.441831273106155054e-01,-7.679367444163814893e-01,8.479258966730147904e+02
-8.138261053128042377e+00,-5.863747760633188477e+00,-3.432171783826229561e+00,8.692011351621741211e-01,1.959335516816684553e-01,-4.539795479522425459e-01,8.549444070216650289e+02
-8.252162321803664824e+00,-5.356519672985747604e+00,-2.561418440245402550e+00,9.918326758434907742e-01,1.128758276251830700e-01,-5.937163184423990131e-02,8.619629173703152674e+02
-8.300135537507655314e+00,-4.975884483722172291e+00,-1.999749817436260901e+00,9.382623131201548450e-01,9.765385267696458441e-03,3.457838472653136930e-01,8.666128459480917172e+02
-8.333354553743456350e+00,-4.336251993992225273e+00,-1.181436035299518350e+00,9.872160658130637589e-01,-1.043145398762726078e-01,1.205027641640699226e-01,8.736313562967419557e+02
-8.331740555736212528e+00,-3.633601214140301572e+00,-3.975283766168169475e-01,9.708532451710544242e-01,-2.114927465800254536e-01,-1.127510287539108813e-01,8.806498666453921942e+02
-8.300350488541846872e+00,-2.875516273212676222e+00,3.424334762919395425e-01,8.902564471007795577e-01,-3.046781075214268775e-01,-3.385449884320825831e-01,8.876247268566925186e+02
-8.241610903192222892e+00,-2.056378803782993980e+00,1.043822086605958877e+00,8.698675942269815664e-01,-4.424506902621436200e-01,-2.180957477798017297e-01,8.946432372053427571e+02
-8.157581439463001516e+00,-1.185314122807784143e+00,1.698622433192010561e+00,8.199858287441650351e-01,-5.652219208733014755e-01,-9.025198514376041314e-02,9.016617475539929956e+02
-8.095338228803720781e+00,-6.428108437152386667e-01,2.056309951304454930e+00,7.423023780298321217e-01,-6.688292837469984597e-01,4.065179913248154198e-02,9.058064787510287488e+02
-7.968157720275597988e+00,3.171218270082321600e-01,2.612038385836509935e+00,7.451295418980540264e-01,-6.642563396133216447e-01,5.952714565058485341e-02,9.128249890996789873e+02
-7.815150699053459604e+00,1.309306806762364328e+00,3.117752314543160708e+00,7.476696933661618472e-01,-6.594275351132712348e-01,7.837956080064717446e-02,9.198434994483292257e+02
-7.635275853796937184e+00,2.324096939686385088e+00,3.573433678306097150e+00,7.499218541675323202e-01,-6.543447302041526248e-01,9.720178337457745232e-02,9.268620097969794642e+02
-7.427795908213510323e+00,3.351822410808313446e+00,3.979071237520340087e+00,7.518851569408566693e-01,-6.490098826563218681e-01,1.159865637982973319e-01,9.338805201456297027e+02
-7.192277810275965244e+00,4.382798250490044012e+00,4.334660571506392834e+00,7.535588455621564652e-01,-6.434250472980431734e-01,1.347266669218677160e-01,9.408990304942799412e+02
-6.928592849474369153e+00,5.407331841783480364e+00,4.640204077219922674e+00,7.549422754355854526e-01,-6.375923752244316844e-01,1.534148748041374577e-01,9.479175408429301797e+02
-6.636916702083294872e+00,6.415730429335826379e+00,4.895710967259994106e+00,7.560349137413715503e-01,-6.315141129694110678e-01,1.720439894907657696e-01,9.549360511915804182e+02
-6.317729404439494267e+00,7.398308628482369365e+00,5.101197267180414663e+00,7.568363396408107624e-01,-6.251926016409997677e-01,1.906068357845558947e-01,9.619545615402306566e+02
-5.971815254233566961e+00,8.345395933169564628e+00,5.256685812106240085e+00,7.573462444382313974e-01,-6.186302760202599949e-01,2.090962640070420375e-01,9.689730718888808951e+02
-5.600262639828955891e+00,9.247344221345954907e+00,5.362206242655436661e+00,7.575644316998674244e-01,-6.118296636242508413e-01,2.275051527502716386e-01,9.759915822375311336e+02
-5.204463797628218202e+00,1.009453525646145700e+01,5.417795000165809505e+00,7.574908173295955560e-01,-6.047933837333466789e-01,2.458264116177328873e-01,9.830100925861813721e+02
-4.786114497512180321e+00,1.087738818372238470e+01,5.423495321227951749e+00,7.571254296015070828e-01,-5.975241463832887678e-01,2.640529839533775625e-01,9.900286029348316106e+02
-4.403929083322057458e+00,1.149634829929643409e+01,5.385021575052898690e+00,7.564684091493002471e-01,-5.900247513223588758e-01,2.821778495576971468e-01,9.961494440131456258e+02
-3.947991630396711749e+00,1.212408775252282034e+01,5.291141660735637409e+00,7.231000150542445937e-01,-6.768179268970238027e-01,1.379922536238653297e-01,1.003167954361795864e+03
-3.476207893472819332e+00,1.266023239741679340e+01,5.147535836700838807e+00,6.684464153581451962e-01,-7.436882538817780608e-01,-1.025528322247265707e-02,1.010186464710446103e+03
-2.991444717461703817e+00,1.309541917008216139e+01,4.954274018923010559e+00,5.941163963855901065e-01,-7.886673374895736277e-01,-1.582009428662299044e-01,1.017204975059096341e+03
-2.496869910735190601e+00,1.342035879249619335e+01,4.711432882037961178e+00,5.022979382094537870e-01,-8.104311725879623785e-01,-3.014897938058003213e-01,1.024223485407746693e+03
-1.996375457727282088e+00,1.362922972631926299e+01,4.420474269105245213e+00,3.956938098784270608e-01,-8.083391167067740524e-01,-4.359039816592531480e-01,1.031241995756397046e+03
-1.494851447723443361e+00,1.372308977075243064e+01,4.085623412325263715e+00,2.774420117438376465e-01,-7.824527482646169707e-01,-5.574868849160459217e-01,1.038260506105047398e+03
-9.975371591673558580e-01,1.370651902260437538e+01,3.712489937900454340e+00,1.510234064409146371e-01,-7.335340548427011775e-01,-6.626595816055531607e-01,1.045279016453697750e+03
-5.617064197567438466e-01,1.359763346622275826e+01,3.350101918914068833e+00,2.015925715418695127e-02,-6.630230046023302126e-01,-7.483261987393270420e-01,1.051544555969296880e+03
-8.734037230060656687e-02,1.337486101367889191e+01,2.916675108568743013e+00,-6.753959764731458197e-03,-5.681784358309057703e-01,-8.228764482499215660e-01,1.058563066317947232e+03
3.683703176488324904e-01,1.305570092531256599e+01,2.461310308121467560e+00,-3.356398815232475297e-02,-4.646534909568135752e-01,-8.848551248883944620e-01,1.065581576666597584e+03
8.016065080463210535e-01,1.264508818988440808e+01,1.990454353352071548e+00,-5.986123737172713288e-02,-3.540297776095399640e-01,-9.333153533647866595e-01,1.072600087015247937e+03
1.209938713899725293e+00,1.214813476957386840e+01,1.511107067920601121e+00,-8.524395105687612717e-02,-2.379973521388876190e-01,-9.675167849621354454e-01,1.079618597363898289e+03
1.591273793082421451e+00,1.157061308398261446e+01,1.029542517867616080e+00,-1.093243446201794533e-01,-1.183289008781249763e-01,-9.869369072492203410e-01,1.086637107712548641e+03
1.943411938115294557e+00,1.091871787098297020e+01,5.513970422357999945e-01,-1.317345293235010761e-01,3.147340681462600098e-03,-9.912790263244434241e-01,1.093655618061198993e+03
2.072605042000955855e+00,1.063231060383545490e+01,3.642774786142944365e-01,-1.521321324544831488e-01,1.245755172899031815e-01,-9.804767997085948039e-01,1.096450310686425610e+03
2.367855575776418142e+00,9.850089758884926994e+00,-9.349552430988138096e-02,-2.842627150854271645e-01,-7.959122057118269214e-03,-9.587123453823162000e-01,1.103468821035075962e+03
2.628789438359636854e+00,9.008764231362713204e+00,-5.343363198050025131e-01,-4.063026566189540945e-01,-1.402112614312069072e-01,-9.029158063696381964e-01,1.110487331383726314e+03
2.853847347110027410e+00,8.114691789824926005e+00,-9.526137190377622632e-01,-5.139198108296251233e-01,-2.674862516568306536e-01,-8.150678089650509328e-01,1.117505841732376666e+03
3.041804229318225694e+00,7.174967221377157145e+00,-1.344377194970068468e+00,-6.032940004393295697e-01,-3.852661121893885543e-01,-6.982867404096165798e-01,1.124524352081027018e+03
3.191945601285702150e+00,6.198113273284367786e+00,-1.709035002335569375e+00,-6.712526296098155765e-01,-4.893699125617891887e-01,-5.567180578359102183e-01,1.131542862429677371e+03
3.303969043940533368e+00,5.193362999358162924e+00,-2.047676674322052470e+00,-7.153833093506317686e-01,-5.761021909425765308e-01,-3.953871347086438393e-01,1.138561372778327723e+03
3.377854544472361553e+00,4.169947605492286158e+00,-2.361395289730900515e+00,-7.341194961658769058e-01,-6.423841396818782412e-01,-2.200208681780581321e-01,1.145579883126978075e+03
3.413864380971798784e+00,3.137089508550908068e+00,-2.651287322090086995e+00,-7.267961025953532106e-01,-6.858628994515562072e-01,-3.684438095237028282e-02,1.152598393475628427e+03
3.412542940827376636e+00,2.103995398166017772e+00,-2.918452488418751933e+00,-6.936731050259352660e-01,-7.049950811801254380e-01,1.476399636798016446e-01,1.159616903824278779e+03
3.374716472897319353e+00,1.079849302696083813e+00,-3.163993597657849488e+00,-6.359263111440970340e-01,-6.991015506826149251e-01,3.268833868949714283e-01,1.166635414172929131e+03
3.326513564235274778e+00,3.939087231167877623e-01,-3.317249799906907715e+00,-5.556056160066868976e-01,-6.683915319215453232e-01,4.945231637827790516e-01,1.171416650261072618e+03
3.223988224928301172e+00,-5.880886467534682804e-01,-3.522579884004088946e+00,-5.162667269749706689e-01,-6.946319301897462273e-01,5.009522414047875571e-01,1.178435160609722971e+03
3.088528836129627475e+00,-1.537177514506562925e+00,-3.709387630237718447e+00,-4.757520791896364676e-01,-7.192903371641108379e-01,5.062404270681675200e-01,1.185453670958373323e+03
2.978757490048024259e+00,-2.143879782072681817e+00,-3.822538332396600236e+00,-4.341539246472858604e-01,-7.423106057037773819e-01,5.103756796338476676e-01,1.190133528200938372e+03
2.786250253498350204e+00,-3.009037102604151137e+00,-3.976485579007055904e+00,-3.846523416406180673e-01,-7.514149921728785486e-01,5.361120084401064245e-01,1.197152038549588724e+03
2.671947981180004206e+00,-3.436419995973439168e+00,-4.049556057418675969e+00,-3.339215404451367220e-01,-7.581181105621991323e-01,5.601351044608099405e-01,1.200828234387649445e+03
2.429447928671731649e+00,-4.199992877375092526e+00,-4.175780069531213279e+00,-2.543982394676404524e-01,-6.685773704497361969e-01,6.987730929821678316e-01,1.207846744736299797e+03
2.298406242557814672e+00,-4.550521890322978713e+00,-4.232065681461798512e+00,-1.663368079104547703e-01,-5.565977948587155222e-01,8.139588202665141159e-01,1.211313378967863855e+03
2.012106785934766329e+00,-5.206310788866587380e+00,-4.334437692649284024e+00,-6.523221368768693518e-01,-1.915581872666348995e-01,7.333343648241952284e-01,1.218331889316514207e+03
1.809874999203685997e+00,-5.604976433677461678e+00,-4.394518708095604076e+00,-8.930756456410217092e-01,2.454952696227454545e-01,3.770224976786923365e-01,1.222970356361650374e+03
1.546754619042343570e+00,-6.058387374552849813e+00,-4.458818343362306535e+00,-8.689497356198000455e-01,4.506692634085472937e-01,2.045032321988393131e-01,1.228714490883405915e+03
1.212986014518185218e+00,-6.566693872485215522e+00,-4.522884109882793879e+00,-8.165121014016599732e-01,5.564253155684574237e-01,1.539378330962842267e-01,1.235733001232056267e+03
8.722945838897760984e-01,-7.034532222286261849e+00,-4.569670728502595480e+00,-7.506094342392087837e-01,6.530053660491603740e-01,1.008338690197572440e-01,1.242751511580706619e+03
5.311618699698955615e-01,-7.468214978510209434e+00,-4.596255437975442781e+00,-6.723285294808020174e-01,7.388167389128962315e-01,4.606706793094586527e-02,1.249770021929356972e+03
1.958585576205216505e-01,-7.874257303187762069e+00,-4.599718215217804662e+00,-5.829603027554286498e-01,8.124443394701957866e-01,-9.459422472325337145e-03,1.256788532278007324e+03
-1.701183846067305661e-02,-8.128031147438816717e+00,-4.585440551681592147e+00,-4.839785036580848687e-01,8.726739875692149928e-01,-6.482992685537561361e-02,1.261412351612740167e+03
-1.200759826134819575e-01,-8.252789523342860534e+00,-4.569551641140018994e+00,-5.627253979443879173e-01,8.256352918663298901e-01,-4.079817783311464469e-02,1.263778699238164108e+03
-4.075743195832523535e-01,-8.609550227582186466e+00,-4.498249963302638932e+00,-4.587727471731889439e-01,8.488495895648425771e-01,2.626403258209344949e-01,1.270797209586814461e+03
-6.771930707832517493e-01,-8.954673641242756332e+00,-4.405987647325640744e+00,-3.073737514344299648e-01,7.842757140578132669e-01,5.389164882139522161e-01,1.277815719935464813e+03
-9.272051054122458780e-01,-9.291912124482925250e+00,-4.297107693183555455e+00,-1.241861119601159746e-01,6.385919146094131138e-01,7.594578172566818219e-01,1.284834230284115165e+03
-1.075716896250298316e+00,-9.509233974387408139e+00,-4.217953163284336782e+00,7.184489708055667723e-02,4.268648078335969820e-01,9.014559038561379412e-01,1.289407388658835544e+03
-1.280802286125242606e+00,-9.841955576889905188e+00,-4.087353703134679606e+00,-1.378658235624771466e-01,7.635061782134520136e-01,6.309115076806044442e-01,1.296425899007485896e+03
-1.378142208127462798e+00,-1.002071745702568784e+01,-4.014355063813347613e+00,-3.157983628154084621e-01,9.241588140016497865e-01,2.149415747275256472e-01,1.300178890579697281e+03
-1.537630955035107050e+00,-1.035862008563106507e+01,-3.874926695911761421e+00,-4.040910687068956508e-01,8.788124052349075566e-01,2.537659642077014777e-01,1.307197400928347633e+03
-1.564863825730521185e+00,-1.042715101453421589e+01,-3.847056569870187737e+00,-4.877935961765739736e-01,8.234833463438107071e-01,2.897077593313682198e-01,1.308597515293951574e+03
-1.680470557460661096e+00,-1.077704762654042270e+01,-3.708173424720333511e+00,-3.466981809280220705e-01,8.974457910802171590e-01,2.727442454249192072e-01,1.315616025642601926e+03
-1.782425598547733081e+00,-1.113203753159567810e+01,-3.569840756360774137e+00,-1.967043802154700982e-01,9.483742306590033921e-01,2.487804361777234685e-01,1.322634535991252278e+03
-1.809469182673315579e+00,-1.123869737854181494e+01,-3.528881068527311538e+00,-4.166189751278799591e-02,9.749615471023934665e-01,2.184313804509207535e-01,1.324714947361491113e+03
-1.894073638926346614e+00,-1.160201369229510604e+01,-3.389642452484437296e+00,9.688860534908114164e-02,8.938284803121753219e-01,4.378141682684363878e-01,1.331733457710141465e+03
-1.979455405520992528e+00,-1.196576731467906995e+01,-3.246961266828314319e+00,2.282782710379813174e-01,7.466345652785727482e-01,6.248390648025905492e-01,1.338751968058791817e+03
-2.022040779648196729e+00,-1.213739397712575574e+01,-3.176508418874210538e+00,3.427964272170253568e-01,5.442585140430262758e-01,7.656835373564605529e-01,1.342083702606275665e+03
-2.119937496404174393e+00,-1.249334737300053888e+01,-3.020623120974422982e+00,5.317128408240149318e-01,4.952580594952909476e-01,6.870217677832215486e-01,1.349102212954926017e+03
-2.231749104826888264e+00,-1.283866506752054804e+01,-2.855355382661390440e+00,6.970859217015282772e-01,4.243284793894075979e-01,5.779399271074034949e-01,1.356120723303576369e+03
-2.362002601280240199e+00,-1.316786912756113992e+01,-2.678572534134369576e+00,8.315932902246961911e-01,3.346104023780012704e-01,4.432679531321130906e-01,1.363139233652226721e+03
-2.507634367834086220e+00,-1.346323215905339410e+01,-2.496200214124939976e+00,9.292792224436152715e-01,2.300763619568570173e-01,2.889688467694354612e-01,1.369872217111204918e+03
-2.681812997706943591e+00,-1.374517280231970240e+01,-2.291589603366228189e+00,9.388687383619006566e-01,1.879778518594168724e-01,2.884229868041838785e-01,1.376890727459855270e+03
-2.814607486684866267e+00,-1.391667102796403199e+01,-2.142183099766637344e+00,9.467076910152173452e-01,1.455288498487086191e-01,2.873393492264377236e-01,1.381659299153875736e+03
-3.029332044027874815e+00,-1.413636680562704129e+01,-1.906353878127601265e+00,8.645923694394688219e-01,3.387382115631964452e-01,3.711259337937939384e-01,1.388677809502526088e+03
-3.258996821633111107e+00,-1.432037980606597571e+01,-1.654076844698120885e+00,7.383023672126892700e-01,5.146403908522453330e-01,4.359505507185542084e-01,1.395696319851176440e+03
-3.497119589096428616e+00,-1.446667346949772792e+01,-1.385074472791318678e+00,5.742901940434692598e-01,6.642480348885584363e-01,4.785011193008281705e-01,1.402714830199826793e+03
-3.590719865346500672e+00,-1.450888800535773981e+01,-1.273803407176264946e+00,3.809356848998441958e-01,7.799172268768672645e-01,4.966035875727249360e-01,1.405450117634733260e+03
-3.827550243076427883e+00,-1.457843076612064159e+01,-9.726105430621855286e-01,1.499269873094544459e-01,9.033287966631088350e-01,4.018917560680978496e-01,1.412468627983383612e+03
-4.054535215362204070e+00,-1.460738138633222150e+01,-6.571672891790510951e-01,-9.271091124361073577e-02,9.566728355888948210e-01,2.760068343043473593e-01,1.419487138332033965e+03
-4.263212505508648498e+00,-1.459524248852327943e+01,-3.291944485990413449e-01,-3.281576195696570553e-01,9.358116762906356634e-01,1.287131820613656996e-01,1.426505648680684317e+03
-4.388012270864690478e+00,-1.455931585882762747e+01,-9.788980045807060826e-02,-5.381505228048624190e-01,8.423634001179675090e-01,-2.856425994414695663e-02,1.431299089696804913e+03
-4.538430330248107936e+00,-1.446742596374440204e+01,2.492084214561511857e-01,-5.495382263167887249e-01,8.293800873104655302e-01,-1.006697997763864594e-01,1.438317600045455265e+03
-4.649995244808694750e+00,-1.433778167871671094e+01,6.018541579694003385e-01,-5.579048600088288845e-01,8.118372915917433374e-01,-1.722218893094009939e-01,1.445336110394105617e+03
-4.715715134989857837e+00,-1.417271214896535980e+01,9.569210588058745248e-01,-5.632044317590305660e-01,7.898314554639088714e-01,-2.428271813547391578e-01,1.452354620742755969e+03
-4.728664921328634030e+00,-1.397616004885007079e+01,1.311984249568290073e+00,-5.654078093053229725e-01,7.634835547891429819e-01,-3.120975340195231151e-01,1.459373131091406322e+03
-4.683375949256638471e+00,-1.375453381110820317e+01,1.665889983571012145e+00,-5.645028802911961074e-01,7.329384337969964136e-01,-3.796521439476686632e-01,1.466391641440056674e+03
-4.639664323886520947e+00,-1.365434839979220527e+01,1.812253309377289900e+00,-5.604946188170146781e-01,6.983640089840195131e-01,-4.451196392327314566e-01,1.469308409524450553e+03
-4.473674795101499235e+00,-1.339854015124237208e+01,2.162127172801024511e+00,-5.525183734534510060e-01,6.989869158427235440e-01,-4.540250415963366648e-01,1.476326919873100906e+03
-4.322192486692636670e+00,-1.322220005854366498e+01,2.392600959966682872e+00,-5.444629442228947624e-01,6.995096474162036948e-01,-4.628653750917799958e-01,1.480989963168976146e+03
-4.032640835560528103e+00,-1.295163960025703709e+01,2.735423431770872327e+00,-4.170112460449303948e-01,6.146678785716435112e-01,-6.695394086420365376e-01,1.488008473517626499e+03
-3.683974611971891910e+00,-1.267952555002807635e+01,3.072205608976466884e+00,-2.619716000125597577e-01,4.891619214061537213e-01,-8.319191640018157585e-01,1.495026983866276851e+03
-3.280475297466271201e+00,-1.240811997658330057e+01,3.400547539800365282e+00,-8.960085496329966981e-02,3.312947822906791018e-01,-9.392621859827596786e-01,1.502045494214927203e+03
-2.826460104217610958e+00,-1.213954173887663934e+01,3.718050411129627975e+00,8.869757300050280791e-02,1.515103679498426836e-01,-9.844670380199260773e-01,1.509064004563577555e+03
-2.326579223729345447e+00,-1.187587534586770666e+01,4.022561019895367629e+00,2.611281050417197935e-01,-3.829743945728401183e-02,-9.645431140640965406e-01,1.516082514912227907e+03
-1.948570486659603196e+00,-1.169534391780365645e+01,4.225451538496579396e+00,4.162833531777517249e-01,-2.255716369562504042e-01,-8.808084959104655054e-01,1.520992770319711099e+03
-1.372603641799455820e+00,-1.144476335435061642e+01,4.499744437317386492e+00,2.805693341307398669e-01,-2.432582190107319964e-01,-9.284957122291651599e-01,1.528011280668361451e+03
-7.656407971056414796e-01,-1.120483271994261543e+01,4.756975209338961008e+00,1.389619268212432812e-01,-2.558351056983396155e-01,-9.566796650840597716e-01,1.535029791017011803e+03
-1.333801289954148761e-01,-1.097731211218322578e+01,4.995730944269253015e+00,-5.564405187539561704e-03,-2.630381214684463509e-01,-9.647683577149733791e-01,1.542048301365662155e+03
-2.763982130962604894e-02,-1.094188726443245407e+01,5.031324812502941057e+00,-1.499738883755029617e-01,-2.647159652073556857e-01,-9.525918803812675195e-01,1.543187414487395245e+03
6.396787170786948362e-01,-1.073394913565354258e+01,5.230800930097843526e+00,-7.155898807675949158e-02,-2.391035223636824580e-01,-9.683526304074361324e-01,1.550205924836045597e+03
1.319476946162497555e+00,-1.054243977019413592e+01,5.410489154235389897e+00,7.360617190429159275e-03,-2.118046165232161104e-01,-9.772832883727005093e-01,1.557224435184695949e+03
2.005604888727272161e+00,-1.036915524341484129e+01,5.570718288104905547e+00,8.622829094049888621e-02,-1.830117936578422866e-01,-9.793208693897453854e-01,1.564242945533346301e+03
2.691860169384011403e+00,-1.021569012206172467e+01,5.711819767662384528e+00,1.644877638937660702e-01,-1.529281358533348401e-01,-9.744510048187907669e-01,1.571261455881996653e+03
3.371990496638446633e+00,-1.008343619779849121e+01,5.834127615609077999e+00,2.415870567584512685e-01,-1.217658291458648401e-01,-9.627080434159841493e-01,1.578279966230647005e+03
3.741939801655462805e+00,-1.002113391453626612e+01,5.891686965202305615e+00,3.169823727455179929e-01,-8.974466719358598077e-02,-9.441748090673558469e-01,1.582168065685727697e+03
4.036308136377845912e+00,-9.978021361519596510e+00,5.930402104101744953e+00,3.420232312537476171e-01,-5.229537621689837879e-02,-9.382341407493589580e-01,1.585342279374474174e+03
4.667553713742536026e+00,-9.901550286099979559e+00,5.996899031365361843e+00,4.424982430801788769e-01,-1.219760726849729998e-01,-8.884340957906201597e-01,1.592360789723124526e+03
5.275549787952352965e+00,-9.845330135390220505e+00,6.042792785061367411e+00,5.352601851982363712e-01,-1.895306305919341461e-01,-8.231480269119654247e-01,1.599379300071774878e+03
5.855433307906897866e+00,-9.807497364062124134e+00,6.066479852590271449e+00,6.186921627765799014e-01,-2.537815335335909528e-01,-7.435139144335267680e-01,1.606397810420425230e+03
6.402381534148817721e+00,-9.785402649086773152e+00,6.065770681263829900e+00,6.913399059603589913e-01,-3.136088493838685709e-01,-6.509198291762526845e-01,1.613416320769075583e+03
6.911637356217060102e+00,-9.774983186336314134e+00,6.037300932062557024e+00,7.519371170345188204e-01,-3.679697501233073487e-01,-5.469797391309996204e-01,1.620434831117725935e+03
7.043733067738018327e+00,-9.773388981105227913e+00,6.020527186180758328e+00,7.994275418817143875e-01,-4.159166880451262149e-01,-4.335053793046640402e-01,1.622419288190083535e+03
7.465942975438274232e+00,-9.769181777134333444e+00,5.927816543950245709e+00,7.469453033839283940e-01,-5.505087086177217204e-01,-3.728416225262022321e-01,1.629437798538733887e+03
7.840079926783666053e+00,-9.764840450523889714e+00,5.798337492709557672e+00,6.761259165806537963e-01,-6.715859752931910842e-01,-3.030247889476285761e-01,1.636456308887384239e+03
8.162825589627830780e+00,-9.754995833861496379e+00,5.628348348039465598e+00,5.887079513884483362e-01,-7.761761276648894148e-01,-2.257688349048067311e-01,1.643474819236034591e+03
8.264381015008130049e+00,-9.746848255381166837e+00,5.548184102726230194e+00,4.868374512290873923e-01,-8.617115402232080612e-01,-1.429703379224163684e-01,1.646117232088457740e+03
8.481680192998304335e+00,-9.709876135830684873e+00,5.291600683660836246e+00,2.623556966768291199e-01,-9.414875868335962350e-01,-2.115859453264399004e-01,1.653135742437108092e+03
8.648295600670699912e+00,-9.655265937857995695e+00,4.991368133996636480e+00,2.174840481093463437e-02,-9.633955702097556362e-01,-2.671965235341476341e-01,1.660154252785758445e+03
8.766308639005018222e+00,-9.577919794382992791e+00,4.648927707747659177e+00,-2.201956112472265858e-01,-9.260889466423112282e-01,-3.063840003898063435e-01,1.667172763134408797e+03
8.839841023750407700e+00,-9.470319044248379114e+00,4.268344844876964750e+00,-4.486053932877390182e-01,-8.318607696783186789e-01,-3.267397450325358332e-01,1.674191273483059149e+03
8.873752188888593295e+00,-9.324171528134446163e+00,3.855287708632237909e+00,-6.494418717799040897e-01,-6.865027373545755651e-01,-3.270126095188582438e-01,1.681209783831709501e+03
8.873098252596692603e+00,-9.298267505866011362e+00,3.795247558494343032e+00,-8.103607605551246262e-01,-4.989492017864769480e-01,-3.071858261538195078e-01,1.682166101446910034e+03
8.831164910235209220e+00,-9.061063215201938803e+00,3.330636274457126067e+00,-7.073707338713783876e-01,-6.732959299345919746e-01,-2.151679241810503795e-01,1.689184611795560386e+03
8.756426050341072909e+00,-8.772562979549601181e+00,2.846939413241092787e+00,-5.693863049191865144e-01,-8.143339377440951266e-01,-1.125054381323850744e-01,1.696203122144210738e+03
8.651502209953802591e+00,-8.427741676381328872e+00,2.350530009537039611e+00,-4.032337111145085085e-01,-9.150859412594822828e-01,-4.277187246047716059e-03,1.703221632492861090e+03
8.519067072691564491e+00,-8.023321730473700342e+00,1.847329086357626826e+00,-2.171326866812064438e-01,-9.705676353944544532e-01,1.041626684564395666e-01,1.710240142841511442e+03
8.422618620035382975e+00,-7.742726947250194947e+00,1.541437093967880978e+00,-2.028983446394881651e-02,-9.780342676182461892e-01,2.074494974257924118e-01,1.714488048499634942e+03
8.238428700656443837e+00,-7.221348627031201062e+00,1.037488272657699273e+00,1.266085866450665336e-02,-9.831422952933843717e-01,1.823977243770643353e-01,1.721506558848285295e+03
8.033520056498263173e+00,-6.643359181944925140e+00,5.390837385412219351e-01,4.558952101232736226e-02,-9.865402102947496976e-01,1.570286885904802199e-01,1.728525069196935647e+03
7.810193306463514951e+00,-6.010749873966791945e+00,5.078354659850237152e-02,7.843887894335457855e-02,-9.882221035154318267e-01,1.313865152468636499e-01,1.735543579545585999e+03
7.570667269010144196e+00,-5.325572470519801094e+00,-4.228536308681473121e-01,1.111517968013125690e-01,-9.881850500145340499e-01,1.055158044591096994e-01,1.742562089894236351e+03
7.317296111464584030e+00,-4.590736264176038972e+00,-8.780990990652789430e-01,1.436713762118939919e-01,-9.864291140913805656e-01,7.946155375511201879e-02,1.749580600242886703e+03
7.091166952671605905e+00,-3.927016473244722583e+00,-1.248198488572463960e+00,1.759410549728800677e-01,-9.829573491760886794e-01,5.326907987192475852e-02,1.755554245541648470e+03
6.815733294067340076e+00,-3.107235143887062456e+00,-1.661475847108943471e+00,2.571165766671356431e-03,-9.999367418135765018e-01,-1.085824460663960440e-02,1.762572755890298822e+03
6.534101574304321147e+00,-2.252457827329391815e+00,-2.051999468362621037e+00,-1.708874750025215494e-01,-9.824604820271889416e-01,-7.461147458143024824e-02,1.769591266238949174e+03
6.248636808490276806e+00,-1.368273287557736584e+00,-2.418535701859471310e+00,-3.384578820467674110e-01,-9.311306571613333638e-01,-1.357938193386533099e-01,1.776609776587599526e+03
5.961512282879025904e+00,-4.603382292090829053e-01,-2.759854164029446721e+00,-4.943659052384675179e-01,-8.477158693724203831e-01,-1.922970528806713930e-01,1.783628286936249879e+03
5.674708794403131584e+00,4.656274985101956920e-01,-3.074727904556390445e+00,-6.332391990907837442e-01,-7.350903294603416960e-01,-2.421741610131475653e-01,1.790646797284900231e+03
5.390013936858773391e+00,1.403845712057171458e+00,-3.361933572375688684e+00,-7.502923642895330536e-01,-5.971348458562448780e-01,-2.837064397331109378e-01,1.797665307633550583e+03
5.109021433831693493e+00,2.348484717053521464e+00,-3.620251581303651989e+00,-8.414918751950373199e-01,-4.386031118585753674e-01,-3.154627303524114024e-01,1.804683817982200935e+03
4.833130518447564583e+00,3.293664144171630781e+00,-3.848466275282530269e+00,-9.036951004497149054e-01,-2.649578949397012329e-01,-3.363487465788151387e-01,1.811702328330851287e+03
