-1.268889866803157496e+01,4.580972916286771834e+00,-1.305759641278298133e+00,9.989210365525024171e-01,-0.000000000000000000e+00,-4.641942180788471289e-02,1.314531358377111019e+02
-1.267740675966853559e+01,4.701151635710351329e+00,-1.468074538942700791e+00,9.991844785365551207e-01,-0.000000000000000000e+00,-4.035316393775680716e-02,1.331360692849411862e+02
-1.265815222692744157e+01,4.818054512864700101e+00,-1.621898581154594510e+00,9.994110816183233714e-01,-0.000000000000000000e+00,-3.428541857249064323e-02,1.348190027321712705e+02
-1.263343957697495945e+01,4.923020184889330686e+00,-1.756239724640683786e+00,9.996008374497724613e-01,-0.000000000000000000e+00,-2.821640937372703675e-02,1.363766605072500795e+02
-1.260211928409253801e+01,5.024557917829159948e+00,-1.882381535035440034e+00,9.997537390401762813e-01,-0.000000000000000000e+00,-2.214636004958371249e-02,1.379343182823288885e+02
-1.256446041919739187e+01,5.122477391778601508e+00,-2.000160224134077680e+00,9.998697807563714512e-01,-0.000000000000000000e+00,-1.607549434643133421e-02,1.394919760574076975e+02
-1.252073323160511187e+01,5.216590217776256644e+00,-2.109412059976274012e+00,9.999489583229651535e-01,-0.000000000000000000e+00,-1.000403604066820405e-02,1.410496338324865064e+02
-1.247120914379759782e+01,5.306709944125751477e+00,-2.209973367946384659e+00,9.999912688224904533e-01,-0.000000000000000000e+00,-3.932208930493848176e-03,1.426072916075653154e+02
-1.241616074617777343e+01,5.392652062694403448e+00,-2.301680531873302904e+00,9.999967106955138796e-01,-0.000000000000000000e+00,2.139763172318224615e-03,1.441649493826441244e+02
-1.235585712947043469e+01,5.474279124159534327e+00,-2.384422381094236432e+00,9.999652837406918238e-01,-0.000000000000000000e+00,8.211656450648171027e-03,1.457226071577229334e+02
-1.229055877583482648e+01,5.551545806951127204e+00,-2.458192577165762227e+00,9.998969891147793110e-01,-0.000000000000000000e+00,1.428324709025767698e-02,1.472802649328017424e+02
-1.222052155417030583e+01,5.624453742191142247e+00,-2.523037227941296035e+00,9.997918293325872563e-01,-0.000000000000000000e+00,2.035431128801783521e-02,1.488379227078805513e+02
-1.214600115687007609e+01,5.693006381384992487e+00,-2.579002501295956762e+00,9.996498082668912044e-01,-0.000000000000000000e+00,2.642462526013642649e-02,1.503955804829593603e+02
-1.206725309491748099e+01,5.757208995325707512e+00,-2.626134624815461560e+00,9.994709311482899983e-01,-0.000000000000000000e+00,3.249396525038473343e-02,1.519532382580381693e+02
-1.198453269298495982e+01,5.817068672977170785e+00,-2.664479885484568378e+00,9.905117858573002643e-01,2.954403714291476898e-02,1.342071233122127116e-01,1.535108960331169783e+02
-1.189612532057728700e+01,5.873856381717794228e+00,-2.694759573365003824e+00,9.703611437209275214e-01,5.875426022465297243e-02,2.344038985658476182e-01,1.551040573606738917e+02
-1.180418059608514447e+01,5.926215280864290058e+00,-2.716147856383643422e+00,9.392466846360342236e-01,8.730063310077144922e-02,3.319522026758049416e-01,1.566972186882308051e+02
-1.170896500004479179e+01,5.974158541963032754e+00,-2.728693339416438768e+00,8.975199630704039366e-01,1.148606204948527804e-01,4.257498722848651052e-01,1.582903800157877185e+02
-1.161074479247066016e+01,6.017701276873516747e+00,-2.732444689542592897e+00,8.456524358718334744e-01,1.411228320033859063e-01,5.147371212495861492e-01,1.598835413433446320e+02
-1.150978600750537062e+01,6.056860536432228770e+00,-2.727450635701999637e+00,7.842301355936485141e-01,1.657905401802285961e-01,5.979085140842100854e-01,1.614767026709015454e+02
-1.140635444807038468e+01,6.091655309095599158e+00,-2.713759968352562613e+00,7.139470495086546187e-01,1.885850329739618692e-01,6.743243254079290816e-01,1.630698639984584588e+02
-1.130071568052045272e+01,6.122106519558774274e+00,-2.691421539127073714e+00,6.355972790764422564e-01,2.092487626604653816e-01,7.431211571179329178e-01,1.646630253260153722e+02
-1.119307517373443694e+01,6.148323951330093351e+00,-2.660562763140793319e+00,7.176267192335986644e-01,-1.301816341526952914e-01,6.841510315511203366e-01,1.662561866535722856e+02
-1.108351756822137091e+01,6.170592569073893863e+00,-2.621468120746220265e+00,7.096517237864258254e-01,-4.532847960160571454e-01,5.393749388211590556e-01,1.678493479811291991e+02
-1.097206522351057423e+01,6.189284687017162057e+00,-2.574500652880211682e+00,6.126724126783270608e-01,-7.195372563965276580e-01,3.269505335681262559e-01,1.694425093086861125e+02
-1.085873763789792612e+01,6.204772730480777376e+00,-2.520023455858278805e+00,4.388518011075971947e-01,-8.955455941290098032e-01,7.351996667995257251e-02,1.710356706362430259e+02
-1.074354798963792312e+01,6.217460239565689939e+00,-2.458413672243410897e+00,4.432482475439981084e-01,-8.938739423383719185e-01,6.721879392332770486e-02,1.726288319637999393e+02
-1.062649936780352711e+01,6.227812837750289710e+00,-2.390076481616087101e+00,4.476172887239613374e-01,-8.921470240847018118e-01,6.091346526929023592e-02,1.742219932913568528e+02
-1.050758776532171446e+01,6.236327141176818856e+00,-2.315431104299650045e+00,4.519586545208246209e-01,-8.903649461418333688e-01,5.460437056212278512e-02,1.758151546189137662e+02
-1.038680538255592722e+01,6.243499700503260641e+00,-2.234896804987003716e+00,4.562720765192703753e-01,-8.885278186943855738e-01,4.829189987892827662e-02,1.774083159464706796e+02
-1.026847642143000172e+01,6.249606797605840924e+00,-2.151930318071952453e+00,4.605572880316936013e-01,-8.866357553304885508e-01,4.197644350547583697e-02,1.789451473100430405e+02
-1.014831452687188573e+01,6.255375946462100600e+00,-2.064078079094606721e+00,4.648140241146891394e-01,-8.846888730347595153e-01,3.565839191207208908e-02,1.804819786736154015e+02
-1.002630202829160311e+01,6.261268899453924064e+00,-1.971730324803130152e+00,4.690420215854302910e-01,-8.826872921810696715e-01,2.933813572942066406e-02,1.820188100371877624e+02
-9.902417851890135125e+00,6.267747274681819469e+00,-1.875277321366198402e+00,4.732410190379393033e-01,-8.806311365250998335e-01,2.301606572447215115e-02,1.835556414007601234e+02
-9.776637521032572664e+00,6.275272537445532706e+00,-1.775109361817916120e+00,4.774107568592471096e-01,-8.785205331966886577e-01,1.669257277626532213e-02,1.850924727643324843e+02
-9.648933156660504551e+00,6.284305981726237000e+00,-1.671616763502580483e+00,4.815509772454432125e-01,-8.763556126919717082e-01,1.036804785176183991e-02,1.866293041279048452e+02
-9.519273477743588785e+00,6.295308711670470458e+00,-1.565189865519122536e+00,4.856614242176128249e-01,-8.741365088653116899e-01,4.042881981675203705e-03,1.881661354914772062e+02
-9.387623801770491383e+00,6.308741623075983185e+00,-1.456219026165281649e+00,4.897418436376622108e-01,-8.718633589210226242e-01,-2.282533763703975711e-03,1.897029668550495671e+02
-9.253946045279260346e+00,6.325065384879605013e+00,-1.345094620382009110e+00,4.937919832240287854e-01,-8.695363034048857465e-01,-8.607808298685258597e-03,1.912397982186219281e+02
-9.118198724426967772e+00,6.344740420647362988e+00,-1.232207037198074451e+00,4.978115925672779718e-01,-8.671554861954596793e-01,-1.493255054635648192e-02,1.927766295821942890e+02
-8.980336955598186677e+00,6.368226890067808732e+00,-1.117946677174553427e+00,5.018004231455831521e-01,-8.647210544951834388e-01,-2.125636946276135766e-02,1.943134609457666500e+02
-8.840312456052243917e+00,6.395984670448710219e+00,-1.002703949849173881e+00,5.057582283400897660e-01,-8.622331588212754916e-01,-2.757887406107501632e-02,1.958502923093390109e+02
-8.698109913635942547e+00,6.428445032482822619e+00,-8.868164716366366829e-01,5.096847634501608937e-01,-8.596919529964272000e-01,-3.389967343577589970e-02,1.973871236729113718e+02
-8.553783629902664387e+00,6.465982667430225206e+00,-7.705162640747292846e-01,5.135797857085054874e-01,-8.570975941392909858e-01,-4.021837678681280254e-02,1.989239550364837328e+02
-8.407421560696176854e+00,6.508944503248280888e+00,-6.539825518499321477e-01,5.174430542961854229e-01,-8.544502426547673224e-01,-4.653459344376509321e-02,2.004607864000560937e+02
-8.259109082076633968e+00,6.557678171447211213e+00,-5.373945611688379920e-01,5.212743303575038123e-01,-8.517500622240854469e-01,-5.284793288999523053e-02,2.019976177636284547e+02
-8.084541334076595476e+00,6.621403125895930941e+00,-4.020319935274239143e-01,5.250733770147704149e-01,-8.489972197946844545e-01,-5.915800478679121566e-02,2.037839543238071371e+02
-7.907890776941266964e+00,6.692611449047530137e+00,-2.670565551298889617e-01,5.288399593829467005e-01,-8.461918855698902231e-01,-6.546441899749899651e-02,2.055702908839858196e+02
-7.729261542066911517e+00,6.771775678877644644e+00,-1.327104704343994857e-01,5.325738445841650126e-01,-8.433342329983923857e-01,-7.176678561164105685e-02,2.073566274441645021e+02
-7.548807115441001692e+00,6.859293746111100099e+00,7.972299168145917945e-04,5.362748017621260521e-01,-8.404244387635209090e-01,-7.806471496902211982e-02,2.091429640043431846e+02
-7.366784602078631394e+00,6.955413932243523334e+00,1.333238991850044242e-01,5.399426020963711270e-01,-8.374626827723211653e-01,-8.435781768381898915e-02,2.109293005645218670e+02
-7.203657540981488694e+00,7.048813946595318569e+00,2.503149349794959733e-01,5.435770188164261718e-01,-8.344491481444319403e-01,-9.064570466865294607e-02,2.125192776248340465e+02
-7.039684487437961380e+00,7.150242439586689258e+00,3.662487641436830144e-01,5.471778272158226430e-01,-8.313840212007630459e-01,-9.692798715864445191e-02,2.141092546851462259e+02
-6.875107594063543104e+00,7.259842275264269063e+00,4.810387419218410954e-01,5.507448046659884078e-01,-8.282674914519757570e-01,-1.032042767354475754e-01,2.156992317454584054e+02
-6.710167918617558236e+00,7.377758248023375209e+00,5.945982315757983860e-01,5.542777306300099571e-01,-8.250997515867665166e-01,-1.094741853512626734e-01,2.172892088057705848e+02
-6.545105418363265315e+00,7.504137076436569131e+00,7.068406049908562139e-01,5.577763866762673883e-01,-8.218809974599534662e-01,-1.157373253528265894e-01,2.188791858660827643e+02
-6.380158944441410185e+00,7.639127397057584368e+00,8.176792432817108214e-01,5.612405564919370482e-01,-8.186114280803673537e-01,-1.219933095053784278e-01,2.204691629263949437e+02
-6.215566236257775934e+00,7.782879758200584419e+00,9.270275373986471834e-01,5.646700258963651686e-01,-8.152912455985490414e-01,-1.282417510165990426e-01,2.220591399867071232e+02
-6.051533853542014896e+00,7.935479003846680257e+00,1.034815315683033976e+00,5.680645828543074982e-01,-8.119206552942493937e-01,-1.344822635605236461e-01,2.236491170470193026e+02
-5.888207783330440037e+00,8.096876358409986096e+00,1.141005271308034530e+00,5.714240174890384827e-01,-8.084998655637398723e-01,-1.407144613014252310e-01,2.252390941073314821e+02
-5.725704510163325267e+00,8.266956586146232411e+00,1.245576535591434109e+00,5.747481220953256642e-01,-8.050290879069273986e-01,-1.469379589176680878e-01,2.268290711676436615e+02
-5.564141412538660347e+00,8.445605455134387540e+00,1.348508251192734875e+00,5.780366911522701878e-01,-8.015085369142789240e-01,-1.531523716255288325e-01,2.284190482279558410e+02
-5.403636759850653171e+00,8.632709742322754565e+00,1.449779572259308313e+00,5.812895213360125268e-01,-7.979384302535544871e-01,-1.593573152029849893e-01,2.300090252882680204e+02
-5.244621287831531475e+00,8.827776371612449324e+00,1.549175283745493736e+00,5.845064115323022058e-01,-7.943189886563499780e-01,-1.655524060134681841e-01,2.315958987753729446e+02
-5.086901975371649343e+00,9.031060337606358956e+00,1.646872317512497519e+00,5.876871628489307442e-01,-7.906504359044507213e-01,-1.717372610295818669e-01,2.331827722624778687e+02
-4.930599270804847833e+00,9.242451905460246309e+00,1.742849944867264300e+00,5.908315786280278203e-01,-7.869329988159970979e-01,-1.779114978567804539e-01,2.347696457495827929e+02
-4.775834495885646014e+00,9.461842363210394069e+00,1.837087449126637795e+00,5.939394644582185467e-01,-7.831669072314608737e-01,-1.840747347570099723e-01,2.363565192366877170e+02
-4.622729842703277470e+00,9.689124026712468307e+00,1.929564125767273319e+00,5.970106281866428555e-01,-7.793523939994360106e-01,-1.902265906723082378e-01,2.379433927237926412e+02
-4.471408370589540660e+00,9.924190244566121422e+00,2.020259282579138560e+00,6.000448799308341075e-01,-7.754896949622440694e-01,-1.963666852483623992e-01,2.395302662108975653e+02
-4.321911719492060655e+00,1.016686049907140266e+01,2.109137397197629937e+00,6.030420320904582576e-01,-7.715790489413529851e-01,-2.024946388580234069e-01,2.411171396980024895e+02
-4.174118569375062648e+00,1.041680468834476692e+01,2.196133274763540477e+00,6.060018993589121328e-01,-7.676206977226123218e-01,-2.086100726247755999e-01,2.427040131851074136e+02
-4.027857758963581780e+00,1.067362607052028167e+01,2.281186913079325862e+00,6.089242987347788238e-01,-7.636148860413062289e-01,-2.147126084461597195e-01,2.442908866722123378e+02
-3.883054095384318671e+00,1.093695740630331414e+01,2.364307803869555524e+00,6.118090495331414136e-01,-7.595618615670226559e-01,-2.208018690171476839e-01,2.458777601593172619e+02
-3.746223293384983499e+00,1.119431042155623857e+01,2.441913312070677744e+00,6.146559733967537076e-01,-7.554618748883420443e-01,-2.268774778534690673e-01,2.473929803015676043e+02
-3.610903206388809128e+00,1.145729046258308337e+01,2.517865566338025385e+00,6.174648943070665252e-01,-7.513151794973454978e-01,-2.329390593148861766e-01,2.489082004438179467e+02
-3.477150964226501273e+00,1.172560485707424682e+01,2.592272036235583332e+00,6.202356385951097728e-01,-7.471220317739433181e-01,-2.389862386284165308e-01,2.504234205860682891e+02
-3.345025842513388081e+00,1.199896142071326288e+01,2.665240201265436593e+00,6.229680349522288552e-01,-7.428826909700254610e-01,-2.450186419115028547e-01,2.519386407283186315e+02
-3.214487832974503245e+00,1.227697906344641687e+01,2.736869683965952760e+00,6.256619144406756483e-01,-7.385974191934331357e-01,-2.510358961951272283e-01,2.534538608705689740e+02
-3.085297065135354178e+00,1.255909743237325671e+01,2.807244382968965279e+00,6.283171105040532556e-01,-7.342664813917562094e-01,-2.570376294468687539e-01,2.549690810128193164e+02
-2.947996849023602817e+00,1.286531283502206158e+01,2.881393201109186730e+00,6.309334589776124380e-01,-7.298901453359525338e-01,-2.630234705939040740e-01,2.565934096239146811e+02
-2.811939647035113232e+00,1.317490033462007837e+01,2.954241309075206434e+00,6.335107980984014953e-01,-7.254686816037947406e-01,-2.689930495459477156e-01,2.582177382350100743e+02
-2.677364203255344854e+00,1.348757114556148906e+01,3.025752318863887957e+00,6.360489685152665995e-01,-7.210023635631427341e-01,-2.749459972181320100e-01,2.598420668461054674e+02
-2.544511531045194008e+00,1.380303836831801156e+01,3.095889852456473523e+00,6.385478132987038036e-01,-7.164914673550427660e-01,-2.808819455538252852e-01,2.614663954572008606e+02
-2.413624907442798229e+00,1.412101700244898872e+01,3.164617542179814169e+00,6.410071779505611689e-01,-7.119362718766575338e-01,-2.868005275473858862e-01,2.630907240682962538e+02
-2.284949867613285335e+00,1.444122395961317551e+01,3.231899031073234507e+00,6.434269104135902362e-01,-7.073370587640233076e-01,-2.927013772668514147e-01,2.647150526793916470e+02
-2.158633205676654399e+00,1.476333989901902832e+01,3.297686549548411339e+00,6.458068610808473942e-01,-7.026941123746393014e-01,-2.985841298765623542e-01,2.663393812904870401e+02
-2.034622364421160068e+00,1.508697003324962438e+01,3.361909492336722760e+00,6.481468828049428144e-01,-6.980077197698887348e-01,-3.044484216597162507e-01,2.679637099015824333e+02
-1.912767010410993951e+00,1.541168077698114480e+01,3.424485843441772648e+00,6.504468309071387289e-01,-6.932781706972915847e-01,-3.102938900408548362e-01,2.695880385126778265e+02
-1.792920224385050387e+00,1.573703742837943587e+01,3.485333601988102270e+00,6.527065631862932760e-01,-6.885057575725929135e-01,-3.161201736082790426e-01,2.712123671237732196e+02
-1.674939867884309042e+00,1.606260051740733630e+01,3.544396047733058719e+00,6.549259399276529114e-01,-6.836907754616855515e-01,-3.219269121363926289e-01,2.728366957348686128e+02
-1.564328002163561271e+00,1.637224290719291275e+01,3.598904107108208184e+00,6.571048239114902767e-01,-6.788335220623681332e-01,-3.277137466079727002e-01,2.743826603265579251e+02
-1.455300583026750250e+00,1.668126635785059975e+01,3.651725016125821455e+00,6.592430804215880791e-01,-6.739342976859417078e-01,-3.334803192363652302e-01,2.759286249182472375e+02
-1.347741832643980509e+00,1.698926028228215657e+01,3.702876102812727055e+00,6.613405772535678739e-01,-6.689934052386443675e-01,-3.392262734876047570e-01,2.774745895099365498e+02
-1.241539025630316706e+00,1.729581325168240724e+01,3.752374707174190860e+00,6.633971847230641927e-01,-6.640111502029255597e-01,-3.449512541024565282e-01,2.790205541016258621e+02
-1.136582491298828046e+00,1.760051301235309040e+01,3.800238180456477988e+00,6.654127756737429067e-01,-6.589878406185598614e-01,-3.506549071183797661e-01,2.805665186933151745e+02
-1.032765615914166712e+00,1.790294650244599950e+01,3.846483884883814763e+00,6.673872254851621610e-01,-6.539237870636056549e-01,-3.563368798914113289e-01,2.821124832850044868e+02
-9.299848449218471869e-01,1.820269986871261381e+01,3.891129193490179716e+00,6.693204120804780999e-01,-6.488193026352029324e-01,-3.619968211179670492e-01,2.836584478766937991e+02
-8.281396851381683799e-01,1.849935848326242649e+01,3.934191489975563449e+00,6.712122159339931615e-01,-6.436747029302192225e-01,-3.676343808565609717e-01,2.852044124683831114e+02
-7.271327069019215550e-01,1.879250696033029655e+01,3.975688168571399839e+00,6.730625200785447237e-01,-6.384903060257383078e-01,-3.732492105494402135e-01,2.867503770600724238e+02
-6.268695461931442781e-01,1.908172917305273941e+01,4.015636633911264575e+00,6.748712101127388729e-01,-6.332664324593964000e-01,-3.788409630441338383e-01,2.882963416517617361e+02
-5.272589067183525158e-01,1.936660827025317033e+01,4.054054300905492347e+00,6.766381742080227468e-01,-6.280034052095669894e-01,-3.844092926149157430e-01,2.898423062434510484e+02
-4.282125619590164689e-01,1.964672669323585197e+01,4.090958594618160582e+00,6.783633031155992255e-01,-6.227015496753939283e-01,-3.899538549841785606e-01,2.913882708351403608e+02
-3.296453571835530338e-01,1.992166619258851412e+01,4.126366950145449408e+00,6.800464901731821943e-01,-6.173611936566744118e-01,-3.954743073437188006e-01,2.929342354268296731e+02
-2.314752114240673508e-01,2.019100784499347512e+01,4.160296812495151819e+00,6.816876313115909358e-01,-6.119826673335955203e-01,-4.009703083759303954e-01,2.944802000185189854e+02
-1.275034149634753089e-01,2.047069200866983962e+01,4.194785023248315703e+00,6.832866250611855374e-01,-6.065663032463211035e-01,-4.064415182749067101e-01,2.961223233005255224e+02
-2.372005374759112231e-02,2.074348648627048419e+01,4.227740105917407121e+00,6.848433725581409837e-01,-6.011124362744345584e-01,-4.118875987674492367e-01,2.977644465825320594e+02
7.995671703964868371e-02,2.100891614144237352e+01,4.259181769173042476e+00,6.863577775505600442e-01,-5.956214036162361669e-01,-4.173082131339806988e-01,2.994065698645385964e+02
1.836050489172965372e-01,2.126650511348134387e+01,4.289129732977958298e+00,6.878297464044248466e-01,-5.900935447678977708e-01,-4.227030262293634544e-01,3.010486931465451335e+02
2.872993978263296277e-01,2.151577683878629799e+01,4.317603728436838040e+00,6.892591881093865780e-01,-5.845292015024741161e-01,-4.280717045036195323e-01,3.026908164285516705e+02
3.911711729001049465e-01,2.175626821832505442e+01,4.344603257415417197e+00,6.906460142843936501e-01,-5.789287178487748653e-01,-4.334139160225520815e-01,3.043329397105582075e+02
4.954695315141531831e-01,2.198754315942018067e+01,4.370087352311136542e+00,6.919901391831561055e-01,-5.732924400700962764e-01,-4.387293304882682321e-01,3.059750629925647445e+02
6.005009431994373648e-01,2.220917751168620669e+01,4.393994816588653762e+00,6.932914796994485984e-01,-5.676207166428152151e-01,-4.440176192595990945e-01,3.076171862745712815e+02
7.065686048496205851e-01,2.242074462745528152e+01,4.416264465466804623e+00,6.945499553722487285e-01,-5.619138982348454991e-01,-4.492784553724188945e-01,3.092593095565778185e+02
8.139724332292548326e-01,2.262181538077540566e+01,4.436835126374634619e+00,6.957654883907129495e-01,-5.561723376839599053e-01,-4.545115135598593037e-01,3.109014328385843555e+02
9.150803891694476722e-01,2.279820701438082153e+01,4.454284732140091130e+00,6.969380035989888311e-01,-5.503963899759773959e-01,-4.597164702724195751e-01,3.124246130759309494e+02
1.017903988936881499e+00,2.296411722273449385e+01,4.470050190748917629e+00,6.980674285008617863e-01,-5.445864122228171178e-01,-4.648930036979703750e-01,3.139477933132775433e+02
1.122693105218306453e+00,2.311917090486237925e+01,4.484078907610456355e+00,6.991536932642387070e-01,-5.387427636404220621e-01,-4.700407937816503678e-01,3.154709735506241373e+02
1.229686919333907058e+00,2.326302014156669884e+01,4.496282996395991383e+00,5.618597596102833380e-01,-7.206387311171049692e-01,-4.061913708394350175e-01,3.169941537879707312e+02
1.339106143112061664e+00,2.339537338719421200e+01,4.506503976718466475e+00,3.930946453746740343e-01,-8.621697894741167101e-01,-3.195901342281930457e-01,3.185173340253173251e+02
1.451161482328043206e+00,2.351596649595513355e+01,4.514548078032149192e+00,2.023113150430844720e-01,-9.554084732309692241e-01,-2.150878450404656861e-01,3.200405142626639190e+02
1.572519153858822794e+00,2.363060413045309360e+01,4.520536308926519808e+00,1.959998565720688407e-04,-9.951322717863907430e-01,-9.853792789233938032e-02,3.216490862012672096e+02
1.697126215907412972e+00,2.373223319250714169e+01,4.523800818922787847e+00,9.801328661629822537e-05,-9.966246017717520500e-01,-8.208162693105003349e-02,3.232576581398705002e+02
1.825178229380628236e+00,2.382059572849741969e+01,4.524115801945866266e+00,0.000000000000000000e+00,-9.978448058863881309e-01,-6.560292149346162727e-02,3.248662300784737909e+02
1.956857858977479214e+00,2.389544624339260537e+01,4.521252222503251872e+00,0.000000000000000000e+00,-9.989916258751529998e-01,-4.487461851602457530e-02,3.264748020170770815e+02
2.092346030138231505e+00,2.395653767624990138e+01,4.514981067860497355e+00,0.000000000000000000e+00,-9.997079018917766069e-01,-2.412697349823087964e-02,3.280833739556803721e+02
2.231821924248756250e+00,2.400362141001635763e+01,4.505073349683889283e+00,-7.028464398720848938e-02,-9.872969519068931499e-01,-1.424878857162604762e-01,3.296919458942836627e+02
2.375462973866269145e+00,2.403644728135146735e+01,4.491300105683051491e+00,-1.392266088088648102e-01,-9.560253715262170271e-01,-2.581267913231911071e-01,3.313005178328869533e+02
2.523359800161143252e+00,2.405480944097929807e+01,4.473460520241387073e+00,-2.055088797010050927e-01,-9.064905562961085295e-01,-3.688346129515763239e-01,3.329090897714902439e+02
2.675431613070237802e+00,2.405859307255573043e+01,4.451410044844656966e+00,-2.678652513097419252e-01,-8.396387850087163596e-01,-4.724964739032315730e-01,3.345176617100935346e+02
2.831511961509102893e+00,2.404772983664363650e+01,4.425032280130125173e+00,-3.251045153081247863e-01,-7.567471428239292974e-01,-5.671320974474645116e-01,3.361262336486968252e+02
2.991434024293452065e+00,2.402215245239900199e+01,4.394210857733806819e+00,-3.761332154413898343e-01,-6.593991257350709789e-01,-6.509336350370118485e-01,3.377348055873001158e+02
3.155030612762409703e+00,2.398179469955943688e+01,4.358829441125478432e+00,-4.199765354728962063e-01,-5.494543922601956565e-01,-7.223002010791266247e-01,3.393433775259034064e+02
3.319328705668514345e+00,2.392752424161085401e+01,4.319445296053925354e+00,-4.372909068089733120e-01,-5.630778105770900543e-01,-7.012260990989679366e-01,3.409249258207854041e+02
3.486914975511936632e+00,2.385860602644740780e+01,4.275351272785640866e+00,-4.541988126230428469e-01,-5.761778442363524322e-01,-6.795002063448682961e-01,3.425064741156674017e+02
3.657626771798102361e+00,2.377497909213700567e+01,4.226435004923284389e+00,-4.706845372037499198e-01,-5.887423169589274252e-01,-6.571427171162741443e-01,3.440880224105493994e+02
3.831301104686426928e+00,2.367658349212296898e+01,4.172584159471351306e+00,-4.867327572564017490e-01,-6.007595502625531214e-01,-6.341744127460704483e-01,3.456695707054313971e+02
4.007774647460738748e+00,2.356336029702895729e+01,4.113686437615712066e+00,-5.023285561430741453e-01,-6.122183743141187406e-01,-6.106166422849641506e-01,3.472511190003133947e+02
4.186883739003391725e+00,2.343525159645303191e+01,4.049629575502983414e+00,-5.174574377450474882e-01,-6.231081383096870319e-01,-5.864913026589502199e-01,3.488326672951953924e+02
4.368440534935714936e+00,2.329222343496745395e+01,3.980339085468789673e+00,-5.321053399344514157e-01,-6.334187203722195791e-01,-5.618208183178444726e-01,3.504142155900773901e+02
4.552209386414301839e+00,2.313428898464503547e+01,3.905815997004077555e+00,-5.462586476426202209e-01,-6.431405369578201414e-01,-5.366281203937854904e-01,3.519957638849593877e+02
4.737931036266274987e+00,2.296148596589029012e+01,3.826099116299606973e+00,-5.599042055130306617e-01,-6.522645517617757793e-01,-5.109366253890598175e-01,3.535773121798413854e+02
4.925346588388983982e+00,2.277385382988102691e+01,3.741227285528511359e+00,-5.730293301270816819e-01,-6.607822841161283822e-01,-4.847702134130384422e-01,3.551588604747233830e+02
5.114197512211714702e+00,2.257143375648002959e+01,3.651239382577747605e+00,-5.856218217913722324e-01,-6.686858168709894912e-01,-4.581532059884305674e-01,3.567404087696053807e+02
5.298185851884421815e+00,2.236119642298949373e+01,3.559202278046865064e+00,-5.976699758755368297e-01,-6.759678037522849348e-01,-4.311103434474591323e-01,3.582715807443294693e+02
5.483094746485519977e+00,2.213674719995514195e+01,3.462286621955042776e+00,-6.091625936901148286e-01,-6.826214761890989635e-01,-4.036667619389394668e-01,3.598027527190535579e+02
5.668682928145888589e+00,2.189812937653059066e+01,3.360528942687064369e+00,-6.200889928943602580e-01,-6.886406496042837277e-01,-3.758479700676076729e-01,3.613339246937776466e+02
5.854709476523893841e+00,2.164538780287255193e+01,3.253965800072387005e+00,-6.304390174243256206e-01,-6.940197291624921050e-01,-3.476798251873799428e-01,3.628650966685017352e+02
6.040933822704637635e+00,2.137856888822330248e+01,3.142633785148526204e+00,-6.402030469320055817e-01,-6.987537149702967021e-01,-3.191885093705482124e-01,3.643962686432258238e+02
6.227122982745942004e+00,2.109777596331761274e+01,3.026624957712830355e+00,-6.493720057267734491e-01,-7.028382067235640074e-01,-2.904005050752166417e-01,3.659274406179499124e+02
6.413059323616103313e+00,2.080322457245618395e+01,2.906142283513730717e+00,-6.579373712108059769e-01,-7.062694077977638152e-01,-2.613425705335644667e-01,3.674586125926740010e+02
6.598534135781982890e+00,2.049518699828359303e+01,2.781444195143793152e+00,-6.658911818006597594e-01,-7.090441287774126300e-01,-2.320417148837779775e-01,3.689897845673980896e+02
6.787287275692003519e+00,2.016704849918611231e+01,2.650034123265701425e+00,-6.823726703202522836e-01,-6.931119538550555292e-01,-2.322958419727697565e-01,3.705537608425730127e+02
6.975120773491879866e+00,1.982568669281251772e+01,2.514851814007031283e+00,-6.984955448862056882e-01,-6.768155216967108867e-01,-2.324278884706637016e-01,3.721177371177479358e+02
7.161823089303669398e+00,1.947138991084008453e+01,2.376166982461700439e+00,-7.142513392199832944e-01,-6.601633892587224217e-01,-2.324377849633105508e-01,3.736817133929228589e+02
7.347184786217801467e+00,1.910444786701230413e+01,2.234249367453454926e+00,-5.802688502450394914e-01,-5.239782579949956443e-01,6.234844397287715445e-01,3.752456896680977820e+02
7.530998533788406668e+00,1.872515164551883160e+01,2.089368729707760330e+00,-0.000000000000000000e+00,1.519999199372465241e-02,9.998834733324591939e-01,3.768096659432727051e+02
7.713059111503529408e+00,1.833379368936077469e+01,1.941794850023635055e+00,-4.582316338148124252e-02,2.873393986254753341e-02,9.985352264178093407e-01,3.783736422184476282e+02
7.893163412230658871e+00,1.793066778870095490e+01,1.791797527445372351e+00,-9.154162482987177052e-02,4.220223563090136354e-02,9.949055745300647846e-01,3.799376184936225513e+02
8.071110445637522446e+00,1.751606906919919737e+01,1.639646577434260344e+00,-1.370509291050917289e-01,5.557410763115939317e-02,9.890028116200323405e-01,3.815015947687974744e+02
8.246722234467737778e+00,1.709032143447063135e+01,1.485607339478732136e+00,-1.822470989887650938e-01,6.881900454388993615e-02,9.808404251068684188e-01,3.830655710439723975e+02
8.419864980544174315e+00,1.665380480291408460e+01,1.329936184734876958e+00,-2.270268728412890014e-01,8.190666519820075098e-02,9.704370650403990606e-01,3.846295473191473206e+02
8.590428579144962384e+00,1.620692733166435318e+01,1.172885004850825696e+00,-2.712879405210174566e-01,9.480718770830842690e-02,9.578165014693907908e-01,3.861935235943222438e+02
8.758305862807084452e+00,1.575009784399735580e+01,1.014705700821489698e+00,-3.149291771267089812e-01,1.074910977884240004e-01,9.430075701133220356e-01,3.877574998694971669e+02
8.923392602902318060e+00,1.528372581313516321e+01,8.556501812817802755e-01,-3.578508740294167323e-01,1.199294160899439798e-01,9.260441064621813823e-01,3.893214761446720900e+02
9.085587511178395914e+00,1.480822134604444251e+01,6.959703607998500852e-01,-3.999549666662449710e-01,1.320937244071853089e-01,9.069648684552219509e-01,3.908854524198470131e+02
9.238860702490214294e+00,1.434213726717990056e+01,5.419101713538178045e-01,-4.411452585758445788e-01,1.439562306005002790e-01,8.858134479156530849e-01,3.923908549736837585e+02
9.389227639608822784e+00,1.386806032209945450e+01,3.877250172351316415e-01,-4.813276411641427277e-01,1.554898320885507723e-01,8.626381709438840639e-01,3.938962575275205040e+02
9.536602525380873274e+00,1.338637190185087356e+01,2.336482852575363645e-01,-5.204103086985949478e-01,1.666681777647966434e-01,8.374919874971097355e-01,3.954016600813572495e+02
9.680902189787586209e+00,1.289745390582244333e+01,7.991336155133588193e-02,-5.583039680401711280e-01,1.774657281968629596e-01,8.104323504076682561e-01,3.969070626351939950e+02
9.822046091121299227e+00,1.240168872781019793e+01,-7.324636990195246278e-02,-5.949220426343293511e-01,1.878578139713753814e-01,7.815210841166713163e-01,3.984124651890307405e+02
9.959956317133320525e+00,1.189945924208042349e+01,-2.255975287350320269e-01,-6.301808702953528574e-01,1.978206920510924283e-01,7.508242434228339368e-01,3.999178677428674860e+02
1.009455758615315091e+01,1.139114878942716480e+01,-3.769067396600448427e-01,-6.639998943326058667e-01,2.073316000157031380e-01,7.184119625691816058e-01,4.014232702967042314e+02
1.022577724817945288e+01,1.087714116322423585e+01,-5.269406339336422107e-01,-6.963018475824648279e-01,2.163688080624890653e-01,6.843582950123194841e-01,4.029286728505409769e+02
1.035354528594251633e+01,1.035782059547251244e+01,-6.754658508220069413e-01,-7.270129289258709937e-01,2.249116686481628657e-01,6.487410442401760902e-01,4.044340754043777224e+02
1.047780691171145406e+01,9.833589184555107110e+00,-8.222957102658653428e-01,-7.972803801357026821e-01,2.373445932771135192e-01,5.549860714411131157e-01,4.059394779582144679e+02
1.059853532902388196e+01,9.304884203667189269e+00,-9.673368852521406769e-01,-8.564798977146876879e-01,2.464826735659788604e-01,4.535267097350645371e-01,4.074448805120512134e+02
1.071571938491369380e+01,8.772160465110676597e+00,-1.110542731198841171e+00,-9.037896691135448579e-01,2.521990532735040591e-01,3.457714151459478358e-01,4.089502830658879589e+02
1.083187996131390207e+01,8.223838337082751693e+00,-1.255037110542192469e+00,-9.385529300492704285e-01,2.544143749055376991e-01,2.332160443396925076e-01,4.104894614825212784e+02
1.094436222794564451e+01,7.672338564151376161e+00,-1.397558476210028600e+00,-9.602870820317117584e-01,2.530978815804551529e-01,1.174230915202450765e-01,4.120286398991545980e+02
1.105316444443740842e+01,7.118136759894165166e+00,-1.538058094065452908e+00,-9.686903929663203128e-01,2.482678444219698632e-01,0.000000000000000000e+00,4.135678183157879175e+02
1.115828821606118737e+01,6.561708506835087995e+00,-1.676487243237806624e+00,-9.718598867246660555e-01,2.354950797127532414e-01,-5.331791582483736379e-03,4.151069967324212371e+02
1.125973849357173329e+01,6.003529338308131180e+00,-1.812797216441496495e+00,-9.748334360651990105e-01,2.226748366056779671e-01,-1.066250753547413888e-02,4.166461751490545566e+02
1.135752357300779991e+01,5.444074720321685490e+00,-1.946939320294646780e+00,-9.776104415654360835e-01,2.098096997682961373e-01,-1.599107314935313204e-02,4.181853535656878762e+02
1.145165509545507554e+01,4.883820033423970308e+00,-2.078864875637523646e+00,-9.801903434240382129e-01,1.969022629156034765e-01,-2.131641414902974568e-02,4.197245319823211958e+02
1.154214804677079265e+01,4.323240554569607319e+00,-2.208525217850859867e+00,-9.825726215713426193e-01,1.839551282868823190e-01,-2.663745691038385197e-02,4.212637103989545153e+02
1.162902075727017781e+01,3.762811438987425205e+00,-2.335871697174110029e+00,-9.847567957740436251e-01,1.709709061213832981e-01,-3.195312867657716660e-02,4.228028888155878349e+02
1.171229490137469043e+01,3.203007702049465610e+00,-2.460855679023697284e+00,-9.867424257318589964e-01,1.579522141324013751e-01,-3.726235777418820255e-02,4.243420672322211544e+02
1.179199549722206442e+01,2.644304201141419064e+00,-2.583428544311276109e+00,-9.885291111661608232e-01,1.449016769798515680e-01,-4.256407382912782283e-02,4.258812456488544740e+02
1.186815090623808544e+01,2.087175617535077077e+00,-2.703541689761888911e+00,-9.901164919005546183e-01,1.318219257414496859e-01,-4.785720798229233658e-02,4.274204240654877935e+02
1.194079283267017111e+01,1.532096438262846361e+00,-2.821146528231954775e+00,-9.915042479333896486e-01,1.187155973826049954e-01,-5.314069310491052744e-02,4.289596024821211131e+02
1.200995632308270267e+01,9.795409379941711903e-01,-2.936194489027501575e+00,-9.926920995021876193e-01,1.055853342251297788e-01,-5.841346401354214485e-02,4.304987808987544327e+02
1.207567976581411706e+01,4.299831609139308508e-01,-3.048637018222682293e+00,-9.936798071399743915e-01,9.243378341487329397e-02,-6.367445768468399381e-02,4.320379593153877522e+02
1.213800489039592101e+01,-1.161030973968436991e-01,-3.158425578977853032e+00,-9.944671717235065156e-01,7.926359638838589849e-02,-6.892261346894149043e-02,4.335771377320210718e+02
1.219697676693350807e+01,-6.582443080775541855e-01,-3.265511651857207376e+00,-9.950540345133801479e-01,6.607742833872089216e-02,-7.415687330472195415e-02,4.351163161486543913e+02
1.225264380544924414e+01,-1.195967227102474606e+00,-3.369846735146486250e+00,-9.954402771860162424e-01,5.287793768048057452e-02,-7.937618193140756617e-02,4.366554945652877109e+02
1.230505775518780354e+01,-1.728798913393025494e+00,-3.471382345170746397e+00,-9.956258218575153585e-01,3.966778551421391158e-02,-8.457948710196479258e-02,4.381946729819210304e+02
1.235427370388283030e+01,-2.256266746926464339e+00,-3.570070016611928576e+00,-9.956106310993754205e-01,2.644963509027284734e-02,-8.976573979494793798e-02,4.397338513985543500e+02
1.240035007698478076e+01,-2.777898446840825208e+00,-3.665861302826640244e+00,-9.953947079460723213e-01,1.322615127223499866e-02,-9.493389442585424554e-02,4.412730298151876696e+02
1.244334863685048909e+01,-3.293222089536490760e+00,-3.758707776164284642e+00,-9.949780958944995923e-01,0.000000000000000000e+00,-1.000829090577883690e-01,4.428122082318209891e+02
1.248538671317256821e+01,-3.828462687985174195e+00,-3.853277377291336681e+00,-5.266386541613703454e-01,2.890698101705862014e-02,8.495964420780417470e-01,4.444321946175784319e+02
1.252423408165287810e+01,-4.356053782327362178e+00,-3.944642309185884432e+00,-7.232701966464061272e-01,2.780201185323878318e-02,6.900038193954900478e-01,4.460521810033358747e+02
1.255997052706569406e+01,-4.875473574835177182e+00,-4.032748975284355275e+00,-8.735146729231132445e-01,2.491395879313334019e-02,4.861578044688603106e-01,4.476721673890933175e+02
1.259267972074007957e+01,-5.386200770882992650e+00,-4.117543802688057752e+00,-9.677362100573644321e-01,2.042804845828354032e-02,2.511320819426133832e-01,4.492921537748507603e+02
1.262244921932555286e+01,-5.887714601138236858e+00,-4.198973242552234808e+00,-9.998919466761522212e-01,1.463198458611617188e-02,0.000000000000000000e+00,4.509121401606082031e+02
1.264935007761753205e+01,-6.379526562182564753e+00,-4.277055099177711206e+00,-9.963847135738154170e-01,2.202050267484820245e-02,8.204023414367726807e-02,4.525321265463656459e+02
1.267341613853651694e+01,-6.861211949221804218e+00,-4.351949858583296304e+00,-9.861045523370437493e-01,2.925933554537063150e-02,1.635227908997878565e-01,4.541521129321230887e+02
1.269466393419407879e+01,-7.332377845760022161e+00,-4.423889358634811586e+00,-9.691213433673853128e-01,3.629927765648022220e-02,2.438937971156414086e-01,4.557720993178805315e+02
1.271311291053982728e+01,-7.792631318508834504e+00,-4.493105458654877538e+00,-9.455505294806372252e-01,4.309247540309522895e-02,3.226069353912827120e-01,4.573920857036379743e+02
1.272878542768481935e+01,-8.241579434019056905e+00,-4.559830037735209451e+00,-9.155523312460610574e-01,4.959275236470818415e-02,3.991271572603585227e-01,4.590120720893954172e+02
1.274146638987050828e+01,-8.670190315044523643e+00,-4.623020162276478828e+00,-8.793306580512790793e-01,5.575592315727177783e-02,4.729343197990331649e-01,4.606000465072955876e+02
1.275150763298942813e+01,-9.086955633172944857e+00,-4.684218478954153220e+00,-8.371317222841587746e-01,6.154009375715045749e-02,5.435267209673395605e-01,4.621880209251957581e+02
1.275893896188654431e+01,-9.491498036832187069e+00,-4.743647844644132583e+00,-7.892423660358508508e-01,6.690594625735626910e-02,6.104245096724763009e-01,4.637759953430959285e+02
1.276379292696960377e+01,-9.883440236360415909e+00,-4.801531128539751947e+00,-8.022295079194997625e-01,5.357272120964923917e-02,5.946055668693586149e-01,4.653639697609960990e+02
1.276610482434076488e+01,-1.026240501936848304e+01,-4.858091210590936626e+00,-8.147379707510875591e-01,4.020753475075899280e-02,5.784318396773445725e-01,4.669519441788962695e+02
1.276586783687045745e+01,-1.062807792014369390e+01,-4.913584744094446677e+00,-8.267602933205648874e-01,2.681835952166309461e-02,5.619129763299663960e-01,4.685399185967964399e+02
1.276298755019072395e+01,-1.098026944073218125e+01,-4.968335918048040867e+00,-8.382893041948892288e-01,1.341318244989734079e-02,5.450588307658965626e-01,4.701278930146966104e+02
1.275732587576697341e+01,-1.131885173559024338e+01,-5.022702690733481745e+00,-8.493181259763079582e-01,0.000000000000000000e+00,5.278794567652124181e-01,4.717158674325967809e+02
1.274874560074308505e+01,-1.164369573950229153e+01,-5.077043023063420257e+00,-8.577958673381923527e-01,4.924133119722359092e-02,5.116244142723824773e-01,4.733038418504969513e+02
1.273711039171248594e+01,-1.195467117245117095e+01,-5.131714876077726473e+00,-8.639053948161595775e-01,9.834671498199730466e-02,4.939568730769082205e-01,4.748918162683971218e+02
1.272228479847873572e+01,-1.225164654450515300e+01,-5.187076208439816760e+00,-8.676298413993597247e-01,1.471805816088481156e-01,4.749256096597981869e-01,4.764797906862972923e+02
1.270460926275602986e+01,-1.252728715464398945e+01,-5.242046329013748895e+00,-8.689589246373518039e-01,1.956081109257161443e-01,4.545831653650111992e-01,4.780273217028186536e+02
1.268359009081563293e+01,-1.278902942593732028e+01,-5.298377606947940244e+00,-8.678889750316810536e-01,2.434956045512406686e-01,4.329857013606134841e-01,4.795748527193400150e+02
1.265910114769077310e+01,-1.303674519089720718e+01,-5.356409983828694266e+00,-8.644229461700636552e-01,2.907108549563903743e-01,4.101928436055238825e-01,4.811223837358613764e+02
1.263101712941228882e+01,-1.327030518023695826e+01,-5.416483389896612266e+00,-8.585704065808241747e-01,3.371235104323607179e-01,3.862675182529723972e-01,4.826699147523827378e+02
1.259921356635106449e+01,-1.348957902735266678e+01,-5.478937741790132598e+00,-8.503475133298564748e-01,3.826054349379607311e-01,3.612757779445943118e-01,4.842174457689040992e+02
1.256352134672192911e+01,-1.369451537883602832e+01,-5.544082624601858633e+00,-8.397769674326538425e-01,4.270310618337733732e-01,3.352866194741818684e-01,4.857649767854254605e+02
1.252368046134952806e+01,-1.388522156183061895e+01,-5.612166974136392206e+00,-8.268879512040434587e-01,4.702777405271562627e-01,3.083717933239142894e-01,4.873125078019468219e+02
1.247938432025514466e+01,-1.406188281269989737e+01,-5.683409390941482009e+00,-8.117160477180137557e-01,5.122260750716073341e-01,2.806056055983011666e-01,4.888600388184681833e+02
1.243032484966081697e+01,-1.422468194273958275e+01,-5.758028454540600194e+00,-7.943031425993222205e-01,5.527602537861107113e-01,2.520647129020636146e-01,4.904075698349895447e+02
1.237619249896358120e+01,-1.437379932998366883e+01,-5.836242721980262615e+00,-7.746973084172715796e-01,5.917683689847326178e-01,2.228279107276656401e-01,4.919551008515109061e+02
1.230993417954522506e+01,-1.452468808687900648e+01,-5.927520209175744625e+00,-7.529526720000137008e-01,6.291427259338958633e-01,1.929759159361535970e-01,4.936770253197187799e+02
1.223724664891119573e+01,-1.466077998358453094e+01,-6.023279777972445181e+00,-9.481963343956451018e-01,3.176817769972667960e-01,0.000000000000000000e+00,4.953989497879266537e+02
1.215775403938559229e+01,-1.478243646481314499e+01,-6.123658940067383760e+00,-8.413613957852456027e-01,5.361743880492283454e-01,6.801490484637523481e-02,4.971208742561345275e+02
1.207552960673714004e+01,-1.488465088267401981e+01,-6.223339758033232805e+00,-6.808654026546172577e-01,7.204703679078918732e-01,1.316918844624226648e-01,4.987552758590562689e+02
1.198624187369432370e+01,-1.497406832582056779e+01,-6.327401736768507590e+00,-6.247117318247934481e-01,7.714486543427494514e-01,1.208313942370363020e-01,5.003896774619780103e+02
1.188959267883099535e+01,-1.505113354774091050e+01,-6.435821925711691094e+00,-5.648910235898433330e-01,8.178985439426164072e-01,1.092616276848619311e-01,5.020240790648997518e+02
1.178533231197721953e+01,-1.511633351767387090e+01,-6.548538699052327772e+00,-5.017544241471736388e-01,8.595473800081031568e-01,9.705049907255842989e-02,5.036584806678214932e+02
1.167331119914482507e+01,-1.517024263768272441e+01,-6.665413113296406067e+00,-4.356725431114356062e-01,8.961506876538093413e-01,8.426968729493933274e-02,5.052928822707432346e+02
1.156107205723328413e+01,-1.521072688209857482e+01,-6.778567614584524392e+00,-3.670332781377397824e-01,9.274936086877367813e-01,7.099421513952018647e-02,5.068231062550965476e+02
1.144138064363660057e+01,-1.524178597567957816e+01,-6.895294227751040950e+00,-2.962395381030409891e-01,9.533921626683904416e-01,5.730200892995244294e-02,5.083533302394498605e+02
1.131413888162251169e+01,-1.526395995355913193e+01,-7.015437232948482205e+00,-2.237068782037344994e-01,9.736943267459964302e-01,4.327344113190589175e-02,5.098835542238031735e+02
1.117924456002214306e+01,-1.527778801807217945e+01,-7.138840888081834812e+00,-1.498610608424537360e-01,9.882809279556499238e-01,2.899085860456496883e-02,5.114137782081564865e+02
1.103659133570464412e+01,-1.528380851623512804e+01,-7.265349429818692251e+00,-7.513555661146566200e-02,9.970663427288528613e-01,1.453809926492990144e-02,5.129440021925098563e+02
1.088606873609942305e+01,-1.528255891723634541e+01,-7.394807074599748731e+00,3.099996898509082747e-05,9.999989995190590175e-01,0.000000000000000000e+00,5.144742261768632261e+02
1.072761960701712702e+01,-1.527455701169620994e+01,-7.527052023100536005e+00,-2.380812708684114376e-02,9.990486389233859121e-01,3.651013764063174016e-02,5.160044501612165959e+02
1.056129774126012677e+01,-1.526028266323740823e+01,-7.661910464731929160e+00,-4.760196561491290140e-02,9.961978869976468864e-01,7.295082461244918604e-02,5.175346741455699657e+02
1.038721070526219314e+01,-1.524019739386375782e+01,-7.799202575316035890e+00,-7.130525512852686765e-02,9.914521665673980966e-01,1.092527436749390068e-01,5.190648981299233355e+02
1.020546248295690539e+01,-1.521476341845164626e+01,-7.938748514801275746e+00,-9.487290738946330126e-02,9.848205050120877324e-01,1.453468415613186349e-01,5.205951221142767054e+02
1.001615347405038925e+01,-1.518444362519705848e+01,-8.080368428428730709e+00,-1.182600921704449470e-01,9.763155170925319482e-01,1.811644603249401853e-01,5.221253460986300752e+02
9.796955291154942458e+00,-1.514571012563775376e+01,-8.240242629764273019e+00,-1.414223225267868811e-01,9.659533809553405570e-01,2.166374679336848796e-01,5.238300899341836612e+02
9.569584600252158069e+00,-1.510253787121693669e+01,-8.402000306591313361e+00,-1.643155394151123994e-01,9.537538073601529165e-01,2.516983878640520755e-01,5.255348337697372472e+02
9.334151976510629112e+00,-1.505550395285133902e+01,-8.565418126658922660e+00,-1.868961954982502338e-01,9.397400021881966437e-01,2.862805274485469287e-01,5.272395776052908332e+02
9.090763029797694017e+00,-1.500518627836302699e+01,-8.730272744212607350e+00,-2.091213379769749636e-01,9.239386223034432577e-01,3.203181047323396813e-01,5.289443214408444192e+02
8.839548434571625535e+00,-1.495212579049185209e+01,-8.896344176016219407e+00,-2.309486902910997119e-01,9.063797248502631909e-01,3.537463735980002633e-01,5.306490652763980052e+02
8.580694364188168777e+00,-1.489678900708570275e+01,-9.063419177347990185e+00,-2.523367325345757251e-01,8.870967100839478592e-01,3.865017469203968492e-01,5.323538091119515911e+02
8.314413061795077553e+00,-1.483960622890802838e+01,-9.231287869494313014e+00,-2.732447804316935347e-01,8.661262578427576520e-01,4.185219175175861617e-01,5.340585529475051771e+02
8.057535895990602270e+00,-1.478459811861696593e+01,-9.389498501115335571e+00,-2.936330627242121349e-01,8.435082577822327066e-01,4.497459766677055493e-01,5.356596077066938051e+02
7.794040682508776463e+00,-1.472870622998516943e+01,-9.548074456321993253e+00,-3.134627968222536976e-01,8.192857335043564060e-01,4.801145299664935084e-01,5.372606624658824330e+02
7.524104900887877534e+00,-1.467231427270536059e+01,-9.706830634912812172e+00,-3.326962625751002101e-01,7.935047607257670332e-01,5.095698103051103933e-01,5.388617172250710610e+02
7.247902900110524627e+00,-1.461580728663701656e+01,-9.865581935299852390e+00,-3.512968740215904329e-01,7.662143796405452845e-01,5.380557877533955757e-01,5.404627719842596889e+02
6.965605894855313451e+00,-1.455957162391429627e+01,-1.002414325582238419e+01,-3.692292489836525027e-01,7.374665016441350751e-01,5.655182761395681768e-01,5.420638267434483168e+02
6.677381961788277032e+00,-1.450399493103753557e+01,-1.018232949606068516e+01,-3.864592763705989586e-01,7.073158105956919295e-01,5.919050361236463109e-01,5.436648815026369448e+02
6.383396035894191023e+00,-1.444946613094846199e+01,-1.033995555814975020e+01,-4.029541810661527168e-01,6.758196588065267241e-01,6.171658745685135727e-01,5.452659362618255727e+02
6.083809906847641891e+00,-1.439637540508943125e+01,-1.049683634809293942e+01,-4.186825862747664551e-01,6.430379579523575195e-01,6.412527400195916494e-01,5.468669910210142007e+02
5.789621795246493008e+00,-1.434695291167944475e+01,-1.064724409767221935e+01,-4.336145732086139071e-01,6.090330651167381593e-01,6.641198141114574849e-01,5.484111193574026402e+02
5.490321296080986180e+00,-1.429969910996777038e+01,-1.079658370839201176e+01,-4.477217380016851878e-01,5.738696641822985667e-01,6.857235987274861166e-01,5.499552476937910797e+02
5.186067721996820090e+00,-1.425491676209077418e+01,-1.094470114054887944e+01,-7.895990730976505320e-03,0.000000000000000000e+00,9.999678261479034713e-01,5.514993760301795191e+02
4.877053165396849188e+00,-1.421278289449672982e+01,-1.109147854235030550e+01,-7.459918646221619896e-03,7.704726228561990797e-03,9.999414916866713465e-01,5.530435043665679586e+02
4.563485919412945790e+00,-1.417341252819279696e+01,-1.123681616072523326e+01,-7.023402347854931262e-03,1.540899268231527702e-02,9.998556069518848011e-01,5.545876327029563981e+02
