3.845476075111016190e+00,-1.189014518344701926e-01,8.250298071233306274e+00,-1.138334898187790961e-01,9.872857552350945420e-01,-1.109359008936866842e-01,4.673352537000990736e+00
4.156474342632551888e+00,-3.777408560563832313e-02,8.761898935884357087e+00,-1.693809373719314393e-01,9.672179462202362688e-01,-1.892023852016672669e-01,6.231136716001320686e+00
4.456442934219801977e+00,4.083588026678552918e-02,9.266926369591232060e+00,-2.232999777178979739e-01,9.378514004021717421e-01,-2.656499025339098541e-01,7.788920895001650635e+00
4.742528720282956023e+00,1.166410307520765050e-01,9.763742726596534638e+00,-2.750722392300887775e-01,8.994684419840809353e-01,-3.395434951239370558e-01,9.346705074001981473e+00
5.011875307094044274e+00,1.893708823075859748e-01,1.025071041629685098e+01,-3.241999886331499159e-01,8.524380776828182071e-01,-4.101727576130294040e-01,1.090448925300231231e+01
5.261623079683610982e+00,2.587718995285436807e-01,1.072619191425647855e+01,-3.702109161198505749e-01,7.972124494369513537e-01,-4.768586667446690353e-01,1.246227343200264315e+01
5.488909244772665730e+00,3.246075116187118748e-01,1.118854977322064492e+01,-4.126626761032525237e-01,7.343224878732846905e-01,-5.389601094291015526e-01,1.402005761100297399e+01
5.690867873739705374e+00,3.866581286817667995e-01,1.163614663412824513e+01,-4.511471399490335488e-01,6.643728082917145228e-01,-5.958800464180659118e-01,1.557784179000330482e+01
5.864629945622459317e+00,4.447211578331959902e-01,1.206734523712417051e+01,-4.852943197972408029e-01,5.880358982118578659e-01,-6.470712523265047533e-01,1.713562596900363388e+01
6.007323390154112985e+00,4.986110191325707763e-01,1.248050843257116149e+01,-5.147759257407299449e-01,5.060456523392375949e-01,-6.920415768051078054e-01,1.869341014800396295e+01
6.116073130833782123e+00,5.481591613360675685e-01,1.287399919206114340e+01,-5.393085221491016323e-01,4.191903170880861285e-01,-7.303586762662653831e-01,2.025119432700429201e+01
6.188001128030991005e+00,5.932140774691034846e-01,1.324618061942594061e+01,-5.586562527785087218e-01,3.283049124811939778e-01,-7.616541706526511746e-01,2.180897850600462107e+01
6.220226422123867671e+00,6.336413202189462579e-01,1.359541596174737421e+01,-5.726331084524270976e-01,2.342632042794749458e-01,-7.856271852635637876e-01,2.336676268500495013e+01
6.209865176670763098e+00,6.693235171470787170e-01,1.392006862036684822e+01,-5.811047154966131334e-01,1.379693035259636769e-01,-8.020472435663928978e-01,2.492454686400527919e+01
6.097098657989322490e+00,7.132393730564849932e-01,1.437831129142615616e+01,-5.839896277206664266e-01,4.034897427849992030e-02,-8.107564831622533497e-01,2.737876017185014632e+01
5.955142628501765678e+00,7.328142271449851197e-01,1.464442216419969789e+01,-5.576355874127004730e-01,3.823997170674358487e-02,-8.292033864832272227e-01,2.900344749695765856e+01
5.760267241430971019e+00,7.437913510926764671e-01,1.487987511627425441e+01,-5.106386415379452481e-01,1.758598765485265905e-02,-8.596143965612512705e-01,3.062813482206517079e+01
5.512621958159307667e+00,7.447109125524499218e-01,1.508455653161710330e+01,-2.701816156421557591e-01,-2.542756382698507234e-01,-9.286246789472004659e-01,3.225282214717268658e+01
5.151243738344488676e+00,7.302510573550272666e-01,1.528706562220374821e+01,-5.104316100401297129e-01,3.347597442500349629e-02,-8.592653435379092874e-01,3.417479612698413405e+01
4.760792211204697644e+00,7.011388237601625661e-01,1.543423434831663954e+01,-4.718753251654590475e-01,-1.861290769442984841e-02,-8.814676608741702779e-01,3.591777153782588528e+01
4.314315281858969620e+00,6.564938328844949211e-01,1.554806372304046214e+01,-4.311046371158006041e-01,-7.061443201795089553e-02,-8.995334312009070077e-01,3.766074694866763650e+01
3.815338426606980526e+00,5.961727989247663784e-01,1.562976720402280506e+01,-3.883108747857674237e-01,-1.222845673559080221e-01,-9.133778785967628933e-01,3.940372235950938773e+01
3.337861576726273594e+00,5.310612889850314655e-01,1.567585662646598976e+01,-3.436948604251413575e-01,-1.733808380713917907e-01,-9.229360367367862583e-01,4.093339251486148811e+01
2.827019103539313516e+00,4.554916383124951174e-01,1.569865424288616929e+01,-2.974659672298869406e-01,-2.236634618919862427e-01,-9.281630536468397086e-01,4.246306267021358849e+01
2.285418073835076225e+00,3.698236328948314444e-01,1.569851572261205064e+01,-2.498411368262977439e-01,-2.728964750680795137e-01,-9.290344020785360479e-01,4.399273282556568887e+01
1.715667639182594906e+00,2.744017880268633802e-01,1.567579688362951806e+01,-2.010438612583723972e-01,-3.208488396013951527e-01,-9.255459945229688179e-01,4.552240298091778925e+01
1.120378997699002621e+00,1.695553384051569912e-01,1.563085369027309568e+01,-1.513031342536242385e-01,-3.672955273520202013e-01,-9.177142023271920301e-01,4.705207313626988963e+01
5.021653557984867566e-01,5.559822837939316920e-02,1.556404225091672089e+01,-1.008523766859290988e-01,-4.120185759409593085e-01,-9.055757788264923169e-01,4.858174329162199001e+01
-1.363581100776150024e-01,-6.717089763940473079e-02,1.547571881566382679e+01,-4.992834127446053177e-02,-4.548081114976635364e-01,-8.891876868548747037e-01,5.011141344697409039e+01
-8.314648767485414149e-01,-2.065838175627760509e-01,1.535908378950184527e+01,1.229998345293801957e-03,-4.954633334574376491e-01,-8.686268314437923799e-01,5.173024979186438088e+01
-1.543730648859149124e+00,-3.551476959332524608e-01,1.521874845480278360e+01,6.375509862426961827e-02,-4.578659423604827250e-01,-8.867311126981418656e-01,5.334908613675467137e+01
-2.270354743313125923e+00,-5.110780379434606280e-01,1.505464470371217800e+01,1.259199271407242804e-01,-4.176812812718280754e-01,-8.998247158337355778e-01,5.496792248164496186e+01
-3.008642408931660128e+00,-6.721155061404234798e-01,1.486653938061155955e+01,1.873732089051647898e-01,-3.751364229283701279e-01,-9.078336547950112134e-01,5.658675882653525235e+01
-3.755877086287758182e+00,-8.360175824157117797e-01,1.465419950410557881e+01,2.477676900155166562e-01,-3.304717764288999104e-01,-9.107126751999070624e-01,5.820559517142554284e+01
-4.509320452389389722e+00,-1.000558682829560286e+00,1.441739226871755797e+01,3.067620997752105172e-01,-2.839397287808159143e-01,-9.084455099580347470e-01,5.982443151631583333e+01
-5.266212465611254778e+00,-1.163530272240432817e+00,1.415588504658411217e+01,3.640230789915272491e-01,-2.358032187858892237e-01,-9.010449711159328468e-01,6.144326786120612383e+01
-6.023771410874990906e+00,-1.322740978738949025e+00,1.386944538914873171e+01,4.192270635646088706e-01,-1.863342513207740248e-01,-8.885528774143379716e-01,6.306210420609641432e+01
-6.779193945077643946e+00,-1.476016707885104751e+00,1.355784102885434095e+01,4.720621127303601949e-01,-1.358123604036999554e-01,-8.710398179691219989e-01,6.468094055098670481e+01
-7.529655142767856191e+00,-1.621200756747750438e+00,1.322083988083482886e+01,5.222296716330432353e-01,-8.452302972735492581e-02,-8.486047534118934532e-01,6.629977689587700240e+01
-8.272308542069300330e+00,-1.756153927745290222e+00,1.285821004460564154e+01,5.694462582739390211e-01,-3.275607957774129969e-02,-8.213744567430488752e-01,6.791861324076730000e+01
-9.006349576117884226e+00,-1.879074989819032426e+00,1.246856760252144447e+01,6.134450653089541516e-01,1.919597075157501026e-02,-7.895027970541507178e-01,6.954206879845195033e+01
-9.726923221389071728e+00,-1.987528369324752298e+00,1.205304038276890388e+01,6.501191157785991548e-01,2.077769412676599634e-02,-7.595468535418771205e-01,7.116552435613660066e+01
-1.043168229725135099e+01,-2.079694675250042479e+00,1.161250398540653528e+01,6.853337422336388540e-01,2.231277452148508478e-02,-7.278858439677254877e-01,7.278897991382125099e+01
-1.111845791450980236e+01,-2.153865139956857355e+00,1.114820387289034720e+01,7.190098951314290998e-01,2.379776599416340635e-02,-6.945908414572051770e-01,7.441243547150590132e+01
-1.178506344048373933e+01,-2.208344377118616642e+00,1.066138568120079988e+01,7.510719783177329800e-01,2.522933503751518744e-02,-6.597365868578800585e-01,7.603589102919055165e+01
-1.242929453412947360e+01,-2.241450475846081591e+00,1.015329521074546371e+01,7.814480186780429216e-01,2.660426805956801061e-02,-6.234013209999998972e-01,7.765934658687520198e+01
-1.304892918136891389e+01,-2.251515094659990890e+00,9.625178417260711328e+00,8.100698276632177786e-01,2.791947859574680710e-02,-5.856666091078468472e-01,7.928280214455985231e+01
-1.364172773062372990e+01,-2.236883555309562066e+00,9.078281402712478965e+00,8.368731543270864215e-01,2.917201423584217176e-02,-5.466171577540857029e-01,8.090625770224450264e+01
-1.420543292855484196e+01,-2.195914936435976461e+00,8.513850406196191045e+00,8.617978295332173744e-01,3.035906325034801526e-02,-5.063406247668585936e-01,8.252971325992915297e+01
-1.473776995600726991e+01,-2.126982167079959130e+00,7.933131794835569295e+00,8.847879010077014383e-01,3.147796090132271712e-02,-4.649274225150952233e-01,8.415316881761380330e+01
-1.523644646415982962e+01,-2.028472120032602799e+00,7.337372054680614042e+00,8.849807075248073973e-01,-1.526297770909593003e-02,-4.653753203399219052e-01,8.577662437529845363e+01
-1.568810560039883661e+01,-1.903400363637956172e+00,6.744262360370265164e+00,7.552808229331580137e-01,-7.839105318888551707e-03,-6.553529025925360907e-01,8.735730461409399084e+01
-1.610584262862715832e+01,-1.749983470750198222e+00,6.140053537036472164e+00,5.855745249370150063e-01,-0.000000000000000000e+00,-8.106173423650142595e-01,8.893798485288952804e+01
-1.648953857318473837e+01,-1.569003489274083618e+00,5.526660335555016346e+00,6.676917627050223958e-01,-0.000000000000000000e+00,-7.444365050264132311e-01,9.051866509168506525e+01
-1.683908060021257214e+01,-1.361242938910460998e+00,4.905997570363118676e+00,7.423821461995215865e-01,-0.000000000000000000e+00,-6.699751853646215283e-01,9.209934533048060246e+01
-1.715436201823267837e+01,-1.127484780014926358e+00,4.279980106200282464e+00,8.088148877796487168e-01,-0.000000000000000000e+00,-5.880616271329009992e-01,9.368002556927613966e+01
-1.743528227866354285e+01,-8.685123824543364845e-01,3.650522844848835824e+00,8.662510496230177992e-01,-0.000000000000000000e+00,-4.996069645503359302e-01,9.526070580807167687e+01
-1.768174697627109992e+01,-5.851094944614486648e-01,3.019540711874179717e+00,9.140517624632589211e-01,-0.000000000000000000e+00,-4.055950881580278611e-01,9.684138604686721408e+01
-1.789366784955515399e+01,-2.780602114879462405e-01,2.388948643365028435e+00,9.516853314543215481e-01,-0.000000000000000000e+00,-3.070717015530153304e-01,9.842206628566275128e+01
-1.807096278107135134e+01,5.185105494387359792e-02,1.760661572673536179e+00,9.787331501618884433e-01,-0.000000000000000000e+00,-2.051326906517000337e-01,1.000027465244582885e+02
-1.821355579768868793e+01,4.038396083904869927e-01,1.136594417155218251e+00,9.948943569144396148e-01,-0.000000000000000000e+00,-1.009119347719607956e-01,1.015834267632538257e+02
-1.831905089637783490e+01,7.650153583487037112e-01,5.371142389406199369e-01,9.956158532669954209e-01,-0.000000000000000000e+00,-9.352578634184718909e-02,1.031159297517043143e+02
-1.839324204939406826e+01,1.144157524575864171e+00,-5.586967164949200454e-02,9.962825151378277289e-01,-0.000000000000000000e+00,-8.613448797207412522e-02,1.046484327401548029e+02
-1.843717500205537263e+01,1.539585459407097234e+00,-6.415902394869564818e-01,9.968943058348063158e-01,-0.000000000000000000e+00,-7.873844665621446137e-02,1.061809357286052915e+02
-1.845191016521558680e+01,1.949624785625482248e+00,-1.219280436744184293e+00,9.974511916913868514e-01,-0.000000000000000000e+00,-7.133806964896749481e-02,1.077134387170557801e+02
-1.843852259922890724e+01,2.372607469153192206e+00,-1.788173287883347617e+00,9.979531420623094506e-01,-0.000000000000000000e+00,-6.393376444317012963e-02,1.092459417055062687e+02
-1.839810199776635358e+01,2.806871891676412378e+00,-2.347501874645097963e+00,9.984001293252741105e-01,-0.000000000000000000e+00,-5.652593874741783375e-02,1.107784446939567573e+02
-1.833175267148405396e+01,3.250762923203476262e+00,-2.896499341037027886e+00,9.987921288824478383e-01,-0.000000000000000000e+00,-4.911500046367404948e-02,1.123109476824072459e+02
-1.824059353154349239e+01,3.702631994555580341e+00,-3.434398898321893157e+00,9.991291191618084655e-01,-0.000000000000000000e+00,-4.170135766486918888e-02,1.138434506708577345e+02
-1.812575807298408392e+01,4.160837169789394885e+00,-3.960433830005461342e+00,9.994110816183233714e-01,-0.000000000000000000e+00,-3.428541857249064323e-02,1.153759536593082231e+02
-1.798839435794810271e+01,4.623743218550958822e+00,-4.473837496823946047e+00,9.996380007349621177e-01,-0.000000000000000000e+00,-2.686759153416442072e-02,1.169084566477587117e+02
-1.782966499875799116e+01,5.089721688360344665e+00,-4.973843341731116752e+00,9.998098640235444368e-01,-0.000000000000000000e+00,-1.944828500123040038e-02,1.184409596362092003e+02
-1.765074714084609653e+01,5.557150976826500610e+00,-5.459684894885084461e+00,9.999266620254225746e-01,-0.000000000000000000e+00,-1.202790750631175035e-02,1.199734626246596889e+02
-1.745283244553703028e+01,6.024416403791647667e+00,-5.930595778634597082e+00,9.999883883119979888e-01,-0.000000000000000000e+00,-4.606867640880129948e-03,1.215059656131101775e+02
-1.723712707268270705e+01,6.489910283404646485e+00,-6.385809712504805447e+00,9.999950394850740665e-01,-0.000000000000000000e+00,2.814425967182330492e-03,1.230384686015606661e+02
-1.698095576211310131e+01,6.997007556643747073e+00,-6.866525082082067577e+00,9.999466151770413092e-01,-0.000000000000000000e+00,1.023556467602310983e-02,1.247214020487907504e+02
-1.670592073519881282e+01,7.497639235234754729e+00,-7.326018357088070587e+00,9.998431180508986493e-01,-0.000000000000000000e+00,1.765613985225994442e-02,1.264043354960208347e+02
-1.641373220698486435e+01,7.989590264678354536e+00,-7.763257990483492854e+00,9.996845538001093434e-01,-0.000000000000000000e+00,2.507574289342124826e-02,1.280872689432509333e+02
-1.610628964129493568e+01,8.470914414405282145e+00,-8.176996642478039590e+00,9.994709311482899983e-01,-0.000000000000000000e+00,3.249396525038473343e-02,1.297702023904810176e+02
-1.578584561541774889e+01,8.940193612691409442e+00,-8.565555222910324673e+00,9.960945680068780117e-01,1.577809707173184403e-02,8.686002095651210175e-02,1.314531358377111019e+02
-1.545483308910181641e+01,9.396282418144972226e+00,-8.927038871840073497e+00,9.895147429823415441e-01,3.150544991876096101e-02,1.409467276905616850e-01,1.331360692849411862e+02
-1.511569618805494031e+01,9.838051027111177405e+00,-9.259552941834616746e+00,9.797526177388532487e-01,4.713147922060148542e-02,1.945801421036902623e-01,1.348190027321712705e+02
-1.479670283402244380e+01,1.023349015636913961e+01,-9.540053960292324220e+00,9.668395881148829085e-01,6.260593154935836790e-02,2.475877787563376398e-01,1.363766605072500795e+02
-1.447484602614065707e+01,1.061539979492873265e+01,-9.792981734691659668e+00,9.508171831428741116e-01,7.787904097712813889e-02,2.997991648047121371e-01,1.379343182823288885e+02
-1.415203976596563606e+01,1.098295748783958103e+01,-1.001685438785423088e+01,9.317369314799234248e-01,9.290168911488506931e-02,3.510463882122800139e-01,1.394919760574076975e+02
-1.383020586997319867e+01,1.133535205333783402e+01,-1.021019023797391512e+01,9.096601956855138171e-01,1.076255630684434389e-01,4.011646377243726080e-01,1.410496338324865064e+02
-1.351127394123466097e+01,1.167178362240458434e+01,-1.037150780858296528e+01,8.846579748794015652e-01,1.220033108037980735e-01,4.499927328703562934e-01,1.426072916075653154e+02
-1.319718134101013796e+01,1.199146367820593895e+01,-1.049932583851704848e+01,8.568106764142734422e-01,1.359886934224794897e-01,4.973736422898791254e-01,1.441649493826441244e+02
-1.288972255879200723e+01,1.229373707222438483e+01,-1.059238631363910876e+01,8.262078572972535451e-01,1.495367338574938587e-01,5.431549887172464341e-01,1.457226071577229334e+02
-1.259039701911283693e+01,1.257820284570428804e+01,-1.064987749706159192e+01,7.929479361914592017e-01,1.626038615119154429e-01,5.871895390008262661e-01,1.472802649328017424e+02
-1.230055731338964620e+01,1.284459049042514067e+01,-1.067121091284670165e+01,7.571378769232551820e-01,1.751480523752261542e-01,6.293356775824366922e-01,1.488379227078805513e+02
-1.202155899913219272e+01,1.309263739264792115e+01,-1.065579832820499107e+01,7.188928445123580202e-01,1.871289641670133008e-01,6.694578619147605325e-01,1.503955804829593603e+02
-1.175476058029144788e+01,1.332208884824676787e+01,-1.060305175745275363e+01,6.783358348301689045e-01,1.985080660735916991e-01,7.074270583527858536e-01,1.519532382580381693e+02
-1.150152348757591092e+01,1.353269807775866518e+01,-1.051238346596837836e+01,6.355972790764422564e-01,2.092487626604653816e-01,7.431211571179329178e-01,1.535108960331169783e+02
-1.125803684643433833e+01,1.372823697711741353e+01,-1.037971493265457568e+01,5.254331757940254866e-01,1.762956994606092453e-01,8.323687909376534799e-01,1.551040573606738917e+02
-1.103176660388801267e+01,1.390330770171805064e+01,-1.020595019077749477e+01,4.041366018780681024e-01,1.396074198365891694e-01,9.039808489947210868e-01,1.566972186882308051e+02
-1.082419071644496711e+01,1.405766846139034421e+01,-9.990458418242292638e+00,2.742774723182542229e-01,9.996123960034057621e-02,9.564400758835893690e-01,1.582903800157877185e+02
-1.063679028685607086e+01,1.419108629235804919e+01,-9.732609086509006247e+00,1.386071182808362723e-01,5.819714387126073696e-02,9.886349979677279132e-01,1.598835413433446320e+02
-1.047104954166019297e+01,1.430333707379662300e+01,-9.431771965032899274e+00,0.000000000000000000e+00,1.519999199371748627e-02,9.998834733319879042e-01,1.614767026709015454e+02
-1.032745582853157984e+01,1.439468910397415158e+01,-9.088255890037483908e+00,7.345792764472328096e-02,-1.350684512563871120e-01,9.881085195166608992e-01,1.630698639984584588e+02
-1.020449329245503201e+01,1.446637855313885090e+01,-8.704247526678859259e+00,1.448505572634255500e-01,-2.815393926620458620e-01,9.485525217087501515e-01,1.646630253260153722e+02
-1.009963337779002224e+01,1.452011369544620401e+01,-8.282872589325567247e+00,2.121706588889945011e-01,-4.200947479780910987e-01,8.823276116204769037e-01,1.662561866535722856e+02
-1.001033168123358585e+01,1.455758721733301186e+01,-7.827257055229653204e+00,2.735255030240940077e-01,-5.468389822741623885e-01,7.912957264264850465e-01,1.678493479811291991e+02
-9.934027992770928961e+00,1.458047613561577016e+01,-7.340527142530751448e+00,3.271900752260222811e-01,-6.582086339158397248e-01,6.780162600647964277e-01,1.694425093086861125e+02
-9.868146336799885177e+00,1.459044171576441329e+01,-6.825809288259130803e+00,3.716555754285367219e-01,-7.510725023994051508e-01,5.456741054808892377e-01,1.710356706362430259e+02
-9.810095013429128485e+00,1.458912939035217882e+01,-6.286230126337592594e+00,4.056718384533016808e-01,-8.228196832836928154e-01,3.979901107902050206e-01,1.726288319637999393e+02
-9.757266639949909504e+00,1.457816867768236513e+01,-5.724916465582274405e+00,4.282824830370373093e-01,-8.714329750754372661e-01,2.391164667577914960e-01,1.742219932913568528e+02
-9.707038192481107330e+00,1.455917310059266967e+01,-5.144995267702534569e+00,4.388518011076011915e-01,-8.955455941290179078e-01,7.351996667995323864e-02,1.758151546189137662e+02
-9.656822205244438351e+00,1.453358490867279684e+01,-4.549591547968860894e+00,4.036509170340362718e-01,-9.121897495125782518e-01,7.052515906667726486e-02,1.774083159464706796e+02
-9.606089852513823857e+00,1.450374394684591373e+01,-3.963510889246729008e+00,3.678344221304315487e-01,-9.274427232183818370e-01,6.742279321422448013e-02,1.789451473100430405e+02
-9.550897274469157594e+00,1.446974301275162489e+01,-3.368790931613365736e+00,3.314569401818852068e-01,-9.412812526477665198e-01,6.421760053619469943e-02,1.804819786736154015e+02
-9.489057969799796766e+00,1.443240024557002243e+01,-2.768210872239671438e+00,2.945739505668076297e-01,-9.536842323748427885e-01,6.091446927072001472e-02,1.820188100371877624e+02
-9.418377458334905583e+00,1.439252094538272253e+01,-2.164549946640540679e+00,2.572417036447615657e-01,-9.646327463379537059e-01,5.751843702547393411e-02,1.835556414007601234e+02
-9.336653313243527208e+00,1.435089753326443329e+01,-1.560587410479399750e+00,2.195171349681062367e-01,-9.741100966921580895e-01,5.403468309484001780e-02,1.850924727643324843e+02
-9.241675193317039572e+00,1.430830951150728225e+01,-9.591025213725158372e-01,1.814577784482435396e-01,-9.821018292785871351e-01,5.046852056094888045e-02,1.866293041279048452e+02
-9.131224875333765922e+00,1.426552342397829953e+01,-3.628745206931487388e-01,1.431216786089140602e-01,-9.885957556717789307e-01,4.682538819063025715e-02,1.881661354914772062e+02
-9.003076286505612202e+00,1.422329281661036582e+01,2.253173846240962286e-01,1.045673020603874737e-01,-9.935819717713251231e-01,4.311084214063873321e-02,1.897029668550495671e+02
-8.854995537006548290e+00,1.418235819802696973e+01,8.026940402788103057e-01,6.585344832958692218e-02,-9.970528729094330078e-01,3.933054748380534343e-02,1.912397982186219281e+02
-8.684740952582703954e+00,1.414344700030111390e+01,1.366476362800185695e+00,2.703916018217226644e-02,-9.990031654513216175e-01,3.549026956904008379e-02,1.927766295821942890e+02
-8.490063107243919660e+00,1.410727353984869481e+01,1.913885357741880844e+00,-1.181636642661234096e-02,-9.994298748707293178e-01,3.159586522836514005e-02,1.943134609457666500e+02
-8.268704856036510620e+00,1.407453897845667257e+01,2.442142137876383234e+00,-5.065387263495373105e-02,-9.983323502881841227e-01,2.765327384439179165e-02,1.958502923093390109e+02
-8.018401367897102006e+00,1.404593128444640193e+01,2.948467941388904556e+00,-8.941412705361014013e-02,-9.957122654650919502e-01,2.366850829186790267e-02,1.973871236729113718e+02
-7.736880158587326584e+00,1.402212519397241230e+01,3.430084150070686455e+00,-1.280380161032982633e-01,-9.915736162521063823e-01,1.964764576711454033e-02,1.989239550364837328e+02
-7.421861123709219576e+00,1.400378217245697243e+01,3.884212307511566653e+00,-1.664666341724986565e-01,-9.859227144956586031e-01,1.559681851934288134e-02,2.004607864000560937e+02
-7.071806377022554102e+00,1.399084687463198939e+01,4.308677137666837353e+00,-2.046413734581369048e-01,-9.787681784119298678e-01,1.152220449799102979e-02,2.019976177636284547e+02
-6.619828864502843579e+00,1.398078408426946950e+01,4.763047942948576363e+00,-2.425040133520692254e-01,-9.701209194429488702e-01,7.430017930350037159e-03,2.037839543238071371e+02
-6.119459123867959427e+00,1.397296628277629971e+01,5.174505743621267584e+00,-2.799968092370008765e-01,-9.599941256148575297e-01,3.326499843854012397e-03,2.055702908839858196e+02
-5.571931576736262492e+00,1.396369939339173349e+01,5.542463367809046915e+00,-3.170625805563667132e-01,-9.484032414237409947e-01,-7.820914525057567727e-04,2.073566274441645021e+02
-4.979944034258879881e+00,1.394763202621214759e+01,5.866205245015982506e+00,-3.536447980238081046e-01,-9.353659442797074286e-01,-4.889489913120790253e-03,2.091429640043431846e+02
-4.349107818733841668e+00,1.391610290083583301e+01,6.144758629021255913e+00,-3.896876698391996130e-01,-9.209021175451681529e-01,-8.989431312496987472e-03,2.109293005645218670e+02
-3.760979283522439154e+00,1.386753050771278595e+01,6.354090608688300001e+00,-4.251362267796909289e-01,-9.050338202084589057e-01,-1.307566279919765428e-02,2.125192776248340465e+02
-3.153486107411343387e+00,1.379291510871341764e+01,6.526547956412069418e+00,-4.599364060359562578e-01,-8.877852532390878570e-01,-1.714195243242255806e-02,2.141092546851462259e+02
-2.531627262236543441e+00,1.368551202473020467e+01,6.661366629578384213e+00,-4.940351336657539116e-01,-8.691827226759525349e-01,-2.118209868667365187e-02,2.156992317454584054e+02
-1.900466834348593093e+00,1.353860685367188843e+01,6.757782849348395793e+00,-5.273804055390135526e-01,-8.492545995048639274e-01,-2.518993991000763669e-02,2.172892088057705848e+02
-1.265133946565480061e+00,1.334551580734759213e+01,6.815033106012642783e+00,-5.599213666509788023e-01,-8.280312763866066739e-01,-2.915936372144636163e-02,2.188791858660827643e+02
-6.303164509751950639e-01,1.310229458873240027e+01,6.833057161327822371e+00,-5.916083886824178295e-01,-8.055451213015781819e-01,-3.308431633320942783e-02,2.204691629263949437e+02
8.914661386866038059e-04,1.281095329786673886e+01,6.813365063171421987e+00,-6.223931456886038216e-01,-7.818304281817488599e-01,-3.695881178354874785e-02,2.220591399867071232e+02
6.271535061121272792e-01,1.247724699950447658e+01,6.758498155220852510e+00,-6.522286878016190226e-01,-7.569233646052841991e-01,-4.077694106610087882e-02,2.236491170470193026e+02
1.247801887898865925e+00,1.210744729548981091e+01,6.671162044905434740e+00,-6.810695128335714221e-01,-7.308619166336520756e-01,-4.453288114183212576e-02,2.252390941073314821e+02
1.862229887769620618e+00,1.170782935737143760e+01,6.554062567189993693e+00,-7.088716356715301092e-01,-7.036858308753903835e-01,-4.822090381983087232e-02,2.268290711676436615e+02
2.469891847417242658e+00,1.128467161020959963e+01,6.409905765606564110e+00,-7.355926553583452820e-01,-6.754365538649472755e-01,-5.183538449340184540e-02,2.284190482279558410e+02
3.070303181392211922e+00,1.084425541635290102e+01,6.241397873285782438e+00,-7.611918197570636258e-01,-6.461571688490957976e-01,-5.537081071813858280e-02,2.300090252882680204e+02
3.661893269141812901e+00,1.039375365921785566e+01,6.051638671628187360e+00,-7.856300877003390415e-01,-6.158923300773728737e-01,-5.882179061889238059e-02,2.315958987753729446e+02
4.245482989277835628e+00,9.938572633636203690e+00,5.843016950504109630e+00,-8.088701885300733085e-01,-5.846881946968083277e-01,-6.218306111281639986e-02,2.331827722624778687e+02
4.820772792573134957e+00,9.484956677300601768e+00,5.618222577440474375e+00,-8.308766789365192862e-01,-5.525923523548428307e-01,-6.544949593594651116e-02,2.347696457495827929e+02
5.387523698431859742e+00,9.039151786846300496e+00,5.379945532825849419e+00,-8.516159970101855325e-01,-5.196537526178469646e-01,-6.861611346107859832e-02,2.363565192366877170e+02
5.945557298917374389e+00,8.607405304874786722e+00,5.130875891129655919e+00,-8.710565134241529117e-01,-4.859226303159573934e-01,-7.167808429502278700e-02,2.379433927237926412e+02
6.494129838727548787e+00,8.195165824530679544e+00,4.873570929831238630e+00,-8.891685796687812671e-01,-4.514504289281238147e-01,-7.463073864365063481e-02,2.395302662108975653e+02
7.031295886538660334e+00,7.806288167397583244e+00,4.610322239276546163e+00,-9.059245732652887462e-01,-4.162897221242347068e-01,-7.746957343350666103e-02,2.411171396980024895e+02
7.554518664771699754e+00,7.443840528414560787e+00,4.343288578969361602e+00,-9.212989398892975634e-01,-3.804941335839924221e-01,-8.019025917912739332e-02,2.427040131851074136e+02
8.061290805320098229e+00,7.110906624050467251e+00,4.074628734789762952e+00,-9.352682323401469988e-01,-3.441182552148407958e-01,-8.278864658559854928e-02,2.442908866722123378e+02
8.549134390146827300e+00,6.810585540390611925e+00,3.806501503923023666e+00,-9.478111462965970180e-01,-3.072175638936746611e-01,-8.526077287628587575e-02,2.458777601593172619e+02
8.995213723736775080e+00,6.556613415271695722e+00,3.552930894293012898e+00,-9.589085528044358764e-01,-2.698483368593123100e-01,-8.760286783609411154e-02,2.473929803015676043e+02
9.420037387289966091e+00,6.336921109082598313e+00,3.303650818380804211e+00,-9.685435274464998523e-01,-2.320675658847571876e-01,-8.981135956104281670e-02,2.489082004438179467e+02
9.821556481686345208e+00,6.154170525148478177e+00,3.060522154735240363e+00,-9.767013761506618819e-01,-1.939328703601422288e-01,-9.188287990539500960e-02,2.504234205860682891e+02
1.019784273421042897e+01,6.010518486329576859e+00,2.825017939632019637e+00,-9.833696575964824271e-01,-1.555024094188880435e-01,-9.381426961803769615e-02,2.519386407283186315e+02
1.054717859207496744e+01,5.907098775605565066e+00,2.597835554617896836e+00,-9.885382021863891033e-01,-1.168347932410797874e-01,-9.560258316028463765e-02,2.534538608705689740e+02
1.086795102444418148e+01,5.844538069621194154e+00,2.379284525153106955e+00,-9.921991275525006149e-01,-7.798899366930021892e-02,-9.724509319776010463e-02,2.549690810128193164e+02
1.117780740971808129e+01,5.824627772047038299e+00,2.155012295803489852e+00,-9.943468505754795572e-01,-3.902425427320957430e-02,-9.873929475951710721e-02,2.565934096239146811e+02
1.145011539868773376e+01,5.855308798549406113e+00,1.941547161241919950e+00,-9.949780958971221612e-01,-0.000000000000000000e+00,-1.000829090580521719e-01,2.582177382350100743e+02
1.168286105579082346e+01,5.937421604670052311e+00,1.739275612206555133e+00,-9.956419654736985425e-01,3.589187074252870452e-02,-8.606305942589967395e-02,2.598420668461054674e+02
1.187464648400723988e+01,6.071022078586743476e+00,1.548496155475418190e+00,-9.948270816445858866e-01,7.173042963406149608e-02,-7.191538838512320786e-02,2.614663954572008606e+02
1.202528870206887568e+01,6.254578933547388253e+00,1.369331409643596231e+00,-9.925346549824263231e-01,1.074624512204010590e-01,-5.766090731311603740e-02,2.630907240682962538e+02
1.213519439542997347e+01,6.485763733830779643e+00,1.201816006270024273e+00,-9.887680900700260844e-01,1.430348682638796498e-01,-4.332078618260299524e-02,2.647150526793916470e+02
1.220474521921229183e+01,6.762246032691376918e+00,1.045984491667910188e+00,-9.835329804447737745e-01,1.783948505045633015e-01,-2.891632214138257009e-02,2.663393812904870401e+02
1.223429779421404362e+01,7.081693505572793867e+00,9.018713266542266460e-01,-9.768371003016207421e-01,2.134898830705159178e-01,-1.446890790375389597e-02,2.679637099015824333e+02
1.222418370321107695e+01,7.441772083337677479e+00,7.695108862996711263e-01,-9.686903929641765831e-01,2.482678444214204416e-01,-0.000000000000000000e+00,2.695880385126778265e+02
1.217508358144129588e+01,7.840158385146004605e+00,6.489899377486894050e-01,-9.812420369974732548e-01,1.927694395837902808e-01,-1.417036255421905405e-03,2.712123671237732196e+02
1.208840137501582568e+01,8.274549050930922078e+00,5.405001176560351173e-01,-9.906148190218223570e-01,1.366465307525880635e-01,-2.829481888635998130e-03,2.728366957348686128e+02
1.197286542836502932e+01,8.718920296215113552e+00,4.485867093449482090e-01,-9.967783742955725890e-01,8.008093574840113860e-02,-4.232761087223992601e-03,2.743826603265579251e+02
1.182691193441454480e+01,9.191019745499106719e+00,3.678954581632785659e-01,-9.997127348590858498e-01,2.325590659353830858e-02,-5.622327733582691868e-03,2.759286249182472375e+02
1.165198586110070522e+01,9.688905843816513652e+00,2.986346072799874185e-01,-9.994083942357662176e-01,-3.364446417069157091e-02,-6.993680133075795557e-03,2.774745895099365498e+02
1.144951239787217823e+01,1.021062879445175575e+01,2.410123241085322388e-01,-9.958663382364574268e-01,-9.043583989176381954e-02,-8.342375598289476085e-03,2.790205541016258621e+02
1.122089693560496393e+01,1.075423065886535845e+01,1.952366989280459042e-01,-9.890980417698460592e-01,-1.469342370054932956e-01,-9.664044842131364749e-03,2.805665186933151745e+02
1.096752504672570794e+01,1.131774545670179677e+01,1.615157435048370227e-01,-9.791254316690856108e-01,-2.029566210921559533e-01,-1.095440613313187171e-02,2.821124832850044868e+02
1.069076246554316967e+01,1.189919926587929133e+01,1.400573897141741964e-01,-9.659808156550380165e-01,-2.583214998576567334e-01,-1.220927916707717671e-02,2.836584478766937991e+02
1.039195506878796138e+01,1.249661032276072881e+01,1.310694881625018016e-01,-9.497067776663222771e-01,-3.128495111181935906e-01,-1.342459861002297597e-02,2.852044124683831114e+02
1.007242885636096830e+01,1.310798912240469782e+01,1.347598068101535929e-01,-9.303560398954069388e-01,-3.663640038830673351e-01,-1.459642726880351973e-02,2.867503770600724238e+02
9.733489932290526170e+00,1.373133851889575752e+01,1.513360295944977951e-01,-9.079912919779226099e-01,-4.186916106526827885e-01,-1.572096884635858227e-02,2.882963416517617361e+02
9.376424485898569472e+00,1.436465382575289240e+01,1.810057550534993343e-01,-8.826849878888617384e-01,-4.696628090772849151e-01,-1.679458024054757831e-02,2.898423062434510484e+02
9.002498773175858560e+00,1.500592291641538090e+01,2.239764949497259627e-01,-8.545191112040121384e-01,-5.191124711565046068e-01,-1.781378334660072699e-02,2.913882708351403608e+02
8.612959098366225419e+00,1.565312632480539534e+01,2.804556728948532363e-01,-8.235849094875177245e-01,-5.668803982002157404e-01,-1.877527632496730700e-02,2.929342354268296731e+02
8.209031795759882399e+00,1.630423734596651997e+01,3.506506229746855774e-01,-7.899825986665203192e-01,-6.128118398174120518e-01,-1.967594429805493914e-02,2.944802000185189854e+02
7.765410229598376901e+00,1.699781491531690136e+01,4.405577766527251082e-01,-7.538210383510977053e-01,-6.567579952516361397e-01,-2.051286944120626204e-02,2.961223233005255224e+02
7.308003669879850506e+00,1.769098675237137996e+01,5.466036380841280407e-01,-7.152173791518547930e-01,-6.985764954387725378e-01,-2.128334043522404559e-02,2.977644465825320594e+02
6.838236089276716001e+00,1.838120871341825691e+01,6.690391701300812954e-01,-6.742966831382449788e-01,-7.381318642255568774e-01,-2.198486124982613338e-02,2.994065698645385964e+02
6.357505271328235175e+00,1.906592773989543232e+01,8.081152130939555089e-01,-6.311915186676967382e-01,-7.752959572547496458e-01,-2.261515922958139482e-02,3.010486931465451335e+02
5.867182786608151623e+00,1.974258199895941956e+01,9.640824828439615857e-01,-5.860415308986195448e-01,-8.099483770953631590e-01,-2.317219245613907561e-02,3.026908164285516705e+02
5.369157285779216693e+00,2.040888792507922389e+01,1.137165829315773813e+00,-5.389929893790990079e-01,-8.419768632733551916e-01,-2.365415636291036405e-02,3.043329397105582075e+02
4.866381639917324975e+00,2.106312269839895279e+01,1.327538495208370417e+00,-4.901983141772999764e-01,-8.712776559395997156e-01,-2.405948958078397287e-02,3.059750629925647445e+02
4.362335356294018140e+00,2.170383061462184315e+01,1.535347854307054449e+00,-4.398155820890472523e-01,-8.977558319973903966e-01,-2.438687899594964986e-02,3.076171862745712815e+02
3.860483130229630966e+00,2.232953398903836728e+01,1.760741149999739408e+00,-3.880080145225220378e-01,-9.213256126010195279e-01,-2.463526400345676312e-02,3.092593095565778185e+02
3.364274785925619682e+00,2.293873323604797676e+01,2.003865494173343365e+00,-3.349434487192901044e-01,-9.419106410297366505e-01,-2.480383994274090037e-02,3.109014328385843555e+02
2.911921511622018510e+00,2.348812844012278589e+01,2.245245294333132247e+00,-2.807937940247731690e-01,-9.594442300373982047e-01,-2.489206070400137166e-02,3.124246130759309494e+02
2.469893616921011503e+00,2.402158435085210186e+01,2.501898994633379836e+00,-2.257344749696247876e-01,-9.738695778769999034e-01,-2.489964049699830081e-02,3.139477933132775433e+02
2.040841624574781576e+00,2.453790739871095283e+01,2.773941979428252047e+00,-1.699438629661076394e-01,-9.851399523007579040e-01,-2.482655477655055024e-02,3.154709735506241373e+02
1.627191078530417334e+00,2.503612052311874692e+01,3.060924213625151769e+00,-1.136026984603740742e-01,-9.932188419401288826e-01,-2.467304032174660877e-02,3.169941537879707312e+02
1.230931250794320198e+00,2.551569685197835824e+01,3.361264925157850580e+00,-5.689350541238605286e-02,-9.980800745757895109e-01,-2.443959446862062693e-02,3.185173340253173251e+02
8.538336408497277930e-01,2.597633023549128950e+01,3.672817935573991388e+00,-0.000000000000000000e+00,-9.997079019148148449e-01,-2.412697349878688280e-02,3.200405142626639190e+02
4.785937117400507756e-01,2.644148496935875770e+01,4.011664140991859639e+00,1.959998565696795844e-04,-9.951322717742601132e-01,-9.853792789113820227e-02,3.216490862012672096e+02
1.291423881784405370e-01,2.688398581800523246e+01,4.358168271935111804e+00,6.813423141552460427e-02,-9.880382375798641981e-01,-1.383335374721700317e-01,3.232576581398705002e+02
-1.926857659166844039e-01,2.730337897572143291e+01,4.709742628984515456e+00,1.356466451670930995e-01,-9.747693292750637672e-01,-1.772646111317075224e-01,3.248662300784737909e+02
-4.851538254536850170e-01,2.769918451098558165e+01,5.063789011054645961e+00,2.023113150430844720e-01,-9.554084732309692241e-01,-2.150878450404656861e-01,3.264748020170770815e+02
-7.465283627103584951e-01,2.807091160366385552e+01,5.417709199264774789e+00,2.677116131203193805e-01,-9.300766676391726273e-01,-2.515668589339115635e-01,3.280833739556803721e+02
-9.750794764454117081e-01,2.841805856298364930e+01,5.768904975576130134e+00,3.314388132610190940e-01,-8.989322263414406544e-01,-2.864736733263145707e-01,3.296919458942836627e+02
-1.169080820972439705e+00,2.874011284563255586e+01,6.114778141429280112e+00,3.930946453746740343e-01,-8.621697894741167101e-01,-3.195901342281930457e-01,3.313005178328869533e+02
-1.326809635196137371e+00,2.903655107398295598e+01,6.452730536381367621e+00,4.522937843454701290e-01,-8.200191071197249215e-01,-3.507092764684626718e-01,3.329090897714902439e+02
-1.446546771610603965e+00,2.930683905444198345e+01,6.780164056743162249e+00,5.086662580769818476e-01,-7.727436035628754141e-01,-3.796366171044948112e-01,3.345176617100935346e+02
-1.526576725259630951e+00,2.955043179592672331e+01,7.094480674215854599e+00,5.618597596102833380e-01,-7.206387311171049692e-01,-4.061913708394350175e-01,3.361262336486968252e+02
-1.565187662658784618e+00,2.976677352846444435e+01,7.393082454527426073e+00,6.115418488697745847e-01,-6.640301238031148801e-01,-4.302075798526238115e-01,3.377348055873001158e+02
-1.560671450679094630e+00,2.995529772191764550e+01,7.673371576068698907e+00,6.574020302792109582e-01,-6.032715624088886841e-01,-4.515351509828105514e-01,3.393433775259034064e+02
-1.512660795740186970e+00,3.011311230712374609e+01,7.928620597248291268e+00,6.991536932644440983e-01,-5.387427636405804909e-01,-4.700407937817885351e-01,3.409249258207854041e+02
-1.421053470116518280e+00,3.024333038699501941e+01,8.161456542149522875e+00,6.358628725514419155e-01,-6.360992596505865571e-01,-4.370974023971654354e-01,3.425064741156674017e+02
-1.287562291491187061e+00,3.034580319737263920e+01,8.370012355811219606e+00,5.633079906155771255e-01,-7.241882025445506299e-01,-3.977858154886578790e-01,3.440880224105493994e+02
-1.115005461274727105e+00,3.042052970430617975e+01,8.552619091079286306e+00,4.825461285083502139e-01,-8.017262074288277196e-01,-3.526787804556905659e-01,3.456695707054313971e+02
-9.061994266364749029e-01,3.046752564399711716e+01,8.707607980679982873e+00,3.947539337631477685e-01,-8.675836115178935382e-01,-3.024334783132578974e-01,3.472511190003133947e+02
-6.639588379490192205e-01,3.048682351312288219e+01,8.833310448792014213e+00,3.012104770503515883e-01,-9.208009309468450088e-01,-2.477819486631058776e-01,3.488326672951953924e+02
-3.910965062549425775e-01,3.047847255898070884e+01,8.928058122617649417e+00,2.032786171101254591e-01,-9.606028381098901114e-01,-1.895204243397478061e-01,3.504142155900773901e+02
-9.042336075611534518e-02,3.044253876945133541e+01,8.990182843952791103e+00,1.023851454490383450e-01,-9.864094561024712160e-01,-1.284977311238321984e-01,3.519957638849593877e+02
2.352515936742337055e-01,3.037910486278272515e+01,9.018016680755920333e+00,0.000000000000000000e+00,-9.978448059153464111e-01,-6.560292149536549322e-02,3.535773121798413854e+02
5.830669042460738805e-01,3.028811641131079213e+01,9.010143984684821916e+00,-8.095182334250169975e-02,-9.771542597845788158e-01,-1.965053558645551979e-01,3.551588604747233830e+02
9.500523021008768776e-01,3.016922840624097191e+01,8.965653446883917965e+00,-1.599513377560848326e-01,-9.328978953263498131e-01,-3.226686945566336617e-01,3.567404087696053807e+02
1.320691327487331090e+00,3.002734141769191112e+01,8.887194693295819903e+00,-2.350933361730670190e-01,-8.661430367708774503e-01,-4.410502954783338536e-01,3.582715807443294693e+02
1.703562843521585046e+00,2.985892910486416341e+01,8.773438964250834360e+00,-3.045656419763895784e-01,-7.784995913898213882e-01,-5.487951857792654486e-01,3.598027527190535579e+02
2.095945014247281524e+00,2.966359444854794702e+01,8.623792754147759254e+00,-3.666928108182435087e-01,-6.720812253756320853e-01,-6.433049113699913502e-01,3.613339246937776466e+02
2.495112713672226423e+00,2.944095608949986698e+01,8.437662790619906872e+00,-4.199765354728830502e-01,-5.494543922601784480e-01,-7.223002010791040872e-01,3.628650966685017352e+02
2.898337564243517850e+00,2.919064834462210811e+01,8.214456038393569415e+00,-4.404925794903271075e-01,-5.655743079257812278e-01,-6.972015416132614218e-01,3.643962686432258238e+02
3.303277278663350192e+00,2.891249629881567529e+01,7.954220175808441873e+00,-4.604312654444466801e-01,-5.809529207933729067e-01,-6.711890595224697664e-01,3.659274406179499124e+02
3.708367214763561126e+00,2.860668786899520200e+01,7.658284067173149801e+00,-4.797664600409117241e-01,-5.955700744723593232e-01,-6.442968494511495114e-01,3.674586125926740010e+02
4.112434420955383807e+00,2.827359418902421950e+01,7.328617281465817257e+00,-4.984728209768434226e-01,-6.094066105993262150e-01,-6.165601590316920344e-01,3.689897845673980896e+02
4.522876433603532753e+00,2.790541946630779790e+01,6.959047127013760381e+00,-5.165258301505245564e-01,-6.224443939428916384e-01,-5.880153426879275447e-01,3.705537608425730127e+02
4.929770943825126039e+00,2.750924315190948732e+01,6.558297933508711708e+00,-5.339018257912752086e-01,-6.346663361682235438e-01,-5.586998139892491722e-01,3.721177371177479358e+02
5.331869335619878747e+00,2.708548734271995073e+01,6.128478865801693765e+00,-5.505780334672144560e-01,-6.460564182298218494e-01,-5.286519966173793827e-01,3.736817133929228589e+02
5.727926906391564543e+00,2.663458134680838185e+01,5.671699285838951887e+00,-5.665325959303340042e-01,-6.565997113632725535e-01,-4.979112740099796985e-01,3.752456896680977820e+02
6.116702884700810472e+00,2.615696166351410668e+01,5.190068738359931544e+00,-5.817446017598315589e-01,-6.662823966485160732e-01,-4.665179377470392574e-01,3.768096659432727051e+02
6.496960447976343644e+00,2.565307196346396879e+01,4.685696936594345274e+00,-5.961941127662242490e-01,-6.750917831190328400e-01,-4.345131347476154371e-01,3.783736422184476282e+02
6.867466740184431373e+00,2.512336306851578271e+01,4.160693747958303490e+00,-6.098621901203759021e-01,-6.830163243932537709e-01,-4.019388133460459755e-01,3.799376184936225513e+02
7.226992889456481883e+00,2.456829293162798322e+01,3.617169179749599728e+00,-6.227309191732427474e-01,-6.900456338064249184e-01,-3.688376683182211235e-01,3.815015947687974744e+02
7.574314025674786954e+00,2.398832661665559840e+01,3.057233364842330658e+00,-6.347834329338462034e-01,-6.961704980231230300e-01,-3.352530849298680504e-01,3.830655710439723975e+02
7.908209298016184441e+00,2.338393627807273489e+01,2.482996547380844632e+00,-6.460039341747346731e-01,-7.013828891125925002e-01,-3.012290820800831992e-01,3.846295473191473206e+02
8.227461892453561632e+00,2.275560114062174222e+01,1.896569068473106690e+00,-6.563777161359908296e-01,-7.056759750710851486e-01,-2.668102546145263432e-01,3.861935235943222438e+02
8.530859049215102630e+00,2.210380747888924091e+01,1.300061351883602612e+00,-6.658911818006597594e-01,-7.090441287774126300e-01,-2.320417148837779775e-01,3.877574998694971669e+02
8.817192080201161630e+00,2.142904859680922058e+01,6.955838897258267428e-01,-7.142513392199832944e-01,-6.601633892587224217e-01,-2.324377849633105508e-01,3.893214761446720900e+02
9.085556057947087538e+00,2.073190359736094024e+01,8.525572914785621570e-02,-7.709208131549379894e-01,-6.173088430743008947e-01,-1.568722158563457814e-01,3.908854524198470131e+02
9.326715185857432644e+00,2.004062703966575043e+01,-5.057504388323507127e-01,-8.192966258384439815e-01,-5.678132202434732489e-01,-7.961900405971375494e-02,3.923908549736837585e+02
9.551157924977882629e+00,1.933045514477595361e+01,-1.098272615017400922e+00,-8.588583464699565129e-01,-5.122090031070078986e-01,-1.509250182759674323e-03,3.938962575275205040e+02
9.758895949036418216e+00,1.860210371685667141e+01,-1.690414459209963027e+00,-8.891803681774242962e-01,-4.510943907407725662e-01,7.661673114464498391e-02,3.954016600813572495e+02
9.949946972517373922e+00,1.785628834035435020e+01,-2.280279633591951072e+00,-9.099364865207043573e-01,-3.851268631968778888e-01,1.539184516029008798e-01,3.969070626351939950e+02
1.012433474974946179e+01,1.709372435062442364e+01,-2.865971814635544401e+00,-9.209034085310874307e-01,-3.150161080282297132e-01,2.295642912999339702e-01,3.984124651890307405e+02
1.028208907393513272e+01,1.631512680456278730e+01,-3.445594705014026538e+00,-9.219631545751063584e-01,-2.415163852251129284e-01,3.027404453905997439e-01,3.999178677428674860e+02
1.042324577612124337e+01,1.552121045124143173e+01,-4.017252045512511138e+00,-9.131043272363950081e-01,-1.654184127187781350e-01,3.726596789531434473e-01,4.014232702967042314e+02
1.054784672411103408e+01,1.471268970254844888e+01,-4.579047626938535842e+00,-8.944222335990289485e-01,-8.754085975690689692e-02,4.385697959487435127e-01,4.029286728505409769e+02
1.065593982131742301e+01,1.389027860383262869e+01,-5.129085302032394544e+00,-8.661178596486622805e-01,-8.721539665698153226e-03,4.997617311732895362e-01,4.044340754043777224e+02
1.074757900555760060e+01,1.305469080455284292e+01,-5.665468997377165472e+00,-8.284957078513907058e-01,7.019160326129096628e-02,5.555771781717812052e-01,4.059394779582144679e+02
1.082282424778892249e+01,1.220663952893252713e+01,-6.186302725308406636e+00,-7.819605211923720267e-01,1.483496158003818066e-01,6.054156710809007746e-01,4.074448805120512134e+02
1.088174155078632310e+01,1.134683754661942601e+01,-6.689690595823402752e+00,-7.270129289260844896e-01,2.249116686482289518e-01,6.487410442403667155e-01,4.089502830658879589e+02
1.092529790113138333e+01,1.045640560667292540e+01,-7.184695809793528731e+00,-7.161305230572415637e-01,2.124300655788691761e-01,6.648522701939069135e-01,4.104894614825212784e+02
1.095255538785825244e+01,9.555612656326760046e+00,-7.658929616072795099e+00,-7.048658540521677285e-01,1.998350695663028420e-01,6.806086046773198728e-01,4.120286398991545980e+02
1.096433647714977511e+01,8.645789288051133781e+00,-8.111943895845623587e+00,-6.932249346667971324e-01,1.871334034613588437e-01,6.960016373998199057e-01,4.135678183157879175e+02
1.096147565454085715e+01,7.728261167297137746e+00,-8.543290669611280919e+00,-6.812139784705207868e-01,1.743318470477547844e-01,7.110231519713618997e-01,4.151069967324212371e+02
1.094481941233323852e+01,6.804348972514167926e+00,-8.952522100122971338e+00,-6.688393965296295374e-01,1.614372334243133200e-01,7.256651302854051355e-01,4.166461751490545566e+02
1.091522623688697280e+01,5.875368335219783411e+00,-9.339190495325658148e+00,-6.561077939868671383e-01,1.484564453591809829e-01,7.399197567972330969e-01,4.181853535656878762e+02
1.087356659578905749e+01,4.942629780122343774e+00,-9.702848311292729733e+00,-6.430259665375107625e-01,1.353964116175550569e-01,7.537794226943114184e-01,4.197245319823211958e+02
1.082072292489894672e+01,4.007438665296881197e+00,-1.004304815516209892e+01,-6.296008968038557807e-01,1.222641032648704162e-01,7.672367299564629706e-01,4.212637103989545153e+02
1.075758961527122359e+01,3.071095122414625678e+00,-1.035934278807147457e+01,-6.158397506100258267e-01,1.090665299474116862e-01,7.802844953037014752e-01,4.228028888155878349e+02
1.068507299995546234e+01,2.134893997026711787e+00,-1.065128512809273609e+01,-6.017498731590891214e-01,9.581073615232726937e-02,7.929157540296222217e-01,4.243420672322211544e+02
1.060409134067331749e+01,1.200124788902658945e+00,-1.091842825316549970e+01,-5.873387851145116523e-01,8.250379744903359180e-02,8.051237637183064066e-01,4.258812456488544740e+02
1.051557481437301078e+01,2.680715924240226755e-01,-1.116032540402997775e+01,-5.726141785880242141e-01,6.915281671400683172e-02,8.169020078427619014e-01,4.274204240654877935e+02
1.042046549966133107e+01,-6.599869629663958071e-01,-1.137652998715914876e+01,-5.575839130360381590e-01,5.576492034097020600e-02,8.282441992429799837e-01,4.289596024821211131e+02
