-1.190406458708909598e+00,6.872951720953092425e-02,1.184556541616408687e+01,1.229998345292199072e-03,-4.954633334567920544e-01,-8.686268314426603965e-01,4.552240298091778925e+01
-1.571564858188142288e+00,6.767615018579579977e-02,1.167338817144942453e+01,1.408236891819142399e-03,-2.114437726794450856e-01,-9.773881254981723332e-01,4.705207313626988963e+01
-1.954756059372381394e+00,6.674118884044756561e-02,1.149436211981136857e+01,1.456218661697464192e-03,9.213370053569266971e-02,-9.957445760099639109e-01,4.858174329162199001e+01
-2.339459637510438395e+00,6.630468563426235307e-02,1.130859419196482918e+01,1.369505348825017727e-03,3.871892407059442376e-01,-9.219981650398340056e-01,5.011141344697409039e+01
-2.747627541105835736e+00,6.681700353190891950e-02,1.110497650785423041e+01,1.156117543137494741e-03,6.464311708057300931e-01,-7.629701205178962553e-01,5.173024979186438088e+01
-3.156254740343039877e+00,6.875768497598931661e-02,1.089445480220985729e+01,8.357929164492806364e-04,8.458804454175171683e-01,-5.333700155715822566e-01,5.334908613675467137e+01
-3.564749073091630027e+00,7.253931114138889580e-02,1.067714902375696084e+01,4.381605044719889689e-04,9.670887059226040972e-01,-2.544351447679655820e-01,5.496792248164496186e+01
-3.972515243583849553e+00,7.856994603940097022e-02,1.045317917039686861e+01,0.000000000000000000e+00,9.988447030629399315e-01,4.803393763095137325e-02,5.658675882653525235e+01
-4.378954835331870576e+00,8.725311862288653852e-02,1.022266528833784704e+01,1.606504816168698724e-01,9.739287775183308460e-01,-1.601629141828193603e-01,5.820559517142554284e+01
-4.783466324084981736e+00,9.898780494872291835e-02,9.985727471225841256e+00,3.100914968958758400e-01,8.810565400630500088e-01,-3.571843176382378249e-01,5.982443151631583333e+01
-5.185445090826873660e+00,1.141684103977813614e-01,9.742485859274838234e+00,4.378957298648638585e-01,7.267082100512282095e-01,-5.292830123970170275e-01,6.144326786120612383e+01
-5.584283434812556735e+00,1.331847519529116286e-01,9.493060638397054163e+00,5.351455910540856564e-01,5.216535290952685200e-01,-6.644507445700880144e-01,6.306210420609641432e+01
-5.979370586644810359e+00,1.564220405351085530e-01,9.237572039332889062e+00,5.950554434034487361e-01,2.802002844962976913e-01,-7.532561449109641538e-01,6.468094055098670481e+01
-6.370092721390013146e+00,1.842608633978195243e-01,8.976140336780591866e+00,6.134450653091741978e-01,1.919597075158189364e-02,-7.895027970544338247e-01,6.629977689587700240e+01
-6.755874493622631149e+00,2.170447108433823380e-01,8.708944480417338596e+00,6.390246771032188633e-01,1.658989825964102965e-02,-7.690060060417015508e-01,6.791861324076730000e+01
-7.137305778546069845e+00,2.551586295453316944e-01,8.435502911368459422e+00,6.639133542484558781e-01,1.396588859216245718e-02,-7.476777460950984056e-01,6.954206879845195033e+01
-7.512827732481896170e+00,2.987506113706403510e-01,8.156934709099184388e+00,6.880841871577810798e-01,1.132677885095160174e-02,-7.255410777232458308e-01,7.116552435613660066e+01
-7.881980039452080256e+00,3.480568344429312289e-01,7.873596869031307399e+00,7.115110423571181508e-01,8.675422460785934056e-03,-7.026199354192877999e-01,7.278897991382125099e+01
-8.244300359094378194e+00,4.033100173299853375e-01,7.585846421356546188e+00,7.341685907315271820e-01,6.014686084976919589e-03,-6.789391017861676758e-01,7.441243547150590132e+01
-8.599324336466315444e+00,4.647394072806197984e-01,7.294040428431042500e+00,7.560323349030476647e-01,3.347446526674479218e-03,-6.545241807469266426e-01,7.603589102919055165e+01
-8.946585611876313848e+00,5.325707685049442253e-01,6.998535982169483916e+00,7.770786357098938835e-01,6.765876192289601871e-04,-6.294015698678165904e-01,7.765934658687520198e+01
-9.285615830741289045e+00,6.070263704985086051e-01,6.699690201438814441e+00,7.972847377584557638e-01,-1.995002891035587388e-03,-6.035984318240819047e-01,7.928280214455985231e+01
-9.615944653470062775e+00,6.883249764104784063e-01,6.397860229452069447e+00,8.166287940205494422e-01,-4.664436466275066404e-03,-5.771426650391869861e-01,8.090625770224450264e+01
-9.937099765372993332e+00,7.766818314559233993e-01,6.093403231162264788e+00,8.350898894493880009e-01,-7.328826899439421470e-03,-5.500628735291528404e-01,8.252971325992915297e+01
-1.024860688659814478e+01,8.723086513722665414e-01,5.786676390656123381e+00,8.526480635887970783e-01,-9.985293434079956995e-03,-5.223883359845160612e-01,8.415316881761380330e+01
-1.054998978209374094e+01,9.754136109200314264e-01,5.478036908547890604e+00,8.692843321512739863e-01,-1.263096387828504218e-02,-4.941489741232483746e-01,8.577662437529845363e+01
-1.083311548399410995e+01,1.083266368940695390e+00,5.176013076039015282e+00,8.849807075416020741e-01,-1.526297770938558201e-02,-4.653753203487534518e-01,8.735730461409399084e+01
-1.110555506839422968e+01,1.198651584790110469e+00,4.872847195820333432e+00,8.847879009909153103e-01,3.147796090072551428e-02,-4.649274225062746679e-01,8.893798485288952804e+01
-1.136710623877072379e+01,1.321428883556781120e+00,4.568977683005315704e+00,7.552766163234186925e-01,1.616919166181202128e-02,-6.552051511359576752e-01,9.051866509168506525e+01
-1.161765214347960473e+01,1.451347158425045691e+00,4.264876219653036316e+00,5.855745249370177818e-01,0.000000000000000000e+00,-8.106173423650181453e-01,9.209934533048060246e+01
-1.185707742567478640e+01,1.588154527246502079e+00,3.961014489384885096e+00,6.459956902271120072e-01,-0.000000000000000000e+00,-7.633397462519857513e-01,9.368002556927613966e+01
-1.208526822529865541e+01,1.731598340614105336e+00,3.657864174119667577e+00,7.026145845162246051e-01,-0.000000000000000000e+00,-7.115692135170121890e-01,9.526070580807167687e+01
-1.230211218105563020e+01,1.881425189944643694e+00,3.355896950809055035e+00,7.550979570799650764e-01,-0.000000000000000000e+00,-6.556104599637196939e-01,9.684138604686721408e+01
-1.250749843236866532e+01,2.037380915569560358e+00,3.055584488173123336e+00,8.031368982014770452e-01,-0.000000000000000000e+00,-5.957928522125035542e-01,9.842206628566275128e+01
-1.270131762131893716e+01,2.199210614834142596e+00,2.757398443435494784e+00,8.464486572400087283e-01,-0.000000000000000000e+00,-5.324684691667482817e-01,1.000027465244582885e+02
-1.288346189456870761e+01,2.366658650205044179e+00,2.461810459058334288e+00,8.847783067529972900e-01,-0.000000000000000000e+00,-4.660100298271053210e-01,1.015834267632538257e+02
-1.304864055678809720e+01,2.534193719933827804e+00,2.178204408412551363e+00,9.179002428838243244e-01,-0.000000000000000000e+00,-3.968086996449491921e-01,1.031159297517043143e+02
-1.320231323550180313e+01,2.706666364310748918e+00,1.898017998997473477e+00,9.456195131889867378e-01,-0.000000000000000000e+00,-3.252717883189924497e-01,1.046484327401548029e+02
-1.334438275760049031e+01,2.883834348537461345e+00,1.621694473139183579e+00,9.677729640922291265e-01,-0.000000000000000000e+00,-2.518203525770731921e-01,1.061809357286052915e+02
-1.347475332783793434e+01,3.065454797343813986e+00,1.349677047993137258e+00,9.842302012128151256e-01,-0.000000000000000000e+00,-1.768867180439199771e-01,1.077134387170557801e+02
-1.359333053045645734e+01,3.251284202186603078e+00,1.082408912659607036e+00,9.948943569144396148e-01,-0.000000000000000000e+00,-1.009119347719607956e-01,1.092459417055062687e+02
-1.370008531975781985e+01,3.441016794281496871e+00,8.203148421263897205e-01,9.953996929629920221e-01,-0.000000000000000000e+00,-9.579901479954852639e-02,1.107784446939567573e+02
-1.379511860414601720e+01,3.634223534360287555e+00,5.637828113320152434e-01,9.958787530377256614e-01,-0.000000000000000000e+00,-9.068356651294541548e-02,1.123109476824072459e+02
-1.387859814686792959e+01,3.830414682976925445e+00,3.131823758145679260e-01,9.963315244972588136e-01,-0.000000000000000000e+00,-8.556572491684635851e-02,1.138434506708577345e+02
-1.395069487092277427e+01,4.029101758730151417e+00,6.888305248049579610e-02,9.967579953996971165e-01,-0.000000000000000000e+00,-8.044562507957217501e-02,1.153759536593082231e+02
-1.401158285557492000e+01,4.229797555099830575e+00,-1.687456827994721908e-01,9.971581544968067812e-01,-0.000000000000000000e+00,-7.532340212889138131e-02,1.169084566477587117e+02
-1.406143933283186165e+01,4.432016157268433787e+00,-3.993343975945303215e-01,9.975319912343095785e-01,-0.000000000000000000e+00,-7.019919124846346614e-02,1.184409596362092003e+02
-1.410044468388753280e+01,4.635272958927772358e+00,-6.225137053175551216e-01,9.978794957521588405e-01,-0.000000000000000000e+00,-6.507312767428040379e-02,1.199734626246596889e+02
-1.412878243553092261e+01,4.839084679070823292e+00,-8.379142676284062619e-01,9.982006588847975870e-01,-0.000000000000000000e+00,-5.994534669110718195e-02,1.215059656131101775e+02
-1.414663925651990084e+01,5.042969378768219713e+00,-1.045166796836916712e+00,9.984954721613985562e-01,-0.000000000000000000e+00,-5.481598362892063647e-02,1.230384686015606661e+02
-1.415492060995641488e+01,5.266409633083822150e+00,-1.263399767637288784e+00,9.987639278060855830e-01,-0.000000000000000000e+00,-4.968517385934751590e-02,1.247214020487907504e+02
-1.415206925321766285e+01,5.488829183436509496e+00,-1.471833762198793805e+00,9.990060187381381018e-01,-0.000000000000000000e+00,-4.455305279210124147e-02,1.264043354960208347e+02
-1.413832219190535788e+01,5.709651804243628170e+00,-1.670023569055712365e+00,9.992217385721750000e-01,-0.000000000000000000e+00,-3.941975587141779980e-02,1.280872689432509333e+02
-1.411395715889258362e+01,5.928360366492837485e+00,-1.857569151301750487e+00,9.994110816183233714e-01,-0.000000000000000000e+00,-3.428541857249064323e-02,1.297702023904810176e+02
-1.407932859087444655e+01,6.144554473920443627e+00,-2.034160743857669207e+00,9.995740428823662871e-01,-0.000000000000000000e+00,-2.915017639790492762e-02,1.314531358377111019e+02
-1.403483012779377681e+01,6.357893835254722958e+00,-2.199533761772448415e+00,9.997106180658742458e-01,-0.000000000000000000e+00,-2.401416487407093819e-02,1.331360692849411862e+02
-1.398085771521147258e+01,6.568041245559943953e+00,-2.353423708169745776e+00,9.998208035663176396e-01,-0.000000000000000000e+00,-1.887751954765691173e-02,1.348190027321712705e+02
-1.392251878354421279e+01,6.759295455540594411e+00,-2.484990124833284852e+00,9.999045964771609007e-01,-0.000000000000000000e+00,-1.374037598202141643e-02,1.363766605072500795e+02
-1.385616828670418421e+01,6.947018538849793146e+00,-2.605457772994156596e+00,9.999619945879388849e-01,-0.000000000000000000e+00,-8.602869753645159268e-03,1.379343182823288885e+02
-1.378215106308112148e+01,7.130929492063502906e+00,-2.714600332790188197e+00,9.999929963843147140e-01,-0.000000000000000000e+00,-3.465136448562619945e-03,1.394919760574076975e+02
-1.370081375109573862e+01,7.310749799558827533e+00,-2.812191560523755296e+00,9.999976010481200772e-01,-0.000000000000000000e+00,1.672688341206618381e-03,1.410496338324865064e+02
-1.361250478243448647e+01,7.486203443224778376e+00,-2.898005290182729787e+00,9.999758084573749928e-01,-0.000000000000000000e+00,6.810469021226841883e-03,1.426072916075653154e+02
-1.351757437526386063e+01,7.657016912144187337e+00,-2.971815434960956903e+00,9.999276191862939145e-01,-0.000000000000000000e+00,1.194806999821502146e-02,1.441649493826441244e+02
-1.341635757159776610e+01,7.822974409606589852e+00,-3.033476690619035132e+00,9.998530345052684121e-01,-0.000000000000000000e+00,1.708535568360969314e-02,1.457226071577229334e+02
-1.330915673462043003e+01,7.983972893407043969e+00,-3.083005238302082063e+00,9.997520563808350857e-01,-0.000000000000000000e+00,2.222219049713978350e-02,1.472802649328017424e+02
-1.319625768821011569e+01,8.139966634505626075e+00,-3.120498042590097665e+00,9.996246874756241629e-01,-0.000000000000000000e+00,2.735843887039313485e-02,1.488379227078805513e+02
-1.307794639711405793e+01,8.290911938054426500e+00,-3.146052149004727738e+00,9.994709311482899983e-01,-0.000000000000000000e+00,3.249396525038473343e-02,1.503955804829593603e+02
-1.295450896146684627e+01,8.436767144029134968e+00,-3.159764683356078407e+00,9.883143665325663241e-01,3.374511967487106578e-02,1.486404379842284629e-01,1.519532382580381693e+02
-1.282623161130817024e+01,8.577492627837004946e+00,-3.161732851089054108e+00,9.625769740005722941e-01,6.699238382727830399e-02,2.625939634376109888e-01,1.535108960331169783e+02
-1.269037033722962882e+01,8.716134802578148211e+00,-3.151833769504552407e+00,9.226384681677733957e-01,9.925129017549000343e-02,3.726733669803178883e-01,1.551040573606738917e+02
-1.255014261198078529e+01,8.849443534123684785e+00,-3.130123740279797229e+00,8.690880719118480036e-01,1.300459181784709706e-01,4.772546305973440761e-01,1.566972186882308051e+02
-1.240584825002159164e+01,8.977383802305897831e+00,-3.096704699432428765e+00,8.027158234510215484e-01,1.589219499617261222e-01,5.747948508838659487e-01,1.582903800157877185e+02
-1.225778718109490839e+01,9.099922767180544270e+00,-3.051678665351908570e+00,7.245009213138593474e-01,1.854533725610937600e-01,6.638550004495455958e-01,1.598835413433446320e+02
-1.210625944422244338e+01,9.217029769562076424e+00,-2.995147738081986866e+00,6.355972790764422564e-01,2.092487626604653816e-01,7.431211571179329178e-01,1.614767026709015454e+02
-1.195156518169981297e+01,9.328676331532625099e+00,-2.927214098602735515e+00,7.000017621477797602e-01,-1.674062125707549697e-02,7.139434743669282879e-01,1.630698639984584588e+02
-1.179400463309054281e+01,9.434836156924918171e+00,-2.847980008112045436e+00,7.251567351715390020e-01,-2.417913773630660235e-01,6.447345494614177275e-01,1.646630253260153722e+02
-1.163377515277931096e+01,9.535599123421306444e+00,-2.757675851071554884e+00,7.096517237864258254e-01,-4.532847960160571454e-01,5.393749388211590556e-01,1.662561866535722856e+02
-1.147086708649181297e+01,9.631284242576386490e+00,-2.656788177351038005e+00,6.543560684712277364e-01,-6.393623044769926045e-01,4.037721873397293049e-01,1.678493479811291991e+02
-1.130516503385017657e+01,9.722324112837412713e+00,-2.545931655040133634e+00,5.623701974541651660e-01,-7.895903830649025901e-01,2.455296071492286958e-01,1.694425093086861125e+02
-1.113655025601787329e+01,9.809150395334883754e+00,-2.425721022358558354e+00,4.388518011075971947e-01,-8.955455941290098032e-01,7.351996667995257251e-02,1.710356706362430259e+02
-1.096489259789407456e+01,9.892213040608609731e+00,-2.296794988972080453e+00,4.347292331216388583e-01,-8.976946779941745724e-01,7.178272053954670717e-02,1.726288319637999393e+02
-1.079004221775618610e+01,9.971999434199842582e+00,-2.159840137139753757e+00,4.305959568960165962e-01,-8.998216496139026521e-01,7.004370627396812321e-02,1.742219932913568528e+02
-1.061183738208524474e+01,1.004901500923373980e+01,-2.015567011241943707e+00,4.264520742413182575e-01,-9.019264565974522974e-01,6.830296671843398559e-02,1.758151546189137662e+02
-1.043011245334709258e+01,1.012376393859682189e+01,-1.864686207139962137e+00,4.222976872298506157e-01,-9.040090471010377993e-01,6.656054475073071297e-02,1.774083159464706796e+02
-1.025125799529733683e+01,1.019417598180875828e+01,-1.713445666877805085e+00,4.181328981926312194e-01,-9.060693698280952724e-01,6.481648329007519416e-02,1.789451473100430405e+02
-1.006868874163812499e+01,1.026337691740833158e+01,-1.557178115859719769e+00,4.139578097168673532e-01,-9.081073740305458664e-01,6.307082529605763377e-02,1.804819786736154015e+02
-9.882239853461808110e+00,1.033183234171806930e+01,-1.396544885068557118e+00,4.097725246434295032e-01,-9.101230095100452111e-01,6.132361376758358601e-02,1.820188100371877624e+02
-9.691743000520352425e+00,1.040000664206953118e+01,-1.232207334061949933e+00,4.055771460643187165e-01,-9.121162266192189838e-01,5.957489174181495456e-02,1.835556414007601234e+02
-9.497026364533358134e+00,1.046836297776728664e+01,-1.064826846642654035e+00,4.013717773201271877e-01,-9.140869762628858197e-01,5.782470229311000021e-02,1.850924727643324843e+02
-9.297914642536550645e+00,1.053736326106694499e+01,-8.950648265287505234e-01,3.971565219974933503e-01,-9.160352098992660119e-01,5.607308853196261295e-02,1.866293041279048452e+02
-9.094229050270611125e+00,1.060746813816745870e+01,-7.235826930235677024e-01,3.929314839265504178e-01,-9.179608795411761113e-01,5.432009360394046693e-02,1.881661354914772062e+02
-8.885787325610364107e+00,1.067913697021783115e+01,-5.510418766854223716e-01,3.886967671783692624e-01,-9.198639377572113141e-01,5.256576068862248152e-02,1.897029668550495671e+02
-8.672403732034393187e+00,1.075282781433835488e+01,-3.781038149974893514e-01,3.844524760623952986e-01,-9.217443376729124171e-01,5.081013299853537335e-02,1.912397982186219281e+02
-8.453950493521864118e+00,1.082891486839638873e+01,-2.053480388622467290e-01,3.801987151238793716e-01,-9.236020329719204502e-01,4.905325377808941734e-02,1.927766295821942890e+02
-8.230420026368612696e+00,1.090760650988130642e+01,-3.319025963237912102e-02,3.759355891413028727e-01,-9.254369778971170968e-01,4.729516630251340975e-02,1.943134609457666500e+02
-8.001864704669470640e+00,1.098902870952241884e+01,1.380357244343919931e-01,3.716632031237973033e-01,-9.272491272517506822e-01,4.553591387678896513e-02,1.958502923093390109e+02
-7.768335826706519676e+00,1.107330785707508447e+01,3.079961211840803181e-01,3.673816623085580657e-01,-9.290384364005497275e-01,4.377553983458385561e-02,1.973871236729113718e+02
-7.529883613739547066e+00,1.116057075536248888e+01,4.763571467513713631e-01,3.630910721582526479e-01,-9.308048612708214042e-01,4.201408753718498257e-02,1.989239550364837328e+02
-7.286557208809669284e+00,1.125094461431226378e+01,6.427850277452263894e-01,3.587915383584227569e-01,-9.325483583535372212e-01,4.025160037243030731e-02,2.004607864000560937e+02
-7.038404675555925749e+00,1.134455704498803286e+01,8.069460034338230559e-01,3.544831668148821779e-01,-9.342688847044030576e-01,3.848812175364040022e-02,2.019976177636284547e+02
-6.744385844028025545e+00,1.145720137259598914e+01,9.947197075437678171e-01,3.501660636511079172e-01,-9.359663979449180937e-01,3.672369511854926827e-02,2.037839543238071371e+02
-6.444821960720677367e+00,1.157376104417165408e+01,1.179019043876650796e+00,3.458403352056267921e-01,-9.376408562634170885e-01,3.495836392823456484e-02,2.055702908839858196e+02
-6.139773401668036534e+00,1.169440995373650694e+01,1.359393041135805502e+00,3.415060880293964707e-01,-9.392922184161003329e-01,3.319217166604720992e-02,2.073566274441645021e+02
-5.829404748311971751e+00,1.181914320572881927e+01,1.535428883122858856e+00,3.371634288831814041e-01,-9.409204437280488387e-01,3.142516183654057299e-02,2.091429640043431846e+02
-5.514092706553706869e+00,1.194759891600802248e+01,1.706790032768983334e+00,3.328124647349229859e-01,-9.425254920942259806e-01,2.965737796439901069e-02,2.109293005645218670e+02
-5.229484279276828573e+00,1.206484735160834632e+01,1.854895906534649974e+00,3.284533027571060471e-01,-9.441073239804652628e-01,2.788886359336599161e-02,2.125192776248340465e+02
-4.941342747757734521e+00,1.218463839777589008e+01,1.998339818875948914e+00,3.240860503241183022e-01,-9.456659004244426514e-01,2.611966228517165547e-02,2.141092546851462259e+02
-4.650059231554430461e+00,1.230655233422821127e+01,2.136885516346065383e+00,3.197108150096070189e-01,-9.472011830366371399e-01,2.434981761846007758e-02,2.156992317454584054e+02
-4.356027876345875072e+00,1.243017242218015284e+01,2.270296779824117372e+00,3.153277045838287496e-01,-9.487131340012754377e-01,2.257937318771601615e-02,2.172892088057705848e+02
-4.059645845464564751e+00,1.255508492125128228e+01,2.398337426169879993e+00,3.109368270109958976e-01,-9.502017160772624482e-01,2.080837260219128501e-02,2.188791858660827643e+02
-3.761313311396746961e+00,1.268087910633430226e+01,2.520771309879894506e+00,3.065382904466171787e-01,-9.516668925990990902e-01,1.903685948483071697e-02,2.204691629263949437e+02
-3.461433447247659334e+00,1.280714728442453954e+01,2.637362324745285314e+00,3.021322032348345288e-01,-9.531086274777850198e-01,1.726487747119797786e-02,2.220591399867071232e+02
-3.160387235428070873e+00,1.293332912527261769e+01,2.747886416402576248e+00,2.977186739057544052e-01,-9.545268852017061434e-01,1.549247020840079959e-02,2.236491170470193026e+02
-2.858509830692341325e+00,1.305855574298188593e+01,2.852143594807985849e+00,2.932978111727751469e-01,-9.559216308375104720e-01,1.371968135401617842e-02,2.252390941073314821e+02
-2.556118066831271740e+00,1.318180503571351814e+01,2.949945925253921963e+00,2.888697239299095609e-01,-9.572928300309671013e-01,1.194655457501513605e-02,2.268290711676436615e+02
-2.253536410170045468e+00,1.330205728694592615e+01,3.041105520187299405e+00,2.844345212491029562e-01,-9.586404490078123120e-01,1.017313354668734210e-02,2.284190482279558410e+02
-1.951195133344413080e+00,1.341835368251709149e+01,3.125653455789712432e+00,2.799923123775474032e-01,-9.599644545745816826e-01,8.399461951565528189e-03,2.300090252882680204e+02
-1.650370194075791996e+00,1.353011354004874001e+01,3.203828758630224094e+00,2.755432067349906089e-01,-9.612648141194267692e-01,6.625583478349742622e-03,2.315958987753729446e+02
-1.351363969982471991e+00,1.363821485483708429e+01,3.276252363019187541e+00,2.710873139110417940e-01,-9.625414956129182409e-01,4.851541820831331737e-03,2.331827722624778687e+02
-1.055116047319091699e+00,1.374378853743470508e+01,3.343303305542490556e+00,2.666247436624721301e-01,-9.637944676088348039e-01,3.077380676816932146e-03,2.347696457495827929e+02
-7.625576341203210706e-01,1.384797246608992793e+01,3.405360660582043231e+00,2.621556059105123460e-01,-9.650236992449366946e-01,1.303143747052378605e-03,2.363565192366877170e+02
-4.746115407432007216e-01,1.395191143975874049e+01,3.462803537505195539e+00,2.576800107381452265e-01,-9.662291602437268478e-01,-4.711252658536370375e-04,2.379433927237926412e+02
-1.921921605315240478e-01,1.405675713107109637e+01,3.516011077955431663e+00,2.531980683873948923e-01,-9.674108209131949687e-01,-2.245382658505683769e-03,2.395302662108975653e+02
8.379454941382742661e-02,1.416366803922391782e+01,3.565362453175081381e+00,2.487098892566111941e-01,-9.685686521475497246e-01,-4.019584727798057588e-03,2.411171396980024895e+02
3.524510873580751213e-01,1.427380944279544295e+01,3.611236861342133952e+00,2.442155838977515259e-01,-9.697026254279348390e-01,-5.793687771990919597e-03,2.427040131851074136e+02
6.128884259545475111e-01,1.438835335247765457e+01,3.654013524913109823e+00,2.397152630136580587e-01,-9.708127128231313074e-01,-7.567648091786567666e-03,2.442908866722123378e+02
8.642260311646148274e-01,1.450847846372883154e+01,3.694071687968065731e+00,2.352090374553314212e-01,-9.718988869902454031e-01,-9.341421991405637199e-03,2.458777601593172619e+02
1.094773487418290614e+00,1.462949845313302610e+01,3.730047944064465604e+00,2.306970182192004670e-01,-9.729611211753819155e-01,-1.111496577966326893e-02,2.473929803015676043e+02
1.315313896830949014e+00,1.475750828256175140e+01,3.763994120236698215e+00,2.261793164443891002e-01,-9.739993892143025134e-01,-1.288823577104489769e-02,2.489082004438179467e+02
1.525385959733712493e+00,1.489300094461437141e+01,3.796113205612973385e+00,2.216560434099790755e-01,-9.750136655330704505e-01,-1.466118828678232740e-02,2.504234205860682891e+02
1.724531569006285681e+00,1.503647281523396551e+01,3.826608200926904679e+00,2.171273105322695796e-01,-9.760039251486799516e-01,-1.643377965592921625e-02,2.519386407283186315e+02
1.912422414558627271e+00,1.518825201863583985e+01,3.855659853281851124e+00,2.125932293620333424e-01,-9.769701436696719421e-01,-1.820596621643665036e-02,2.534538608705689740e+02
2.088984955391398390e+00,1.534832559001872809e+01,3.883404391057227123e+00,2.080539115817691131e-01,-9.779122972967334571e-01,-1.997770431622846940e-02,2.549690810128193164e+02
2.266197525307531269e+00,1.552859252215927377e+01,3.911869430497510791e+00,2.035094690029519149e-01,-9.788303628232850606e-01,-2.174895031427609079e-02,2.565934096239146811e+02
2.431426652907084485e+00,1.571729427015836045e+01,3.939185437359788100e+00,1.989600135632789701e-01,-9.797243176360513894e-01,-2.351966058167343290e-02,2.582177382350100743e+02
2.584728197242632586e+00,1.591421830959959394e+01,3.965483399502695683e+00,1.944056573239131558e-01,-9.805941397156183736e-01,-2.528979150271126741e-02,2.598420668461054674e+02
2.726155945637718236e+00,1.611915182366415067e+01,3.990894312189597226e+00,1.898465124667230997e-01,-9.814398076369753587e-01,-2.705929947595144339e-02,2.614663954572008606e+02
2.855761613104878194e+00,1.633188171536821898e+01,4.015549177130155023e+00,1.852826912915206681e-01,-9.822613005700423505e-01,-2.882814091530047293e-02,2.630907240682962538e+02
2.973594841791574517e+00,1.655219461980302853e+01,4.039579001521581780e+00,1.807143062132954836e-01,-9.830585982801836042e-01,-3.059627225108309603e-02,2.647150526793916470e+02
3.079821295602363396e+00,1.677979467990275353e+01,4.063088533792421408e+00,1.761414697594460843e-01,-9.838316811287054486e-01,-3.236364993111519317e-02,2.663393812904870401e+02
3.174839916662137274e+00,1.701422011890901231e+01,4.086129999538495206e+00,1.715642945670089736e-01,-9.845805300733396770e-01,-3.413023042177636829e-02,2.679637099015824333e+02
3.259163568056465010e+00,1.725492368988289726e+01,4.108729364437387233e+00,1.669828933798845616e-01,-9.853051266687135046e-01,-3.589597020908202873e-02,2.695880385126778265e+02
3.333300510010935191e+00,1.750135433549808184e+01,4.130912597355288263e+00,1.623973790460609412e-01,-9.860054530668019845e-01,-3.766082579975493783e-02,2.712123671237732196e+02
3.397754389172042533e+00,1.775295721479419342e+01,4.152705670156905171e+00,1.578078645148344727e-01,-9.866814920173698766e-01,-3.942475372229643782e-02,2.728366957348686128e+02
3.450329030497695904e+00,1.799682470470890294e+01,4.173100794296197513e+00,1.532144628340282311e-01,-9.873332268683941981e-01,-4.118771052805694777e-02,2.743826603265579251e+02
3.494564388184866477e+00,1.824458466898175502e+01,4.193173534878363640e+00,1.486172871472079826e-01,-9.879606415664758945e-01,-4.294965279230602423e-02,2.759286249182472375e+02
3.530904404907375671e+00,1.849572478452563828e+01,4.212947428661262705e+00,1.440164506908961084e-01,-9.885637206572345237e-01,-4.471053711530168645e-02,2.774745895099365498e+02
3.559789010375753016e+00,1.874972955662650165e+01,4.232446014345008223e+00,1.394120667917825018e-01,-9.891424492856888406e-01,-4.647032012335929746e-02,2.790205541016258621e+02
3.581654112784903976e+00,1.900608034108361011e+01,4.251692832415645995e+00,1.348042488639338843e-01,-9.896968131966228377e-01,-4.822895846991968882e-02,2.805665186933151745e+02
3.596931590309333515e+00,1.926425536638603475e+01,4.270711424988842708e+00,1.301931104060007616e-01,-9.902267987349365752e-01,-4.998640883661671641e-02,2.821124832850044868e+02
3.606049282645821918e+00,1.952372975592519921e+01,4.289525335653443072e+00,1.255787649984223819e-01,-9.907323928459832452e-01,-5.174262793434396962e-02,2.836584478766937991e+02
3.609430982603595073e+00,1.978397555024331211e+01,4.308158109314929263e+00,1.209613263006295014e-01,-9.912135830758892485e-01,-5.349757250432086997e-02,2.852044124683831114e+02
3.607496427742368450e+00,2.004446172931739412e+01,4.326633292038988721e+00,1.163409080482452063e-01,-9.916703575718628372e-01,-5.525119931915806193e-02,2.867503770600724238e+02
3.600661292058298546e+00,2.030465423487859056e+01,4.344974430895223172e+00,1.117176240502842366e-01,-9.921027050824842153e-01,-5.700346518392198497e-02,2.882963416517617361e+02
3.589337177717716543e+00,2.056401599276681225e+01,4.363205073800828337e+00,1.070915881863500480e-01,-9.925106149579839832e-01,-5.875432693719848803e-02,2.898423062434510484e+02
3.573931606838408825e+00,2.082200693532047708e+01,4.381348769364264761e+00,1.024629144038301798e-01,-9.928940771505049279e-01,-6.050374145215592359e-02,2.913882708351403608e+02
3.554848013318558930e+00,2.107808402380124591e+01,4.399429066728974824e+00,9.783171671509049983e-02,-9.932530822143497140e-01,-6.225166563760721472e-02,2.929342354268296731e+02
3.532485734713957548e+00,2.133170127085318413e+01,4.417469515417110415e+00,9.319810919466693655e-02,-9.935876213062130313e-01,-6.399805643907094388e-02,2.944802000185189854e+02
3.505707732302452584e+00,2.159789121410469193e+01,4.436614668759569113e+00,8.856220597645653170e-02,-9.938976861854006417e-01,-6.574287083983183788e-02,2.961223233005255224e+02
3.476370979413624607e+00,2.186026799944735899e+01,4.455768108588582521e+00,8.392412125090645270e-02,-9.941832692140312178e-01,-6.748606586200002477e-02,2.977644465825320594e+02
3.444911686996970257e+00,2.211820523358084500e+01,4.474956401099774439e+00,7.928396926220211693e-02,-9.944443633572250807e-01,-6.922759856756942332e-02,2.994065698645385964e+02
3.411761116980516650e+00,2.237107310087050038e+01,4.494206112173372958e+00,7.464186430545335926e-02,-9.946809621832777282e-01,-7.096742605947536919e-02,3.010486931465451335e+02
3.377345572246539529e+00,2.261823839216159371e+01,4.513543807175334877e+00,6.999792072388000275e-02,-9.948930598638178191e-01,-7.270550548265079793e-02,3.026908164285516705e+02
3.342157309625025885e+00,2.285907756804170887e+01,4.532960838387917413e+00,6.535225290599572245e-02,-9.950806511739511695e-01,-7.444179402508181720e-02,3.043329397105582075e+02
3.306825587779917530e+00,2.309298909054835036e+01,4.552378132703541525e+00,6.070497528279113902e-02,-9.952437314923896494e-01,-7.617624891886204397e-02,3.059750629925647445e+02
3.272045933987205224e+00,2.331937931938393049e+01,4.571681404586350972e+00,5.605620232491561467e-02,-9.953822968015645367e-01,-7.790882744124576209e-02,3.076171862745712815e+02
3.238509273200950389e+00,2.353764913866127984e+01,4.590756369297084305e+00,5.140604853985834832e-02,-9.954963436877265481e-01,-7.963948691570013616e-02,3.092593095565778185e+02
3.206901911981949738e+00,2.374719398364058875e+01,4.609488743747354178e+00,4.675462846912819409e-02,-9.955858693410293281e-01,-8.136818471295625965e-02,3.109014328385843555e+02
3.179966393490628818e+00,2.393290853900724002e+01,4.626443006206867103e+00,4.210205668543301472e-02,-9.956508715555987266e-01,-8.309487825205891243e-02,3.124246130759309494e+02
3.155979776697608319e+00,2.410942739124017820e+01,4.642876330057373657e+00,3.744844778985807754e-02,-9.956913487295877552e-01,-8.481952500141520801e-02,3.139477933132775433e+02
3.135520974325892052e+00,2.427621715818380110e+01,4.658690400774319507e+00,3.279391640904371491e-02,-9.957072998652160001e-01,-8.654208247984214453e-02,3.154709735506241373e+02
3.119135588988077412e+00,2.443277885247602299e+01,4.673727290950447255e+00,2.813857719236241214e-02,-9.956987245687941579e-01,-8.826250825761272623e-02,3.169941537879707312e+02
3.107306695629512561e+00,2.457868684443806018e+01,4.687709844486600552e+00,2.348254480909539241e-02,-9.956656230507344718e-01,-8.998075995750091927e-02,3.185173340253173251e+02
3.100484960859926087e+00,2.471355064282655434e+01,4.700301295199561302e+00,1.882593394560856670e-02,-9.956079961255448474e-01,-9.169679525582528912e-02,3.200405142626639190e+02
3.099063178128392160e+00,2.484389045345444202e+01,4.711768482532282754e+00,1.416885930252820280e-02,-9.955258452118096457e-01,-9.341057188349136120e-02,3.216490862012672096e+02
3.103928143812170859e+00,2.496170859542202436e+01,4.721034484992317815e+00,9.511435591916148416e-03,-9.954191723321549334e-01,-9.512204762703251049e-02,3.232576581398705002e+02
3.115573297200377123e+00,2.506655793028094692e+01,4.727723754861938410e+00,4.853777534444858252e-03,-9.952879801131987447e-01,-9.683118032964975475e-02,3.248662300784737909e+02
3.134488913462413429e+00,2.515798740739703021e+01,4.731460762857244262e+00,1.959998565718906792e-04,-9.951322717854863553e-01,-9.853792789224984083e-02,3.264748020170770815e+02
3.161129682961066223e+00,2.523555157171273322e+01,4.731862739066237111e+00,6.991536932644440983e-01,-5.387427636405804909e-01,-4.700407937817885351e-01,3.280833739556803721e+02
3.195882386287460797e+00,2.529882039879602118e+01,4.728532413938914658e+00,0.000000000000000000e+00,-9.978448059153464111e-01,-6.560292149536549322e-02,3.296919458942836627e+02
3.239098436830651018e+00,2.534737031304089783e+01,4.721065282893671444e+00,0.000000000000000000e+00,-9.989916258751529998e-01,-4.487461851602457530e-02,3.313005178328869533e+02
3.290978272558146234e+00,2.538083866781531484e+01,4.709101158872398329e+00,0.000000000000000000e+00,-9.997079018917766069e-01,-2.412697349823087964e-02,3.329090897714902439e+02
3.351423934629561785e+00,2.539898904636516974e+01,4.692368462821577602e+00,-2.372542859293464423e-01,-8.751569695660715853e-01,-4.216736681715194113e-01,3.345176617100935346e+02
3.420188086058128629e+00,2.540164972583152903e+01,4.670639937744159198e+00,-4.199765354728962063e-01,-5.494543922601956565e-01,-7.223002010791266247e-01,3.361262336486968252e+02
3.497022392736076846e+00,2.538865064139256233e+01,4.643688362433493921e+00,-4.343084620911061844e-01,-5.607457673074209836e-01,-7.049385393085784157e-01,3.377348055873001158e+02
3.581677527734980604e+00,2.535982339169533262e+01,4.611286553103849606e+00,-4.483648936382094718e-01,-5.716814448360624246e-01,-6.871297168531347310e-01,3.393433775259034064e+02
3.672355595241622694e+00,2.531575765513451515e+01,4.573848161000200641e+00,-4.621369138781114549e-01,-5.822544881907611991e-01,-6.688850303398345964e-01,3.409249258207854041e+02
3.770235749117366364e+00,2.525581168156871215e+01,4.530608501943814481e+00,-4.756157869840278440e-01,-5.924581907412455051e-01,-6.502160528586103938e-01,3.425064741156674017e+02
3.875074144099064810e+00,2.517982748854220176e+01,4.481348076168061745e+00,-4.887929630785543544e-01,-6.022860801352126758e-01,-6.311346266211066425e-01,3.440880224105493994e+02
3.986626007617065426e+00,2.508764869491193750e+01,4.425847425616762365e+00,-5.016600836560575205e-01,-6.117319224029742486e-01,-6.116528554493374514e-01,3.456695707054313971e+02
4.104645643866475346e+00,2.497912052583549425e+01,4.363887135466865352e+00,-5.142089868836939859e-01,-6.207897259109277366e-01,-5.917830970985022976e-01,3.472511190003133947e+02
4.228886437888847993e+00,2.485408981774141779e+01,4.295247835650900292e+00,-5.264317127777036198e-01,-6.294537451613541057e-01,-5.715379554188267930e-01,3.488326672951953924e+02
4.359061138498875998e+00,2.471243046486517869e+01,4.219770284202457589e+00,-5.383205082516956397e-01,-6.377184844361353244e-01,-5.509302723613953567e-01,3.504142155900773901e+02
4.494802393690987330e+00,2.455406925988421563e+01,4.137415450184562360e+00,-5.498678320337353487e-01,-6.455787012820852766e-01,-5.299731198330421833e-01,3.519957638849593877e+02
4.635702856012708040e+00,2.437896104674108955e+01,4.048204432137573860e+00,-5.610663594491123174e-01,-6.530294098356865806e-01,-5.086797914054622671e-01,3.535773121798413854e+02
4.781355037002514408e+00,2.418706347728662820e+01,3.952158376110326721e+00,-5.719089870657679819e-01,-6.600658839851308857e-01,-4.870637938837955039e-01,3.551588604747233830e+02
4.931351314611342573e+00,2.397833701190728561e+01,3.849298475514494555e+00,-5.823888371994332402e-01,-6.666836603676575823e-01,-4.651388387400257618e-01,3.567404087696053807e+02
5.080395465733129612e+00,2.375993953930624158e+01,3.743138721889018861e+00,-5.924992622756288796e-01,-6.728785412002953326e-01,-4.429188334166217489e-01,3.582715807443294693e+02
5.232891662337671335e+00,2.352519917050135589e+01,3.630423078731287667e+00,-6.022338490457631588e-01,-6.786465969422117439e-01,-4.204178725059310451e-01,3.598027527190535579e+02
5.388457522874636751e+00,2.327408653508398828e+01,3.511171530086345083e+00,-6.115864226546559035e-01,-6.839841687869873121e-01,-3.976502288109117211e-01,3.613339246937776466e+02
5.546710571011901791e+00,2.300657481316342867e+01,3.385404102454165454e+00,-6.205510505569137303e-01,-6.888878709832317870e-01,-3.746303442928676231e-01,3.628650966685017352e+02
5.707268242159814875e+00,2.272263973577905816e+01,3.253140864660463372e+00,-6.291220462796733859e-01,-6.933545929820744691e-01,-3.513728209119182377e-01,3.643962686432258238e+02
5.869762510256855137e+00,2.242233987426804376e+01,3.114492426033368844e+00,-6.372939730293305516e-01,-6.973815014101666376e-01,-3.278924113660076634e-01,3.659274406179499124e+02
6.033855286653691863e+00,2.210589678786337231e+01,2.969750433991558580e+00,-6.450616471399676088e-01,-7.009660418669461102e-01,-3.042040097343171601e-01,3.674586125926740010e+02
6.199224964038742236e+00,2.177361451744057064e+01,2.819297073843833878e+00,-6.524201413612943368e-01,-7.041059405450221798e-01,-2.803226420310082623e-01,3.689897845673980896e+02
6.369101240156034294e+00,2.141834267633542765e+01,2.660179027506725635e+00,-6.593647879840179860e-01,-7.067992056726551953e-01,-2.562634566752801657e-01,3.705537608425730127e+02
6.539599262183363848e+00,2.104751365845849875e+01,2.496016285012541136e+00,-6.658911818006597594e-01,-7.090441287774126300e-01,-2.320417148837779775e-01,3.721177371177479358e+02
6.710390626055223073e+00,2.066145140479921594e+01,2.327207703700367780e+00,-6.904794679447027184e-01,-6.850087395410178193e-01,-2.323771311333857059e-01,3.736817133929228589e+02
6.881149345532234562e+00,2.026048206630023074e+01,2.154152172394074416e+00,-7.142513392199832944e-01,-6.601633892587224217e-01,-2.324377849633105508e-01,3.752456896680977820e+02
7.051551857922642164e+00,1.984493399045555506e+01,1.977248608698543020e+00,-7.349899928733175658e-01,-6.746624265218597039e-01,6.795822699525325139e-02,3.768096659432727051e+02
7.221277029775107437e+00,1.941513770788414206e+01,1.796895956295797347e+00,-6.889340173541594892e-01,-6.278492993130646571e-01,3.621783774394903843e-01,3.783736422184476282e+02
7.390006162542771762e+00,1.897142591887896401e+01,1.613493182241007906e+00,-5.802688502450394914e-01,-5.239782579949956443e-01,6.234844397287715445e-01,3.799376184936225513e+02
7.557422998218212840e+00,1.851413347993212000e+01,1.427439274258460733e+00,-4.188697623129553627e-01,-3.724888950359167561e-01,8.281293046950413128e-01,3.815015947687974744e+02
7.723252530669907578e+00,1.804363413345785006e+01,1.239127643797103051e+00,-2.194044387274560748e-01,-1.871483169852725392e-01,9.575151172258966614e-01,3.830655710439723975e+02
7.887300178030804076e+00,1.756037685580304952e+01,1.048940529123882692e+00,-0.000000000000000000e+00,1.519999199372465241e-02,9.998834733324591939e-01,3.846295473191473206e+02
8.049413522803929411e+00,1.706484852556463139e+01,8.572545869736434287e-01,-6.342529090972327810e-02,3.392350789668276828e-02,9.974088570313774937e-01,3.861935235943222438e+02
8.209443689386150211e+00,1.655753697069782149e+01,6.644464842369646185e-01,-1.265727986279091000e-01,5.249845269330896680e-02,9.905661205150153581e-01,3.877574998694971669e+02
8.367245346374636128e+00,1.603893094895924420e+01,4.708928954076083695e-01,-1.891659710753856583e-01,7.084347817237866829e-02,9.793852342095142882e-01,3.893214761446720900e+02
8.522676708831200543e+00,1.550952012834058280e+01,2.769705000299152453e-01,-2.509306844015083415e-01,8.887824320286394353e-02,9.639151671756454043e-01,3.908854524198470131e+02
8.669907341402394607e+00,1.499001453591589339e+01,9.031504763418651827e-02,-3.115964434609743705e-01,1.065237655719415560e-01,9.442236725433936773e-01,3.923908549736837585e+02
8.814666387168946571e+00,1.446105650907903417e+01,-9.598381762822008612e-02,-3.708975663794139010e-01,1.237027678660796437e-01,9.203969906930218325e-01,3.938962575275205040e+02
8.956832184925138662e+00,1.392310186164574937e+01,-2.815771252681274484e-01,-4.285743480223337953e-01,1.403400158811732579e-01,8.925394714860179768e-01,3.954016600813572495e+02
9.096286243554375872e+00,1.337660715054684957e+01,-4.661159092282250449e-01,-4.843741972750458813e-01,1.563626480806115937e-01,8.607731172035720801e-01,3.969070626351939950e+02
9.232913243796305736e+00,1.282202965899396929e+01,-6.492512100742661163e-01,-5.380527431564658958e-01,1.717004946595193371e-01,8.252370481968070992e-01,3.984124651890307405e+02
9.366601039978913690e+00,1.225982737963855307e+01,-8.306340771861682182e-01,-5.893749049265665230e-01,1.862863848190420279e-01,7.860868935906816235e-01,3.999178677428674860e+02
9.497240661715625976e+00,1.169045899772413755e+01,-1.009915570949086350e+00,-6.381159215052185640e-01,2.000564409062444149e-01,7.434941097108528352e-01,4.014232702967042314e+02
9.624726315567663448e+00,1.111438387423175378e+01,-1.186746764944511590e+00,-6.840623356984349979e-01,2.129503581327242268e-01,6.976452292184374127e-01,4.029286728505409769e+02
9.748955386672093937e+00,1.053206202901757216e+01,-1.360778748141136640e+00,-7.270129289258709937e-01,2.249116686481628657e-01,6.487410442401760902e-01,4.044340754043777224e+02
9.869853980286098505e+00,9.943981492662896216e+00,-1.531734160880271700e+00,-8.100343075832846518e-01,2.394405279784406482e-01,5.352668998736097583e-01,4.059394779582144679e+02
9.987402722157352031e+00,9.350685416487829471e+00,-1.699478730412106398e+00,-8.768711607193303559e-01,2.491853524728268876e-01,4.110980754179554553e-01,4.074448805120512134e+02
1.010161160757637155e+01,8.752744322559973256e+00,-1.863949737943686902e+00,-9.261880841152945187e-01,2.539514384606282871e-01,2.787154458347618213e-01,4.089502830658879589e+02
1.021495922976220427e+01,8.137220207638231173e+00,-2.028699346471723342e+00,-9.569997092987235776e-01,2.536435544031744871e-01,1.407640000555538118e-01,4.104894614825212784e+02
1.032487850156405962e+01,7.518117147104911524e+00,-2.189972173657259713e+00,-9.686903929663203128e-01,2.482678444219698632e-01,0.000000000000000000e+00,4.120286398991545980e+02
1.043139241671793904e+01,6.896031210161526204e+00,-2.347702709219797068e+00,-9.687227512998591861e-01,2.407927286711060433e-01,5.994241347445895818e-02,4.135678183157879175e+02
1.053452819866690504e+01,6.271558248667155056e+00,-2.501825466125645825e+00,-9.652202613788017915e-01,2.324389660104451416e-01,1.196660942117198229e-01,4.151069967324212371e+02
1.063431729988200303e+01,5.645293874185548511e+00,-2.652274981016431443e+00,-9.581957043936023544e-01,2.232370392558118977e-01,1.789531122558712384e-01,4.166461751490545566e+02
1.073079540113492492e+01,5.017833435035168321e+00,-2.798985814637583225e+00,-9.476747133712468685e-01,2.132205261134184349e-01,2.375871311346837711e-01,4.181853535656878762e+02
1.082400241072215508e+01,4.389771993342461265e+00,-2.941892552266740957e+00,-9.336956796231690170e-01,2.024259766539890926e-01,2.953541972427641826e-01,4.197245319823211958e+02
1.091398246364049029e+01,3.761704302098412001e+00,-3.080929804141991468e+00,-9.163096126425935850e-01,1.908927799421987204e-01,3.520435205268862000e-01,4.212637103989545153e+02
1.100078392071405631e+01,3.134224782218509198e+00,-3.216032205889913786e+00,-8.955799539633344519e-01,1.786630203081830681e-01,4.074482436256888218e-01,4.228028888155878349e+02
1.108445936767295947e+01,2.507927499606574795e+00,-3.347134418954075485e+00,-8.715823456595566121e-01,1.657813237855374766e-01,4.613661966581250606e-01,4.243420672322211544e+02
1.116506561418351673e+01,1.883406142222701973e+00,-3.474171131024001102e+00,-8.444043543313449751e-01,1.522946952760510508e-01,5.136006349074418997e-01,4.258812456488544740e+02
1.124266369283018463e+01,1.261253997155526996e+00,-3.597077056463435341e+00,-8.141451515831866770e-01,1.382523470352188255e-01,5.639609567098818887e-01,4.274204240654877935e+02
1.131731885804929405e+01,6.420639276989631439e-01,-3.715786936737901502e+00,-7.809151521610516733e-01,1.237055191042044922e-01,6.122633989295021006e-01,4.289596024821211131e+02
1.138910058501432232e+01,2.642835043337540477e-02,-3.830235540842208408e+00,-7.448356110680942610e-01,1.087072923432788329e-01,6.583317074822165882e-01,4.304987808987544327e+02
1.145808256847276496e+01,-5.850607876886230185e-01,-3.940357665727899583e+00,-7.060381811285388887e-01,9.331239474872869699e-02,7.019977804631333251e-01,4.320379593153877522e+02
1.152434272153463191e+01,-1.191812032251459819e+00,-4.046088136730519480e+00,-6.646644326134940606e-01,7.757700175972202794e-02,7.431022815310909246e-01,4.335771377320210718e+02
1.158796317441309043e+01,-1.793234444281161188e+00,-4.147361807996872152e+00,-6.208653366807708185e-01,6.155853128353276638e-02,7.814952213127042135e-01,4.351163161486543913e+02
1.164903027311693684e+01,-2.388737623144821853e+00,-4.244113562912247062e+00,-5.748007145127359552e-01,4.531543418680121504e-02,8.170365047047494222e-01,4.366554945652877109e+02
1.170763457809415442e+01,-2.977731729443992226e+00,-4.336278314527401534e+00,-5.266386541613410355e-01,2.890698101705701031e-02,8.495964420779945625e-01,4.381946729819210304e+02
1.176387086282685424e+01,-3.559627507901726773e+00,-4.423791005985366454e+00,-9.949780958971251588e-01,0.000000000000000000e+00,-1.000829090580524772e-01,4.397338513985543500e+02
1.181783811237793458e+01,-4.133836310243477641e+00,-4.506586610948080995e+00,-9.967802602764187503e-01,2.931209057251042173e-03,-8.011567087754081773e-02,4.412730298151876696e+02
1.186963952188947324e+01,-4.699770118071985081e+00,-4.584600134022774220e+00,-9.981732149101441021e-01,5.861213890924273258e-03,-6.011554866513943440e-02,4.428122082318209891e+02
1.192194242255462022e+01,-5.286085161194137960e+00,-4.661606589340080653e+00,-9.991563884278572560e-01,8.788812111527068843e-03,-4.009074992021924994e-02,4.444321946175784319e+02
1.197209661752398091e+01,-5.862432445359771371e+00,-4.733438751049367177e+00,-9.997293774347536521e-01,1.171280231751095635e-02,-2.004949224757336668e-02,4.460521810033358747e+02
1.202023076036374860e+01,-6.428162491871530548e+00,-4.800024714075805221e+00,-9.998919466674430767e-01,1.463198458598872695e-02,-0.000000000000000000e+00,4.476721673890933175e+02
1.206647840584350106e+01,-6.982626665785015341e+00,-4.861292611466550007e+00,-9.910259230200537672e-01,2.638494050321788312e-02,1.310322663198721094e-01,4.492921537748507603e+02
1.211097800778951772e+01,-7.525177203937650994e+00,-4.917170614913452198e+00,-9.649297007163428752e-01,3.767916057707472455e-02,2.597863613312799691e-01,4.509121401606082031e+02
1.215384402348159831e+01,-8.055204569545910687e+00,-4.967697966036932478e+00,-9.220569927979451741e-01,4.831828266969451224e-02,3.840237565466814718e-01,4.525321265463656459e+02
1.219513763808925155e+01,-8.572174512246693467e+00,-5.013136006861775407e+00,-8.631531824996291347e-01,5.811733388744823314e-02,5.015844485650365892e-01,4.541521129321230887e+02
1.223489508695097427e+01,-9.075590325104252898e+00,-5.053857147154000806e+00,-7.892423660358508508e-01,6.690594625735626910e-02,6.104245096724763009e-01,4.557720993178805315e+02
1.227315635886835032e+01,-9.564955393019264562e+00,-5.090233830949375538e+00,-7.985674072920124766e-01,5.738582367171527615e-02,5.991618840004193647e-01,4.573920857036379743e+02
1.230996519619901619e+01,-1.003977321420431501e+01,-5.122638533842894581e+00,-8.076493331086603833e-01,4.784823330417837389e-02,5.877168546890010337e-01,4.590120720893954172e+02
1.234468530288624244e+01,-1.049046306965072262e+01,-5.150872927264537715e+00,-8.164853795151857385e-01,3.829607798118655343e-02,5.760929052124104111e-01,4.606000465072955876e+02
1.237810935851791960e+01,-1.092592723898686558e+01,-5.175937288157547833e+00,-8.250728573255344811e-01,2.873226495411271980e-02,5.642935734546538074e-01,4.621880209251957581e+02
1.241029010930569676e+01,-1.134568921330787816e+01,-5.198189593693602895e+00,-8.334091529485657679e-01,1.915970501680500440e-02,5.523224506320058014e-01,4.637759953430959285e+02
1.244128383666020632e+01,-1.174927267055636904e+01,-5.217987840656548748e+00,-8.414917291808247102e-01,9.581311622510508760e-03,5.401831802034205987e-01,4.653639697609960990e+02
1.247115035705826713e+01,-1.213620149534994397e+01,-5.235690042939043387e+00,-8.493181259763079582e-01,0.000000000000000000e+00,5.278794567652124181e-01,4.669519441788962695e+02
1.249988169568778318e+01,-1.250608663285009392e+01,-5.251706577443861157e+00,-8.663221523639859090e-01,2.124748888943331360e-02,4.990315346138702313e-01,4.685399185967964399e+02
1.252732989372853467e+01,-1.285871222999397112e+01,-5.266552529618923728e+00,-8.819636277268100288e-01,4.246155851981308488e-02,4.693987381905015965e-01,4.701278930146966104e+02
