-1.625448228147332586e+01,5.911125432988920458e+00,-2.471055399494948457e+00,9.122577144727852527e-01,3.541312095147275407e-01,-2.058517642206756093e-01,4.862690340578279233e+02
-1.621609103208869129e+01,6.266156409664591642e+00,-2.715701324724202781e+00,9.118906604996162013e-01,3.796881675921418564e-01,-1.558535167475215699e-01,4.921972901502277296e+02
-1.616406709262671626e+01,6.618669974991686189e+00,-2.948188061641240143e+00,9.086483031337717620e-01,4.040479176029997954e-01,-1.053638528691002579e-01,4.981255462426275358e+02
-1.609879373608596964e+01,6.967834158552914658e+00,-3.167985469957105948e+00,9.025408670253870502e-01,4.271336522205712027e-01,-5.454196997262553137e-02,5.040538023350273420e+02
-1.602067123632173207e+01,7.312827396152038695e+00,-3.374564638974850705e+00,8.935876100841360081e-01,4.488725810282689355e-01,-3.548112722237345851e-03,5.099820584274271482e+02
-1.593014621618258708e+01,7.652907612261332204e+00,-3.567444794142877296e+00,8.818167627485014037e-01,4.691961599703940444e-01,4.745693209119187378e-02,5.159103145198268976e+02
-1.582773843611384024e+01,7.987482382419819338e+00,-3.746240198948737277e+00,8.672654389861699231e-01,4.880403074229327509e-01,9.831234240564758198e-02,5.218385706122267038e+02
-1.571400737808068371e+01,8.316042085224154334e+00,-3.910613336519571881e+00,8.499795193048508279e-01,5.053456062044192620e-01,1.488577678546383898e-01,5.277668267046265100e+02
-1.560785787175028005e+01,8.591090500001627106e+00,-4.038360275014674095e+00,8.300135061413635995e-01,5.210574908912628533e-01,1.989338352500668594e-01,5.328277162121719357e+02
-1.547344217762100271e+01,8.906456656514272652e+00,-4.172959209797664215e+00,8.252829572341796593e-01,5.288214068559418113e-01,1.981261217907444028e-01,5.387559723045717419e+02
-1.532935819872527361e+01,9.214418624896806520e+00,-4.292180647429474583e+00,8.204836554184870012e-01,5.365412662154065426e-01,1.973019027412932225e-01,5.446842283969715481e+02
-1.517619873719468870e+01,9.514524870434946990e+00,-4.395692735452288780e+00,8.156160004257859697e-01,5.442164260296670220e-01,1.964612467518306871e-01,5.506124844893713544e+02
-1.501456485870218849e+01,9.806339298540907023e+00,-4.483165142114387436e+00,8.106803976802948730e-01,5.518462470822155241e-01,1.956042238414285872e-01,5.565407405817711606e+02
-1.484506573875117397e+01,1.008944141625514135e+01,-4.554269088315646030e+00,8.056772582601837707e-01,5.594300939298731956e-01,1.947309053910755705e-01,5.624689966741709668e+02
-1.466831850774870638e+01,1.036342649124509485e+01,-4.608677379439814814e+00,8.006069988634441081e-01,5.669673349555253150e-01,1.938413641377495222e-01,5.683972527665707730e+02
-1.448489612908972468e+01,1.062796782350826597e+01,-4.646193812712649418e+00,7.954700417732940565e-01,5.744573424205423606e-01,1.929356741683788679e-01,5.743255088589705792e+02
-1.429527295969690748e+01,1.088287706641328789e+01,-4.666882571834367610e+00,7.902668148231247747e-01,5.818994925168810006e-01,1.920139109136919930e-01,5.802537649513703855e+02
-1.409987310863482435e+01,1.112803928282595578e+01,-4.670938844994381611e+00,7.849977513609890378e-01,5.892931654188614532e-01,1.910761511419564462e-01,5.861820210437701917e+02
-1.389912113992518350e+01,1.136334987728613299e+01,-4.658559430159424863e+00,7.796632902136367838e-01,5.966377453346169979e-01,1.901224729526081458e-01,5.921102771361699979e+02
-1.369344197479948022e+01,1.158871459831574491e+01,-4.629942715885706050e+00,7.742638756500973551e-01,6.039326205572106421e-01,1.891529557697700648e-01,5.980385332285698041e+02
-1.348326079399475752e+01,1.180404953914734456e+01,-4.585288662015077676e+00,7.687999573448154322e-01,6.111771835154168331e-01,1.881676803356629735e-01,6.039667893209696103e+02
-1.338452729308265354e+01,1.189908644450099651e+01,-4.557402128840082334e+00,7.632719903403397677e-01,6.183708308241623319e-01,1.871667287039065763e-01,6.067012697720513188e+02
-1.316693444074932451e+01,1.209577084671893488e+01,-4.481289978169964883e+00,8.331698537834439922e-01,5.238538413771650637e-01,1.772093327721802614e-01,6.126295258644511250e+02
-1.294594036374140167e+01,1.228224107380606966e+01,-4.389639714345460852e+00,8.914713716757256545e-01,4.220456621981582557e-01,1.647854741866998096e-01,6.185577819568509312e+02
-1.272197046269601728e+01,1.245844976013375671e+01,-4.282656993796401856e+00,9.373650800042471198e-01,3.143632938939843191e-01,1.500680720249802924e-01,6.244860380492507375e+02
-1.249544995999403874e+01,1.262435986985065739e+01,-4.160548956698632672e+00,9.702122106600472584e-01,2.023054972178759126e-01,1.332619678754572989e-01,6.304142941416505437e+02
-1.226680380243785784e+01,1.277994468896711489e+01,-4.023524207041929479e+00,9.895555824551366397e-01,8.743193283881281475e-02,1.146010748307028509e-01,6.363425502340503499e+02
-1.203645656402733266e+01,1.292518781586774956e+01,-3.871792792591179921e+00,9.951259647357346694e-01,-2.865854666453094071e-02,9.434512182520421453e-02,6.422708063264501561e+02
-1.180483234884232857e+01,1.306008315025394317e+01,-3.705566184742277613e+00,9.868458249761872247e-01,-1.443501504286183179e-01,7.277603862974398041e-02,6.481990624188499623e+02
-1.157235469404032457e+01,1.318463488051799182e+01,-3.525057258274199690e+00,9.648304081501758445e-01,-2.580326387861197612e-01,5.019403181815405846e-02,6.541273185112497686e+02
-1.133925874979438220e+01,1.329900569444552616e+01,-3.330706046684140276e+00,9.293861328255964560e-01,-3.681237355451288384e-01,2.691340632691932924e-02,6.600555746036495748e+02
-1.110537995113422127e+01,1.340363631833762703e+01,-3.123434884461862016e+00,8.810063262925499350e-01,-4.730911510753096905e-01,3.258190772032413043e-03,6.659838306960493810e+02
-1.087031626780435900e+01,1.349906429171566202e+01,-2.904451951025253109e+00,8.203643580882221675e-01,-5.714739096251445494e-01,-2.044237257903970539e-02,6.719120867884491872e+02
-1.063363245318200789e+01,1.358579258212779628e+01,-2.674995968746147312e+00,7.483042675100429753e-01,-6.619026839831602116e-01,-4.385841039773416550e-02,6.778403428808489934e+02
-1.039487856934792198e+01,1.366431058444679536e+01,-2.436306673712901549e+00,6.658290156030033380e-01,-7.431188544226239312e-01,-6.666400965500890452e-02,6.837685989732487997e+02
-1.015359013895015927e+01,1.373509381192541134e+01,-2.189624695461279025e+00,5.740865251808479064e-01,-8.139920266399409687e-01,-8.854175383964675572e-02,6.896968550656486059e+02
-9.909288299603723260e+00,1.379860358975499501e+01,-1.936191436640182229e+00,4.743537032324025571e-01,-8.735357648627041227e-01,-1.091871408918520803e-01,6.956251111580484121e+02
-9.678415601882583985e+00,1.385151255535158832e+01,-1.694940337565836064e+00,3.680186681444341801e-01,-9.209213211630820073e-01,-1.283128213594459666e-01,7.011479532347022996e+02
-9.426588197120782553e+00,1.390200465661742868e+01,-1.431652284160740196e+00,3.589191830852472842e-01,-9.254100809585319443e-01,-1.216190859486609016e-01,7.070762093271021058e+02
-9.170265183483939708e+00,1.394648698677434950e+01,-1.165255601632200211e+00,3.497666664911669998e-01,-9.297621054527436257e-01,-1.149073812645526882e-01,7.130044654195019120e+02
-8.908912701473717277e+00,1.398536221010643921e+01,-8.969935807945382811e-01,3.405624705902718374e-01,-9.339767517020675092e-01,-1.081786989149154665e-01,7.189327215119017183e+02
-8.641983304460845616e+00,1.401901732975518300e+01,-6.281096914751838067e-01,3.313079552441063891e-01,-9.380533970578589509e-01,-1.014340330148879588e-01,7.248609776043015245e+02
-8.368916127832019214e+00,1.404782339694730453e+01,-3.598474619738249447e-01,3.220044877455726096e-01,-9.419914392548049964e-01,-9.467438003974745775e-02,7.307892336967013307e+02
-8.089137060571715665e+00,1.407213522300134123e+01,-9.345035851733612953e-02,3.126534426171326264e-01,-9.457902964997689788e-01,-8.790073867784728434e-02,7.367174897891011369e+02
-7.802058919263512138e+00,1.409229109415179693e+01,1.698383352807188440e-01,3.032562014079503432e-01,-9.494494075576221936e-01,-8.111410968322924075e-02,7.426457458815009431e+02
-7.507081624495318017e+00,1.410861248922948974e+01,4.287756389472133778e-01,2.938141524899972601e-01,-9.529682318340469971e-01,-7.431549572793258451e-02,7.485740019739007494e+02
-7.203592379652725697e+00,1.412140380023647168e+01,6.821189956544329025e-01,2.843286908531562074e-01,-9.563462494553026660e-01,-6.750590125402089470e-02,7.545022580663005556e+02
-6.891113655503145807e+00,1.413073392016024599e+01,9.287718675969770521e-01,2.748012178993503030e-01,-9.595829613449409212e-01,-6.068633232534889621e-02,7.604305141587003618e+02
-6.569459309064299646e+00,1.413622338367052045e+01,1.167929317152190727e+00,2.652331412357281093e-01,-9.626778892974590107e-01,-5.385779647909017670e-02,7.663587702511001680e+02
-6.238599090238304612e+00,1.413727076029367602e+01,1.398932609833910545e+00,2.556258744669355765e-01,-9.656305760488813617e-01,-4.702130257704823652e-02,7.722870263434999742e+02
-5.898514935759275879e+00,1.413327374505796463e+01,1.621123803016330189e+00,2.459808369865043309e-01,-9.684405853442579204e-01,-4.017786065677218799e-02,7.782152824358997805e+02
-5.549200978823873420e+00,1.412362940032562264e+01,1.833845809502935742e+00,2.362994537673874518e-01,-9.711075020020709658e-01,-3.332848178249886439e-02,7.841435385282995867e+02
-5.190663556877436413e+00,1.410773439776925819e+01,2.036442461033001194e+00,2.265831551516729603e-01,-9.736309319755389602e-01,-2.647417789594329676e-02,7.900717946206993929e+02
-4.822921217554983819e+00,1.408498526046324528e+01,2.228258571721014381e+00,2.168333766395058038e-01,-9.760105024108103322e-01,-1.961596166695912108e-02,7.960000507130991991e+02
-4.674713076265970102e+00,1.407377115852624883e+01,2.299176502787588561e+00,2.070515586772490590e-01,-9.782458617020368674e-01,-1.275484634409092786e-02,7.983290721049849026e+02
-4.287993370076462973e+00,1.403898077977347647e+01,2.467933587922056748e+00,1.436358341875091926e-01,-9.841625091646846180e-01,-1.038792697885219662e-01,8.042573281973847088e+02
-3.892183018737972233e+00,1.399580650618845645e+01,2.624347127742230334e+00,7.844474894532066367e-02,-9.779146683379823513e-01,-1.937197016628534885e-01,8.101855842897845150e+02
-3.487342318590621826e+00,1.394364644727261293e+01,2.767766079982442839e+00,1.228407504933486973e-02,-9.595795691967915486e-01,-2.811657018207744940e-01,8.161138403821843212e+02
-3.073543779390796260e+00,1.388189963223203627e+01,2.897540662486156382e+00,-5.402843222783904054e-02,-9.293838383060208930e-01,-3.651364260199419509e-01,8.220420964745841275e+02
-2.651413517624783722e+00,1.380961823875519201e+01,3.013263292947543803e+00,-1.196731410558228015e-01,-8.877006977145629474e-01,-4.445939839750637224e-01,8.279703525669839337e+02
-2.242204595781193355e+00,1.372914859889011829e+01,3.110553665671753176e+00,-1.838386728419530991e-01,-8.350453524732556199e-01,-5.185562666482802507e-01,8.336286074248376963e+02
-1.809290694138038669e+00,1.363085049144374139e+01,3.199577085224767803e+00,-2.908709130141743926e-01,-8.314252620708842967e-01,-4.734175171596115006e-01,8.395568635172375025e+02
-1.374796447869487626e+00,1.351648233125572496e+01,3.276777431848653332e+00,-3.939744939763399345e-01,-8.165754937294451565e-01,-4.218845353144635713e-01,8.454851196096373087e+02
-9.413648504516185511e-01,1.338414773241995981e+01,3.343258216488840251e+00,-4.917568443076928419e-01,-7.906966159824458940e-01,-3.646533525847925894e-01,8.514133757020371149e+02
-5.112813020254054486e-01,1.323294630354061852e+01,3.399961722516622764e+00,-5.828972635759864795e-01,-7.541381619753702026e-01,-3.024969632391161234e-01,8.573416317944369212e+02
-8.602865679233658025e-02,1.306388336062919464e+01,3.447506649307263249e+00,-6.661647602782878597e-01,-7.073939086125181630e-01,-2.362548840174210629e-01,8.632698878868367274e+02
3.333551875769379391e-01,1.287892287404925007e+01,3.486350316245576231e+00,-7.404346781979528336e-01,-6.510952075194351707e-01,-1.668218153236545320e-01,8.691981439792365336e+02
7.458850417964215662e-01,1.268005482242092796e+01,3.516950882480664564e+00,-8.047038866235632915e-01,-5.860024578751018565e-01,-9.513555706454045191e-02,8.751264000716363398e+02
1.150628677225067786e+00,1.246929409223040963e+01,3.539767302185604425e+00,-8.581043292626084895e-01,-5.129948362609711987e-01,-2.216434233186540675e-02,8.810546561640361460e+02
1.546707069211709085e+00,1.224867937341943147e+01,3.555259279759081625e+00,-8.999147488408739681e-01,-4.330584222152019658e-01,5.110624000794553035e-02,8.869829122564359523e+02
1.933294631502602945e+00,1.202027205109625108e+01,3.563887224972432044e+00,-9.295704290097180911e-01,-3.472728798516186433e-01,1.236865571952197318e-01,8.929111683488357585e+02
2.309619441690647701e+00,1.178615509351063295e+01,3.566112208065313816e+00,-9.466708219560435733e-01,-2.567968754110008800e-01,1.945962991342022885e-01,8.988394244412355647e+02
2.674963457686252877e+00,1.154843193643582033e+01,3.562395914793277996e+00,-9.509849586630406693e-01,-1.628524276931251347e-01,2.628777190854885704e-01,9.047676805336353709e+02
2.929890540803421928e+00,1.137664717630242350e+01,3.555771146260640947e+00,-9.424545687184320286e-01,-6.670840273992201253e-02,3.276085696469171471e-01,9.090349369814099418e+02
3.272334007230439656e+00,1.113891605632317727e+01,3.541478498123356911e+00,-9.509355067029413577e-01,-1.437401359632366205e-01,2.739679459447024179e-01,9.149631930738097481e+02
3.602134684188793567e+00,1.090342900608195364e+01,3.522503125610349173e+00,-9.509691438944765096e-01,-2.194949946409015529e-01,2.178936315925469047e-01,9.208914491662095543e+02
3.918776824620596955e+00,1.067235551237589242e+01,3.499308678913825243e+00,-9.425551845755971714e-01,-2.933000387491435101e-01,1.598837430757537037e-01,9.268197052586093605e+02
4.221799460911967117e+00,1.044788021817354107e+01,3.472359211017330693e+00,-9.257683737557325099e-01,-3.644996493318908848e-01,1.004535902354253829e-01,9.327479613510091667e+02
4.510796569655996180e+00,1.023220178921812185e+01,3.442119132528245196e+00,-9.007578329987370180e-01,-4.324613522669520371e-01,4.013109875795418252e-02,9.386762174434089729e+02
4.785331940549980345e+00,1.002728567834391882e+01,3.409062301946488738e+00,-8.677457356126563326e-01,-4.965814364035887607e-01,-2.054787935791542799e-02,9.446044735358087792e+02
5.044844867955979417e+00,9.834620115805428497e+00,3.373681115020319421e+00,-8.270253329812297105e-01,-5.562903161826852072e-01,-8.104432570751077258e-02,9.505327296282085854e+02
5.288721865782720855e+00,9.655466140003960973e+00,3.336477321378054306e+00,-7.789583495750258546e-01,-6.110575911214397582e-01,-1.408208434889597349e-01,9.564609857206083916e+02
5.516377591087139542e+00,9.491104673889600107e+00,3.297952840253768336e+00,-7.239717697821065334e-01,-6.603967572367234196e-01,-1.993464310954229934e-01,9.623892418130081978e+02
5.727255072013264225e+00,9.342835953108574287e+00,3.258609711662938668e+00,-6.625540450946019178e-01,-7.038695285710905303e-01,-2.561011989010088530e-01,9.683174979054080040e+02
5.839535037750918534e+00,9.267316542217468367e+00,3.235629302675786079e+00,-5.952507553311113808e-01,-7.410897304456128820e-01,-3.105809873549187916e-01,9.717508864333935890e+02
6.016035853458405747e+00,9.155877077412016618e+00,3.196010504345179193e+00,-5.598854713927672311e-01,-7.776070189468885507e-01,-2.861006518792914011e-01,9.776791425257933952e+02
6.174575577514407776e+00,9.064063262280360078e+00,3.156868112909249735e+00,-5.227377944552101807e-01,-8.116487822699600674e-01,-2.607095174439786334e-01,9.836073986181932014e+02
6.314700908255975520e+00,8.993238019942898731e+00,3.118704200743321220e+00,-4.839259823694500029e-01,-8.431066519987694408e-01,-2.344884153670377669e-01,9.895356547105930076e+02
6.436062876762326468e+00,8.944565819703605314e+00,3.081957131995367138e+00,-4.435735901289256655e-01,-8.718804848659937878e-01,-2.075208188306152113e-01,9.954639108029928138e+02
6.538484028959856253e+00,8.918794243401890753e+00,3.046937914579097573e+00,-4.018090766458969343e-01,-8.978786814392701876e-01,-1.798925772229686970e-01,1.001392166895392620e+03
6.621871603355796942e+00,8.916464570634133224e+00,3.013893775331440761e+00,-3.587653959336928877e-01,-9.210184776351120206e-01,-1.516916429245670772e-01,1.007320422987792426e+03
6.625755558156244618e+00,8.917806115405129574e+00,3.012017988511591859e+00,-3.145795739915278610e-01,-9.412262081341830067e-01,-1.230077914049914345e-01,1.007681338591883559e+03
6.670203437850196870e+00,8.964338469941369070e+00,2.983538769628443887e+00,-4.139928822577236267e-01,-8.977219500417017439e-01,-1.506757905376026885e-01,1.013609594684283365e+03
6.696473497304619826e+00,9.034697656503123397e+00,2.957414577950631784e+00,-5.082142321844291821e-01,-8.429592109649421960e-01,-1.764541381080360349e-01,1.019537850776683172e+03
6.705167895329358529e+00,9.128412195146141883e+00,2.933763069881209606e+00,-5.960619794809581817e-01,-7.776247801118448821e-01,-2.000195439804918207e-01,1.025466106869082978e+03
6.696866583545392437e+00,9.244998690047058432e+00,2.912701653835614302e+00,-6.764344122593010100e-01,-7.025380273991230773e-01,-2.210764708658255751e-01,1.031394362961482784e+03
6.672127215763740793e+00,9.383962321354497149e+00,2.894347478856217126e+00,-7.483235675712862633e-01,-6.186406276547496974e-01,-2.393608406428259783e-01,1.037322619053882590e+03
6.631485061614152521e+00,9.544797338445350832e+00,2.878817423245999318e+00,-8.108278722548790673e-01,-5.269847510450428318e-01,-2.546433461559965972e-01,1.043250875146282397e+03
6.575452924430678081e+00,9.726987554518052193e+00,2.866228083222188694e+00,-8.631634495805984297e-01,-4.287198678186313616e-01,-2.667323269620137105e-01,1.049179131238682203e+03
6.504672314352916374e+00,9.929971338145625381e+00,2.856668230184180146e+00,-9.046739499150530106e-01,-3.250783328296798502e-01,-2.754761729634816469e-01,1.055107387331082009e+03
6.420063315410996729e+00,1.015310098269300987e+01,2.850171270686042035e+00,-9.348387821214688698e-01,-2.173599306016772426e-01,-2.807652257870772439e-01,1.061035643423481815e+03
6.322671225462319633e+00,1.039567030686850302e+01,2.846742774610197646e+00,-9.532796424651699407e-01,-1.069155747279066787e-01,-2.825331540595028557e-01,1.066963899515881621e+03
6.213514429301439712e+00,1.065694792094504528e+01,2.846388006046554509e+00,-9.597652591347488604e-01,4.869633987857360097e-03,-2.807577853301791437e-01,1.072892155608281428e+03
6.103962561291241151e+00,1.091148694403386266e+01,2.848877005222893555e+00,-9.542142928604824270e-01,1.165937782001250367e-01,-2.754613842018626690e-01,1.078297202480309807e+03
5.973735246314119784e+00,1.120782952962527013e+01,2.854696098860841857e+00,-9.434147845429052825e-01,7.449484326377542320e-02,-3.231362911115037706e-01,1.084225458572709613e+03
5.834572775416368096e+00,1.152063093838929220e+01,2.863602481440966852e+00,-9.286889223055583287e-01,3.208587519362907786e-02,-3.694663478591911354e-01,1.090153714665109419e+03
5.687386095946084907e+00,1.184906657158344601e+01,2.875600202387667448e+00,-9.100979938312563355e-01,-1.045662641602486224e-02,-4.142587362854253108e-01,1.096081970757509225e+03
5.533058128634134043e+00,1.219228954078625371e+01,2.890693003071746592e+00,-8.877193724428737998e-01,-5.295560634794522353e-02,-4.573270378476323450e-01,1.102010226849909031e+03
5.372443555972127527e+00,1.254943127288424876e+01,2.908884316417327476e+00,-8.616461950674837444e-01,-9.523419061590451817e-02,-4.984920094284818748e-01,1.107938482942308838e+03
5.206368615674043632e+00,1.291960211844352102e+01,2.930177266531476921e+00,-8.319869746036981928e-01,-1.371164225606417153e-01,-5.375823292804320364e-01,1.113866739034708644e+03
5.035630899239552427e+00,1.330189196338431756e+01,2.954574668356566569e+00,-7.988651483056742331e-01,-1.784279951253645302e-01,-5.744353100034278459e-01,1.119794995127108450e+03
4.860999155636731572e+00,1.369537084387698300e+01,2.982079027345398980e+00,-7.624185640633721617e-01,-2.189969762643430018e-01,-6.088975755899058706e-01,1.125723251219508256e+03
4.683213100121391470e+00,1.409908956437724470e+01,3.012692539159127936e+00,-7.227989067167704951e-01,-2.586545244667681209e-01,-6.408256997207185668e-01,1.131651507311908063e+03
4.502983228209832767e+00,1.451208031871857074e+01,3.046417089387992050e+00,-6.801710667909761643e-01,-2.972355914192010284e-01,-6.700868026567294855e-01,1.137579763404307869e+03
4.320990634821409770e+00,1.493335731417911383e+01,3.083254253294886116e+00,-6.347124542784964296e-01,-3.345796088834289694e-01,-6.965591042429637447e-01,1.143508019496707675e+03
4.137886838606822160e+00,1.536191739844044157e+01,3.123205295581783059e+00,-5.866122603233655530e-01,-3.705311569321561582e-01,-7.201324307246292911e-01,1.149436275589107481e+03
3.954293611477648795e+00,1.579674068935510967e+01,3.166271170179025596e+00,-5.360706698784215574e-01,-4.049406107624221596e-01,-7.407086732663052953e-01,1.155364531681507287e+03
3.770802813352169824e+00,1.623679120743983262e+01,3.212452520057507144e+00,-4.832980286108931600e-01,-4.376647633956374239e-01,-7.582021962663174630e-01,1.161292787773907094e+03
3.691513596440116007e+00,1.642711887756712485e+01,3.233620302193797258e+00,-4.285139675217602973e-01,-4.685674216732911290e-01,-7.725401937669817976e-01,1.163836026567264980e+03
3.505748680805438333e+00,1.687364057381232740e+01,3.286122967045303600e+00,-4.109157488952018822e-01,-4.967654074838265821e-01,-7.644412189532923119e-01,1.169764282659664786e+03
3.321409594898564244e+00,1.732285719305717464e+01,3.341741262406104696e+00,-3.928365892176151619e-01,-5.243819653383131607e-01,-7.554475286857483818e-01,1.175692538752064593e+03
3.138984611995151219e+00,1.777368223738641007e+01,3.400474672802315634e+00,-3.742976483123515163e-01,-5.513847733811145790e-01,-7.455696494285483089e-01,1.181620794844464399e+03
2.958931423987547937e+00,1.822501594118346091e+01,3.462322371254225484e+00,-3.553206240600331189e-01,-5.777422280591467674e-01,-7.348191423966990987e-01,1.187549050936864205e+03
2.781677004685940258e+00,1.867574591696681097e+01,3.527283219217448806e+00,-3.359277270097070223e-01,-6.034234810956302653e-01,-7.232085900252713806e-01,1.193477307029264011e+03
2.607751468205336653e+00,1.912483410035401121e+01,3.595310598714463790e+00,-3.161416543914356003e-01,-6.283984755812579426e-01,-7.107515812459521687e-01,1.199405563121663818e+03
2.437925155473197769e+00,1.957139869004182842e+01,3.666267248890780817e+00,-2.959855635600056045e-01,-6.526379811399858344e-01,-6.974626955869309697e-01,1.205333819214063624e+03
2.273079291536149071e+00,2.001462091201277715e+01,3.739970447062276548e+00,-2.754830449007383275e-01,-6.761136281284320093e-01,-6.833574861146739510e-01,1.211262075306463430e+03
2.114073351642178356e+00,2.045365669674144371e+01,3.816237194185893689e+00,-2.546580942290090910e-01,-6.987979408289916039e-01,-6.684524612374923569e-01,1.217190331398863236e+03
1.961744791305997104e+00,2.088763713679622214e+01,3.894884232518156519e+00,-2.335350847156691667e-01,-7.206643695979401132e-01,-6.527650653921200918e-01,1.223118587491263042e+03
1.824347121282388073e+00,2.129315241777502621e+01,3.971489857085341413e+00,-2.121387383711145769e-01,-7.416873219310085030e-01,-6.363136586358165703e-01,1.228735542240778159e+03
1.687420925122255166e+00,2.171425987923720058e+01,4.054366471435939978e+00,-2.019041364360703583e-01,-7.917796962579330966e-01,-5.764699751790438587e-01,1.234663798333177965e+03
1.559503695241714505e+00,2.212760979625738855e+01,4.139081882817886360e+00,-1.904186858021093831e-01,-8.369667719085633895e-01,-5.130549159863300179e-01,1.240592054425577771e+03
1.441343397618620514e+00,2.253223985252570571e+01,4.225451979171395145e+00,-1.777535416679718316e-01,-8.769686083907398677e-01,-4.464613514305210140e-01,1.246520310517977578e+03
1.333633381936069506e+00,2.292727215459450818e+01,4.313178921808721533e+00,-1.639871673216617143e-01,-9.115373879089664344e-01,-3.771018422089530420e-01,1.252448566610377384e+03
1.236984795991914243e+00,2.331202179089640225e+01,4.401737618683900344e+00,-1.492048481006544025e-01,-9.404589503489458879e-01,-3.054060837822625829e-01,1.258376822702777190e+03
1.151963641709640385e+00,2.368589199952961977e+01,4.490489330905346854e+00,-1.334981631099355914e-01,-9.635541198400981999e-01,-2.318182447192179141e-01,1.264305078795176996e+03
1.144973893620129024e+00,2.371945757916228814e+01,4.498699755584547155e+00,-1.169644179660937061e-01,-9.806798146906916536e-01,-1.567942154134464861e-01,1.264854752328270479e+03
1.079470563021665885e+00,2.406924255340711127e+01,4.586699431278525196e+00,-1.596102802021042988e-01,-9.677861255558163345e-01,-1.947115138750725727e-01,1.270783008420670285e+03
1.026579803493291587e+00,2.440675631800572631e+01,4.673555410118477305e+00,-2.017098491879646127e-01,-9.515800495934524372e-01,-2.319623804767282915e-01,1.276711264513070091e+03
9.868294045699878003e-01,2.473134965149220221e+01,4.758629074811688398e+00,-2.431190339954121815e-01,-9.321170549707956665e-01,-2.684193196137582005e-01,1.282639520605469897e+03
9.607344928258660932e-01,2.504235615897364298e+01,4.841281970658561917e+00,-2.836961066791863773e-01,-9.094637568407809569e-01,-3.039575530372201073e-01,1.288567776697869704e+03
9.487973347875455765e-01,2.533909252591915617e+01,4.920875867568869744e+00,-3.233021873210726316e-01,-8.836976893400455557e-01,-3.384554468888765766e-01,1.294496032790269510e+03
9.515071417980813795e-01,2.562085877516508603e+01,4.996772822061859465e+00,-3.618017193262257347e-01,-8.549070402243932332e-01,-3.717949279745936253e-01,1.300424288882669316e+03
9.693168437229184864e-01,2.588694823731561101e+01,5.068317720078895583e+00,-3.990629333463261985e-01,-8.231903490502169296e-01,-4.038618878526036848e-01,1.306352544975069122e+03
1.002620224386576941e+00,2.613665837971040062e+01,5.134820821478171204e+00,-4.349582982429577860e-01,-7.886561699343589416e-01,-4.345465733546653997e-01,1.312280801067468929e+03
1.051775316446988517e+00,2.636928263676004036e+01,5.195575346247705006e+00,-4.693649575488629822e-01,-7.514227000458465477e-01,-4.637439622045011478e-01,1.318209057159868735e+03
1.117127450880842865e+00,2.658410137682854923e+01,5.249875062390861657e+00,-5.021651499342588698e-01,-7.116173750999759129e-01,-4.913541224487816272e-01,1.324137313252268541e+03
1.199009098443535315e+00,2.678038215154897372e+01,5.297014354605323661e+00,-5.332466122399859287e-01,-6.693764332379334991e-01,-5.172825544711840973e-01,1.330065569344668347e+03
1.297505015420994390e+00,2.695747375231995946e+01,5.336359228570359825e+00,-5.625029636987592951e-01,-6.248444487831720240e-01,-5.414405144194941455e-01,1.335993825437068153e+03
1.397015937018752707e+00,2.709431198795251916e+01,5.363363214169598159e+00,-5.898340700299784523e-01,-5.781738374687191984e-01,-5.637453179391537228e-01,1.341142963488977102e+03
1.527053215399492681e+00,2.723195956373998428e+01,5.385806243985262753e+00,-5.818087290062644579e-01,-6.395041907792152758e-01,-5.025246191266506957e-01,1.347071219581376909e+03
1.672090813860580116e+00,2.734925837000302451e+01,5.399180091774563373e+00,-5.693768822166443977e-01,-6.959910568821743304e-01,-4.374979025524983189e-01,1.352999475673776715e+03
1.831490152559439366e+00,2.744587147304490315e+01,5.403066759007740139e+00,-5.526326871954185815e-01,-7.472066173545965917e-01,-3.691576682466526371e-01,1.358927731766176521e+03
2.004610185050244464e+00,2.752147608319112493e+01,5.397049158874519748e+00,-5.317029620484421404e-01,-7.927629776798863492e-01,-2.980215115889062183e-01,1.364855987858576327e+03
2.190807520460762436e+00,2.757576358769780711e+01,5.380711156920534144e+00,-5.067462249075849190e-01,-8.323151049190006256e-01,-2.246282031854863748e-01,1.370784243950976133e+03
2.389436545769435316e+00,2.760843958169971657e+01,5.353637611614443514e+00,-4.779514933214986105e-01,-8.655634407653054474e-01,-1.495336084064851634e-01,1.376712500043375940e+03
2.599849548172317171e+00,2.761922389719676829e+01,5.315414414842814850e+00,-4.455368526775967952e-01,-8.922561702033485753e-01,-7.330647748320875956e-02,1.382640756135775746e+03
2.821348844642254328e+00,2.760785339020828744e+01,5.265724613647740249e+00,-4.097478044973891786e-01,-9.121911285986153972e-01,3.475861957478168160e-03,1.388569012228175552e+03
3.053139010673493914e+00,2.757408651212579187e+01,5.204444522523039574e+00,-3.708554071126364260e-01,-9.252173327817657666e-01,8.023187730747151358e-02,1.394497268320575358e+03
3.294375168052184666e+00,2.751770324935349521e+01,5.131547654267570202e+00,-3.291542228005270854e-01,-9.312361245361396866e-01,1.563802352351773561e-01,1.400425524412975165e+03
3.544211199504999410e+00,2.743850327130273925e+01,5.047008641393945005e+00,-2.849600869204696463e-01,-9.302019178300424684e-01,2.313442044405705500e-01,1.406353780505374971e+03
3.698390062146255541e+00,2.737782046999789287e+01,4.989506744371436042e+00,-2.386077159421267357e-01,-9.221225441334970352e-01,3.045560235723751008e-01,1.409899001129073667e+03
3.963471806109700957e+00,2.725392694926405568e+01,4.881719352286496338e+00,-3.465101411643989882e-01,-9.016265941813779161e-01,2.588401180957509706e-01,1.415827257221473474e+03
4.234841188350865870e+00,2.710674354511467854e+01,4.762229453173494775e+00,-4.495084031646882639e-01,-8.683699358366813170e-01,2.094608555795276772e-01,1.421755513313873280e+03
4.511648957611952504e+00,2.693614235080191932e+01,4.631015953430521748e+00,-5.461447732565579694e-01,-8.228232518336837664e-01,1.571170992833133828e-01,1.427683769406273086e+03
4.793045450138058605e+00,2.674201517363326630e+01,4.488058890629400111e+00,-6.350515623987712521e-01,-7.656311635873649379e-01,1.025496681591833020e-01,1.433612025498672892e+03
5.078180768095459818e+00,2.652427353314230629e+01,4.333339435772574078e+00,-7.149704773725208407e-01,-6.976031079826587877e-01,4.653085233943630994e-02,1.439540281591072699e+03
5.366245063726239550e+00,2.628294692415662581e+01,4.167003450139948662e+00,-7.847704288002734785e-01,-6.197018817784185618e-01,-1.014651672477199021e-02,1.445468537683472505e+03
5.656512484723964285e+00,2.601827956258728491e+01,3.989525026114365325e+00,-8.434635390460952786e-01,-5.330300157109519876e-01,-6.668028682936830154e-02,1.451396793775872311e+03
5.948306718311640040e+00,2.573062974410125037e+01,3.801542886703080715e+00,-8.902191234894453187e-01,-4.388141710727010980e-01,-1.222703375311031820e-01,1.457325049868272117e+03
5.997209632615595254e+00,2.567931820829581824e+01,3.768641579380206608e+00,-9.243754473157733687e-01,-3.383877795130898480e-01,-1.761299039809351707e-01,1.458310625596646105e+03
6.293265935085947227e+00,2.534988801372734457e+01,3.561191714693970223e+00,-9.174649964561566451e-01,-3.537423526602441748e-01,-1.819954071049963151e-01,1.464238881689045911e+03
6.589207771506850442e+00,2.499825723235131036e+01,3.344625588043111275e+00,-9.102628642026563410e-01,-3.689844614274925827e-01,-1.878030491604692764e-01,1.470167137781445717e+03
6.884395203625190973e+00,2.462483331268465747e+01,3.119585312105229491e+00,-9.027713402474437654e-01,-3.841092603134875771e-01,-1.935509838897476187e-01,1.476095393873845524e+03
7.178200098572577126e+00,2.423003776263643161e+01,2.886713817434048757e+00,-8.949928062669928464e-01,-3.991119411098147940e-01,-1.992373840156531073e-01,1.482023649966245330e+03
7.470006249601881088e+00,2.381430589816134002e+01,2.646654790339283192e+00,-8.869297351627357662e-01,-4.139877344275555981e-01,-2.048604418214411971e-01,1.487951906058645136e+03
7.759209494745146429e+00,2.337808658999270861e+01,2.400052610711447709e+00,-8.785846902752275644e-01,-4.287319112124191589e-01,-2.104183697250626150e-01,1.493880162151044942e+03
8.045217833382748651e+00,2.292184200848803854e+01,2.147552289796143654e+00,-8.699603245696271303e-01,-4.433397842470692130e-01,-2.159094008470343884e-01,1.499808418243444748e+03
8.327451540713900258e+00,2.244604736662063615e+01,1.889799407922350571e+00,-8.610593797927498239e-01,-4.578067096401736702e-01,-2.213317895717410722e-01,1.505736674335844555e+03
8.605343280118725957e+00,2.195119066115087136e+01,1.627440052189268238e+00,-8.518846856019601788e-01,-4.721280883017038299e-01,-2.266838121019885688e-01,1.511664930428244361e+03
8.878338213402354739e+00,2.143777241201080130e+01,1.361120754116241338e+00,-8.424391586661784670e-01,-4.862993674040212988e-01,-2.319637670066360402e-01,1.517593186520644167e+03
9.145894108911642562e+00,2.090630539993604842e+01,1.091488427260312921e+00,-8.327258017392865641e-01,-5.003160418282875943e-01,-2.371699757611327175e-01,1.523521442613043973e+03
9.407530055512777878e+00,2.035734550951827160e+01,8.191850652204111238e-01,-8.227477027062238824e-01,-5.141736555957416854e-01,-2.423007832807884676e-01,1.529449698705443780e+03
9.662876336159685664e+00,1.979152075417654899e+01,5.448424401288588514e-01,-8.125080336020763516e-01,-5.278678032833933331e-01,-2.473545584466107505e-01,1.535377954797843586e+03
9.911627640107017356e+00,1.920949714803314379e+01,2.690872813163974753e-01,-8.020100496044667571e-01,-5.413941314236836444e-01,-2.523296946235408234e-01,1.541306210890243392e+03
1.005687899013230791e+01,1.885306346217614504e+01,1.039252811293935735e-01,-7.912570879995647344e-01,-5.547483398876722482e-01,-2.572246101709253496e-01,1.544846043158940574e+03
1.029439939561957651e+01,1.824175825820195485e+01,-1.730231987909829627e-01,-8.466373742505765021e-01,-4.823125161626912183e-01,-2.248950717016566236e-01,1.550774299251340381e+03
1.052454163681673194e+01,1.761601141334550036e+01,-4.497560235887653746e-01,-8.940938581934891882e-01,-4.053626654983730204e-01,-1.904607102831991361e-01,1.556702555343740187e+03
1.074705968121414834e+01,1.697650861251469578e+01,-7.256462441656580387e-01,-9.331823895501291100e-01,-3.246189725839111473e-01,-1.542438020569057711e-01,1.562630811436139993e+03
1.096172405608182743e+01,1.632393995998664238e+01,-1.000066992468425564e+00,-9.635371348119196044e-01,-2.408371287546370865e-01,-1.165833060630451223e-01,1.568559067528539799e+03
1.116832187786553199e+01,1.565899963532068817e+01,-1.272391541922983649e+00,-9.848740009871638224e-01,-1.548012594172781531e-01,-7.783169189551031319e-02,1.574487323620939605e+03
1.136665687880758568e+01,1.498238554883240248e+01,-1.541993367858193409e+00,-9.969932943459102193e-01,-6.731658539050973389e-02,-3.835164092477874598e-02,1.580415579713339412e+03
1.155654943079028740e+01,1.429479899667262721e+01,-1.808246207914962156e+00,-9.997815892912411684e-01,2.079811316111765743e-02,1.487348039532386361e-03,1.586343835805739218e+03
1.173783656640008033e+01,1.359694431555594996e+01,-2.070524122436242731e+00,-9.932127898735905180e-01,1.087181596781317955e-01,4.131241688260647860e-02,1.592272091898139024e+03
1.191037199721082018e+01,1.288952853718287805e+01,-2.328201554833533748e+00,-9.773483740175925583e-01,1.956206993342853306e-01,8.075083775461960878e-02,1.598200347990538830e+03
1.207402612928479613e+01,1.217326104240006046e+01,-2.580653391925483486e+00,-9.523368181764630958e-01,2.806924001184655237e-01,1.194335014230558378e-01,1.604128604082938637e+03
1.222868607589030709e+01,1.144885321514288989e+01,-2.827255024244208048e+00,-9.184122077957015406e-01,3.631370648061728046e-01,1.569983717643070875e-01,1.610056860175338443e+03
1.237426824915675105e+01,1.071705980233210731e+01,-3.067506606320011375e+00,-8.758920465846046222e-01,4.421830825891213679e-01,1.930938740680888666e-01,1.615985116267738249e+03
1.238034099946630029e+01,1.068518043763637237e+01,-3.077609448380473900e+00,-8.251742850896319759e-01,5.170906506300732008e-01,2.273821854467290293e-01,1.616241338049316255e+03
1.251574364698395136e+01,9.942217892039970195e+00,-3.304797029768337335e+00,-8.427741716166462504e-01,4.717372022997047831e-01,2.592174909668398253e-01,1.622169594141716061e+03
1.264196070257395910e+01,9.193636957606107885e+00,-3.525252606468296523e+00,-8.575253254321348884e-01,4.247891962868035054e-01,2.901765927178961424e-01,1.628097850234115867e+03
1.275900753725932724e+01,8.440317924302163988e+00,-3.738851157974264705e+00,-8.693778851491863469e-01,3.764053255430833134e-01,3.201548433449055153e-01,1.634026106326515674e+03
1.286692087758646430e+01,7.683139679454130899e+00,-3.945468323636565966e+00,-8.782917871506689123e-01,3.267491364630207840e-01,3.490509109646355301e-01,1.639954362418915480e+03
1.296575878443632490e+01,6.922979264368783525e+00,-4.144980414273924829e+00,-8.842369010046434719e-01,2.759884760685723526e-01,3.767671216812272239e-01,1.645882618511315286e+03
1.305560062825945167e+01,6.160711431334354060e+00,-4.337264423736593599e+00,-8.871931313044428835e-01,2.242949246583111345e-01,4.032097897368815409e-01,1.651810874603715092e+03
1.313654706073722167e+01,5.397208201056677090e+00,-4.522198040419779019e+00,-8.871504855893909136e-01,1.718432158386473951e-01,4.282895341818101498e-01,1.657739130696114898e+03
1.320871998287185356e+01,4.633338420587767459e+00,-4.699659658726556444e+00,-8.841091081167425925e-01,1.188106458974003132e-01,4.519215809932086714e-01,1.663667386788514705e+03
1.327226250950805486e+01,3.869967321803730265e+00,-4.869528390479430868e+00,-8.780792793708257493e-01,6.537647451597955461e-02,4.740260496221903042e-01,1.669595642880914511e+03
1.332733893028949979e+01,3.107956080488893491e+00,-5.031684076279728579e+00,-8.690813813111395447e-01,1.172131884568257225e-02,4.945282230002532864e-01,1.675523898973314317e+03
1.337413466705353571e+01,2.348161376082952057e+00,-5.186007296813980538e+00,-8.571458284769398750e-01,-4.197345700397877438e-02,5.133588000927451489e-01,1.681452155065714123e+03
1.341285622766796770e+01,1.591434952147903648e+00,-5.332379384106510578e+00,-8.423129651812077956e-01,-9.552635500151403225e-02,5.304541301457735836e-01,1.687380411158113930e+03
1.344373115631390903e+01,8.386231776114594361e-01,-5.470682432717384636e+00,-8.246329291414810081e-01,-1.487563566823269234e-01,5.457564278348693287e-01,1.693308667250513736e+03
1.346700798021909939e+01,9.056660884356958208e-02,-5.600799310884944759e+00,-8.041654820084401800e-01,-2.014835350167572259e-01,5.592139685882400180e-01,1.699236923342913542e+03
1.348295615284631133e+01,-6.519004473773656327e-01,-5.722613671612095665e+00,-7.809798073649907302e-01,-2.535296625893136424e-01,5.707812634244412431e-01,1.705165179435313348e+03
1.349186599354181659e+01,-1.387950369952099638e+00,-5.836009963695557801e+00,-7.551542768785043380e-01,-3.047188140335621576e-01,5.804192127135151535e-01,1.711093435527713154e+03
1.349404862364912105e+01,-2.116762658545529252e+00,-5.940873442697273354e+00,-7.267761853964967989e-01,-3.548779606865348768e-01,5.880952383418506235e-01,1.717021691620112961e+03
1.348983589909352254e+01,-2.837524367612743958e+00,-6.037090181857181825e+00,-6.959414558809765561e-01,-4.038375554528006450e-01,5.937833938340026929e-01,1.722949947712512767e+03
1.347958033944332712e+01,-3.549430539309887500e+00,-6.124547082946564025e+00,-6.627543151786202680e-01,-4.514321059013948756e-01,5.974644520591828600e-01,1.728878203804912573e+03
1.346365505345383440e+01,-4.251684635233666576e+00,-6.203131887061183569e+00,-6.273269417225050271e-01,-4.975007336585475226e-01,5.991259702258784348e-01,1.734806459897312379e+03
1.344245366110053475e+01,-4.943498966933453254e+00,-6.272733185353434493e+00,-5.897790863559921881e-01,-5.418877182054303576e-01,5.987623319448047710e-01,1.740734715989712186e+03
1.341639021210819749e+01,-5.624095125140014417e+00,-6.333240429702700958e+00,-5.502376675602138612e-01,-5.844430232428164951e-01,5.963747662178889852e-01,1.746662972082111992e+03
1.339975664735392691e+01,-6.008385207957304353e+00,-6.362764666802883440e+00,-5.088363424531378021e-01,-6.250228038434272326e-01,5.919713432889595062e-01,1.750069447492868903e+03
1.336830336546261400e+01,-6.664760714784121909e+00,-6.404933457151171794e+00,-5.650951016777213676e-01,-5.821074759519366815e-01,5.846506756181782949e-01,1.755997703585268710e+03
1.333321740398261035e+01,-7.307979361983983679e+00,-6.437727847510616108e+00,-6.184942606914284324e-01,-5.362464716801785825e-01,5.743714574232621217e-01,1.761925959677668516e+03
1.329498505144195342e+01,-7.937300374509056233e+00,-6.461040637806912734e+00,-6.687636020622533817e-01,-4.876718648062942640e-01,5.611857061912429723e-01,1.767854215770068322e+03
1.325411260553758375e+01,-8.551994201118946037e+00,-6.474765536675733735e+00,-7.156487463484990652e-01,-4.366294604599524898e-01,5.451601472123878134e-01,1.773782471862468128e+03
1.321112627227061509e+01,-9.151342935387040356e+00,-6.478797171765608987e+00,-7.589124392281454412e-01,-3.833775513047558148e-01,5.263758759106981211e-01,1.779710727954867934e+03
1.316650215983121441e+01,-9.734680381262720061e+00,-6.473204181584343075e+00,-7.983357519788755186e-01,-3.281856105506676391e-01,5.049279474739127860e-01,1.785638984047267741e+03
1.312059478779839239e+01,-1.030142950592294682e+01,-6.458402290410858448e+00,-8.337191892390390935e-01,-2.713329284067576008e-01,4.809248958592223233e-01,1.791567240139667547e+03
1.307370469048021810e+01,-1.085105925603272681e+01,-6.434981186185288138e+00,-8.648836984485306356e-01,-2.131071988702046283e-01,4.544881846077303278e-01,1.797495496232067353e+03
1.302614753647299572e+01,-1.138304393915976753e+01,-6.403531381467947092e+00,-8.916715758651708734e-01,-1.538030639981686487e-01,4.257515922450180734e-01,1.803423752324467159e+03
1.297825409382810058e+01,-1.189686354509672661e+01,-6.364644155948723458e+00,-9.139472645744638468e-01,-9.372062302387838828e-02,3.948605353755181846e-01,1.809352008416866965e+03
1.294035210070598652e+01,-1.229300646838514410e+01,-6.328063270099884008e+00,-9.315980404559486283e-01,-3.316391385599869873e-02,3.619713328931362661e-01,1.814094075232677596e+03
1.289382000835555964e+01,-1.276920842013141311e+01,-6.276021094124397237e+00,-9.253184795960368580e-01,-5.949954031439380966e-03,3.791415426498492836e-01,1.820022331325077403e+03
1.284800855075450166e+01,-1.322583777272753380e+01,-6.218200704388368472e+00,-9.180443404709313082e-01,2.127039762913370338e-02,3.959042297221782580e-01,1.825950587417477209e+03
1.280330545264340181e+01,-1.366239973673816976e+01,-6.155195831791909988e+00,-9.097834418439972870e-01,4.846788402598581347e-02,4.122413773052653885e-01,1.831878843509877015e+03
1.276011333158126426e+01,-1.407840673791117325e+01,-6.087600697706670339e+00,-9.005446629876978637e-01,7.561327266045712869e-02,4.281354259577450638e-01,1.837807099602276821e+03
1.271884964773327376e+01,-1.447337873461605362e+01,-6.016009956217779120e+00,-8.903379341391123303e-01,1.026773870454559812e-01,4.435692924679540128e-01,1.843735355694676628e+03
1.267994665101877239e+01,-1.484684353447490501e+01,-5.941018636334515435e+00,-8.791742258281106670e-01,1.296311380555762727e-01,4.585263882090895304e-01,1.849663611787076434e+03
1.264371441623610970e+01,-1.519845348393729090e+01,-5.863308008550995432e+00,-8.670655370885269608e-01,1.564455551832846236e-01,4.729906369632212448e-01,1.855591867879476240e+03
1.261019953283178907e+01,-1.552809703466953195e+01,-5.783731443010595719e+00,-8.540248825649752185e-01,1.830918176676835929e-01,4.869464921950606429e-01,1.861520123971876046e+03
1.257931550737900039e+01,-1.583577489190638232e+01,-5.703228402151337306e+00,-8.400662785291250767e-01,2.095412854624943144e-01,5.003789537569797163e-01,1.867448380064275852e+03
1.255097758191589641e+01,-1.612148115426600370e+01,-5.622738424965917581e+00,-8.252047278204192038e-01,2.357655300100723883e-01,5.132735840073753275e-01,1.873376636156675659e+03
1.252510283234316546e+01,-1.638520335714959231e+01,-5.543201035633534168e+00,-8.094562037273552724e-01,2.617363647884780598e-01,5.256165233250998936e-01,1.879304892249075465e+03
1.251015127328533083e+01,-1.654118957413902891e+01,-5.493085587326224761e+00,-7.928376328265893669e-01,2.874258755988588487e-01,5.373945050033203108e-01,1.883129481360949057e+03
1.248964546894879213e+01,-1.676102555556045814e+01,-5.418033570666114684e+00,-7.906359336107413593e-01,3.144598455814271998e-01,5.253644696752186594e-01,1.889057737453348864e+03
1.247150035252075462e+01,-1.695883478455968429e+01,-5.346418511904622584e+00,-7.877381538441966535e-01,3.412169591089360132e-01,5.128719019321177353e-01,1.894985993545748670e+03
1.245564043302298884e+01,-1.713458276331016350e+01,-5.279179065184385955e+00,-7.841468449359522142e-01,3.676736600070307226e-01,4.999278000981819958e-01,1.900914249638148476e+03
1.244199249960763431e+01,-1.728822865255072472e+01,-5.217253445545654955e+00,-7.798651687919233577e-01,3.938066565732847302e-01,4.865435599622780494e-01,1.906842505730548282e+03
1.243048571749854680e+01,-1.741972532404318841e+01,-5.161579337655655131e+00,-7.748968950304222503e-01,4.195929420728184422e-01,4.727309647484234656e-01,1.912770761822948089e+03
1.242090629720400941e+01,-1.752921302990496955e+01,-5.113001008294615346e+00,-7.692463976638060918e-01,4.450098149834021966e-01,4.585021747459749331e-01,1.918699017915347895e+03
1.241274494434838083e+01,-1.761720761742651220e+01,-5.072176427930644493e+00,-7.629186512488078664e-01,4.700348989721545023e-01,4.438697166083774848e-01,1.924627274007747701e+03
1.240533162452192428e+01,-1.768439860655960061e+01,-5.039670002997396203e+00,-7.559192265089298424e-01,4.946461625863304290e-01,4.288464723298576198e-01,1.930555530100147507e+03
1.239797762799319081e+01,-1.773145250832796549e+01,-5.016045317271261794e+00,-7.482542854327348669e-01,5.188219386409399503e-01,4.134456679097223697e-01,1.936483786192547313e+03
1.238997584040695976e+01,-1.775901243623005143e+01,-5.001865077026574902e+00,-7.399305758523305743e-01,5.425409432862013936e-01,3.976808617141959767e-01,1.942412042284947120e+03
1.238688121926103491e+01,-1.776174454755997090e+01,-5.000538464746419720e+00,-7.309554255067892692e-01,5.657822947381144774e-01,3.815659325459948570e-01,1.944290549206751621e+03
1.237491811563817024e+01,-1.775185943311150183e+01,-5.006653073772381113e+00,-7.802710679503837010e-01,4.778232660033550627e-01,4.035591492999458518e-01,1.950218805299151427e+03
1.236074952896811041e+01,-1.772403473073539359e+01,-5.023264487283699786e+00,-8.212748281155477503e-01,3.847742253470046170e-01,4.212534299097729917e-01,1.956147061391551233e+03
1.234357690158058674e+01,-1.767901798803490721e+01,-5.050684501424582251e+00,-8.535299244534041430e-01,2.876263610357911449e-01,4.344602910486857761e-01,1.962075317483951039e+03
1.233400873951499399e+01,-1.765172280026351359e+01,-5.067781666623925041e+00,-8.766927625612477293e-01,1.874145203495078404e-01,4.430390475260218563e-01,1.964706567645363293e+03
1.230759616375177501e+01,-1.757430963928097611e+01,-5.117436916816961556e+00,-8.077827948638909294e-01,2.354750438358952924e-01,5.404039785684154884e-01,1.970634823737763099e+03
1.227653874617991292e+01,-1.748161149598070097e+01,-5.178079291477756030e+00,-7.255134398724861766e-01,2.796411887163327004e-01,6.288314990027543683e-01,1.976563079830162906e+03
1.224015110922103666e+01,-1.737445791122386396e+01,-5.249615852946872607e+00,-6.312452950667108986e-01,3.191825252379135724e-01,7.068591748285310006e-01,1.982491335922562712e+03
1.219772195806052295e+01,-1.725365617769204007e+01,-5.331952589618571103e+00,-5.265373925856452475e-01,3.534451091859519001e-01,7.731965655652933700e-01,1.988419592014962518e+03
1.214865983654716963e+01,-1.712008525620974808e+01,-5.424900510295951328e+00,-4.131214171187306272e-01,3.818622961591832121e-01,8.267465642444616902e-01,1.994347848107362324e+03
1.212311640725879336e+01,-1.705501202908017078e+01,-5.471188152007979255e+00,-2.928730690373388956e-01,4.039641123852540372e-01,8.666235407242200983e-01,1.997003738511859638e+03
1.205802337292505655e+01,-1.689886925270721818e+01,-5.584537486867668044e+00,-2.851388872263695418e-01,3.984960704773980456e-01,8.717193910845399962e-01,2.002931994604259444e+03
1.198572389312571396e+01,-1.673256492567704257e+01,-5.707434874891715637e+00,-2.773717202079421518e-01,3.929819293298250082e-01,8.767143959332711622e-01,2.008860250696659250e+03
1.190594888419134811e+01,-1.655722154969308590e+01,-5.839405863169822908e+00,-2.695724663224891571e-01,3.874223267081452482e-01,8.816079775934990703e-01,2.014788506789059056e+03
