2.449474480122578957e+00,-3.046554588673977104e+00,-1.268495790159919645e+00,-9.500079332621229611e-01,1.120141944699909187e-01,-2.914373808822273704e-01,8.659137601400203721e+02
2.373157752730564951e+00,-3.036612296002487721e+00,-1.025916160719544834e+00,-9.225194340449909269e-01,3.590307649393696676e-02,-3.842744629737270823e-01,8.724403359150708184e+02
2.286182949626017979e+00,-3.016363615694907629e+00,-7.805970369192108960e-01,-8.245761152318926701e-01,-1.170182990585240806e-01,-5.535150836908353522e-01,8.789857212153409591e+02
2.190495240243425012e+00,-2.985212927079963219e+00,-5.378050068651852866e-01,-6.758221309974272728e-01,-2.627289619318240455e-01,-6.886479069993783897e-01,8.854289603144549119e+02
2.083219069954979741e+00,-2.941032550134489831e+00,-2.906224665290081943e-01,-6.694404144336554285e-01,-6.504163409276618735e-01,-3.588956881564576706e-01,8.919743456147250527e+02
1.997734914569224030e+00,-2.899123185975693850e+00,-1.108092723643374217e-01,-4.896204585697378486e-01,-8.695943713918916629e-01,6.383913997637315207e-02,8.967412072044597835e+02
1.870404525466455636e+00,-2.827267812492604282e+00,1.349882557146137030e-01,-4.166373949788889641e-01,-9.090653001501646235e-01,3.400171381781762030e-03,9.032865925047299243e+02
1.733510851876408854e+00,-2.739902832358928730e+00,3.787555902993895440e-01,-3.392641054628363628e-01,-9.389570581384774073e-01,-5.707459780077649147e-02,9.098319778050000650e+02
1.587306235394175591e+00,-2.636047605491765200e+00,6.194831183422973009e-01,-2.583158865876614141e-01,-9.589546822835601780e-01,-1.169479373937913763e-01,9.163773631052702058e+02
1.519952541154893755e+00,-2.583977037452512171e+00,7.218318239277201620e-01,-1.746457000859608921e-01,-9.688474586662174648e-01,-1.755889554475406622e-01,9.192062492679181105e+02
1.354733799760813762e+00,-2.446367639217776890e+00,9.539158128539088066e-01,-1.975348865075755855e-01,-9.590214110694134098e-01,-2.031154885970226365e-01,9.257516345681882513e+02
1.181059542400190399e+00,-2.290503792138883998e+00,1.180229196561147553e+00,-2.201518291761883905e-01,-9.478736632642936755e-01,-2.303620858245995218e-01,9.322970198684583920e+02
1.116323030400145244e+00,-2.229014268498108908e+00,1.257998001161120483e+00,-2.424653679369616621e-01,-9.354195739592298109e-01,-2.572912085358800005e-01,9.346156455443504001e+02
9.247101372586571388e-01,-2.037635258934018978e+00,1.469855052973100928e+00,-2.294243207315892485e-01,-8.911199589575419244e-01,-3.914941887235072748e-01,9.411610308446205408e+02
7.253627737924552843e-01,-1.827681580786662430e+00,1.672814495848289118e+00,-2.117619823316645167e-01,-8.288705245943329691e-01,-5.178112747881561395e-01,9.477064161448906816e+02
5.184462122082100777e-01,-1.599350476086544903e+00,1.865455528517921735e+00,-1.898341245869865634e-01,-7.499251596676888010e-01,-6.336980827174210074e-01,9.542518014451608224e+02
3.041268923726335727e-01,-1.352924564257385942e+00,2.046256798620952999e+00,-1.640824370910967944e-01,-6.558740489608185786e-01,-7.368203212031363414e-01,9.607971867454309631e+02
2.799314953134687811e-01,-1.324465937932820969e+00,2.064423793574351240e+00,-1.350256310383799729e-01,-5.486116450722495763e-01,-8.251008070856774568e-01,9.615062579861255472e+02
4.772118573639623496e-02,-1.045729802330047420e+00,2.218009757811633342e+00,4.752006728137240371e-02,-5.707056098997339566e-01,-8.197773783363926370e-01,9.680516432863956879e+02
-1.295051381318461925e-01,-8.271898673806161728e-01,2.320171406343780607e+00,2.284577261940587967e-01,-5.734871920232712528e-01,-7.867131039486251476e-01,9.728923574258250255e+02
-3.763200495859939099e-01,-5.154352542208721077e-01,2.441281375822990984e+00,2.395840942574557209e-01,-4.208677242217567782e-01,-8.749101785251970353e-01,9.794377427260951663e+02
-6.292759995607314361e-01,-1.876129599954985683e-01,2.543653413445801981e+00,2.432365683978421622e-01,-2.551192027022273212e-01,-9.358141718345982518e-01,9.859831280263653071e+02
-8.875619928584552731e-01,1.554906634822129374e-01,2.626209140719366619e+00,2.393012115633172676e-01,-8.141216546475750493e-02,-9.675251880227168089e-01,9.925285133266354478e+02
-9.534927199055848179e-01,2.442862796344893173e-01,2.641897897136390672e+00,2.279007846531350689e-01,9.483458749518053343e-02,-9.690539888821961823e-01,9.941600517329895865e+02
-1.223107463565223707e+00,6.131725705359651890e-01,2.685745483419635260e+00,2.698866497442980461e-01,2.686455852788080523e-01,-9.246560148504531229e-01,1.000705437033259727e+03
-1.494413968412740878e+00,9.955797994108572802e-01,2.710977249942470468e+00,3.027113879666030183e-01,4.333375503243168114e-01,-8.488712405738675360e-01,1.007250822333529868e+03
-1.713941857109706923e+00,1.314179513897173690e+00,2.716838285434718614e+00,3.252608007249354061e-01,5.833201951017004117e-01,-7.442721017860937094e-01,1.012534515054157623e+03
-1.985032981429093679e+00,1.720290358892101690e+00,2.706726913936189138e+00,2.875311086214490941e-01,6.588706817747871369e-01,-6.951354445504041024e-01,1.019079900354427764e+03
-2.253153542630649930e+00,2.137302223000409285e+00,2.679861121082885322e+00,2.470567027984888753e-01,7.281316795976858769e-01,-6.393631540575966943e-01,1.025625285654697791e+03
-2.516664234294299085e+00,2.564226070821835179e+00,2.636793380763798655e+00,2.042239365588244815e-01,7.904420541560919222e-01,-5.774876126426472522e-01,1.032170670954967818e+03
-2.713392499815789893e+00,2.896219994684747778e+00,2.591859017289854350e+00,1.594416733673655329e-01,8.452070139829702677e-01,-5.100994572681477601e-01,1.037160837249594579e+03
-2.964442736929357114e+00,3.339381879538534825e+00,2.517236829010180088e+00,2.973032339766752963e-01,8.070279838395284511e-01,-5.102103687365333595e-01,1.043706222549864606e+03
-3.206162543250948183e+00,3.789764538852467002e+00,2.427114186856755840e+00,4.290808997365863076e-01,7.523343499051272643e-01,-4.998805931755535559e-01,1.050251607850134633e+03
-3.437173567550547038e+00,4.246370937375054666e+00,2.321952424572592655e+00,5.520780716606811245e-01,6.822453282263202246e-01,-4.793215151692468146e-01,1.056796993150404660e+03
-3.522273122596630390e+00,4.423401867675681665e+00,2.276102081871691496e+00,6.637778224048848097e-01,5.981951642256357893e-01,-4.489538372477886452e-01,1.059310682662409818e+03
-3.734114846768286089e+00,4.888125015713221444e+00,2.143314495685276988e+00,7.907710194423354100e-01,4.422463472232800452e-01,-4.231989640552026866e-01,1.065856067962679845e+03
-3.933709844262139654e+00,5.356946616313920551e+00,1.998008754238707496e+00,8.852550509047177885e-01,2.681165065674676051e-01,-3.800460942482212223e-01,1.072401453262949872e+03
-4.036798926137253218e+00,5.615465258205304622e+00,1.911948277349518444e+00,9.433456484157296540e-01,8.296417146114666574e-02,-3.212692544705200715e-01,1.075989233689780121e+03
-4.212359187891984824e+00,6.089426497162921947e+00,1.743758503453608943e+00,9.728529523258879763e-01,-4.851132435870577492e-02,-2.262781133019950430e-01,1.082534618990050149e+03
-4.372635413331425802e+00,6.565792530524092285e+00,1.564883303522323743e+00,9.759182532792783915e-01,-1.786682594326793327e-01,-1.251367891049021408e-01,1.089080004290320176e+03
-4.516184024636988426e+00,7.043893762919147150e+00,1.375915850418804487e+00,9.524582471313697285e-01,-3.039690175364564428e-01,-2.059426738495138964e-02,1.095625389590590203e+03
-4.540031195914029816e+00,7.132795916676361259e+00,1.339019573982931366e+00,9.031105602053864922e-01,-4.210079686421898670e-01,8.450802556404758692e-02,1.096841725917567601e+03
-4.652182900366375051e+00,7.610942698859556543e+00,1.131347916531503905e+00,8.375494096199779248e-01,-5.278164657064249310e-01,1.411338548065861342e-01,1.103387111217837628e+03
-4.744165944757432918e+00,8.088754946006739388e+00,9.152816193748206652e-01,7.561478399428940289e-01,-6.246424324158155184e-01,1.950904297333098669e-01,1.109932496518107655e+03
-4.765772324249047287e+00,8.230201571217616419e+00,8.488465328427065026e-01,6.604453521916815451e-01,-7.096546564567697279e-01,2.453573013696568050e-01,1.111877068987771281e+03
-4.818008390581039357e+00,8.703656432034433621e+00,6.184191744383429334e-01,6.466521757204476417e-01,-7.026983991990369827e-01,2.967388134279544398e-01,1.118422454288041308e+03
-4.845761546592258995e+00,9.173453082428023819e+00,3.822070814857169152e-01,6.309974808980661765e-01,-6.937192814980510658e-01,3.472660904461771780e-01,1.124967839588311335e+03
-4.846973734929727939e+00,9.637917797498339212e+00,1.414738295558276293e-01,6.135263313082683911e-01,-6.827431510346924082e-01,3.967936875786584605e-01,1.131513224888581362e+03
-4.819573928156153819e+00,1.009524115049634929e+01,-1.024266048067853652e-01,5.942890184047142643e-01,-6.698016030302718082e-01,4.451790372166010146e-01,1.138058610188851389e+03
-4.812841842125472169e+00,1.015021085037592563e+01,-1.325378790263476991e-01,5.733409168408684087e-01,-6.549318893593165658e-01,4.922828591078907134e-01,1.138860141434578054e+03
-4.729650992148506816e+00,1.058934821115681935e+01,-3.795505561458751287e-01,5.926550020647666228e-01,-5.833398137858524235e-01,5.554031960411476287e-01,1.145405526734848081e+03
-4.684306201186116070e+00,1.076249482969661919e+01,-4.795821207459006752e-01,6.063491445206103947e-01,-5.062161265482327810e-01,6.132568370217631459e-01,1.148053578703284984e+03
-4.544510634933824456e+00,1.117795063461924521e+01,-7.261810885806581073e-01,6.265260510929790971e-01,-4.399500204949320370e-01,6.433561119337641854e-01,1.154598964003555011e+03
-4.377438093984880929e+00,1.157887106923625176e+01,-9.709948341107782488e-01,6.431290729783033511e-01,-3.711743311465658390e-01,6.697854965450928955e-01,1.161144349303825038e+03
-4.358809293806710450e+00,1.161674244360255592e+01,-9.947162786501110299e-01,6.560635092081993358e-01,-3.002813442737661820e-01,6.923942418595917525e-01,1.161785984944732490e+03
-4.147163432351842260e+00,1.198749434836506111e+01,-1.232981759264498489e+00,6.814303190356071349e-01,-3.513193746902384396e-01,6.420478309723295363e-01,1.168331370245002518e+03
-3.945247763942106634e+00,1.229248317094199727e+01,-1.434567091748147893e+00,7.028563294436430686e-01,-4.003256788862471494e-01,5.879883765643543203e-01,1.173990410582729510e+03
-3.691825117976999859e+00,1.262570208155642781e+01,-1.660792147984592848e+00,5.772499800948570625e-01,-4.775041580056800239e-01,6.623973426627576266e-01,1.180535795882999537e+03
-3.420108544889148394e+00,1.293752897129315294e+01,-1.877971158194059242e+00,4.359019252883400419e-01,-5.416609817108503089e-01,7.187425772979181282e-01,1.187081181183269564e+03
-3.174813113402832787e+00,1.318388604822353294e+01,-2.053357263884980188e+00,2.826666983350425433e-01,-5.910466055162357790e-01,7.554875563227848589e-01,1.192657969127693832e+03
-2.872476563290491391e+00,1.344876299516686657e+01,-2.245448125857771426e+00,2.158981640032382743e-01,-6.273532777865052923e-01,7.482070887264978820e-01,1.199203354427963859e+03
-2.780859895330642928e+00,1.351888515711742222e+01,-2.296804612787034738e+00,1.478711096933878755e-01,-6.600029645677695234e-01,7.365651510011342884e-01,1.201110968549146264e+03
-2.455811576163632992e+00,1.373405360933789332e+01,-2.455268634406033268e+00,2.348698042401621555e-01,-5.300973845622993785e-01,8.147582082640850709e-01,1.207656353849416291e+03
-2.413785014052010958e+00,1.375781776176011029e+01,-2.472719137571992576e+00,3.146912432618994560e-01,-3.839928489221083874e-01,8.680535198867452840e-01,1.208478945707734283e+03
-2.341331767546286802e+00,1.379263690735631975e+01,-2.497745880546009101e+00,3.156354579412907202e-01,-4.267176246365068648e-01,8.475165641302971897e-01,1.209865610689777441e+03
-1.991976220769277717e+00,1.392944460627976433e+01,-2.593979661471465192e+00,3.253725354889538401e-01,-6.017717662861088446e-01,7.293842981916370816e-01,1.216410995990047468e+03
-1.852865793896876889e+00,1.397201897212579524e+01,-2.622375811916686228e+00,3.205673838484329186e-01,-7.499302857895440155e-01,5.786528483172855841e-01,1.218977352460894735e+03
-1.663153871085027546e+00,1.401579153234015784e+01,-2.647059153412512966e+00,9.292049771090508947e-02,-9.926005687555162771e-01,7.815300384566052638e-02,1.222448549475186155e+03
-1.544813939175905260e+00,1.403496866678009170e+01,-2.653206267882794123e+00,-4.834730475488310808e-02,-9.985997126961828618e-01,2.142783038380074306e-02,1.224607003153273808e+03
-1.186949692896111852e+00,1.406917239178524603e+01,-2.641313313877866609e+00,-1.819714404010176756e-02,-9.998090484744523998e-01,6.980724871901966208e-03,1.231152388453543836e+03
-8.332590338215247749e-01,1.408000516362077725e+01,-2.596041807486191733e+00,1.197338330410001664e-02,-9.998993821900440393e-01,-7.474193624699774184e-03,1.237697773753813863e+03
-7.359888325519819974e-01,1.407765602057520660e+01,-2.573646100964064765e+00,4.213052331252294808e-02,-9.988706120214388973e-01,-2.192075333512015847e-02,1.239535596146444504e+03
-3.992216251045123121e-01,1.405178271587426053e+01,-2.459443306863254186e+00,1.325076303480696160e-01,-9.883981093257839801e-01,-7.422200062229390716e-02,1.246080981446714532e+03
-7.498038665973764949e-02,1.400860843411186352e+01,-2.311514092464959980e+00,2.214253725797785954e-01,-9.670402547493793799e-01,-1.257058076145376457e-01,1.252626366746984559e+03
1.051938728489526936e-01,1.397525141322648601e+01,-2.206815078228355986e+00,3.079045271613764512e-01,-9.350322636060702797e-01,-1.758051994819884445e-01,1.256439075760270043e+03
2.038840384252272042e-01,1.395225314159336705e+01,-2.136200913034759452e+00,1.516937428563551460e-01,-9.803513507993358855e-01,-1.260882125915922525e-01,1.258643091531374012e+03
4.099560403461944280e-01,1.389350574530402227e+01,-1.958014888351516269e+00,-2.003252810139297957e-01,-8.035399523834934055e-01,5.605277216246522531e-01,1.263537512859439857e+03
6.660892369004838276e-01,1.380476766611405282e+01,-1.693014199996831781e+00,-2.062236213077254798e-01,-6.530252060960203275e-01,7.287166103611765200e-01,1.270082898159709885e+03
7.499211599746566925e-01,1.377037001687471118e+01,-1.589819776273528440e+00,-2.016092843732611439e-01,-4.692211702140742791e-01,8.597576343804229637e-01,1.272415143416737919e+03
9.629131693028917249e-01,1.366752133220466803e+01,-1.277361682745123517e+00,-1.525862990304160394e-01,-4.018257924128689207e-01,9.029127609566922619e-01,1.278960528717007946e+03
1.152394923814657801e+00,1.355883723884063130e+01,-9.447663552996202752e-01,-1.022193813219454683e-01,-3.308912430080973022e-01,9.381152292663009762e-01,1.285505914017277973e+03
1.319113713655947651e+00,1.344584794496684843e+01,-5.963150150040685826e-01,-5.095214454709397212e-02,-2.570422883371965561e-01,9.650549937548171808e-01,1.292051299317548001e+03
1.464771810195423907e+00,1.332979668529069706e+01,-2.367700398642627879e-01,7.638691643861816698e-04,-1.809293617773041207e-01,9.834947801332327710e-01,1.298596684617818028e+03
1.474212919637716945e+00,1.332105761905073926e+01,-2.094100492233924860e-01,5.247316504761836975e-02,-1.032228361390268717e-01,9.932721747072092988e-01,1.299084628259237661e+03
1.582789167036625422e+00,1.320333672845085360e+01,1.625454589882683876e-01,-1.992036747028767471e-02,-1.092519038249992885e-01,9.938134636170820047e-01,1.305630013559507688e+03
1.673943834867103186e+00,1.308513521176148231e+01,5.358289718216887598e-01,-9.220875136098317937e-02,-1.147043957448720813e-01,9.891099270382023301e-01,1.312175398859777715e+03
1.749428796879203940e+00,1.296748276757543650e+01,9.058569042038470132e-01,-1.640105042899729360e-01,-1.195515381003859623e-01,9.791863889048637581e-01,1.318720784160047742e+03
1.802672517923262330e+00,1.286706464410549522e+01,1.219458804883743364e+00,-2.349467117093586022e-01,-1.237677512240044214e-01,9.640952164645022471e-01,1.324381940622837419e+03
1.851878947253954744e+00,1.275335865020695181e+01,1.570675365312516059e+00,-2.406688601198933575e-01,-1.243475681500976759e-01,9.626080105396553899e-01,1.330927325923107446e+03
1.890190789507607105e+00,1.264279369145549836e+01,1.906644653950728463e+00,-2.463825138551768434e-01,-1.249229966056313312e-01,9.610868335779202409e-01,1.337472711223377473e+03
1.899335693435912242e+00,1.260928655724874936e+01,2.006494400099021025e+00,-2.520874738012729432e-01,-1.254940165323099599e-01,9.595317385360376816e-01,1.339529752796983757e+03
1.905500245929247161e+00,1.257929147109955892e+01,2.093940011219806774e+00,-2.369593020336214495e-01,-1.160370731291304747e-01,9.645639878901609565e-01,1.341451046296087952e+03
1.918572170840998625e+00,1.248165412011677766e+01,2.370650919411325663e+00,-2.407266460580090583e-01,-1.086207208583492567e-01,9.644948008159943686e-01,1.347996431596357979e+03
1.924237732056635286e+00,1.238874308676151159e+01,2.624071542919626854e+00,-2.444773309600088707e-01,-1.011968536384750816e-01,9.643588706407738576e-01,1.354541816896628006e+03
1.924137871900874819e+00,1.236955884774273073e+01,2.673867619932432937e+00,-2.482110988616559044e-01,-9.376598190425594614e-02,9.641562067228404143e-01,1.355968761765152522e+03
1.918198126443082518e+00,1.228655764791136562e+01,2.876072268461364434e+00,-2.611287284643233897e-01,-8.065499522721840397e-02,9.619275226766061948e-01,1.362514147065422549e+03
1.907217184992455072e+00,1.220862858194136358e+01,3.050586814070849417e+00,-2.739565973129483023e-01,-6.751628776753457184e-02,9.593681950336091502e-01,1.369059532365692576e+03
1.901798622610943346e+00,1.218213406246607455e+01,3.103512486261251979e+00,-2.866903017739869663e-01,-5.435436987060629499e-02,9.564791023914225310e-01,1.371438322353818876e+03
1.883657932622093023e+00,1.211425323656923858e+01,3.219380734421111168e+00,-2.794793795561645866e-01,-5.169230649477805223e-02,9.587581456093811072e-01,1.377983707654088903e+03
1.862844698683438160e+00,1.205146848391183489e+01,3.304511650949877755e+00,-2.722504945688244971e-01,-4.902692103903020376e-02,9.609755611568151501e-01,1.384529092954358930e+03
1.850400069492482036e+00,1.201964980749437650e+01,3.334106838651990756e+00,-2.650041082523872937e-01,-4.635838364370962333e-02,9.631312074660712819e-01,1.388136004714354613e+03
1.848883103549689766e+00,1.201626157741205958e+01,3.335520046491692536e+00,-2.584453744369598072e-01,-5.290694879259170286e-02,9.645749545750861298e-01,1.388555737678094602e+03
1.824306589657471056e+00,1.196840719009613530e+01,3.326017113297157657e+00,-2.647151178350982681e-01,-5.051807628789491827e-02,9.630014695027276916e-01,1.395101122978364629e+03
1.798950736019876206e+00,1.192567443419742013e+01,3.285646989978564303e+00,-2.709722879031723486e-01,-4.812680508405460522e-02,9.613822495384505284e-01,1.401646508278634656e+03
1.789865369290046138e+00,1.191231181236663339e+01,3.260800465285576433e+00,-2.772165902688682459e-01,-4.573324768847383121e-02,9.597173709180272239e-01,1.403961155374455302e+03
1.764005647093322304e+00,1.187941441710978197e+01,3.161619414584741161e+00,-3.647830351497821089e-01,-8.338598742972400113e-02,9.273500495310718073e-01,1.410506540674725329e+03
1.737988374808561387e+00,1.185145341344605185e+01,3.034865714187664043e+00,-4.486530152888810741e-01,-1.201937460653215994e-01,8.855856453653022653e-01,1.417051925974995356e+03
1.711906230391630368e+00,1.182833002715780246e+01,2.882223399873103720e+00,-5.279766747167501384e-01,-1.557835497007945547e-01,8.348473612557086865e-01,1.423597311275265383e+03
1.690332104175149563e+00,1.181308447794838834e+01,2.735995986228600518e+00,-6.019502220498201828e-01,-1.897947650747520976e-01,7.756493262563762814e-01,1.429009903517570365e+03
1.664220185334576607e+00,1.179918043933576399e+01,2.536747290152728151e+00,-7.035292354949398419e-01,-1.911513653037737459e-01,6.844748135220577456e-01,1.435555288817840392e+03
1.638027581657971687e+00,1.178965831105952766e+01,2.317015148844189909e+00,-7.919994081500415506e-01,-1.889462490013313622e-01,5.805465118988680784e-01,1.442100674118110419e+03
1.611682176341364237e+00,1.178432752721605326e+01,2.078838278153519514e+00,-8.657122909867898120e-01,-1.832205035332152010e-01,4.658008977223058733e-01,1.448646059418380446e+03
1.585105904678462130e+00,1.178300076067801250e+01,1.824257576926749502e+00,-9.232943972278366829e-01,-1.740808140308604257e-01,3.423760012518463625e-01,1.455191444718650473e+03
1.571871122850360569e+00,1.178418511862111728e+01,1.692078544467386036e+00,-9.636727932178621447e-01,-1.616974760045639670e-01,2.125715735092216785e-01,1.458405581212226934e+03
1.544490018786428553e+00,1.179019656326007137e+01,1.409832738355808690e+00,-9.787883526067672202e-01,-1.031311415847316892e-01,-1.770178760372649873e-01,1.464950966512496962e+03
1.516698082260186542e+00,1.179974073067170970e+01,1.116274884159663250e+00,-8.417623059444689915e-01,-2.853424242678810618e-02,-5.390918449581212357e-01,1.471496351812766989e+03
1.488409911495840232e+00,1.181261777221749476e+01,8.134513753768400912e-01,-5.738938821275955116e-01,5.049796671070280046e-02,-8.173700309009204190e-01,1.478041737113037016e+03
1.471703884885901870e+00,1.182181130979369676e+01,6.345281872624374264e-01,-2.168202307445993293e-01,1.216808308538406824e-01,-9.685973172289074062e-01,1.481816523951514682e+03
1.441985509158763001e+00,1.184066757439052786e+01,3.184678182459464990e-01,-1.674529114720583189e-01,6.896239009464782965e-02,-9.834641382306761326e-01,1.488361909251784709e+03
1.411551780109220555e+00,1.186239975966797111e+01,-1.636449345833380052e-03,-1.171750978612576821e-01,1.586898800797627990e-02,-9.929834699805968334e-01,1.494907294552054736e+03
1.380476191005266084e+00,1.188681259064359352e+01,-3.224458240858608105e-01,-6.626014847904727889e-02,-3.731070869177806337e-02,-9.971035571764695904e-01,1.501423043705973669e+03
1.348420399769211908e+00,1.191408241441317983e+01,-6.450567318891013979e-01,-1.330505575606096558e-01,4.409634277175635692e-02,-9.901267907109601030e-01,1.507968429006243696e+03
1.315502790122744070e+00,1.194405087428825851e+01,-9.662884319331130900e-01,-1.983592014764208600e-01,1.250122880857195973e-01,-9.721232200774782006e-01,1.514513814306513723e+03
1.295511284121356743e+00,1.196322786467500521e+01,-1.154149875612697107e+00,-2.614587814265350585e-01,2.045360204401463489e-01,-9.432933382323862581e-01,1.518374598924670863e+03
1.260704632168653916e+00,1.199823723489058835e+01,-1.468777090235691585e+00,-3.146966230848187163e-01,2.226412485288346566e-01,-9.227106317035939087e-01,1.524919984224940890e+03
1.251784592589716194e+00,1.200754896588006027e+01,-1.545948135789971145e+00,-3.668060506736238735e-01,2.399481471649395903e-01,-8.988193410508779069e-01,1.526550447678494493e+03
1.215022743030102825e+00,1.204734511410943654e+01,-1.850161629820205711e+00,-5.429865457558450403e-01,2.777628266683479508e-01,-7.924717176333678781e-01,1.533095832978764520e+03
1.177640774842829474e+00,1.208993909295700497e+01,-2.147952436781754848e+00,-6.953953909099296338e-01,3.034172085134131946e-01,-6.514301557945260113e-01,1.539641218279034547e+03
1.172169811854685495e+00,1.209640613975261836e+01,-2.189384582091039366e+00,-8.173602661413267301e-01,3.157881647285029070e-01,-4.818693083706558355e-01,1.540574001202621048e+03
1.132757719574633226e+00,1.214479605450086552e+01,-2.472611189530538045e+00,-8.231723217294656392e-01,2.010964018198725389e-01,-5.309854667616510371e-01,1.547119386502891075e+03
1.092697574772673264e+00,1.219675319673960345e+01,-2.747660398535693105e+00,-8.161425566659645803e-01,8.326748810671695533e-02,-5.718180240441792517e-01,1.553664771803161102e+03
1.051902101139044365e+00,1.225270649559654146e+01,-3.013759997061321805e+00,-7.963806433807015805e-01,-3.586042407975240792e-02,-6.037299900054278190e-01,1.560210157103431129e+03
1.045201563813453971e+00,1.226226436042741952e+01,-3.054578518960046729e+00,-7.641948689152455731e-01,-1.544289197687277182e-01,-6.262235312258548348e-01,1.561251238058522858e+03
1.001615569630007530e+00,1.232684318118306344e+01,-3.301314758402583482e+00,-7.155655795618357518e-01,-2.854757222796118765e-01,-6.375480478624803160e-01,1.567796623358792885e+03
9.567731956495706402e-01,1.239664359259956328e+01,-3.537542650512381481e+00,-6.528637362841210878e-01,-4.109082335180282430e-01,-6.363343189473646966e-01,1.574342008659062913e+03
9.514100577213406851e-01,1.240521073908693062e+01,-3.563230312368840025e+00,-5.773224285853221227e-01,-5.282597060073768169e-01,-6.226062129941217771e-01,1.575088175139991336e+03
9.018486611227476413e-01,1.248604212032130611e+01,-3.777359269094190619e+00,-5.130409638920115922e-01,-6.134321093220200805e-01,-6.004065427842314451e-01,1.581633560440261363e+03
8.498555260071846140e-01,1.257327759881019702e+01,-3.979814929467863749e+00,-4.426649492597043989e-01,-6.913173574831416035e-01,-5.710744731959499498e-01,1.588178945740531390e+03
8.438224278873407425e-01,1.258341438255329869e+01,-4.000454517866773863e+00,-3.670303713045627858e-01,-7.609902620151318686e-01,-5.349584354455293456e-01,1.588887797873073396e+03
7.839251510327138739e-01,1.268350723197886865e+01,-4.179028812277427285e+00,-4.249943492798910483e-01,-8.948273691975616728e-01,-1.366081345134298741e-01,1.595433183173343423e+03
7.304341052627637554e-01,1.277262939718947976e+01,-4.317660477723694434e+00,-4.064782488196060362e-01,-8.676353534740813833e-01,2.863255605742305865e-01,1.600887889330697590e+03
7.094245212369059139e-01,1.280677349898423323e+01,-4.364028668311047632e+00,-3.283474553128726270e-01,-8.539967432289228277e-01,4.035783828851011168e-01,1.602857601602921704e+03
6.335156257008375258e-01,1.292668058964934019e+01,-4.505659979186943609e+00,-2.426431935025234188e-01,-9.467186499832491720e-01,2.117689269484116232e-01,1.609402986903191731e+03
5.518178932825689165e-01,1.305336533343312055e+01,-4.634477393677756574e+00,-1.441435113068247620e-01,-9.895167233552907282e-01,8.792175412961353645e-03,1.615948372203461759e+03
4.648874575188849945e-01,1.318747994766142817e+01,-4.750160878241364237e+00,-3.804262790882668999e-02,-9.801340856275201352e-01,-1.946482279726527154e-01,1.622493757503731786e+03
4.367814564766869800e-01,1.323085009689383540e+01,-4.781453483958484796e+00,7.006440281551970517e-02,-9.190654930921571264e-01,-3.878241855081484557e-01,1.624493894945130023e+03
3.405803422537029279e-01,1.338117267114067843e+01,-4.870440429388705361e+00,-3.597910951477396868e-02,-9.325556333816175103e-01,-3.592262439193705803e-01,1.631039280245400050e+03
2.613934156873125580e-01,1.350902740327357776e+01,-4.930817000521525273e+00,-1.415820442343256047e-01,-9.346265583711478309e-01,-3.262295528167629133e-01,1.636281754133308368e+03
2.308240267337327567e-01,1.355989640223863013e+01,-4.949427737468668376e+00,-2.301637298343800764e-01,-9.104637116768234950e-01,-3.436255042474858357e-01,1.638253231754998524e+03
1.277446158691759592e-01,1.373843909006114750e+01,-4.997664034868432026e+00,-2.297729547739614242e-01,-8.532032068501029798e-01,-4.682378424159773234e-01,1.644798617055268551e+03
4.682919052562416889e-02,1.388655184326364633e+01,-5.025027152150538967e+00,-2.250607941821292646e-01,-7.798963256480300199e-01,-5.840439710820479746e-01,1.649936422859968388e+03
-5.518192811457582614e-02,1.408544909599216410e+01,-5.046877796328903543e+00,-3.427932618727549952e-01,-8.278451170297979056e-01,-4.440306766674559369e-01,1.656481808160238415e+03
-1.113785888387136547e-01,1.420249288872854443e+01,-5.052098160349723699e+00,-4.482661077389402671e-01,-8.461870081640483487e-01,-2.881371962519782559e-01,1.660148686695825063e+03
-2.090901710756992993e-01,1.442134381501867146e+01,-5.049401297968038271e+00,-3.792234299566740185e-01,-8.946328846865404527e-01,-2.362617019368843108e-01,1.666694071996095090e+03
-2.848400291372107929e-01,1.460601384540145808e+01,-5.038027242662180605e+00,-3.064624768657041587e-01,-9.343069014394724814e-01,-1.820696685014696614e-01,1.671978387122397407e+03
-3.738952144665226851e-01,1.484423742412797509e+01,-5.013325633469976061e+00,-3.204796952410116084e-01,-9.360049712971931779e-01,-1.455522539248440272e-01,1.678523772422667435e+03
-3.850066925497623305e-01,1.487654311535898444e+01,-5.008804347301799353e+00,-3.340056532172302473e-01,-9.362682480511673733e-01,-1.088117240331778202e-01,1.679380621676957617e+03
-4.652756873254405012e-01,1.513134003970661112e+01,-4.964984700238922244e+00,-3.356625833259802572e-01,-9.409406940654553297e-01,4.426330765967604469e-02,1.685926006977227644e+03
-5.388378170593469685e-01,1.539379502795869570e+01,-4.912542646854252126e+00,-3.294460162521638535e-01,-9.235418867625013739e-01,1.963000401659984184e-01,1.692471392277497671e+03
-5.485259486335000156e-01,1.543198873940260185e+01,-4.903992749769017223e+00,-3.155017690215561887e-01,-8.844799360055296544e-01,3.437322745189138051e-01,1.693401776851197610e+03
-6.110539847463635210e-01,1.570614524709548654e+01,-4.836673564565667327e+00,-2.398192745393291914e-01,-8.279505818304878639e-01,5.069344628311784895e-01,1.699947162151467637e+03
-6.660345449341190660e-01,1.598501080238920657e+01,-4.762760444012302585e+00,-1.556092034842284921e-01,-7.419806262094108540e-01,6.521108234962692540e-01,1.706492547451737664e+03
-7.132967659985551823e-01,1.626707887526911733e+01,-4.683145441817764265e+00,-6.586591835659386107e-02,-6.296270184324777031e-01,7.740991528602000349e-01,1.713037932752007691e+03
-7.167505251241197417e-01,1.629076626259904259e+01,-4.676091848471030765e+00,2.621947144656067152e-02,-4.948848456932192774e-01,8.685617587828646791e-01,1.713584268264123693e+03
-7.521804796428449569e-01,1.657538014775986923e+01,-4.587112644858533983e+00,1.417660699131100821e-01,-3.728806153088599640e-01,9.169844208862664159e-01,1.720129653564393720e+03
-7.796530012851226044e-01,1.685974559204401402e+01,-4.494048184185770900e+00,2.529773173945114584e-01,-2.394734017268959347e-01,9.373649058659951905e-01,1.726675038864663748e+03
-7.991290250631147840e-01,1.714211663297414034e+01,-4.397567107996239955e+00,3.564523045866850315e-01,-9.874288543160822385e-02,9.290799734852190905e-01,1.733220424164933775e+03
-8.094505623804143513e-01,1.738706792851316862e+01,-4.310340419028631409e+00,4.490266965288481904e-01,4.500730599903365187e-02,8.923829717170640441e-01,1.738973867391777048e+03
-8.135161608787322418e-01,1.766039187937425581e+01,-4.208983817715785669e+00,4.618177148481008021e-01,2.045146708730592178e-01,8.630736629336970278e-01,1.745519252692047075e+03
-8.097599635751150382e-01,1.792668642324224848e+01,-4.106137549366219552e+00,4.623865909956988984e-01,3.586094583681904147e-01,8.109228673776589513e-01,1.752064637992317103e+03
-7.982645480213335087e-01,1.818419216298224583e+01,-4.002416017298264350e+00,4.507182742377539575e-01,5.032135420713764740e-01,7.373107678203104642e-01,1.758610023292587130e+03
-7.877236693186439043e-01,1.832553499301647548e+01,-3.942892238656951154e+00,4.271215638515923341e-01,6.344999619172891903e-01,6.441855074582699681e-01,1.762352992655723710e+03
-7.623439453743314775e-01,1.856094155715123861e+01,-3.838785398048050634e+00,3.868867144379808942e-01,6.278224699804932918e-01,6.753929347981871834e-01,1.768898377955993737e+03
-7.292610715149218104e-01,1.878289591929439695e+01,-3.735012180435816731e+00,3.456315226602703627e-01,6.194891983678602054e-01,7.048191141318463915e-01,1.775443763256263765e+03
-6.885259476052327798e-01,1.898958480216273159e+01,-3.632021074229601520e+00,3.034647885629005448e-01,6.095221247387695440e-01,7.323864427697943658e-01,1.781989148556533792e+03
-6.401628659432713198e-01,1.917924915650277029e+01,-3.530218262334828161e+00,2.604977157187035042e-01,5.979475349101428527e-01,7.580222197249676386e-01,1.788534533856803819e+03
-5.840887114782146172e-01,1.935023749323469389e+01,-3.429925374848692421e+00,2.168436180992098505e-01,5.847959535596202185e-01,7.816588373365572773e-01,1.795079919157073846e+03
-5.769590856994281092e-01,1.936743181139684822e+01,-3.418746673326239272e+00,1.726176213894091704e-01,5.701020637689995230e-01,8.032339594839953412e-01,1.795822939813491757e+03
-5.074590848589095593e-01,1.949846524269204195e+01,-3.322244108615150626e+00,6.790833422711456402e-02,5.743917931537312338e-01,8.157576393126126924e-01,1.802368325113761784e+03
-4.302804947278692227e-01,1.960746181210146233e+01,-3.227690903438267256e+00,-3.755738206417795488e-02,5.722832003354808572e-01,8.191943491400597299e-01,1.808913710414031812e+03
-3.477588241993080365e-01,1.969066648950756004e+01,-3.137610919143104748e+00,-1.426047588319856729e-01,5.637997725374387370e-01,8.135058077490939787e-01,1.815269220276476744e+03
-2.548075446715519221e-01,1.975186838836636838e+01,-3.046303340597360521e+00,-2.029764289497172636e-01,5.794970397003432749e-01,7.892919296797505924e-01,1.821814605576746771e+03
-2.354033193610046704e-01,1.975887204387673890e+01,-3.028953567666747393e+00,-2.624392800610625409e-01,5.925996300794227345e-01,7.615440254499278305e-01,1.823075599560264436e+03
-1.270023241401329328e-01,1.976976575115408252e+01,-2.939755194060947652e+00,-2.665551271191101135e-01,6.873154604767103271e-01,6.756802660986529485e-01,1.829620984860534463e+03
-1.086866939621217339e-02,1.975389655708390535e+01,-2.850626207093434505e+00,-2.663099604431897749e-01,7.707863493970932289e-01,5.787619619073840482e-01,1.836166370160804490e+03
1.128463381173355762e-01,1.971055595669479032e+01,-2.760551150069175730e+00,-2.617077922446558458e-01,8.416466822026368311e-01,4.723747387558018263e-01,1.842711755461074517e+03
2.222364016955188371e-01,1.965123249029812058e+01,-2.683565019762082837e+00,-2.528239140354085479e-01,8.987371490258194706e-01,3.582591317067526093e-01,1.848176137346606993e+03
3.600695372323644006e-01,1.955234121443808348e+01,-2.587907171048050792e+00,-2.152296225107719618e-01,9.234016707717699335e-01,3.178105788071433624e-01,1.854721522646877020e+03
5.041578706350303696e-01,1.942543611836066830e+01,-2.487618983794680272e+00,-1.768480806753326695e-01,9.446886045823988942e-01,2.761995596042214896e-01,1.861266907947147047e+03
5.434211209964323608e-01,1.938535749800878705e+01,-2.460174611423451729e+00,-1.378196621466886984e-01,9.625200972779323072e-01,2.335782589483957339e-01,1.862969455417602603e+03
7.013277644299030777e-01,1.920416983353967666e+01,-2.349457448913765845e+00,-1.948160347736132003e-01,9.477372667316056321e-01,2.526633844268352247e-01,1.869514840717872630e+03
7.401836711218889864e-01,1.915527916883645787e+01,-2.322283030862207553e+00,-2.510659991880180297e-01,9.293233043547041161e-01,2.707804646226192324e-01,1.871052893727382980e+03
9.132298590507386127e-01,1.892054129682900765e+01,-2.202009290386102158e+00,-4.337441977205315213e-01,8.367815930086005549e-01,3.341564551899462443e-01,1.877598279027653007e+03
1.093111774102290434e+00,1.865853386098104139e+01,-2.077478961645852440e+00,-5.964910237113774105e-01,7.057881792692259904e-01,3.821773209319763165e-01,1.884143664327923034e+03
1.150655758477085788e+00,1.857067167007027209e+01,-2.038320450959582697e+00,-7.318280001904582388e-01,5.423623900669379827e-01,4.126364210497001639e-01,1.886141432716269264e+03
1.346111202317459288e+00,1.826041546269874516e+01,-1.907964315135909583e+00,-9.385487395575160541e-01,2.607601290594620258e-02,3.441573840907139470e-01,1.892621027517892571e+03
1.435135214733661124e+00,1.811433391450264807e+01,-1.849902781634415128e+00,-9.229075733201789200e-01,-1.774982713648252663e-01,3.416635402889695583e-01,1.895443756594243041e+03
1.650704874713571080e+00,1.775059330020957304e+01,-1.712838741843262902e+00,-9.416501058637694044e-01,-9.784738255525363138e-02,3.220542933238525474e-01,1.901989141894513068e+03
1.874133864334600386e+00,1.736135641973810095e+01,-1.574027762242084627e+00,-9.537256737257342465e-01,-1.750375803692023544e-02,3.001648842313934806e-01,1.908534527194783095e+03
1.896348582764193269e+00,1.732218495430855043e+01,-1.560755127663576936e+00,-9.590487897642145931e-01,6.296379779166234869e-02,2.761502833854266870e-01,1.909155685568748140e+03
2.130300539481278399e+00,1.690549540849672994e+01,-1.426544235702967400e+00,-9.332127363872309012e-01,1.363260143247718714e-01,3.324563226119807147e-01,1.915410774006160409e+03
2.382817167191667806e+00,1.644487653056570764e+01,-1.286147100429873902e+00,-8.944379122912318181e-01,2.230907606059304715e-01,3.875684888989515686e-01,1.921956159306430436e+03
2.642477218879722312e+00,1.596007463106712265e+01,-1.146658441651935645e+00,-8.448681459334992372e-01,3.071630073771780545e-01,4.380030854744381696e-01,1.928501544606700463e+03
2.908770329113731457e+00,1.545160267340146909e+01,-1.008951970206235949e+00,-7.851016922893720995e-01,3.875281023771772193e-01,4.831514282619585599e-01,1.935046929906970490e+03
3.181104280768487946e+00,1.492003782339627449e+01,-8.737877086710146290e-01,-7.158598632873470757e-01,4.632161336524446282e-01,5.224686303094636664e-01,1.941592315207240517e+03
3.368363097698766406e+00,1.454857931859706355e+01,-7.850971418612561203e-01,-6.379783236003941926e-01,5.333136334945883794e-01,5.554801769133754785e-01,1.945986311538626524e+03
3.653174383677935122e+00,1.397409020835197069e+01,-6.563802926461682619e-01,-5.968978514411558134e-01,5.866849268828896458e-01,5.472766681503865582e-01,1.952531696838896551e+03
3.845744694573463018e+00,1.357906952880411922e+01,-5.734087261481900510e-01,-5.530696159259598232e-01,6.373554704577358843e-01,5.365538222816580438e-01,1.956877363433620303e+03
4.140247115772381470e+00,1.296434048016482343e+01,-4.524127927142816419e-01,-5.739481268991903917e-01,5.852041867561087463e-01,5.728155090710813635e-01,1.963422748733890330e+03
4.436793618767216785e+00,1.233013205729218065e+01,-3.354124342128067537e-01,-5.922607512137950669e-01,5.304367009641589581e-01,6.065163714544999918e-01,1.969968134034160357e+03
4.734320186377739326e+00,1.167767371517191499e+01,-2.223502743461479303e-01,-6.079256215040277356e-01,4.732978557041641610e-01,6.375057478213377316e-01,1.976513519334430384e+03
5.031803357789902620e+00,1.100822356651929645e+01,-1.131684677889360502e-01,-6.208727073129668428e-01,4.140430946838981607e-01,6.656450984262956005e-01,1.983058904634700411e+03
5.328260528370346805e+00,1.032306742704401259e+01,-7.808707458774335163e-03,-6.310441281411737213e-01,3.529373207491467435e-01,6.908086247011492320e-01,1.989604289934970438e+03
5.622750240741338779e+00,9.623517855433828316e+00,9.378776817187420289e-02,-6.383944121805209537e-01,2.902537116548158380e-01,7.128838316078122128e-01,1.996149675235240466e+03
5.914372467085011742e+00,8.910913188211518232e+00,1.916801677232970735e-01,-6.428906995809577918e-01,2.262724988509900448e-01,7.317720305235616562e-01,2.002695060535510493e+03
6.202268882646698067e+00,8.186616569619998174e+00,2.859281395163065231e-01,-6.445128893422571448e-01,1.612797147413771726e-01,7.473887804116112754e-01,2.009240445835780520e+03
6.485623130408053605e+00,7.452014976691121895e+00,3.765917641408541572e-01,-6.432537291745056285e-01,9.556591401225772442e-02,7.596642653057843475e-01,2.015785831136050547e+03
6.763661076901577474e+00,6.708518239654043036e+00,4.637315469861588157e-01,-6.391188479257224886e-01,2.942487474581050727e-02,7.685436064223826191e-01,2.022331216436320574e+03
7.035651059139007124e+00,5.957558057839537291e+00,5.474084107330102755e-01,-6.321267304314123203e-01,-3.684771487800898165e-02,7.739871075042056292e-01,2.028876601736590601e+03
7.300904122626980630e+00,5.200587011237144175e+00,6.276836878089274707e-01,-6.223086348979357529e-01,-1.029555784223889769e-01,7.759704322997524883e-01,2.035421987036860628e+03
7.558774250444238341e+00,4.439077567862455886e+00,7.046191128068557408e-01,-6.097084531881762359e-01,-1.686031756704054752e-01,7.744847133836343378e-01,2.041967372337130655e+03
7.628176863530947927e+00,4.230298307997183649e+00,7.247643342023445401e-01,-5.943825146329719811e-01,-2.334970238185863078e-01,7.695365918307851549e-01,2.043757430129056502e+03
7.877490985478059038e+00,3.465919355214269526e+00,7.951922279271145255e-01,-5.863181990530460519e-01,-3.347837863909640110e-01,7.376644127443774401e-01,2.050302815429326529e+03
8.118126076124971391e+00,2.700391858841912907e+00,8.624222366158151853e-01,-5.716050945544534079e-01,-4.322741301410732984e-01,6.974271949750753263e-01,2.056848200729596556e+03
8.349548485319555624e+00,1.935238415552857916e+00,9.265872426828692943e-01,-5.504100470936206246e-01,-5.248625250896366001e-01,6.492812255221919182e-01,2.063393586029866583e+03
8.571208897643666447e+00,1.171982836833230568e+00,9.879599807439652936e-01,-5.229734070720665207e-01,-6.114990292308766229e-01,5.937724755711050184e-01,2.069938971330136610e+03
8.782571624721022374e+00,4.121587761694036622e-01,1.046883259423607271e+00,-4.896063037168421617e-01,-6.912011946594708300e-01,5.315304091609361903e-01,2.076484356630406637e+03
8.983144231600528329e+00,-3.426828544754230710e-01,1.103700174847965565e+00,-4.506871168570026343e-01,-7.630652082951028259e-01,4.632608450856162130e-01,2.083029741930676664e+03
9.172477742690301028e+00,-1.090974881776166416e+00,1.158754069678356480e+00,-4.066571861109422592e-01,-8.262761408837365762e-01,3.897379529778854934e-01,2.089575127230946691e+03
9.350166838769835564e+00,-1.831134871801274544e+00,1.212388492122861594e+00,-3.580158061443531881e-01,-8.801171880679767856e-01,3.117954743400178641e-01,2.096120512531216718e+03
9.515850045058515505e+00,-2.561566134251367810e+00,1.264947154929755513e+00,-3.053145647515863037e-01,-9.239777987484435462e-01,2.303172680701968678e-01,2.102665897831486745e+03
9.669209910319565893e+00,-3.280658730023481073e+00,1.316773894366397135e+00,-2.491510879626926689e-01,-9.573605985743182112e-01,1.462272876901146712e-01,2.109211283131756772e+03
9.809973176979466913e+00,-3.986790481942934061e+00,1.368212629187238960e+00,-1.901622631002119757e-01,-9.798870300612583240e-01,6.047910392103143101e-02,2.115756668432026800e+03
9.937910942243700418e+00,-4.678327988504565660e+00,1.419607319594622163e+00,-1.290170166278747088e-01,-9.913016453841034803e-01,-2.595490859053097704e-02,2.122302053732296827e+03
1.004748433474258817e+01,-5.320940331593275729e+00,1.468799510377904793e+00,-6.640872868088618097e-02,-9.914750031656635043e-01,-1.120945977883543720e-01,2.128530846178800857e+03
1.014969936209765855e+01,-5.978340505330888455e+00,1.521125468232240152e+00,-1.359854495387690376e-01,-9.900782051326694200e-01,-3.537096594117282444e-02,2.135076231479070884e+03
1.023871016498355146e+01,-6.616417992908782963e+00,1.574404733333898854e+00,-2.041031141800659365e-01,-9.780584571169308461e-01,4.173216074710246054e-02,2.141621616779340911e+03
1.024709628332622735e+01,-6.681654035199752428e+00,1.580165610488424299e+00,-2.700308897701610422e-01,-9.555447178465048541e-01,1.183875447912218493e-01,2.142313443644631661e+03
1.028200372184773315e+01,-6.971552590066746546e+00,1.607355565849398982e+00,-3.192861517018437123e-01,-9.195625263884795730e-01,2.290395454507872797e-01,2.145499142418664633e+03
1.034279400904066115e+01,-7.545857659385816874e+00,1.664666394215504441e+00,-3.340434867040608102e-01,-9.424290738487496322e-01,-1.550450757850554452e-02,2.152044527718934660e+03
1.039072506960013698e+01,-8.098803566246605357e+00,1.723604799809175914e+00,-3.285769718984876131e-01,-9.082385497554976705e-01,-2.591098421057707601e-01,2.158589913019204687e+03
1.041368938278935019e+01,-8.436884114944021462e+00,1.762283986443988759e+00,-3.032175596154761399e-01,-8.190609166004433339e-01,-4.870280550831641020e-01,2.162754429491485098e+03
1.043778742613898203e+01,-8.946674901383653733e+00,1.825112896213787028e+00,-2.965245251730764253e-01,-7.652647454146345174e-01,-5.713502213113746953e-01,2.169299814791755125e+03
1.044853161384565254e+01,-9.435081877027053920e+00,1.890090619993742171e+00,-2.868516959729514593e-01,-7.037783832862042344e-01,-6.499308361146085566e-01,2.175845200092025152e+03
1.044830286497857941e+01,-9.561934874285418218e+00,1.908332673190486162e+00,-2.742962702205248293e-01,-6.352196830485855594e-01,-7.219802700949675689e-01,2.177622345709097772e+03
1.043572827351514576e+01,-1.000817146595827722e+01,1.977689429360277140e+00,-4.376987302730360740e-01,-5.163901717361284449e-01,-7.360428058557426656e-01,2.184167731009367799e+03
1.040925419086951820e+01,-1.043369085045419631e+01,2.049122323944724045e+00,-5.831473482228684002e-01,-3.763790634374973854e-01,-7.199138635052211299e-01,2.190713116309637826e+03
1.036851654838516268e+01,-1.083887004392038200e+01,2.122500904199245308e+00,-7.046760444949049518e-01,-2.209294188994651020e-01,-6.742550438671469637e-01,2.197258501609907853e+03
1.031306830714111200e+01,-1.122409497877157669e+01,2.197474331783110024e+00,-7.972998975447623815e-01,-5.641755363465037615e-02,-6.009392090864628111e-01,2.203803886910177880e+03
1.024657256825684293e+01,-1.156808784661364697e+01,2.268966256015146232e+00,-8.572196095196836785e-01,1.104085013431893442e-01,-5.029736612252894146e-01,2.209961793825262248e+03
1.015991920903192991e+01,-1.191442332012429439e+01,2.345314973246405366e+00,-8.830437358768341571e-01,1.934093067124421361e-01,-4.275799347524328331e-01,2.216507179125532275e+03
1.005666654834299223e+01,-1.224168572333960370e+01,2.421349967131922298e+00,-8.971761319381387212e-01,2.738493040433449544e-01,-3.465249586288313144e-01,2.223052564425802302e+03
9.956359344251588084e+00,-1.250012357804474483e+01,2.484281070296811222e+00,-8.994296879181193916e-01,3.506634818491841110e-01,-2.608818870403397661e-01,2.228535470921359774e+03
9.827241226624741088e+00,-1.277473925997850301e+01,2.554140509274203552e+00,-9.122160182857421695e-01,3.361960576394646405e-01,-2.341626502086087136e-01,2.234736411398093878e+03
9.673748507589195356e+00,-1.304567757638277037e+01,2.626000559522873701e+00,-8.793679512322107872e-01,4.081002775377876035e-01,-2.452838555834529755e-01,2.241281796698363905e+03
9.519570033106779405e+00,-1.327217485277665077e+01,2.688453259876136148e+00,-8.409157531745217184e-01,4.774037149407760472e-01,-2.548418902256479046e-01,2.247170543447848104e+03
9.329371113287171724e+00,-1.350421334711693611e+01,2.754823069664318780e+00,-7.190607091102503290e-01,6.232600866157673725e-01,-3.074029294671981605e-01,2.253715928748118131e+03
9.119512597337264381e+00,-1.371598788238163458e+01,2.817538896374530477e+00,-5.692446716435869414e-01,7.448806795129918612e-01,-3.480104554363689373e-01,2.260261314048388158e+03
9.010230433217300217e+00,-1.380789325837277914e+01,2.845516829089786981e+00,-3.972932436003467349e-01,8.375362630526751451e-01,-3.750854391471297178e-01,2.263384574859697750e+03
8.762906614314751153e+00,-1.398219009360147780e+01,2.899732972026259237e+00,-1.454900135657667404e-01,9.110762868944812798e-01,-3.857079924115243141e-01,2.269929960159967777e+03
8.591331343056236136e+00,-1.408394666038438281e+01,2.931793346838006631e+00,1.163412724451485525e-01,9.218194852196325284e-01,-3.697452433685500806e-01,2.274173040800676063e+03
8.310456128445578017e+00,-1.422483108254037809e+01,2.976143543265776348e+00,1.765749017166501067e-01,9.770538924615992382e-01,-1.191007779545805723e-01,2.280718426100946090e+03
8.014478319858243438e+00,-1.435014838870360521e+01,3.014973352352843250e+00,2.245362626295893671e-01,9.643813876486235781e-01,1.398213357156023462e-01,2.287263811401216117e+03
7.963234861658849972e+00,-1.436879276342047973e+01,3.020440887070991565e+00,2.568919783473258556e-01,8.846827364507723335e-01,3.890256640460799664e-01,2.288346293910029544e+03
7.640354050370215866e+00,-1.446955929286146691e+01,3.047557687860011466e+00,2.631190432956178604e-01,8.699215510586739697e-01,4.171365052725627964e-01,2.294891679210299571e+03
7.357613931419590081e+00,-1.454375985572041508e+01,3.065249027456186326e+00,2.690706512822856888e-01,8.542496535821912929e-01,4.448106495407881944e-01,2.300417285006516522e+03
7.011969968874555370e+00,-1.461964399608370258e+01,3.079936772620069263e+00,3.914387405598310221e-01,7.572197370201887434e-01,5.228689914834810937e-01,2.306962670306786549e+03
6.656996057191885363e+00,-1.468389060242928146e+01,3.088391322172335585e+00,5.018750104099659604e-01,6.371083283921726848e-01,5.849892749599850950e-01,2.313508055607056576e+03
6.641597427661880104e+00,-1.468625709362710374e+01,3.088493356568067227e+00,5.970131942213472431e-01,4.975766008078781333e-01,6.292779769327006001e-01,2.313785461999990275e+03
