2.063904964067266867e+00,8.047209295532352868e+00,-2.362732130061070190e+00,-5.234572949526902219e-01,2.716236996051734631e-01,8.075958309529276402e-01,1.059310682662409818e+03
2.916010727672285974e+00,7.118171428056901284e+00,-1.724131631190845670e+00,-7.193421441674444639e-01,2.290012656022449022e-01,6.558226131939984827e-01,1.065856067962679845e+03
3.505666599126391780e+00,6.255154659679380558e+00,-9.731563614722377187e-01,-8.697481516448415384e-01,1.719007497941756890e-01,4.625865161568024075e-01,1.072401453262949872e+03
3.754768513985320855e+00,5.883203111125783202e+00,-5.456743093340737927e-01,-9.651662968039561585e-01,1.039321856325139681e-01,2.401043945923677370e-01,1.075989233689780121e+03
4.069321010625858825e+00,5.379889304040796461e+00,2.459141460013455072e-01,-9.859471034101189302e-01,5.155373311803126968e-02,1.588978347116687673e-01,1.082534618990050149e+03
4.131926846439726297e+00,5.017073604367626061e+00,1.069650106177879811e+00,-9.970953343301486305e-01,-1.328379741708145831e-03,7.613888403240776093e-02,1.089080004290320176e+03
3.881622086517156678e+00,4.604639773682001724e+00,1.946381349690907703e+00,-9.985020790779115529e-01,-5.419751438026988721e-02,-7.363933008893474089e-03,1.095625389590590203e+03
3.801706178387711077e+00,4.513978116330155110e+00,2.115439074822976107e+00,-9.901535908406876585e-01,-1.065371590256049689e-01,-9.079482523227662416e-02,1.096841725917567601e+03
3.152386965109350569e+00,3.839170781387742259e+00,3.070548165527904771e+00,-9.292829959784449922e-01,-1.385293188365887829e-01,-3.424043533712374243e-01,1.103387111217837628e+03
2.127802221069029276e+00,2.993878942850385361e+00,3.997628725725314247e+00,-8.051875185439090199e-01,-1.610964656089935720e-01,-5.707179590208284470e-01,1.109932496518107655e+03
1.772950571239813700e+00,2.755439623412520245e+00,4.245596183736767948e+00,-6.263100884787398126e-01,-1.727032221513479515e-01,-7.602021245217449597e-01,1.111877068987771281e+03
5.588845247350807677e-01,2.350621275303121038e+00,4.830759445882374159e+00,-4.621562066446324724e-01,-2.954374569818575547e-02,-8.863051437004936250e-01,1.118422454288041308e+03
-5.973155137404713155e-01,2.628141789333602318e+00,5.030421002786916951e+00,-2.687278907701234898e-01,1.154871038129436644e-01,-9.562667251218497366e-01,1.124967839588311335e+03
-1.537083830780667126e+00,3.479519077573302255e+00,4.990240745334589612e+00,-5.827751047146250557e-02,2.532026154589080424e-01,-9.656553045979778815e-01,1.131513224888581362e+03
-2.104398996852289372e+00,4.789568963716749117e+00,4.855907040477396741e+00,1.558643485987958877e-01,3.748794613490021854e-01,-9.138761919946980505e-01,1.138058610188851389e+03
-2.145633443756507219e+00,4.974706174094188249e+00,4.838206299989259662e+00,3.601332746535331752e-01,4.728102502910817573e-01,-8.042092337862561946e-01,1.138860141434578054e+03
-2.167629138717886317e+00,6.619704838542283198e+00,4.765217806883244478e+00,3.534647341642077611e-01,3.875773314767405608e-01,-8.513779970259325314e-01,1.145405526734848081e+03
-2.026712467442426391e+00,7.331896925788180752e+00,4.770854244994519711e+00,3.434262490874896989e-01,2.986492321606821210e-01,-8.904296982689110518e-01,1.148053578703284984e+03
-1.361584174812086045e+00,8.827677714178943091e+00,4.819285846162076226e+00,1.813512995645134851e-01,1.992919430266912595e-01,-9.630121637808098933e-01,1.154598964003555011e+03
-3.662327253492805301e-01,9.827751726942247856e+00,4.771460489881254041e+00,1.176689626127216601e-02,9.168229730414313716e-02,-9.957177795501271911e-01,1.161144349303825038e+03
-2.614244497444744852e-01,9.901616533246746954e+00,4.755337121125815969e+00,-1.583048005053506457e-01,-1.972379952370288334e-02,-9.871922618556507878e-01,1.161785984944732490e+03
6.041820889223697977e-01,1.061519414432493846e+01,4.492979545865238400e+00,-8.562901964353114570e-02,-4.207049212312309883e-01,-9.031461898532472388e-01,1.168331370245002518e+03
8.583455031049058714e-01,1.138356645357925423e+01,4.207071842287225749e+00,1.871844597513126545e-03,-7.488486295007402704e-01,-6.627369208759665842e-01,1.173990410582729510e+03
2.932560568985888572e-01,1.261606484007829287e+01,3.981863073332252867e+00,6.874534251206212976e-02,-8.326782205270272241e-01,-5.494716179577632253e-01,1.180535795882999537e+03
-9.981508339048519307e-01,1.350062109063003213e+01,3.868887509330205088e+00,1.339463457353138875e-01,-8.962499468788502899e-01,-4.228385143080141129e-01,1.187081181183269564e+03
-2.248528850989702121e+00,1.343154553249739358e+01,3.768694361844466822e+00,1.958886375209956121e-01,-9.380172353389588658e-01,-2.859183587937479398e-01,1.192657969127693832e+03
-3.179502579875099766e+00,1.259017905398190607e+01,3.394304940079664767e+00,3.175001725540267383e-01,-8.950630026029021691e-01,-3.131355326291024865e-01,1.199203354427963859e+03
-3.298078669971108212e+00,1.226565042351919921e+01,3.213938771954784723e+00,4.335950731591268759e-01,-8.365568301903628656e-01,-3.349119024291273838e-01,1.201110968549146264e+03
-3.586822982054993503e+00,1.153388938788284257e+01,2.219422824795758586e+00,8.664776098827717821e-01,-4.761684127708624148e-01,-1.499272965526644852e-01,1.207656353849416291e+03
-3.614860104286764297e+00,1.149049349044240387e+01,2.049928217136018471e+00,9.948044344282037654e-01,5.158708284981355918e-02,8.775482964035273559e-02,1.208478945707734283e+03
-3.667570821640558698e+00,1.142461608223883651e+01,1.760573002507527240e+00,9.941257300691203058e-01,1.985319293459009496e-02,1.063855417473425491e-01,1.209865610689777441e+03
-3.849538405386860429e+00,1.147397792453165621e+01,3.452739339068616187e-01,9.994466886363175817e-01,-1.165046521150444291e-02,-3.112206982063795563e-02,1.216410995990047468e+03
-3.845126636159238220e+00,1.165154209832154741e+01,-2.108697920743247689e-01,9.848494981405150339e-01,-4.292193906308015144e-02,-1.680094436471365749e-01,1.218977352460894735e+03
-3.701477802280050522e+00,1.204573595360644411e+01,-9.040784097634563254e-01,8.118332185160196390e-01,-1.891136713458440588e-01,-5.524136535438852746e-01,1.222448549475186155e+03
-3.551702193880308389e+00,1.239188001570638953e+01,-1.303001656830874877e+00,8.034883782885854364e-01,-2.258771127570419202e-01,-5.508030100107481619e-01,1.224607003153273808e+03
-2.745221198707476606e+00,1.351930116802343385e+01,-2.297728609574816616e+00,7.118405847087353466e-01,-5.655287163187031618e-01,-4.164831965162448801e-01,1.231152388453543836e+03
-1.405375546875460291e+00,1.399278853498419473e+01,-2.643401479288030931e+00,5.192504572552825159e-01,-8.249857722938515048e-01,-2.231040971216664837e-01,1.237697773753813863e+03
-9.730190510519433067e-01,1.393121224767661559e+01,-2.603382513061981651e+00,2.530280478412167966e-01,-9.674560196998615025e-01,1.912315668049473531e-03,1.239535596146444504e+03
3.883172734781993318e-01,1.333869559288975992e+01,-2.254885057854727037e+00,-1.502863590147567735e-02,-8.950460756110337757e-01,-4.457181425919415352e-01,1.246080981446714532e+03
1.313884962996323402e+00,1.245214863418629037e+01,-1.567297487091002139e+00,-2.789152483544551919e-01,-5.742867550580026403e-01,-7.696746112481694935e-01,1.252626366746984559e+03
1.634461258676937589e+00,1.201814067832086153e+01,-1.037775649586820892e+00,-4.654109232668489637e-01,-9.417963625200199973e-02,-8.800686726723186970e-01,1.256439075760270043e+03
1.769146595633263486e+00,1.182040818941133864e+01,-7.066321445274130753e-01,-5.569827924721414414e-01,-1.450557382519779559e-01,-8.177572999831508316e-01,1.258643091531374012e+03
1.940006815654757411e+00,1.155692548220923221e+01,1.117023882352965736e-01,-9.599966691008575692e-01,8.801873308588499534e-02,-2.658140288628773051e-01,1.263537512859439857e+03
1.860536871272622461e+00,1.155080497894596725e+01,1.431411552029262735e+00,-9.976172607509633528e-01,5.337116338222249595e-02,-4.369576602986331021e-02,1.270082898159709885e+03
1.763026529728143554e+00,1.161140513554006226e+01,1.954662837484475668e+00,-9.834092499532480769e-01,1.595083244055206517e-02,1.806926065125217529e-01,1.272415143416737919e+03
1.330606380649845155e+00,1.187732611938833038e+01,3.515229682835375069e+00,-9.239618103117966941e-01,-2.074352847499480179e-01,-3.213458817452719551e-01,1.278960528717007946e+03
6.633711407693950735e-01,1.227598857334656834e+01,5.156527048059944995e+00,-5.822599514705331103e-01,-3.674552882231155171e-01,-7.252226968671493523e-01,1.285505914017277973e+03
-1.561580073827840698e-01,1.274417792436788055e+01,6.731728027675005777e+00,-6.268499480485707764e-02,-4.152236422637905489e-01,-9.075560138707982061e-01,1.292051299317548001e+03
-1.048941339787140770e+00,1.311661650733698536e+01,8.117134651517984523e+00,4.760368726070040024e-01,-3.361476798295124357e-01,-8.126448383233906281e-01,1.298596684617818028e+03
-1.116837895158800942e+00,1.313580397840367198e+01,8.211407703032092442e+00,8.693352778162246608e-01,-1.543861205876930209e-01,-4.694881260591271532e-01,1.299084628259237661e+03
-1.974177686156831868e+00,1.318130157378270617e+01,9.341664359969314546e+00,9.219374538127523833e-01,-8.575664563822719966e-02,-3.777236145446591919e-01,1.305630013559507688e+03
-2.633522204130470445e+00,1.283524730019157190e+01,1.020480524703136282e+01,9.598828929873234328e-01,-1.576384359228065468e-02,-2.799541622910121652e-01,1.312175398859777715e+03
-2.908910963436799335e+00,1.215478838797985617e+01,1.080096728404615014e+01,9.825683587355494852e-01,5.447957398475423291e-02,-1.777340609690296891e-01,1.318720784160047742e+03
-2.730229335387432066e+00,1.134675202150453543e+01,1.111478951223561573e+01,9.896331991071690704e-01,1.238569106995446867e-01,-7.268835460252678904e-02,1.324381940622837419e+03
-2.011858159471404672e+00,1.034853477025208157e+01,1.128184580091271805e+01,8.309589359645941364e-01,5.345550157420709825e-01,-1.541304054549913483e-01,1.330927325923107446e+03
-9.502546139549277182e-01,9.744821265404864263e+00,1.133190724195642218e+01,5.056909836242394762e-01,8.380835710328395916e-01,-2.046718276804162795e-01,1.337472711223377473e+03
-5.942564518752241343e-01,9.685368530746952587e+00,1.134186550884749423e+01,7.904018041877855505e-02,9.735900699629843613e-01,-2.141798906262677438e-01,1.339529752796983757e+03
-2.655894140790416857e-01,9.661406093032271158e+00,1.135232903433115403e+01,-5.393035976541987742e-02,9.984593244158974645e-01,-1.298051524810933666e-02,1.341451046296087952e+03
6.684069008278494817e-01,1.010599363920913518e+01,1.136783951696510364e+01,-5.227032481654984020e-01,8.525132631351148849e-01,6.712196583125960847e-04,1.347996431596357979e+03
1.095456402374347382e+00,1.120731397504215110e+01,1.131631247674216922e+01,-8.653817743174946342e-01,5.009110198411594883e-01,1.416103387899788138e-02,1.354541816896628006e+03
1.112403166068872462e+00,1.148749223998650848e+01,1.129448716719319812e+01,-9.992997855560543652e-01,2.847134388889186254e-02,2.423470990885452300e-02,1.355968761765152522e+03
8.731456015354577271e-01,1.263415174959994225e+01,1.121838893688541106e+01,-9.250983027055792451e-01,-3.612390179405187141e-01,-1.170363287548210479e-01,1.362514147065422549e+03
3.281179393929704591e-01,1.326945693922724701e+01,1.137622343142492376e+01,-6.868419091315490776e-01,-6.868879555970718309e-01,-2.375523696284958242e-01,1.369059532365692576e+03
1.361142146408937104e-01,1.333868212187572766e+01,1.152464250555244263e+01,-3.267824786447762198e-01,-8.907256860909362750e-01,-3.159413929645868979e-01,1.371438322353818876e+03
-2.151700695817027609e-01,1.303712872675544965e+01,1.221133452299822331e+01,-2.164155658467098731e-01,-7.195242755586567229e-01,-6.598841714581654694e-01,1.377983707654088903e+03
-4.429950307508979668e-01,1.222686578640478672e+01,1.311213997938704523e+01,-7.146812171884593667e-02,-4.333517576345916056e-01,-8.983855306787833506e-01,1.384529092954358930e+03
-6.107669390114360830e-01,1.176274634299174870e+01,1.356046018817591126e+01,8.489906466259372619e-02,-7.793492442423777256e-02,-9.933359433616588685e-01,1.388136004714354613e+03
-6.335680389460479622e-01,1.171233229314020008e+01,1.360827959926411701e+01,1.249310416231999010e-01,-8.036151824303476576e-02,-9.889045763758164131e-01,1.388555737678094602e+03
-1.122503731081116785e+00,1.115642289221996108e+01,1.405389591004134253e+01,2.543877031650182419e-01,1.879043733287828061e-02,-9.669187225106020689e-01,1.395101122978364629e+03
-1.723010323151481282e+00,1.095268715122860037e+01,1.389564385588819029e+01,3.769571436446795265e-01,1.174336373742528722e-01,-9.187549470161668896e-01,1.401646508278634656e+03
-1.922993757771904511e+00,1.092638725609183403e+01,1.371808564551960430e+01,4.893210256440669870e-01,2.128975008047795658e-01,-8.457172033320551341e-01,1.403961155374455302e+03
-2.253226032435591275e+00,1.082738151092899059e+01,1.286386715592877295e+01,-1.019134710136794519e-03,3.609682431535071179e-01,-9.325764787932421251e-01,1.410506540674725329e+03
-1.997647217435456257e+00,1.054240789293356428e+01,1.137704330568124256e+01,-4.910845265731295095e-01,4.116123930195233482e-01,-7.677299171400941979e-01,1.417051925974995356e+03
-1.154381116379932459e+00,1.024273765006823389e+01,9.335980741815518513e+00,-8.486043708286695741e-01,3.511607500415365180e-01,-3.956700006819308668e-01,1.423597311275265383e+03
-3.002599129078490914e-01,1.026809343179636080e+01,7.441203860690955629e+00,-9.770825353466634500e-01,1.959295168886252825e-01,8.318259151954332520e-02,1.429009903517570365e+03
5.883203794185195568e-01,1.055490523101018319e+01,5.255575393516325633e+00,-9.736196348269362533e-01,8.498106661045633226e-02,2.117569951543055995e-01,1.435555288817840392e+03
1.250487112184584637e+00,1.097754633206236363e+01,3.348951956599398372e+00,-9.420649140775786412e-01,-2.841930920164794164e-02,3.342215440816202476e-01,1.442100674118110419e+03
1.677585145648605724e+00,1.154670513035736157e+01,1.795023091599775134e+00,-8.833288354929280661e-01,-1.409996849937980579e-01,4.470427912608107013e-01,1.448646059418380446e+03
1.889274007200664851e+00,1.222739060472110673e+01,6.084005381696880876e-01,-7.991061090946409706e-01,-2.495117990094136429e-01,5.469655277643865610e-01,1.455191444718650473e+03
1.940071659433941997e+00,1.257552501783518117e+01,1.237150117640430230e-01,-6.918267959364172714e-01,-3.508247696649657854e-01,6.311066989135590832e-01,1.458405581212226934e+03
2.010398486758902425e+00,1.318019998596979647e+01,-7.849289682303290938e-01,-7.574859967620971579e-01,-3.702613927802732574e-01,5.376983036274979311e-01,1.464950966512496962e+03
2.086802129229025304e+00,1.350009281995309607e+01,-1.672174083358120456e+00,-8.129842216746364647e-01,-3.847313026535333913e-01,4.370772014927896132e-01,1.471496351812766989e+03
2.262210635128479197e+00,1.335047555665915198e+01,-2.700598793412093634e+00,-8.575770277505834205e-01,-3.940404027489849415e-01,3.305931071178653258e-01,1.478041737113037016e+03
2.417489025985184448e+00,1.305290078231420203e+01,-3.378689280068035483e+00,-8.906662472291958510e-01,-3.980638189776907754e-01,2.196743773521727394e-01,1.481816523951514682e+03
2.714471078310340069e+00,1.240979726882143908e+01,-4.580634934018125826e+00,-9.172079672193204081e-01,-3.209998847628022234e-01,2.359801238367398579e-01,1.488361909251784709e+03
2.944244485388309851e+00,1.195091633346167370e+01,-5.612278204185320085e+00,-9.374125061980282947e-01,-2.417181158153550724e-01,2.506554322263077061e-01,1.494907294552054736e+03
2.988412309181475379e+00,1.201731527316576553e+01,-6.262415996858916145e+00,-9.511402760686815672e-01,-1.607662514129144515e-01,2.635989143387406641e-01,1.501423043705973669e+03
2.792593032034500045e+00,1.256271127808238042e+01,-6.507659358551168616e+00,-9.210771031324308522e-01,-2.528825998755234727e-01,2.960833679240135741e-01,1.507968429006243696e+03
2.326973496953249398e+00,1.334655004453621530e+01,-6.404357703352776099e+00,-8.813937724292854048e-01,-3.423577011093194566e-01,3.254753791147592112e-01,1.514513814306513723e+03
1.936724868011743927e+00,1.383663171245758150e+01,-6.222002755188372980e+00,-8.325047388701487527e-01,-4.282570736132530476e-01,3.514679767125667986e-01,1.518374598924670863e+03
1.048348694983014306e+00,1.452210748233878412e+01,-5.755821076501771216e+00,-7.286026847028432840e-01,-6.468260527522566861e-01,2.252824567590653859e-01,1.524919984224940890e+03
7.811899639681308960e-01,1.465703612212531404e+01,-5.610674779576336313e+00,-5.704262998278952779e-01,-8.172123396673134366e-01,8.231541993012819747e-02,1.526550447678494493e+03
-4.075291367808091536e-01,1.493183891727406021e+01,-4.880510667669160085e+00,-2.486725333781432679e-01,-9.508945623872271380e-01,1.842810417968131775e-01,1.533095832978764520e+03
-1.681231723659092570e+00,1.469548173944940039e+01,-4.145622316295110465e+00,1.058546445985771023e-01,-9.592549053860677244e-01,2.619595783889309693e-01,1.539641218279034547e+03
-1.859450049729073573e+00,1.462486635378924404e+01,-4.061741334131832026e+00,4.464308966039525206e-01,-8.411915349854198753e-01,3.051135133454909165e-01,1.540574001202621048e+03
-2.961770191541202024e+00,1.395573261899233586e+01,-3.918016274045410086e+00,6.675785239478059241e-01,-7.035365112866748261e-01,2.436663531352576406e-01,1.547119386502891075e+03
-3.724649723956651837e+00,1.300873125229844618e+01,-4.448826520634906245e+00,8.409067566203789479e-01,-5.154864497788109734e-01,1.647651260574772292e-01,1.553664771803161102e+03
-4.072748434588449484e+00,1.194244705009383267e+01,-5.263662138730810014e+00,9.539999543987395247e-01,-2.905115592071284558e-01,7.406160256359303751e-02,1.560210157103431129e+03
-4.092206802445405245e+00,1.177108235971299877e+01,-5.400053215475902668e+00,9.987571396242479471e-01,-4.472698596886470063e-02,-2.194704480231266311e-02,1.561251238058522858e+03
-4.003822815792153378e+00,1.078397311240454037e+01,-6.136825594589670807e+00,9.937591107864074402e-01,5.373498144656466136e-02,9.774140113611330671e-02,1.567796623358792885e+03
-3.509918392807183540e+00,9.997768032565568674e+00,-6.565201122738359096e+00,9.648660436535085871e-01,1.509048609205463909e-01,2.150796149176497918e-01,1.574342008659062913e+03
-3.430667311761602445e+00,9.921082372399686378e+00,-6.592100196497501230e+00,9.127726660452106788e-01,2.444462333066352855e-01,3.272462362513703371e-01,1.575088175139991336e+03
-2.614592390822793710e+00,9.291062258919525974e+00,-6.558848202717923570e+00,8.599868230118618007e-01,4.391364018402615921e-01,2.599613140910378428e-01,1.581633560440261363e+03
-1.687122458304413541e+00,8.715663370984454872e+00,-5.991229029862165767e+00,7.683141443766688949e-01,6.139697004038706662e-01,1.809214816870188258e-01,1.588178945740531390e+03
-1.587635344894132272e+00,8.654862484746123741e+00,-5.900418214437814335e+00,6.418998362225338816e-01,7.610405865084340915e-01,9.370072541344480477e-02,1.588887797873073396e+03
-7.896586834376961850e-01,8.241419279594865088e+00,-4.861071544821570889e+00,2.837393603775368311e-01,9.389536891631466986e-01,1.945660427185669505e-01,1.595433183173343423e+03
-2.576630308581694950e-01,8.135470679892433665e+00,-3.986453470259403442e+00,-1.226869130040774830e-01,9.571449958518832846e-01,2.623344778952160228e-01,1.600887889330697590e+03
-7.601516140189082393e-02,8.143420722877690920e+00,-3.748203507906348264e+00,-1.161217467790041508e-01,9.439645309221961211e-01,3.089412634255360723e-01,1.602857601602921704e+03
5.360756843795801974e-01,8.321495017451569609e+00,-3.697607414338456078e+00,-1.463058915403941396e-01,9.347230114456009931e-01,3.238602753698849868e-01,1.609402986903191731e+03
1.020496568129946047e+00,8.703281020629672682e+00,-4.665718110111839678e+00,-1.763116731550566640e-01,9.243420037186469429e-01,3.383844766811420213e-01,1.615948372203461759e+03
1.106928966838298001e+00,9.157871451778639482e+00,-6.004991290973202389e+00,-2.061025200756697873e-01,9.128341606185916834e-01,3.524961651056046086e-01,1.622493757503731786e+03
1.041783809599126975e+00,9.297780160910871672e+00,-6.416101296282568534e+00,-2.356421225475809900e-01,9.002135075814973186e-01,3.661781408503624879e-01,1.624493894945130023e+03
5.790897338233127467e-01,9.818243345576508574e+00,-7.482600513192293690e+00,-2.274974558570820315e-01,5.346664999066902402e-01,8.138640190204629032e-01,1.631039280245400050e+03
7.373993573484170783e-02,1.041962748943331185e+01,-7.970879542533191753e+00,-1.433426494407278873e-01,-9.520185170466271760e-03,9.896263188322401705e-01,1.636281754133308368e+03
-9.506810178552389801e-02,1.070379624051055423e+01,-8.087670393023916660e+00,-1.959138522721702580e-01,-2.282083237020016489e-02,9.803545134610712752e-01,1.638253231754998524e+03
-5.147792493829402849e-01,1.165954796382632175e+01,-8.285602579876996998e+00,-2.379807084086752161e-03,7.362572595313895962e-02,9.972821010095060945e-01,1.644798617055268551e+03
-7.941760937115281971e-01,1.213402019020747602e+01,-8.310176859888228407e+00,1.912661835059505933e-01,1.666086306087263269e-01,9.672935496792838261e-01,1.649936422859968388e+03
-1.336913038479374150e+00,1.180468593524876475e+01,-8.344240105225610549e+00,1.203183770211890130e-01,1.149851780452199324e-01,9.860526846839051673e-01,1.656481808160238415e+03
-1.723922246419911319e+00,1.122629761132113835e+01,-8.351340998665694570e+00,4.840194826313364007e-02,6.243603808590076493e-02,9.968736091117138542e-01,1.660148686695825063e+03
-2.423347925342423270e+00,1.012692352449466604e+01,-7.972453785607220844e+00,3.554509071887667071e-01,3.478686385513345414e-01,8.675483057969163303e-01,1.666694071996095090e+03
-2.964505220423545140e+00,9.550856286676895124e+00,-7.176144903492086335e+00,5.940840024238895900e-01,5.663447824966132416e-01,5.712405670140132674e-01,1.671978387122397407e+03
-3.562451695670475260e+00,9.709447560002075761e+00,-5.893679033214310081e+00,7.315773123054987170e-01,5.815991148871901828e-01,3.557177331549021826e-01,1.678523772422667435e+03
-3.633847552037194450e+00,9.799326395965305636e+00,-5.718941853722077973e+00,8.210884231638377884e-01,5.587079139629905766e-01,1.168643154239582121e-01,1.679380621676957617e+03
-4.061795267790913044e+00,1.068479782131318778e+01,-4.479714247580067088e+00,9.402128664968589788e-01,3.319366823548453582e-01,7.626142262420128326e-02,1.685926006977227644e+03
-4.113805308005963113e+00,1.187595148783158194e+01,-3.517047287879723427e+00,9.960943067801164563e-01,8.283792286166360985e-02,3.052884760094036129e-02,1.692471392277497671e+03
-4.083137565400077662e+00,1.206114408514348391e+01,-3.406671448772265354e+00,9.849739224776611346e-01,-1.718329407164074507e-01,-1.725724552127825759e-02,1.693401776851197610e+03
-3.517152375586315216e+00,1.323566030675322658e+01,-2.839339968638788569e+00,9.114586045445188800e-01,-2.186923797243342515e-01,3.484463448688054354e-01,1.699947162151467637e+03
-2.338632928259411159e+00,1.386223018872301083e+01,-2.651259607147481656e+00,7.091180127498816210e-01,-2.346419017533627749e-01,6.649006105693259228e-01,1.706492547451737664e+03
-8.301182485607910833e-01,1.400785008101870233e+01,-2.578475086191521992e+00,4.065509234227482893e-01,-2.174272127916513919e-01,8.873780219286733217e-01,1.713037932752007691e+03
-6.992129806708996531e-01,1.401497041366794072e+01,-2.567311919650533181e+00,4.652206637797475647e-02,-1.694814342089205894e-01,9.844337157974012431e-01,1.713584268264123693e+03
7.340201276445251777e-01,1.451019841979460345e+01,-2.292472664593309783e+00,-1.724794001029337775e-01,-2.158472493365632960e-01,9.610717046578515221e-01,1.720129653564393720e+03
1.874072493941418838e+00,1.563819909420601917e+01,-1.868661689782927793e+00,-3.827434901083451857e-01,-2.512788173619300292e-01,8.890243960234814891e-01,1.726675038864663748e+03
2.662242418445701198e+00,1.703439910455435324e+01,-1.555566501372915189e+00,-5.736188347105047880e-01,-2.739812796211197887e-01,7.719415074229680762e-01,1.733220424164933775e+03
3.066496494404191697e+00,1.826601754845237124e+01,-1.480110712529883132e+00,-7.354362288064589803e-01,-2.828045895369662999e-01,6.157541047328554118e-01,1.738973867391777048e+03
3.277500997922987214e+00,1.957247258050671235e+01,-1.539504077707657625e+00,-7.854738157206887506e-01,-2.749909791026154959e-01,5.544446286379309807e-01,1.745519252692047075e+03
3.333334526102028406e+00,2.075692404700022209e+01,-1.568863910617589008e+00,-8.305443108360970328e-01,-2.654384167109767878e-01,4.896290378112184150e-01,1.752064637992317103e+03
3.373018224725720771e+00,2.179639777855837934e+01,-1.355081374044829756e+00,-8.703627153303543640e-01,-2.542073077958360572e-01,4.217171900954329589e-01,1.758610023292587130e+03
3.420514844179452396e+00,2.232916867586405729e+01,-1.093620272902178447e+00,-9.046772377078624583e-01,-2.413686707600040671e-01,3.511385201661110234e-01,1.762352992655723710e+03
3.525321597955763497e+00,2.314482930005178574e+01,-4.100227248357693477e-01,-9.264628772314791316e-01,-2.995694758708238870e-01,2.278654564386066450e-01,1.768898377955993737e+03
3.586305096954190308e+00,2.378709855895670344e+01,5.235012618428306341e-01,-9.305917711533235881e-01,-3.520610068773749601e-01,1.002497027320944922e-01,1.775443763256263765e+03
3.497372513976060304e+00,2.426105713370350614e+01,1.575666829098976818e+00,-9.169852376887197565e-01,-3.978428752166670024e-01,-2.927662036524224590e-02,1.781989148556533792e+03
3.152531720628227951e+00,2.457639730630664943e+01,2.615175022918688974e+00,-8.859025944726003354e-01,-4.360425649942886728e-01,-1.582449829207356884e-01,1.788534533856803819e+03
2.445949611416547320e+00,2.474742047958327262e+01,3.510728387576551146e+00,-8.379362163070138703e-01,-4.659320603870695798e-01,-2.841974885604649503e-01,1.795079919157073846e+03
2.341851449443571820e+00,2.475917142162117557e+01,3.600284297367295938e+00,-7.740002466425652816e-01,-4.869417196552888738e-01,-4.047337147504653232e-01,1.795822939813491757e+03
1.156131409283510436e+00,2.480554994887915399e+01,4.209478721333184126e+00,-4.588395628575493990e-01,-6.289184465344302977e-01,-6.276351194487954643e-01,1.802368325113761784e+03
-4.398927523116077376e-01,2.478897380514726834e+01,4.399696771731941958e+00,-6.605746667325454458e-02,-6.645016562486899536e-01,-7.443601009857396811e-01,1.808913710414031812e+03
-1.994040176711438184e+00,2.483200887822539826e+01,4.074710193005278924e+00,3.378995663481605405e-01,-5.876717649167414459e-01,-7.351624172801274337e-01,1.815269220276476744e+03
-3.132254641225477698e+00,2.507837164060655866e+01,3.135021239629798284e+00,4.951856365171692920e-01,-6.524131629946725575e-01,-5.737126895375361801e-01,1.821814605576746771e+03
-3.286669343963099621e+00,2.515298285470139916e+01,2.889887391288956664e+00,6.252382323734685388e-01,-6.812741322885070838e-01,-3.807107950277353048e-01,1.823075599560264436e+03
-3.729735711623098915e+00,2.551630826593661183e+01,1.392353423421475389e+00,6.813764109730244822e-01,-7.244774573650623051e-01,-1.041950111063607021e-01,1.829620984860534463e+03
-3.561138714417677154e+00,2.564388500303751428e+01,-3.180813766658365238e-01,6.819966146884552938e-01,-7.086509738925023116e-01,1.808104387332565288e-01,1.836166370160804490e+03
-2.991326544621357719e+00,2.553771080586378162e+01,-1.792983279943056951e+00,6.270483313769403821e-01,-6.350842305069235305e-01,4.510835956660592116e-01,1.842711755461074517e+03
-2.379125371555177448e+00,2.545697884940818057e+01,-2.645518775803793687e+00,5.210086877996978894e-01,-5.097713669520445023e-01,6.846028780783099954e-01,1.848176137346606993e+03
-1.623423700557962812e+00,2.534957210750767231e+01,-3.212770867668891750e+00,4.456514876768687405e-01,-4.577746890734903928e-01,7.693081863416086907e-01,1.854721522646877020e+03
-9.346844095469926117e-01,2.502530962223954347e+01,-3.395583832084450471e+00,3.633611328986013911e-01,-3.986562469564163824e-01,8.420450604679028395e-01,1.861266907947147047e+03
-7.733555505410911746e-01,2.489327771081966745e+01,-3.402602134658164523e+00,2.754178101844570459e-01,-3.333357429166995956e-01,9.016819352321747694e-01,1.862969455417602603e+03
-2.922519603076197958e-01,2.405881014718647748e+01,-3.381824951406041002e+00,1.448351743642280476e-01,-4.241901357974221520e-01,8.939147056376812728e-01,1.869514840717872630e+03
-2.129318867082557742e-01,2.378532286584223598e+01,-3.367275646836453085e+00,1.057854558700666719e-02,-5.042842130224176600e-01,8.634717869539229040e-01,1.871052893727382980e+03
2.208501570719819361e-03,2.228083207457501658e+01,-3.314327506614532126e+00,-1.675323657539154812e-02,-3.829885895012473118e-01,9.236000592105140239e-01,1.877598279027653007e+03
-1.628774458635721609e-02,2.040459505926940054e+01,-3.292487910457037703e+00,-4.376544457393220094e-02,-2.543874416374060088e-01,9.661105606481827923e-01,1.884143664327923034e+03
-6.437056170175506353e-02,1.982372733945802779e+01,-3.293566587210159380e+00,-6.994282917362572294e-02,-1.209337940170090997e-01,9.901924146896381451e-01,1.886141432716269264e+03
-5.043841509205009288e-01,1.831676104607176114e+01,-3.332478925246113999e+00,2.636658944966486715e-02,-3.099847980123129117e-03,9.996465344771514605e-01,1.892621027517892571e+03
-8.433842117807495153e-01,1.784705262748401111e+01,-3.364347282597378808e+00,2.836824035317597748e-01,-2.254934332373577724e-02,9.586520855015594478e-01,1.895443756594243041e+03
-1.949363826930245125e+00,1.716049326127379970e+01,-3.316554827008625583e+00,4.244566334029035160e-01,5.063060520363425049e-02,9.040304796716903679e-01,1.901989141894513068e+03
-3.183906255574284749e+00,1.698313629260897173e+01,-2.794082026423069909e+00,5.532797157490186857e-01,1.223849652393323023e-01,8.239547781417164707e-01,1.908534527194783095e+03
-3.289883284464564461e+00,1.698357361115659359e+01,-2.710800347206382188e+00,6.665245309417937580e-01,1.906934327528489181e-01,7.206795850833604966e-01,1.909155685568748140e+03
-4.206944744415801019e+00,1.705320609277813304e+01,-1.669205363008272602e+00,7.694301719651354121e-01,1.649194299128472763e-01,6.170711402226540798e-01,1.915410774006160409e+03
-4.779302247892792899e+00,1.724109605627083752e+01,-3.120202030369028656e-01,9.195971898239857500e-01,1.651888542746029753e-01,3.564430542057919760e-01,1.921956159306430436e+03
-4.769442572560255833e+00,1.750787380793856585e+01,1.144404659959708193e+00,9.865614585267672432e-01,1.505124221573266863e-01,6.356492213547917935e-02,1.928501544606700463e+03
-4.159123579181767560e+00,1.780195973058652470e+01,2.587556330443986585e+00,9.642642135308543416e-01,1.222180156514654087e-01,-2.350644234120843057e-01,1.935046929906970490e+03
-3.146835648896876059e+00,1.806280717017611082e+01,3.829601904584697625e+00,8.547228261755446255e-01,8.286563524404544356e-02,-5.124257769766271675e-01,1.941592315207240517e+03
-2.345107491566126523e+00,1.820047457682019143e+01,4.495891172460638963e+00,6.678482969157754079e-01,3.601578093040187778e-02,-7.434241829740343421e-01,1.945986311538626524e+03
-1.112169361418169133e+00,1.823045153448700617e+01,5.178937832355975601e+00,3.746368424007365805e-01,7.199414672376457103e-02,-9.243711803993204246e-01,1.952531696838896551e+03
-3.000494661468068314e-01,1.806044614970992868e+01,5.458267912666638466e+00,3.646544294330282543e-02,9.933253298125954700e-02,-9.943848949785003555e-01,1.956877363433620303e+03
8.519598697977934787e-01,1.733642393688563743e+01,5.738386781309048779e+00,-2.326321999851399883e-02,2.039328137432197263e-01,-9.787074282307605122e-01,1.963422748733890330e+03
1.898188921147050845e+00,1.601076200131969784e+01,5.857491308638679506e+00,-8.264864598138033092e-02,3.055241608709592938e-01,-9.485895785014331061e-01,1.969968134034160357e+03
2.847687360959866076e+00,1.420790785493605135e+01,5.836529526781185417e+00,-1.408146286301477090e-01,4.026076377401412998e-01,-9.044757212866788576e-01,1.976513519334430384e+03
3.712400438709488881e+00,1.205163853727654910e+01,5.696466087176463411e+00,-1.969029540401089629e-01,4.937508197693800116e-01,-8.470167381270476969e-01,1.983058904634700411e+03
4.507159129320222668e+00,9.664987309519787573e+00,5.458279770103994899e+00,-2.500860635853049407e-01,5.776089296004222051e-01,-7.770604128678545441e-01,1.989604289934970438e+03
5.249669608497190332e+00,7.170170537370498920e+00,5.142960992963242717e+00,-2.995792643677450129e-01,6.529446789598469802e-01,-6.956389225590239311e-01,1.996149675235240466e+03
5.960502055557516776e+00,4.688514775022811776e+00,4.771509317530776784e+00,-3.446523071206624711e-01,7.186465244055025847e-01,-6.039536076194622627e-01,2.002695060535510493e+03
6.663078785176299590e+00,2.340384062253685560e+00,4.364930956436769982e+00,-3.846401607226730968e-01,7.737450675847961090e-01,-5.033572460467824472e-01,2.009240445835780520e+03
7.374126654609195697e+00,2.108271650841724854e-01,3.940591083862853949e+00,-4.189528243463194190e-01,8.174273580327370281e-01,-3.953340932835507360e-01,2.015785831136050547e+03
8.093047346166384770e+00,-1.684208914090076670e+00,3.508566578815523584e+00,-4.470840324771954699e-01,8.490488875077943920e-01,-2.814779823117056212e-01,2.022331216436320574e+03
8.809825665823515450e+00,-3.362789455818712803e+00,3.075290024578241077e+00,-4.686187243871828279e-01,8.681430989432030731e-01,-1.634688071519160291e-01,2.028876601736590601e+03
9.514028901438267738e+00,-4.842428215115223367e+00,2.647194141174145088e+00,-4.832391678844996097e-01,8.744282697749564681e-01,-4.304773677434959450e-02,2.035421987036860628e+03
1.019481436339994751e+01,-6.140076943273525600e+00,2.230711022694110479e+00,-4.907296470239247421e-01,8.678116681524098430e-01,7.800847486703284261e-02,2.041967372337130655e+03
1.037627238850258671e+01,-6.469807125987215635e+00,2.119028280003253162e+00,-4.909796446490230504e-01,8.483909207709077194e-01,1.979137036554474705e-01,2.043757430129056502e+03
1.101448022964290629e+01,-7.593801114039727906e+00,1.722860904167953899e+00,-5.289994301213660766e-01,8.302961313245404984e-01,1.754022156023536949e-01,2.050302815429326529e+03
1.160260370322011880e+01,-8.572249792269387214e+00,1.352923448198112055e+00,-5.658132553921747521e-01,8.103085191466953274e-01,1.524908647109019522e-01,2.056848200729596556e+03
1.212851180082162372e+01,-9.420185465866019570e+00,1.015640848636889526e+00,-6.013371970713248249e-01,7.884736496794642058e-01,1.292318814342663380e-01,2.063393586029866583e+03
1.257969686229982820e+01,-1.015203526139728574e+01,7.174341581577826643e-01,-6.354902722121726910e-01,7.648412993720394848e-01,1.056782886787569209e-01,2.069938971330136610e+03
1.294328261181112794e+01,-1.078161141008711965e+01,4.647197838816027882e-01,-6.681946229024665618e-01,7.394653422183707914e-01,8.188378094315604261e-02,2.076484356630406637e+03
1.320603228481322944e+01,-1.132210168038093734e+01,2.639087261072616264e-01,-6.993756937343418301e-01,7.124036269580545921e-01,5.790260192780034149e-02,2.083029741930676664e+03
1.335435684526975209e+01,-1.178605996163194369e+01,1.214058174700011206e-01,-7.289624017489454433e-01,6.837178452194374589e-01,3.378942089193697623e-02,2.089575127230946691e+03
1.337432329216398763e+01,-1.218539700047724850e+01,4.360896270877144543e-02,-7.568872984686764172e-01,6.534733909050854939e-01,9.599208040871640840e-03,2.096120512531216718e+03
1.325166305438133563e+01,-1.253137129150610996e+01,3.690837910097811286e-02,-7.830867236479880367e-01,6.217392111396857768e-01,-1.461289077336115627e-02,2.102665897831486745e+03
1.297178047299465575e+01,-1.283458012381845670e+01,1.076858375906948051e-01,-8.075009503924884813e-01,5.885876491196196936e-01,-3.879167975250202849e-02,2.109211283131756772e+03
1.251976136999494571e+01,-1.310495078506072097e+01,2.623139046769367155e-01,-8.300743213156737133e-01,5.540942792218731539e-01,-6.288203896751132227e-02,2.115756668432026800e+03
1.188038170250520587e+01,-1.335173192451437352e+01,5.071551851260569510e-01,-8.507553754229545406e-01,5.183377347475698338e-01,-8.682905000243643090e-02,2.122302053732296827e+03
1.108843670193080122e+01,-1.357240203173434523e+01,8.275120239639947028e-01,-8.694969654336937026e-01,4.813995286921814443e-01,-1.105781211405475056e-01,2.128530846178800857e+03
1.016002508934642989e+01,-1.378629231384279308e+01,1.158294708322394895e+00,-7.721384015137934265e-01,6.280079823721410603e-01,9.698589064482565636e-02,2.135076231479070884e+03
9.664902295824676415e+00,-1.396732889874308547e+01,1.183241564561485992e+00,-6.175986410724010334e-01,7.281088473511138082e-01,2.973674914213540466e-01,2.141621616779340911e+03
9.659406193159130183e+00,-1.398452342706438145e+01,1.158503712764918925e+00,-4.173221894186928127e-01,7.742891364768624829e-01,4.757273624168605886e-01,2.142313443644631661e+03
9.730987090412256180e+00,-1.405805853341371225e+01,9.943229832536332191e-01,-5.553824503947992763e-01,3.477016942691417700e-01,7.554150287055483304e-01,2.145499142418664633e+03
1.016009991776336641e+01,-1.411613716733614687e+01,2.595155590145405977e-01,-5.961223004719460317e-01,4.833532684523426659e-01,6.410973566902721243e-01,2.152044527718934660e+03
1.035665408266402032e+01,-1.399867639640020833e+01,-7.526216141481266719e-01,-6.171128072643163875e-01,6.029914884076461590e-01,5.055403525110443441e-01,2.158589913019204687e+03
1.030389904026214687e+01,-1.383788470538588022e+01,-1.310230939688602492e+00,-6.176585659942043227e-01,7.026528226565003088e-01,3.532349171090821693e-01,2.162754429491485098e+03
1.046450581001726832e+01,-1.346655169921878148e+01,-1.764201857931940731e+00,-6.299570893106276603e-01,6.488065796810612573e-01,4.268513649796956688e-01,2.169299814791755125e+03
1.086443452813123933e+01,-1.296574607629185927e+01,-1.757291211952969556e+00,-6.369198310646676520e-01,5.894649139176578734e-01,4.968523362648107899e-01,2.175845200092025152e+03
1.098312303537744583e+01,-1.281531039803046745e+01,-1.712710808170505583e+00,-6.384878195851426685e-01,5.251304277023638445e-01,5.626449485575398812e-01,2.177622345709097772e+03
1.125515117051696379e+01,-1.223303182994655813e+01,-1.587658241450289776e+00,-6.867711404941818643e-01,3.657675000031803680e-01,6.281381508279531012e-01,2.184167731009367799e+03
1.104462313392468253e+01,-1.160936660413409527e+01,-1.703515831188326279e+00,-7.130659379839323631e-01,1.946937430398266722e-01,6.735200921340195324e-01,2.190713116309637826e+03
1.016165599962602073e+01,-1.098310970421022681e+01,-2.146879684036912650e+00,-7.165303392199471322e-01,1.738644998143281870e-02,6.973377835270450076e-01,2.197258501609907853e+03
8.709565832699373900e+00,-1.043349041454878012e+01,-2.559806982009894316e+00,-6.970534267811990814e-01,-1.604775135057758262e-01,6.988286541574562083e-01,2.203803886910177880e+03
7.094451626337805905e+00,-9.998702826157018109e+00,-2.540346360649803792e+00,-6.552587890011943861e-01,-3.332034577123186847e-01,6.779449647316244665e-01,2.209961793825262248e+03
5.444038283744188078e+00,-9.457562327617484499e+00,-1.930232670512966209e+00,-4.299466424167707190e-01,-6.403447358901491748e-01,6.364766326367098381e-01,2.216507179125532275e+03
4.123790602686994156e+00,-8.775871454032195373e+00,-8.464792762340481724e-01,-1.415091950129541143e-01,-8.534698030026277582e-01,5.015600094600246583e-01,2.223052564425802302e+03
3.343708759281551313e+00,-8.288872340920098836e+00,1.106453636763085890e-01,1.677048888764519907e-01,-9.412873768645304562e-01,2.930036593665186206e-01,2.228535470921359774e+03
2.952735843868486310e+00,-8.088361540937095029e+00,9.676941398985491327e-01,-2.514556728199894287e-01,-9.559597474664069949e-01,-1.513572126764960446e-01,2.234736411398093878e+03
3.326870717118541432e+00,-8.244270849198795048e+00,1.662520139846932699e+00,-1.499481132029457098e-01,-9.283269345590211552e-01,-3.401803432252679671e-01,2.241281796698363905e+03
4.278463551487450722e+00,-8.499422368210103329e+00,2.121450519242991994e+00,-4.143473372348892986e-02,-8.573211783825985810e-01,-5.131096958109355732e-01,2.247170543447848104e+03
5.707951905884498522e+00,-8.725926985376307954e+00,2.394111340900743734e+00,-9.827511367383127971e-02,-8.231996896685089826e-01,-5.591800004973070948e-01,2.253715928748118131e+03
7.182158556786262693e+00,-8.920608218355917884e+00,2.521754231251589928e+00,-1.544749654620176105e-01,-7.837129306801400297e-01,-6.016057906339814521e-01,2.260261314048388158e+03
7.823812270071210939e+00,-9.026536740566859507e+00,2.579051908323871878e+00,-2.096680260259705664e-01,-7.391182423610773711e-01,-6.401105706556265984e-01,2.263384574859697750e+03
8.910487065918388794e+00,-9.229170590239068162e+00,2.878763020483568358e+00,-1.978167587289016982e-01,-7.378061775433746305e-01,-6.453747549066112255e-01,2.269929960159967777e+03
9.415058093861668809e+00,-9.304270145623487309e+00,3.257334041301219063e+00,-1.859318862808853889e-01,-7.363687699352217120e-01,-6.505292985359376612e-01,2.274173040800676063e+03
9.866093060057588460e+00,-9.291457914219458658e+00,4.180591342634481400e+00,-2.768206809555577297e-01,-7.449594990402489403e-01,-6.069626474345758416e-01,2.280718426100946090e+03
9.854054190550664671e+00,-9.332418254771786437e+00,5.329710675138951359e+00,-3.648768584236615764e-01,-7.459273206960713720e-01,-5.571851670869659712e-01,2.287263811401216117e+03
9.812566348374557990e+00,-9.361280294209304742e+00,5.520088446422671602e+00,-4.491994078414780489e-01,-7.392623293380475857e-01,-5.017061893296441699e-01,2.288346293910029544e+03
9.428572326568126272e+00,-9.793967816769898249e+00,6.498544319969795424e+00,-3.714692588737099066e-01,-3.955017912908760369e-01,-8.399922159147417133e-01,2.294891679210299571e+03
9.038161244150165530e+00,-1.051282134863152784e+01,7.044522942594904968e+00,-2.050875400872538279e-01,4.264569227160362741e-02,-9.778130935056934536e-01,2.300417285006516522e+03
8.739782836292322443e+00,-1.166488008133976884e+01,7.328730975433113137e+00,-1.260610792889123866e-01,1.578971192881902658e-02,-9.918958056571127724e-01,2.306962670306786549e+03
8.582591511904334780e+00,-1.288369453489142558e+01,7.320526318019075163e+00,-4.613144154717502277e-02,-1.117939097881385548e-02,-9.988718192604171264e-01,2.313508055607056576e+03
8.577053393160047889e+00,-1.293252826093405439e+01,7.316267503885256929e+00,3.412873124266898456e-02,-3.806840105791558376e-02,-9.986911567340298612e-01,2.313785461999990275e+03
8.412953130536061863e+00,-1.390207591384292130e+01,7.176425975968022009e+00,-7.472650054426441257e-02,2.824606959221463431e-01,-9.563628523608126430e-01,2.320330847300260302e+03
8.158065813766246066e+00,-1.449259091368415220e+01,6.946721195975287699e+00,-1.748850152152152670e-01,5.701168642081176907e-01,-8.027328276574583477e-01,2.326876232600530329e+03
7.993773961986176069e+00,-1.466181096011152363e+01,6.800860602444328329e+00,-2.546903758904480730e-01,7.914227136361563497e-01,-5.556805744037067729e-01,2.330114591040249707e+03
7.545224780669538944e+00,-1.473240278649185342e+01,6.424053531282418739e+00,-2.861938682033310921e-01,6.984351214192222601e-01,-6.559568971897801193e-01,2.336659976340519734e+03
6.878880113120555251e+00,-1.434581491142283838e+01,5.901034821911027350e+00,-3.120608998025728997e-01,5.916921855912065098e-01,-7.433144370484993102e-01,2.343205361640789761e+03
5.945678213354206321e+00,-1.346629752895854537e+01,5.209244850029267404e+00,-3.317820355534940036e-01,4.732961534247965285e-01,-8.160327395621457258e-01,2.349750746941059788e+03
4.731277835633373563e+00,-1.217449015880853480e+01,4.391499697153904869e+00,-3.449688788942458784e-01,3.455787691571963749e-01,-8.726796588108327590e-01,2.356296132241329815e+03
3.272279380690819472e+00,-1.079081080598739817e+01,3.623202664024959940e+00,-3.513617206266018145e-01,2.110553540753127844e-01,-9.121395610290325973e-01,2.362841517541599842e+03
3.211379664979305382e+00,-1.073957435955550643e+01,3.596691706818544887e+00,-3.508346537512995189e-01,7.237527166663339229e-02,-9.336352959148028763e-01,2.363095694385508978e+03
1.542373505231281916e+00,-9.718603851077133982e+00,3.127543953000964549e+00,-4.299788014971948069e-01,-1.650481434288742777e-01,-8.876234227494235185e-01,2.369641079685779005e+03
-2.465217936651627473e-01,-9.251038922806795739e+00,2.987739881326211044e+00,-4.812814302415696077e-01,-3.917845056599610909e-01,-7.841371602143832886e-01,2.376186464986049032e+03
-1.587677704184565108e+00,-9.076091976064326161e+00,2.891650984135496039e+00,-5.014206666851286354e-01,-5.931525165026291235e-01,-6.298772953416590381e-01,2.381263921751987255e+03
-3.093559011294706007e+00,-8.759007178077832023e+00,2.442524967461777052e+00,-3.000051794164070862e-01,-7.976761069824234163e-01,-5.231708331634138398e-01,2.387809307052257282e+03
-4.415506958449411989e+00,-8.397207248108465194e+00,1.671449960080231500e+00,-7.045386312801017736e-02,-9.273899908465900177e-01,-3.673990447022664751e-01,2.394354692352527309e+03
-5.766755371195798396e+00,-8.209300451612897120e+00,8.352342460695332260e-01,1.657049451811736795e-01,-9.701290345007101967e-01,-1.771708993072891036e-01,2.400900077652797336e+03
-6.118790739335660867e+00,-8.199893655738538456e+00,6.381201050603333425e-01,3.863232241059254002e-01,-9.218849545338827500e-01,2.967317172780053677e-02,2.402515144762348427e+03
-7.553423046240250294e+00,-8.361437253555921600e+00,-7.038271366127017703e-02,5.761457705766148685e-01,-8.117229305796059835e-01,9.570754942967524270e-02,2.409060530062618454e+03
-8.830604201920953855e+00,-8.904674748427515496e+00,-6.247008090956083226e-01,7.357039629366514122e-01,-6.589220329797885745e-01,1.567144963722313655e-01,2.415605915362888481e+03
-9.627068773658168155e+00,-9.841080916599260320e+00,-1.054925538996681400e+00,8.566164357773954352e-01,-4.715087201400536832e-01,2.094894001806509864e-01,2.422151300663158509e+03
-9.785641819263393160e+00,-1.080316812460953990e+01,-1.322894460886087753e+00,9.325318185123806503e-01,-2.593275670647951503e-01,2.512600653151801366e-01,2.427138108118117088e+03
-9.119915371795096704e+00,-1.242373566079433367e+01,-1.622641434225951640e+00,8.890473432488583683e-01,8.171415367882356451e-02,4.504615616794475086e-01,2.433683493418387116e+03
-7.772224026711494815e+00,-1.393103365964820739e+01,-1.759269813567267748e+00,7.051983536713027911e-01,4.098547183217119416e-01,5.785433361885657932e-01,2.439487471183304933e+03
-6.062260578836088598e+00,-1.493632381336440673e+01,-1.671600500327548922e+00,5.010219506009609969e-01,5.899183337943592065e-01,6.332229974260191740e-01,2.446032856483574960e+03
-4.488603018371110309e+00,-1.508346226826319736e+01,-1.644965092954291386e+00,2.582163276221455805e-01,7.244986818980171384e-01,6.390805802692093307e-01,2.452578241783844987e+03
-4.460826434417636044e+00,-1.508027133406187836e+01,-1.647910673196022024e+00,-4.498065713087986972e-03,8.032195356042873824e-01,5.956644567438529325e-01,2.452699812519981151e+03
-3.064402311240611354e+00,-1.470710355412540160e+01,-1.989614295585192982e+00,1.965086986695464555e-01,6.930554075408350556e-01,6.935823912310921102e-01,2.459245197820251178e+03
-1.879549044600232532e+00,-1.394390492541282356e+01,-2.395119713209015622e+00,3.853067641419641864e-01,5.398332270227379492e-01,7.484095032193370800e-01,2.465790583120521205e+03
-9.716777216309849807e-01,-1.288307794774942927e+01,-2.475096090971699248e+00,5.501665242163187308e-01,3.530723672036615857e-01,7.567395186914227523e-01,2.472335968420791232e+03
-4.687632237272902347e-01,-1.174657636368599789e+01,-2.351253594942798841e+00,6.808456090387646764e-01,1.443758713215027023e-01,7.180549174214536645e-01,2.478881353721061259e+03
-4.171154731828324302e-01,-1.152064123458856670e+01,-2.327836840393197271e+00,7.692252099305405544e-01,-7.329040963202679282e-02,6.347590820646058507e-01,2.480227996267119124e+03
-3.454655883640426195e-01,-1.116923077435322753e+01,-2.297956004600254065e+00,8.281346026985155762e-01,-9.766059395230640428e-02,5.519542446483930442e-01,2.482378294293382169e+03
-3.045945331867239703e-01,-1.056247641189757225e+01,-2.280490672165192745e+00,1.446448995729985865e-01,4.775006349309436626e-02,9.883297953939326197e-01,2.487493360058910184e+03
-4.358448327976927605e-01,-1.043533220356333224e+01,-2.339152649779021598e+00,-6.080345898074075717e-02,2.369900241561139764e-01,9.696064499689704963e-01,2.491842497033928794e+03
-8.472318514167458403e-01,-1.119684900298686614e+01,-2.519328291506378381e+00,-1.386579160098401486e-01,3.855850949893216972e-01,9.121930260911633725e-01,2.498387882334198821e+03
