-6.315506702296417529e+00,-2.571486959454173604e+00,-5.094836781922122970e-01,8.366715453668892577e-01,-2.956130100729509880e-01,-4.610766459475177381e-01,3.186443687409593508e+02
-6.592456322908615718e+00,-2.981556803024853597e+00,-5.647275636993959180e-01,8.624545501502904887e-01,-2.279082354630602436e-01,-4.519159049224502067e-01,3.211354544923415233e+02
-7.560777490443945759e+00,-3.791169511295959360e+00,-1.140934283548612704e+00,9.212747958452485175e-01,-1.509807484535758138e-01,-3.584069811429670960e-01,3.276808397926116641e+02
-8.029025423619179591e+00,-4.106523638562727285e+00,-2.091932397261954790e+00,9.634000580122965562e-01,-7.131723857999582028e-02,-2.584031340714745273e-01,3.329351214666612009e+02
-8.115729283793530868e+00,-4.074909461425022528e+00,-3.131818001897881842e+00,9.841519116152429580e-01,-5.371098305340527967e-04,-1.773209698852773464e-01,3.374566577261890643e+02
-8.100616627665944591e+00,-3.919812737086433518e+00,-3.681390749754073877e+00,9.789293968689577463e-01,-1.614796938525122350e-01,-1.249781757325995335e-01,3.398844513119835824e+02
-7.953462527581708130e+00,-3.429478349357246714e+00,-4.587096872969757655e+00,9.613689430720581131e-01,-2.576481381842423701e-01,-9.687720149341297327e-02,3.443790851872035432e+02
-7.402467209366594858e+00,-2.618231420227818074e+00,-5.654049350715276034e+00,8.456021107831704908e-01,-5.013919242469638826e-01,-1.831971848558928140e-01,3.509244704874736840e+02
-6.557038615981366725e+00,-2.020419992828576650e+00,-6.360017922674856550e+00,6.619636462403561961e-01,-7.048918228310010470e-01,-2.548129689838061207e-01,3.574698557877438247e+02
-5.746669734494157744e+00,-1.741834837517437728e+00,-6.553308105360529545e+00,4.251931359779993480e-01,-8.518140958846994737e-01,-3.059763768158859087e-01,3.640152410880139655e+02
-5.710742644216569630e+00,-1.735326029258026370e+00,-6.546170035167519607e+00,1.542947483038906165e-01,-9.303661288746110092e-01,-3.325808125681784522e-01,3.643601103569671409e+02
-5.446241022959793732e+00,-1.725979427966460200e+00,-6.277902395960067494e+00,2.235820806772994274e-01,-9.705860680522574446e-01,-8.928458823894158680e-02,3.680920722421590199e+02
-5.465595758223305900e+00,-1.862548934084071517e+00,-5.251303890831424681e+00,6.111292907494310089e-01,-7.901038672173554822e-01,4.748546089261741765e-02,3.746374575424291606e+02
-5.643024210629656423e+00,-1.932573802639397487e+00,-4.670281135696572328e+00,8.755503664781539852e-01,-4.504370081489864064e-01,1.746884582602758196e-01,3.772939840628650927e+02
-6.444816528172786718e+00,-2.074092158165127930e+00,-2.996458805397045566e+00,8.743871037122658008e-01,-4.852265597470731828e-01,-6.152856379385321069e-04,3.838393693631352335e+02
-7.631021588752949114e+00,-2.248499113379889280e+00,-1.285172909154116860e+00,8.452931905278530111e-01,-5.045164516426206003e-01,-1.758993236712298736e-01,3.903847546634053742e+02
-7.690153164325330692e+00,-2.258342449218758929e+00,-1.213056442619066200e+00,7.891979729375020458e-01,-5.076905166406548986e-01,-3.455646087535214073e-01,3.906701809640483702e+02
-9.164708190244539310e+00,-2.549910273697792551e+00,3.169363216747192458e-01,8.479639415362723032e-01,-3.966211666008236936e-01,-3.516344750714837097e-01,3.972155662643185110e+02
-1.082276055146030913e+01,-2.932660477531213949e+00,1.618827988549874419e+00,8.933094220058400703e-01,-2.792746219151361897e-01,-3.521391232314265429e-01,4.037609515645886518e+02
-1.256393105011367695e+01,-3.337067113896904136e+00,2.702860836148340162e+00,9.245167502137334736e-01,-1.575080924338229937e-01,-3.470705683180937973e-01,4.103063368648587925e+02
-1.428585943666474201e+01,-3.696844837175493836e+00,3.579303019543718101e+00,9.410920219452617586e-01,-3.324873960128710976e-02,-3.365090304085900930e-01,4.168517221651289333e+02
-1.588424256186505445e+01,-3.948994707145661032e+00,4.258447346775354525e+00,9.427729090281860014e-01,9.153682374196935034e-02,-3.206216647427804767e-01,4.233971074653990740e+02
-1.725287293974078651e+01,-4.033849301239911256e+00,4.750610052858628585e+00,9.295328105647757688e-01,2.148736576878380877e-01,-2.996599160983623999e-01,4.299424927656692148e+02
-1.828367771704278866e+01,-3.895117127820826752e+00,5.066129571747162608e+00,9.015812736507555769e-01,3.348097512216788307e-01,-2.739555392574021253e-01,4.364878780659393556e+02
-1.886675804470821305e+01,-3.479926333142086659e+00,5.215365306351736230e+00,8.593606769628534536e-01,4.494469152574531723e-01,-2.439153485455639037e-01,4.430332633662094963e+02
-1.892943497830880517e+01,-3.205691713463260761e+00,5.216291389035172088e+00,8.035392296985816030e-01,5.569708239375207315e-01,-2.100147795234454107e-01,4.456396917800642541e+02
-1.858195028494858647e+01,-2.210466613610866382e+00,5.078973719985167001e+00,6.862730071613774019e-01,7.192602805750972772e-01,-1.081295908518494775e-01,4.521850770803343949e+02
-1.751425058492153397e+01,-8.279902777952614645e-01,4.800299464929628890e+00,5.343696310187567855e-01,8.452493590126465284e-01,-7.864572986286814168e-04,4.587304623806045356e+02
-1.561053850072283566e+01,9.826449495281449620e-01,4.390694312945083055e+00,3.554946997708434142e-01,9.285787732886003898e-01,1.065972804755451336e-01,4.652758476808746764e+02
-1.275336858874598356e+01,3.258743525132135499e+00,3.860599491451604859e+00,1.586755256430023575e-01,9.650416327254814908e-01,2.086018327609708567e-01,4.718212329811448171e+02
-8.899415703190809879e+00,5.943434063600564699e+00,3.153717446422768411e+00,-4.615412344892779600e-02,9.527962549769477540e-01,3.000784786450799713e-01,4.783666182814149579e+02
-4.158853802682074274e+00,8.798337387709015189e+00,2.080265451409657906e+00,-2.486553734111689451e-01,8.924597051035429995e-01,3.764095907274788710e-01,4.849120035816850987e+02
9.534224914661331152e-01,1.147738437418835922e+01,6.283848582217292922e-01,-4.386063924273453374e-01,7.870770822812186429e-01,4.337419728607394553e-01,4.914573888819552394e+02
5.655033394025342552e+00,1.371293580715055249e+01,-9.054061414330579760e-01,-6.064188412577289355e-01,6.419679149590655776e-01,4.691816120508860988e-01,4.980027741822253802e+02
9.606361156270040169e+00,1.544349840768826176e+01,-2.341816711617113356e+00,-7.436223239919877992e-01,4.644573789914084316e-01,4.809398947111304112e-01,5.045481594824955209e+02
1.285234460450012683e+01,1.671597187498380066e+01,-3.682502934785889526e+00,-8.432921643550072011e-01,2.635060344070246918e-01,4.684238415596572169e-01,5.110935447827656617e+02
1.543888698302579598e+01,1.757570297038304119e+01,-4.929132256948184576e+00,-9.003988028390670362e-01,4.925700937745594588e-02,4.322658242973174136e-01,5.176389300830358025e+02
1.741283694364114609e+01,1.806646458696921798e+01,-6.083383284901135113e+00,-9.120612256731588374e-01,-1.674762682437502259e-01,3.742913573519100479e-01,5.241843153833059432e+02
1.867360434538830205e+01,1.821496947529650967e+01,-7.030576870834058134e+00,-8.776918200097740819e-01,-3.757557935393944781e-01,2.974267182064092019e-01,5.300117934853070665e+02
1.957768385099273090e+01,1.809637158474095031e+01,-8.005698088927347911e+00,-8.950018445064179540e-01,-3.503789599521315301e-01,2.760512321140229930e-01,5.365571787855772072e+02
2.000931326319455295e+01,1.772695400816615319e+01,-8.893354381922650376e+00,-9.110583868373227645e-01,-3.245114099479509684e-01,2.542891279345482203e-01,5.431025640858473480e+02
2.001883770477963864e+01,1.714418038815833967e+01,-9.695266370298783798e+00,-9.258389598062095605e-01,-2.981893714024760333e-01,2.321708838039789613e-01,5.496479493861174888e+02
1.965745230050736225e+01,1.638384313398185199e+01,-1.041316482947081745e+01,-9.393228631432066766e-01,-2.714497086638149592e-01,2.097274766012984237e-01,5.561933346863876295e+02
1.897718217368127114e+01,1.548004456846980936e+01,-1.104879048143664377e+01,-9.514912124911567570e-01,-2.443298709344004505e-01,1.869903385740412649e-01,5.627387199866577703e+02
1.803086228160588789e+01,1.446517843767577460e+01,-1.160389378550851092e+01,-9.623269658480916311e-01,-2.168678398333551693e-01,1.639913133258027178e-01,5.692841052869279110e+02
1.687211709213417166e+01,1.336991178609173936e+01,-1.208023472816566368e+01,-9.718149474311498226e-01,-1.891020762136355615e-01,1.407626112279706243e-01,5.758294905871980518e+02
1.555534010346936213e+01,1.222316720014082847e+01,-1.247958261221858045e+01,-9.799418689285720463e-01,-1.610714663082857823e-01,1.173367643180012465e-01,5.823748758874681926e+02
1.413567320944384598e+01,1.105210542268901186e+01,-1.280371584531821227e+01,-9.866963481100365918e-01,-1.328152672810694046e-01,9.374658074727386381e-02,5.889202611877383333e+02
1.266898591264291341e+01,9.882108341301007570e+00,-1.305442172755240904e+01,-9.920689247692788815e-01,-1.043730522575801178e-01,7.002509884219118574e-02,5.954656464880084741e+02
1.121185438768142362e+01,8.736762352875752313e+00,-1.323349623809308895e+01,-9.960520739766515197e-01,-7.578465491365865558e-02,4.620554084273372636e-02,6.020110317882786148e+02
9.821540396855208854e+00,7.637842107333917774e+00,-1.334274382106259971e+01,-9.986402166230218258e-01,-4.709011369856629103e-02,2.232126638312930539e-02,6.085564170885487556e+02
9.294403545537493372e+00,7.212735269165285956e+00,-1.336123710153020205e+01,-9.998297272401814872e-01,-1.832961577088084229e-02,-1.594274220334143417e-03,6.112118990049212925e+02
8.108395036106426090e+00,6.222142644419100144e+00,-1.334508563752675059e+01,-9.986836355656775188e-01,-4.599041520817880035e-02,2.266887205335444549e-02,6.177572843051914333e+02
7.054613742860888159e+00,5.295199990394141132e+00,-1.326608543768825044e+01,-9.961841919015547164e-01,-7.358888714450635693e-02,4.690129520912602462e-02,6.243026696054615741e+02
6.116520313084969018e+00,4.422232651892462840e+00,-1.312867132571418871e+01,-9.923347838627730733e-01,-1.010876324918908720e-01,7.107015753003956271e-02,6.308480549057317148e+02
5.277363818423750352e+00,3.594107135843705336e+00,-1.293728502003711611e+01,-9.871406283330018683e-01,-1.284493873417910936e-01,9.514270746663930356e-02,6.373934402060018556e+02
4.520188177625370507e+00,2.802235749495412875e+00,-1.269637460681293284e+01,-9.806087643903965700e-01,-1.556370734520801102e-01,1.190863240104792359e-01,6.439388255062719963e+02
3.827838618531055115e+00,2.038581122332905782e+00,-1.241039401230859696e+01,-9.727480437657075596e-01,-1.826138484821272223e-01,1.428685608904563253e-01,6.504842108065421371e+02
3.182968178560702910e+00,1.295660610989836314e+00,-1.208380247472898716e+01,-9.635691188456605438e-01,-2.093431559080422000e-01,1.664571905321822198e-01,6.570295961068122779e+02
2.568044242777409281e+00,5.665505864035613737e-01,-1.172106401572916390e+01,-9.530844282378750920e-01,-2.357887745505775623e-01,1.898202477209430805e-01,6.635749814070824186e+02
1.965355118893773900e+00,-1.551093974552373855e-01,-1.132664691163291337e+01,-9.413081799168810937e-01,-2.619148676487140781e-01,2.129260729092024573e-01,6.701203667073525594e+02
1.357016648769032274e+00,-8.751125537721237135e-01,-1.090502316410135997e+01,-9.282563319740442243e-01,-2.876860314125649354e-01,2.357433551100805158e-01,6.766657520076227001e+02
7.249788555030078907e-01,-1.598680932537863697e+00,-1.046066797042560204e+01,-9.139465709974438079e-01,-3.130673429899381022e-01,2.582411743188023912e-01,6.832111373078928409e+02
5.103262524906880537e-02,-2.330461610454299226e+00,-9.998059193595191019e+00,-8.983982881109311425e-01,-3.380244077816876858e-01,2.803890434047456304e-01,6.897565226081629817e+02
-4.859350314875416910e-01,-2.879024963345494736e+00,-9.647033601816312753e+00,-8.816325527047571553e-01,-3.625234060418571214e-01,3.021569494174256021e-01,6.945787647614342859e+02
-1.285754851124425668e+00,-3.639493000902154662e+00,-9.160615060981026403e+00,-9.464197915786677351e-01,-2.364035978033043051e-01,2.200020842020086465e-01,7.011241500617044267e+02
-2.178155693705863705e+00,-4.417776824364030297e+00,-8.668207263024994447e+00,-9.857927538650743671e-01,-1.039356360299231591e-01,1.319394936684857300e-01,7.076695353619745674e+02
-3.132734014315521343e+00,-5.191586518151320995e+00,-8.137416931274477960e+00,-9.986941595498479707e-01,3.132333913322506158e-02,4.033390764125990846e-02,7.142149206622447082e+02
-3.400968285089885690e+00,-5.400496841801720294e+00,-7.959162378993941189e+00,-9.847775468660678877e-01,1.657412373601506173e-01,-5.235480326906451903e-02,7.160708230758001491e+02
-4.222873245151123278e+00,-6.040820768081406555e+00,-7.140833733909659919e+00,-8.914187953363315042e-01,4.254594820422443191e-01,1.560601181002584381e-01,7.226162083760702899e+02
-4.744210519666508752e+00,-6.491615071981695628e+00,-5.994442690212698821e+00,-6.914406613936326940e-01,6.342899980922621639e-01,3.458092105364435898e-01,7.291615936763404306e+02
-4.868358323150356881e+00,-6.724098864246960794e+00,-4.465576202248048965e+00,-4.087618489389466814e-01,7.672553602935201500e-01,4.941972915275429368e-01,7.357069789766105714e+02
-4.834544545345554667e+00,-6.749932751583415325e+00,-4.002788326770055249e+00,-7.719253169955633820e-02,8.084521016516171832e-01,5.834762312083920932e-01,7.373958824033109067e+02
-4.554015683736602149e+00,-6.801748687245930292e+00,-2.077440073742324866e+00,5.072357746280097279e-01,5.310756247046095613e-01,6.787256808037730460e-01,7.439412677035810475e+02
-4.339003148240984764e+00,-6.820740815438920635e+00,-9.089210075298936875e-01,8.747865662964663391e-01,2.662848429076942330e-02,4.837741076699245135e-01,7.479009542327726194e+02
-4.091313609211242763e+00,-6.800817685474894070e+00,8.416645558177390241e-01,9.858110603545402473e-01,-3.217579844497496511e-02,1.647400111609377549e-01,7.544463395330427602e+02
-4.034849089831069158e+00,-6.630187105424811378e+00,2.231770477435084832e+00,9.809363469194538609e-01,-8.719725075231271605e-02,-1.736620936005993654e-01,7.609917248333129010e+02
-4.114978195448150800e+00,-6.420075952345080772e+00,2.747497906689376990e+00,8.607355216092656969e-01,-1.319671609818505453e-01,-4.916472620306973074e-01,7.646008626906512973e+02
-4.446714430521484296e+00,-5.821603009299995080e+00,3.238425377562132557e+00,8.013664384552140474e-01,-4.460128608558695806e-02,-5.965069627397229235e-01,7.711462479909214380e+02
-4.909487129566962871e+00,-5.024410522744224394e+00,3.349053490580376380e+00,7.242446325204775492e-01,4.375262812113761557e-02,-6.881521777904775483e-01,7.776916332911915788e+02
-5.411714836917713711e+00,-4.071670922875159526e+00,3.169400310050533687e+00,6.310785908039815428e-01,1.311372773648095957e-01,-7.645526971466907185e-01,7.842370185914617196e+02
-5.863173070493149730e+00,-3.009415219700001032e+00,2.789518379592662356e+00,5.239322223059087458e-01,2.156168311638229917e-01,-8.240160244488662356e-01,7.907824038917318603e+02
-6.175027303108664434e+00,-1.886500892419599174e+00,2.299484024624463885e+00,4.051791378107588160e-01,2.953198151847480912e-01,-8.652248684833996339e-01,7.973277891920020011e+02
-6.257415992915304592e+00,-8.610642830736943143e-01,1.835891451885132586e+00,2.774500699936682246e-01,3.684805680604403832e-01,-8.872663239535879542e-01,8.032508589282145977e+02
-6.045720380831367535e+00,2.306247317590817969e-01,1.387132971523621583e+00,3.811750260175012506e-01,2.022824751337867211e-01,-9.021005486049389344e-01,8.097962442284847384e+02
-5.518751677603443540e+00,1.222979784635541467e+00,1.007670984670541170e+00,4.701863115688352801e-01,2.827613349103914875e-02,-8.821129704788438497e-01,8.163416295287548792e+02
-5.364393964516136926e+00,1.422166469574567049e+00,9.182473748550435966e-01,5.410480497759327934e-01,-1.468217428073093078e-01,-8.280751075060172051e-01,8.178054252697601214e+02
-4.642223682832578469e+00,2.173402030868381019e+00,3.518067069399960500e-01,7.998249074516157187e-01,-9.442497902995850012e-02,-5.927579951002590608e-01,8.243508105700302622e+02
-3.943999975190966900e+00,2.680157976269461617e+00,-4.729753102294276257e-01,9.585554399196098974e-01,-3.021704433681063340e-02,-2.832956032700885696e-01,8.308961958703004029e+02
-3.293533512906924088e+00,2.857201334097918988e+00,-1.430828075098817820e+00,9.973848127384804529e-01,3.777059841113442756e-02,6.160289939874166731e-02,8.374415811705705437e+02
-3.263822766764698624e+00,2.856342781017142229e+00,-1.475622413573769443e+00,9.114560282023709270e-01,1.010337004218958140e-01,3.987958124561457041e-01,8.377474125983546855e+02
-2.645317459890192957e+00,2.579405918204145554e+00,-2.325715378897172947e+00,7.529140300989672907e-01,-1.603158136687767854e-01,6.382924902957421986e-01,8.442927978986248263e+02
-2.054069773230802198e+00,1.826196553679432455e+00,-2.897042901360509237e+00,4.808340936006492705e-01,-3.974899667804042136e-01,7.815358601755397761e-01,8.508381831988949671e+02
-1.760804730243894056e+00,1.295840038563451202e+00,-3.012834224457058507e+00,1.362452980611229270e-01,-5.747234222755390753e-01,8.069251555405260179e-01,8.540388386169396426e+02
-1.085431783717917709e+00,6.503465445375124221e-02,-2.988641110416932811e+00,-1.397846680789772422e-01,-7.973018375797890078e-01,5.871695039438852293e-01,8.605842239172097834e+02
-4.483764851492892389e-01,-9.251261693704390110e-01,-2.897042857277938310e+00,-3.914884075949073838e-01,-8.811285355087766780e-01,2.652307120795692752e-01,8.659137601400203721e+02
3.759369417986871964e-01,-1.994257962472200996e+00,-2.897042893238623851e+00,-7.722047862803932405e-01,-5.552423212253868590e-01,3.088749468046494973e-01,8.724403359150708184e+02
1.164014664941556809e+00,-2.897250402118000778e+00,-3.004815057077626417e+00,-9.234358678072337456e-01,-3.738981144696919556e-01,8.639674786837157894e-02,8.789857212153409591e+02
1.872643534642728369e+00,-3.651311045709099812e+00,-2.897042997004418918e+00,-9.774722571354854672e-01,-1.531999350762972278e-01,-1.451749510829758727e-01,8.854289603144549119e+02
2.451323571307385318e+00,-4.376353689354687049e+00,-2.390693559456699369e+00,-9.251359604606438358e-01,7.334142768887484676e-02,3.724815292701204594e-01,8.919743456147250527e+02
2.671853714110125733e+00,-5.000012886763132158e+00,-1.966236994721973774e+00,-5.748791123666459058e-01,2.762647226413421087e-01,7.701881647938135789e-01,8.967412072044597835e+02
2.621948889682315542e+00,-6.089287774893800353e+00,-1.648485784800983067e+00,-5.522698454772276833e-01,2.740574461791671634e-01,7.873300032103476287e-01,9.032865925047299243e+02
2.246698054463376337e+00,-7.316675491686829069e+00,-1.610070537166806925e+00,-5.292133016224177533e-01,2.716282123021850903e-01,8.038341841775267227e-01,9.098319778050000650e+02
1.631311062019524805e+00,-8.489256167368393946e+00,-1.731407913704909429e+00,-5.057281484807146787e-01,2.689789878518081823e-01,8.196873452196292709e-01,9.163773631052702058e+02
1.309261363409336631e+00,-8.922393999039066159e+00,-1.810559433746225189e+00,-4.818334004513411539e-01,2.661119176232505379e-01,8.348766504655829035e-01,9.192062492679181105e+02
5.564630237930713319e-01,-9.697032441219729293e+00,-1.996494076812386886e+00,-3.982073912483049538e-01,3.928776003982741294e-01,8.289005155374959966e-01,9.257516345681882513e+02
-4.071197085815406874e-02,-1.017119546813958486e+01,-2.159249772389967514e+00,-3.053833728715694140e-01,5.105683257438152767e-01,8.037779421697428539e-01,9.322970198684583920e+02
-1.693991613529873819e-01,-1.022803244183949190e+01,-2.215479815120704465e+00,-2.055054131873750856e-01,6.164656539911168576e-01,7.600892201561111339e-01,9.346156455443504001e+02
-2.622978604333561781e-01,-1.002862229779921677e+01,-2.404813958943930796e+00,-2.865218821993138487e-01,7.324348316774599299e-01,6.176102560405908326e-01,9.411610308446205408e+02
-7.925652375747306577e-02,-9.443245633895411828e+00,-2.619923377806945730e+00,-3.559878234761753024e-01,8.188774563029320719e-01,4.502336960908674413e-01,9.477064161448906816e+02
2.565637259234281875e-01,-8.550723782774579007e+00,-2.830486019580724211e+00,-4.111028805493800453e-01,8.723088031689804067e-01,2.647069578195014872e-01,9.542518014451608224e+02
6.197947904169985867e-01,-7.425839766593658631e+00,-3.006180382718317556e+00,-4.496452177584229215e-01,8.905749139141088122e-01,6.850912971227418602e-02,9.607971867454309631e+02
6.567516743438245319e-01,-7.292059996585028792e+00,-3.021472673126443631e+00,-4.700610847892406907e-01,8.729394239897367846e-01,-1.304505216973789461e-01,9.615062579861255472e+02
9.041327985766228759e-01,-5.985326232011991543e+00,-3.111304988457860965e+00,-2.979168430696949033e-01,8.752989201376900619e-01,3.809138419925155450e-01,9.680516432863956879e+02
9.462349944328269924e-01,-4.935670307631618847e+00,-3.119957039921436248e+00,-3.903908663621778741e-02,6.228297508696232221e-01,7.813815016663081536e-01,9.728923574258250255e+02
8.202225886974261471e-01,-3.382445528014365266e+00,-3.086682724298575931e+00,-6.762795655108454207e-02,4.834774334972454235e-01,8.727393830869405456e-01,9.794377427260951663e+02
5.675472587603103136e-01,-1.673030141002869620e+00,-3.051995934246795716e+00,-9.428383198072115556e-02,3.303060457886780044e-01,9.391519978905765731e-01,9.859831280263653071e+02
2.639635412855328989e-01,1.411126218000320065e-01,-3.030709966121373444e+00,-1.182448221195169652e-01,1.676936082784349635e-01,9.787211123622959752e-01,9.925285133266354478e+02
1.880524407442187296e-01,6.009006438656750992e-01,-3.027893252866053597e+00,-1.388260605286089355e-01,2.879865060173766042e-04,9.903157284324560772e-01,9.941600517329895865e+02
-1.197467589508886543e-01,2.413928436950173229e+00,-3.021358856947948812e+00,3.529526288465630046e-02,-1.590536091365977178e-01,9.866378230322914167e-01,1.000705437033259727e+03
-5.066853338572897547e-01,4.108433570812288771e+00,-3.007884087423380759e+00,2.074498369263753916e-01,-3.095324460660960342e-01,9.279828823803701887e-01,1.007250822333529868e+03
-9.280193583674002378e-01,5.317059350661068606e+00,-2.984757703313895671e+00,3.680449986166660636e-01,-4.427636607868428720e-01,8.176192388141146905e-01,1.012534515054157623e+03
-1.499031716780929280e+00,6.586123566366013371e+00,-2.952283828899079587e+00,3.124048121848150839e-01,-3.616794957206153627e-01,8.784014888973398216e-01,1.019079900354427764e+03
-1.950274532813985218e+00,7.613787462324311583e+00,-2.938801394560995206e+00,2.525893554263516916e-01,-2.757615111032346022e-01,9.274439101732684376e-01,1.025625285654697791e+03
-2.102954128442714232e+00,8.383434881063697830e+00,-2.975976288574686102e+00,1.893980476371166233e-01,-1.861579799048702633e-01,9.640910673100219208e-01,1.032170670954967818e+03
-1.922186001637211650e+00,8.773809001359039073e+00,-3.046098069253428964e+00,1.236754231753596361e-01,-9.406642897220506006e-02,9.878531756493175164e-01,1.037160837249594579e+03
-1.329773644860286597e+00,9.056519045063589957e+00,-3.137870309298329996e+00,1.143951783504387060e-01,-1.065203709120431663e-01,9.877070181593371467e-01,1.043706222549864606e+03
-4.831505224902509776e-01,9.134280545279189312e+00,-3.167610675879849236e+00,1.050873385066378035e-01,-1.189486122385769729e-01,9.873225809746816184e-01,1.050251607850134633e+03
4.931544548187203891e-01,9.003692174766175782e+00,-3.091030352289594774e+00,9.575414680057102446e-02,-1.313481578086329316e-01,9.866999568161759493e-01,1.056796993150404660e+03
8.796019702226351988e-01,8.880468830944229452e+00,-3.010985600616581159e+00,8.639785248132812734e-02,-1.437160193743017289e-01,9.858392956418974284e-01,1.059310682662409818e+03
1.831006302817581810e+00,8.357762375965496204e+00,-2.640276236421378542e+00,-1.538663944605141720e-01,-2.622980752017892714e-01,9.526399384871873099e-01,1.065856067962679845e+03
2.635986825056302774e+00,7.613712657525177896e+00,-2.057902858953889691e+00,-3.829151294928434535e-01,-3.617609563073201917e-01,8.500017729962813240e-01,1.072401453262949872e+03
2.976027675137820516e+00,7.122187311437998325e+00,-1.605388185686707825e+00,-5.840528568360321415e-01,-4.348547559534753915e-01,6.854061581614917520e-01,1.075989233689780121e+03
3.370117447534394906e+00,6.148621010762193251e+00,-5.010985956476726733e-01,-8.154248104695049904e-01,-3.301442084035139390e-01,4.754841533937267384e-01,1.082534618990050149e+03
3.470869039620383401e+00,5.161036498546231144e+00,8.521667407285559159e-01,-9.582703756241753856e-01,-1.895916422981231975e-01,2.139413386232741354e-01,1.089080004290320176e+03
3.248446448082813465e+00,4.212727634751822769e+00,2.262563694619340815e+00,-9.970815646044024483e-01,-2.845609174857988491e-02,-7.082799141861467751e-02,1.095625389590590203e+03
3.168959375902566489e+00,4.044522165619005349e+00,2.505245113302341675e+00,-9.276448080107352334e-01,1.357688168645972693e-01,-3.479079454937430982e-01,1.096841725917567601e+03
2.557332105630013785e+00,3.238105433374734332e+00,3.609324330900872013e+00,-8.122635772628143958e-01,6.354043956456094377e-02,-5.798176382205232349e-01,1.103387111217837628e+03
1.714118398449096636e+00,2.687825491920577736e+00,4.431381093546145955e+00,-6.381459754887918168e-01,-1.328265702202344710e-02,-7.697995096058534159e-01,1.109932496518107655e+03
1.432227488806119498e+00,2.611045980652952014e+00,4.599519325486478571e+00,-4.178827400873611486e-01,-8.914526832616909147e-02,-9.041156655380641061e-01,1.111877068987771281e+03
4.513704271909931287e-01,2.667215257492751235e+00,4.932179374575205166e+00,-2.905120001296646048e-01,3.685738834818043375e-02,-9.561601909222950946e-01,1.118422454288041308e+03
-4.992724654250876304e-01,3.085224985176335810e+00,5.053776021629492909e+00,-1.530289530187119718e-01,1.615770608995055480e-01,-9.749220445394549683e-01,1.124967839588311335e+03
-1.314033152615730726e+00,3.813022235686197803e+00,5.032655015863330306e+00,-1.021918879992194523e-02,2.806724394517608467e-01,-9.597481700490159140e-01,1.131513224888581362e+03
-1.888769620562726681e+00,4.795287265175092628e+00,4.937179048269764614e+00,1.329462937836291825e-01,3.899979897329982625e-01,-9.111667525614089991e-01,1.138058610188851389e+03
-1.938939315612087766e+00,4.931511740856045378e+00,4.922994416378100979e+00,2.714841134269799228e-01,4.857482467329440889e-01,-8.308688325796848018e-01,1.138860141434578054e+03
-2.126896888890193349e+00,6.141142797071495352e+00,4.825176359459068642e+00,2.929610600993628466e-01,5.097118211437847712e-01,-8.089287215995715208e-01,1.145405526734848081e+03
-2.065192105952387447e+00,6.678196555551091151e+00,4.802940627319138400e+00,3.139936190981577613e-01,5.329022222155099797e-01,-7.857615596985375594e-01,1.148053578703284984e+03
-1.543789266800130955e+00,8.058319152830021537e+00,4.775929906732961250e+00,2.235827143878219014e-01,4.363176605929212637e-01,-8.715708054310765673e-01,1.154598964003555011e+03
-6.801333088875335386e-01,9.384566690283566714e+00,4.704903276105540932e+00,1.276122143106142304e-01,3.288836408045673343e-01,-9.357075790907312118e-01,1.161144349303825038e+03
-5.847975701441830987e-01,9.506517173330376380e+00,4.691277305275248999e+00,2.846847864026714331e-02,2.132715677961640466e-01,-9.765770753458772324e-01,1.161785984944732490e+03
2.356038360661475706e-01,1.065796079311530953e+01,4.477544371818763302e+00,9.255354469828586117e-02,-3.267461577339106360e-01,-9.405683333867946860e-01,1.168331370245002518e+03
5.191880865511273591e-01,1.160250718574805440e+01,4.251756922288798535e+00,1.291480504917424110e-01,-7.697125901544522586e-01,-6.251890191069540137e-01,1.173990410582729510e+03
1.407763097455239365e-01,1.266578948957702266e+01,4.022242711061508658e+00,1.195052379405230902e-01,-8.515513474298986862e-01,-5.104672377273603567e-01,1.180535795882999537e+03
-8.121918617288559350e-01,1.341210884377595391e+01,3.822493301620152550e+00,1.074780975406409433e-01,-9.164001966919227415e-01,-3.855608097953411306e-01,1.187081181183269564e+03
-1.822482524870290721e+00,1.351432341515689295e+01,3.627104289996068154e+00,9.330658655439601212e-02,-9.629653261378837703e-01,-2.529617788508365939e-01,1.192657969127693832e+03
-2.819170885279929095e+00,1.299557642383628320e+01,3.256024131803529897e+00,2.076855453219647596e-01,-9.417438456894183796e-01,-2.645434621470739156e-01,1.199203354427963859e+03
-3.010958250744228515e+00,1.273389969785719700e+01,3.083040177275321536e+00,3.192260579015818722e-01,-9.076514937296482621e-01,-2.725096142904977481e-01,1.201110968549146264e+03
-3.439141216580057669e+00,1.184049838165799962e+01,2.209022406254809834e+00,8.065667973038638250e-01,-5.797785685012332157e-01,-1.153464910352160755e-01,1.207656353849416291e+03
-3.480932966287319186e+00,1.174830741535885359e+01,2.071234454067973907e+00,9.957176643784735326e-01,-3.755992973882043423e-02,8.446055009803998814e-02,1.208478945707734283e+03
-3.557555519502759722e+00,1.163229100524671900e+01,1.809650004886533603e+00,9.943393276155896299e-01,-5.004143740869170659e-02,9.371849323209001381e-02,1.209865610689777441e+03
-3.838141157216260257e+00,1.147362515239428760e+01,4.298317764585374290e-01,9.980884244599362853e-01,-3.545249220558033265e-02,-5.060254688589217731e-02,1.216410995990047468e+03
-3.846441320104799555e+00,1.158141163918146432e+01,-1.283417138910473709e-01,9.808222731313627207e-01,-2.011707740756254331e-02,-1.938581226603015850e-01,1.218977352460894735e+03
-3.710408014383813402e+00,1.192497021458264506e+01,-8.337117144893240184e-01,8.073339366985173848e-01,-1.445900037522623582e-01,-5.721045756392533210e-01,1.222448549475186155e+03
-3.573678505045439824e+00,1.224393644346322851e+01,-1.220031320691170151e+00,8.006457228236260049e-01,-1.609235913466284806e-01,-5.771204589735344781e-01,1.224607003153273808e+03
-2.935662012543061028e+00,1.328337434487464819e+01,-2.132487826471757941e+00,8.056009812898807798e-01,-4.281324086225899994e-01,-4.095213054673319530e-01,1.231152388453543836e+03
-1.895648276995832049e+00,1.396595373685039831e+01,-2.625069121152569185e+00,7.303870309016942119e-01,-6.527357275342475784e-01,-2.011687229432169155e-01,1.237697773753813863e+03
-1.532554283984373100e+00,1.400729148636580845e+01,-2.640864330088183110e+00,5.824887059716818971e-01,-8.123822333311491173e-01,2.720320537179643852e-02,1.239535596146444504e+03
-2.033589033069348184e-01,1.359619957724933315e+01,-2.302007574032113979e+00,3.057787037108667394e-01,-8.431966176102412280e-01,-4.421728716318234498e-01,1.246080981446714532e+03
9.861131244285201713e-01,1.273641108006606260e+01,-1.630148678917450855e+00,-6.200210615327293728e-02,-6.228796992821638012e-01,-7.798555116522546404e-01,1.252626366746984559e+03
1.499104579632287049e+00,1.221658546444421134e+01,-1.112317320284130773e+00,-4.113166400506090281e-01,-2.170490646148152403e-01,-8.852718933565657533e-01,1.256439075760270043e+03
1.697320874282970182e+00,1.198529002095982143e+01,-7.604019119259141091e-01,-5.364904189413808311e-01,-2.279969114015603371e-01,-8.125228850707397754e-01,1.258643091531374012e+03
1.913811042941104157e+00,1.169741024881331448e+01,1.309905968918990971e-01,-9.601977531346538308e-01,2.301688804309331982e-02,-2.783675587044541211e-01,1.263537512859439857e+03
1.863694340496439006e+00,1.163796725509834040e+01,1.476838044223997892e+00,-9.980455172323269286e-01,-2.905239513842799905e-03,-6.240757256651231766e-02,1.270082898159709885e+03
1.762058111759400525e+00,1.169863852253587666e+01,2.003237303262156654e+00,-9.872453245892341966e-01,-2.868575740307232128e-02,1.565943689799015881e-01,1.272415143416737919e+03
1.280573347645660442e+00,1.203469109067389553e+01,3.583165254363310570e+00,-9.087797312649611436e-01,-2.589988975117761827e-01,-3.271650518026057441e-01,1.278960528717007946e+03
5.934357677109386442e-01,1.247738643833022998e+01,5.208995608938872479e+00,-5.638347017029269326e-01,-4.133677460309809204e-01,-7.149933815657397718e-01,1.285505914017277973e+03
-2.336491008061178098e-01,1.290302476129916087e+01,6.791363422852347398e+00,-5.355598829935410976e-02,-4.465254185409820442e-01,-8.931656098958725698e-01,1.292051299317548001e+03
-1.126286513346550278e+00,1.313149863130942840e+01,8.237783960994816468e+00,4.724251855716782300e-01,-3.487491346088333333e-01,-8.094359055167115180e-01,1.298596684617818028e+03
-1.193679299138411309e+00,1.313537971827637207e+01,8.337364421542710957e+00,8.598765940115024042e-01,-1.487113544812092569e-01,-4.883596790448986313e-01,1.299084628259237661e+03
-2.021832594271759209e+00,1.294067873362911847e+01,9.524450083401065470e+00,9.059224444409613719e-01,-1.689370401344380754e-02,-4.231041567061670228e-01,1.305630013559507688e+03
-2.606248039538966665e+00,1.236092510763304908e+01,1.043612563943771221e+01,9.304486091432268013e-01,1.153252301791580087e-01,-3.477980405735330294e-01,1.312175398859777715e+03
-2.766371479968487535e+00,1.156536712210414741e+01,1.104599169401747893e+01,9.328724891968115385e-01,2.448046914651596517e-01,-2.642301684808252005e-01,1.318720784160047742e+03
-2.476190944362129276e+00,1.084796133268118901e+01,1.132014042226021466e+01,9.131364930535446067e-01,3.684689925929859888e-01,-1.743856259843958034e-01,1.324381940622837419e+03
-1.753291015008966003e+00,1.014733148126427764e+01,1.141417319051022972e+01,7.092180960090946895e-01,6.676043916932606903e-01,-2.265216733231686652e-01,1.330927325923107446e+03
-8.452221148437896181e-01,9.742431537638468697e+00,1.139065614534860771e+01,4.104183053062502307e-01,8.774255703514254323e-01,-2.483529407173871162e-01,1.337472711223377473e+03
-5.521087477710071578e-01,9.725154471372775333e+00,1.137480984304785991e+01,5.671140018003326122e-02,9.698620299614275631e-01,-2.369587726342850531e-01,1.339529752796983757e+03
-2.896965926797980262e-01,9.801282306069554195e+00,1.136289786701269122e+01,-4.403269485367337227e-02,9.988206402364754322e-01,-2.040711677206127894e-02,1.341451046296087952e+03
4.647166733659809923e-01,1.041372861710640407e+01,1.132955895349339137e+01,-5.177304499691365303e-01,8.555287050807429683e-01,-4.880159563264836048e-03,1.347996431596357979e+03
8.903820825385684312e-01,1.129056694048336063e+01,1.130183315137384881e+01,-8.644995192229036896e-01,5.024921083718255632e-01,1.184323802583132218e-02,1.354541816896628006e+03
9.192730688296698593e-01,1.149569939873864044e+01,1.129742315782453588e+01,-9.993246139699858421e-01,2.626253917847879565e-02,2.566310481993328008e-02,1.355968761765152522e+03
7.664479445541371172e-01,1.235091011828725627e+01,1.132416827128791148e+01,-9.369633941005666156e-01,-3.063016601638339220e-01,-1.681573402976485332e-01,1.362514147065422549e+03
3.615124548721218578e-01,1.292522514038645021e+01,1.151340888133522178e+01,-7.321327104535597652e-01,-5.922912358696885704e-01,-3.364086595133821689e-01,1.369059532365692576e+03
2.096389651608005500e-01,1.298942446565821029e+01,1.167735958051557432e+01,-4.159779894835435310e-01,-7.882202876777608669e-01,-4.535075416770859569e-01,1.371438322353818876e+03
-1.222959347528305846e-01,1.273729821060855194e+01,1.238456984395951466e+01,-2.715911417003263328e-01,-6.320208022989493024e-01,-7.258002185250972405e-01,1.377983707654088903e+03
-4.204315769818998683e-01,1.217480237895134287e+01,1.317617374310662548e+01,-9.477923579690139544e-02,-4.003648006441397622e-01,-9.114400270268885329e-01,1.384529092954358930e+03
-6.241108971000717265e-01,1.183997185513221062e+01,1.352484112967259655e+01,9.334831649875918735e-02,-1.209094869815562356e-01,-9.882636226049725803e-01,1.388136004714354613e+03
-6.514022170638608111e-01,1.180351111090518756e+01,1.355566708168104206e+01,1.370181163389342371e-01,-1.303497945779626133e-01,-9.819536479926331829e-01,1.388555737678094602e+03
-1.124370812713489709e+00,1.131721210788118803e+01,1.382285937361485217e+01,2.553314835031836316e-01,1.812549468953325387e-04,-9.668525227133669686e-01,1.395101122978364629e+03
-1.599389444538411142e+00,1.096394181203735840e+01,1.368982576882828539e+01,3.656620040117384285e-01,1.307065985132179198e-01,-9.215232411208169605e-01,1.401646508278634656e+03
-1.733402292656438748e+00,1.086760509524390805e+01,1.350456265099910524e+01,4.645602968048319070e-01,2.571454800160270504e-01,-8.473829905882026559e-01,1.403961155374455302e+03
-1.900355674419489604e+00,1.064196257138376644e+01,1.256661670961095645e+01,-1.498415517383861091e-02,3.677331647423577321e-01,-9.298095475105515595e-01,1.410506540674725329e+03
-1.665935320428669320e+00,1.042985707180262978e+01,1.114778081546836397e+01,-4.907979681337787947e-01,3.867600001592088055e-01,-7.807253401495718448e-01,1.417051925974995356e+03
-1.023166850376916015e+00,1.029147296600481454e+01,9.291385531263038899e+00,-8.444093176564095860e-01,3.094884445899940828e-01,-4.372502794961273254e-01,1.423597311275265383e+03
-3.507443560343538325e-01,1.035328961779895351e+01,7.566202717123093002e+00,-9.877732996281932687e-01,1.551581937356912577e-01,1.509448435516957086e-02,1.429009903517570365e+03
4.208878255884738739e-01,1.063422159576161441e+01,5.495861492327420272e+00,-9.841683946760197976e-01,6.949257034351698226e-02,1.630378900361009742e-01,1.435555288817840392e+03
1.078110984985678256e+00,1.104357895888950480e+01,3.582699721471251042e+00,-9.517874979721827611e-01,-1.820491398360189750e-02,3.062142057620594882e-01,1.442100674118110419e+03
1.577482868017184403e+00,1.154204660806193949e+01,1.912289871456409163e+00,-8.915774073513451636e-01,-1.053700913718985388e-01,4.404371357467878334e-01,1.448646059418380446e+03
1.904168835577155550e+00,1.208083865091251496e+01,5.259763016616555431e-01,-8.052985996457553419e-01,-1.894543617794001711e-01,5.617821732764638476e-01,1.455191444718650473e+03
2.003861509308537237e+00,1.233832270868059489e+01,-3.719579401428154547e-02,-6.954737568717500595e-01,-2.679992068172004083e-01,6.667013414174062236e-01,1.458405581212226934e+03
2.136395997827222448e+00,1.278683940489412407e+01,-1.012695573498992418e+00,-7.747637300833783991e-01,-3.032907854006587356e-01,5.547556777872975076e-01,1.464950966512496962e+03
2.243788428773800359e+00,1.308119140050767903e+01,-1.887356969334351264e+00,-8.385086291530280400e-01,-3.324970530466628826e-01,4.316792658330012578e-01,1.471496351812766989e+03
2.392990323539102793e+00,1.313510434950836370e+01,-2.752522543102961183e+00,-8.854294754167256754e-01,-3.550320146707512947e-01,2.999415153339113349e-01,1.478041737113037016e+03
2.515651289299686955e+00,1.301945459424186957e+01,-3.274970213575130185e+00,-9.145848361889811207e-01,-3.704435235205132404e-01,1.621856137059241865e-01,1.481816523951514682e+03
2.733195469088072649e+00,1.267860590968754053e+01,-4.181189138093203361e+00,-9.172709760297143022e-01,-3.899177529506109297e-01,8.109317148682529397e-02,1.488361909251784709e+03
2.842217532673685376e+00,1.241049289793167709e+01,-4.983928957140182803e+00,-9.135706555821820896e-01,-4.066771930072394792e-01,-5.638627660852460650e-04,1.494907294552054736e+03
2.716921217429218327e+00,1.247397931805418558e+01,-5.563198459970753795e+00,-9.035096360743807287e-01,-4.206051638983968610e-01,-8.221699104567894989e-02,1.501423043705973669e+03
2.288975447364929749e+00,1.298523457730197350e+01,-5.849479389925396511e+00,-8.246344081272435345e-01,-5.656632250887828617e-01,-1.099414969941641274e-03,1.507968429006243696e+03
1.596400626898851760e+00,1.376687494063261497e+01,-5.850108728118645907e+00,-7.178508732159603056e-01,-6.915773736877091071e-01,8.005535600280694331e-02,1.514513814306513723e+03
1.083919258146781361e+00,1.421901238211612117e+01,-5.713134019782888373e+00,-5.867728884157018543e-01,-7.940863114681164792e-01,1.585008118504348251e-01,1.518374598924670863e+03
1.200099221989430059e-01,1.477082048109362056e+01,-5.281107711394582793e+00,-3.689320141567632994e-01,-9.294317809365990612e-01,-6.613131942091884929e-03,1.524919984224940890e+03
-1.259986936256052015e-01,1.485025506761016878e+01,-5.133771963420071138e+00,-1.167672541052497820e-01,-9.783067808532346366e-01,-1.711118081949208614e-01,1.526550447678494493e+03
-1.077237040442119209e+00,1.491762783901627287e+01,-4.468640814934367711e+00,1.153069187764885484e-01,-9.924625081845975805e-01,-4.147872140921506079e-02,1.533095832978764520e+03
-1.965755788840613860e+00,1.468538985847903255e+01,-3.939760668147937128e+00,3.392099684683137495e-01,-9.362887057911596367e-01,9.109366991851995665e-02,1.539641218279034547e+03
-2.087001043442796799e+00,1.462886810662267756e+01,-3.899263217255013902e+00,5.390753861565639182e-01,-8.137660448188747120e-01,2.172108476555907053e-01,1.540574001202621048e+03
-2.879296399144354091e+00,1.409794164818215556e+01,-3.923974182457745208e+00,6.811015620655651581e-01,-7.234045371846288264e-01,1.130687301251112054e-01,1.547119386502891075e+03
-3.529298791336938024e+00,1.337821808288716419e+01,-4.296598266077073625e+00,7.964405921760654428e-01,-6.046984091376860215e-01,4.496345214031543039e-03,1.553664771803161102e+03
-3.964527953031701468e+00,1.251361641030102412e+01,-4.867593600685583333e+00,8.805732642659155340e-01,-4.622988233269562652e-01,-1.042522144138417900e-01,1.560210157103431129e+03
-4.009770817151611766e+00,1.236396648007922749e+01,-4.969617154390626013e+00,9.302030775272797092e-01,-3.017852857179869619e-01,-2.089159541112443619e-01,1.561251238058522858e+03
-4.099995497803648803e+00,1.137082248259341100e+01,-5.594811663824198256e+00,9.808820443119764532e-01,-1.697476670264578824e-01,-9.515326943491471401e-02,1.567796623358792885e+03
-3.774679162288104184e+00,1.037504772407410769e+01,-6.079754312151568918e+00,9.992465336410176757e-01,-3.211786403351390290e-02,2.174414438645584993e-02,1.574342008659062913e+03
-3.706290980070008345e+00,1.026739861104854867e+01,-6.115797534213082365e+00,9.846915519124077587e-01,1.065700617535676464e-01,1.379252316603837292e-01,1.575088175139991336e+03
-2.907476507873560490e+00,9.426321016436183697e+00,-6.148516255886979032e+00,9.423843951662070895e-01,3.237864299385050937e-01,8.409518139765809197e-02,1.581633560440261363e+03
-1.921155255834396280e+00,8.760898850182558206e+00,-5.723804535129568549e+00,8.511951853997621331e-01,5.242077711951592667e-01,2.590306874087854733e-02,1.588178945740531390e+03
-1.812908010276732984e+00,8.700277783168756329e+00,-5.647974098316474567e+00,7.158539183439303066e-01,6.974381773526837636e-01,-3.363266806956763388e-02,1.588887797873073396e+03
-9.011812054762542434e-01,8.277962767146867407e+00,-4.789398327155367063e+00,3.416260206207641925e-01,9.264430423251390767e-01,1.580915916870213878e-01,1.595433183173343423e+03
-2.782594599777847288e-01,8.132298745162836795e+00,-4.103480325288209052e+00,-1.109190901603767793e-01,9.430623251145471286e-01,3.135736060116668389e-01,1.600887889330697590e+03
-8.199108314472397518e-02,8.139009767814576080e+00,-3.988982796095434047e+00,-1.086446786308189055e-01,9.073469939886662505e-01,4.060982224620566239e-01,1.602857601602921704e+03
4.942907092725520868e-01,8.330570700105006665e+00,-4.250464173917083421e+00,-1.276837041923405969e-01,9.065707907753797201e-01,4.022738780647926449e-01,1.609402986903191731e+03
8.920886635040001789e-01,8.691030156533967599e+00,-5.056146649404513305e+00,-1.466744981659107439e-01,9.054521639278831913e-01,3.982975902548585023e-01,1.615948372203461759e+03
9.938122209034355725e-01,9.166989793368784945e+00,-6.113882567177412852e+00,-1.656098922288603836e-01,9.039915357593274470e-01,3.941708599681058023e-01,1.622493757503731786e+03
9.406576530286708815e-01,9.331573684305643823e+00,-6.443272138456855203e+00,-1.844827389254376504e-01,9.021894574225854946e-01,3.898952448161446815e-01,1.624493894945130023e+03
5.305190257998415593e-01,9.928648038558495870e+00,-7.395570520014719484e+00,-2.074467523543384873e-01,5.169168255420075742e-01,8.305184166586936367e-01,1.631039280245400050e+03
1.062475081303974056e-01,1.049145719296353185e+01,-7.970967267175890214e+00,-1.592333396373236398e-01,-4.571603806946037546e-02,9.861809100824312502e-01,1.636281754133308368e+03
-3.446491662678675266e-02,1.073313886236260117e+01,-8.110635572834667073e+00,-2.211860390729014636e-01,-3.627938983272325363e-02,9.745555612499859910e-01,1.638253231754998524e+03
-3.961981141488247204e-01,1.151240433861177870e+01,-8.377015152387317087e+00,-5.181672828379735307e-02,1.076662415342664186e-01,9.928348337472021612e-01,1.644798617055268551e+03
-6.552861531015181651e-01,1.189080478331080215e+01,-8.518681505161117329e+00,1.201299601419834606e-01,2.462564846811091113e-01,9.617299706395675551e-01,1.649936422859968388e+03
-1.088959361752141364e+00,1.186269503776571987e+01,-8.681849995299289802e+00,2.272469893203212313e-02,8.207646948506461260e-02,9.963659173279472148e-01,1.656481808160238415e+03
-1.405139981289440954e+00,1.160421834965897148e+01,-8.716990399085245755e+00,-7.553597664345600149e-02,-8.519311275059643362e-02,9.934960743603217237e-01,1.660148686695825063e+03
-2.095335341288508513e+00,1.088728446297169405e+01,-8.527540669466006307e+00,2.110482194249581889e-01,8.997515190629452875e-02,9.733247767916367588e-01,1.666694071996095090e+03
-2.728777149062596052e+00,1.029471071091153611e+01,-7.972196093043504739e+00,4.737372159316188269e-01,2.549562939577086351e-01,8.429521566564474044e-01,1.671978387122397407e+03
-3.474296969070436614e+00,9.981110673599379979e+00,-6.710659537393169671e+00,6.437774845150394665e-01,3.706072058635302979e-01,6.694765487993481479e-01,1.678523772422667435e+03
-3.561478658405659026e+00,9.997611271328171512e+00,-6.513932090483174342e+00,7.672193675576163274e-01,4.594325492991094828e-01,4.475423719462552352e-01,1.679380621676957617e+03
-4.063060156751867602e+00,1.057831001671536342e+01,-5.087331380677111881e+00,8.854451367174153154e-01,2.928812689933945057e-01,3.608399536298705357e-01,1.685926006977227644e+03
-4.203750277598009788e+00,1.167284892509815108e+01,-3.902009180104415886e+00,9.600768288103200820e-01,1.119102875446570805e-01,2.563719374707298937e-01,1.692471392277497671e+03
-4.189096489779374544e+00,1.185192645791433108e+01,-3.769777588207011476e+00,9.874400504972069559e-01,-7.457052865102060946e-02,1.392816676009081267e-01,1.693401776851197610e+03
-3.730326866493888005e+00,1.301338466014217232e+01,-3.126467903076787902e+00,8.901744425364832569e-01,-1.553156121254407329e-01,4.283275878170909046e-01,1.699947162151467637e+03
-2.633508839650228861e+00,1.382168477116217176e+01,-2.827584199935991194e+00,7.043114919846157340e-01,-2.206024170974896781e-01,6.747428368123047360e-01,1.706492547451737664e+03
-1.139356648207481726e+00,1.433944310837429192e+01,-2.681331647630931680e+00,4.483497892935675577e-01,-2.639330858644757805e-01,8.540022205046238213e-01,1.713037932752007691e+03
-1.008189998731991999e+00,1.438019178144180543e+01,-2.667730798614034615e+00,1.477646766688029967e-01,-2.809950053211947019e-01,9.482644184581288105e-01,1.713584268264123693e+03
4.484967103119660847e-01,1.504664335376210715e+01,-2.393696280809982202e+00,-8.823268109149909333e-02,-2.951474047398559564e-01,9.513679642823952287e-01,1.720129653564393720e+03
1.654616713671928530e+00,1.598827155373334818e+01,-2.023841484564628868e+00,-3.192973770266734901e-01,-2.927996528822045530e-01,9.012854976621407221e-01,1.726675038864663748e+03
2.547501654824513295e+00,1.710738051176336327e+01,-1.719955236946664190e+00,-5.325118357988293250e-01,-2.740830022342981009e-01,8.008168658441178200e-01,1.733220424164933775e+03
3.039074059100141056e+00,1.817184123639441040e+01,-1.590255191514038380e+00,-7.159563775273746211e-01,-2.400437932092147619e-01,6.555787083328021847e-01,1.738973867391777048e+03
3.319980043615391008e+00,1.940747510822059496e+01,-1.544545275636114212e+00,-7.862049153605472629e-01,-2.342771459135244150e-01,5.718339356520242278e-01,1.745519252692047075e+03
3.417124579789397210e+00,2.060462156753197860e+01,-1.467871394004511387e+00,-8.470336678223541194e-01,-2.257035505999756830e-01,4.812378547244665072e-01,1.752064637992317103e+03
3.431239574007578508e+00,2.169476210326341814e+01,-1.222545498509754358e+00,-8.977138429405194797e-01,-2.144257288390223060e-01,3.848759059781312608e-01,1.758610023292587130e+03
3.429064670822135508e+00,2.223346282867595392e+01,-9.387860928589681908e-01,-9.376382322018806947e-01,-2.005787998817775974e-01,2.839026075057973775e-01,1.762352992655723710e+03
3.404949734330466882e+00,2.301482530136879490e+01,-2.056932599544172291e-01,-9.492442399465614855e-01,-2.678890197530301998e-01,1.648297485998943268e-01,1.768898377955993737e+03
3.317588735858568949e+00,2.363484697948832647e+01,6.916703450632719630e-01,-9.429629304477609164e-01,-3.301511965158252515e-01,4.265089964034837755e-02,1.775443763256263765e+03
