-7.623140895547067863e+00,-2.007167555348877919e+00,-8.875003094694415839e-01,9.281931586920347810e-01,-1.879710668367891302e-01,-3.211266700046292999e-01,3.120989834406892101e+02
-8.010688364531469929e+00,-2.896912085509938173e+00,-4.727654630575955919e-02,9.168184617454234742e-01,-1.538252723225960739e-01,-3.684829626778726719e-01,3.186443687409593508e+02
-7.889807392118946439e+00,-3.218758042690296417e+00,-1.679865652534994203e-01,9.022001121054439299e-01,-1.191352529070013044e-01,-4.145355825709655662e-01,3.211354544923415233e+02
-7.806167259297645877e+00,-3.872520964494397422e+00,-9.506834151738173810e-01,9.296284520747193358e-01,-9.849169243411487473e-02,-3.550891826047750666e-01,3.276808397926116641e+02
-7.980720145986682112e+00,-4.092038466748970649e+00,-2.003685809812080443e+00,9.526760570268125727e-01,-7.738400049116869739e-02,-2.939694658012270145e-01,3.329351214666612009e+02
-8.062551285909014709e+00,-4.008856197924860254e+00,-3.075197856120846840e+00,9.790070206574446043e-01,-2.622180919326660975e-02,-2.021278560956129011e-01,3.374566577261890643e+02
-8.051699132830268724e+00,-3.871056814029974813e+00,-3.668131824554680342e+00,9.741966605051274319e-01,-1.830402533902021067e-01,-1.320421610321482753e-01,3.398844513119835824e+02
-7.980181213755304981e+00,-3.462956846778776576e+00,-4.688394450652567436e+00,9.685156962850212103e-01,-2.428407455758438138e-01,-5.480618869637869650e-02,3.443790851872035432e+02
-7.518462620310730316e+00,-2.666436433528508232e+00,-5.906804911879561359e+00,8.561668068664367581e-01,-5.010953490859291204e-01,-1.260152766324244555e-01,3.509244704874736840e+02
-6.600792657605856206e+00,-2.020622064853349720e+00,-6.677347190908111685e+00,6.715672054763263121e-01,-7.170631920023080585e-01,-1.865901047868308571e-01,3.574698557877438247e+02
-5.732688545776206901e+00,-1.749741271055894831e+00,-6.734600703613524253e+00,4.302949708891870007e-01,-8.725190831674803915e-01,-2.314188573476611555e-01,3.640152410880139655e+02
-5.698261738497317097e+00,-1.745267751223237962e+00,-6.714200183291187507e+00,1.527106843509045131e-01,-9.543443090718478627e-01,-2.567184968541478818e-01,3.643601103569671409e+02
-5.412226089921108318e+00,-1.727571707188792161e+00,-6.400796099897124947e+00,2.082810361347423866e-01,-9.776621991889742347e-01,-2.817151499456481412e-02,3.680920722421590199e+02
-5.440698063340288826e+00,-1.828642030901912019e+00,-5.318439939100909619e+00,5.949619657581582954e-01,-7.987041744813401234e-01,8.994387676295652334e-02,3.746374575424291606e+02
-5.625256496439684284e+00,-1.899028174775974520e+00,-4.708042980397786792e+00,8.653279634547597077e-01,-4.635997113674599213e-01,1.904752563531875997e-01,3.772939840628650927e+02
-6.370203445092156080e+00,-2.034248656163866187e+00,-2.976330625735891910e+00,8.632145457909531361e-01,-5.046890200755184130e-01,-1.215075920746756105e-02,3.838393693631352335e+02
-7.528469228704975258e+00,-2.184980093257577582e+00,-1.074543436645625238e+00,8.241985629724117857e-01,-5.242027770860461233e-01,-2.142572689286660892e-01,3.903847546634053742e+02
-7.586404991177435164e+00,-2.193672637091183208e+00,-9.919621200600128308e-01,7.499479495420409147e-01,-5.213067797632711109e-01,-4.072042661239070882e-01,3.906701809640483702e+02
-9.023775912797528775e+00,-2.463806683623495530e+00,7.976195832904108274e-01,8.007542291209954755e-01,-4.107274122749727252e-01,-4.359973134677230244e-01,3.972155662643185110e+02
-1.063136441118703246e+01,-2.838220922259483192e+00,2.373202355494145266e+00,8.390381935446874495e-01,-2.937250451391811290e-01,-4.579721690580139670e-01,4.037609515645886518e+02
-1.231348462049068182e+01,-3.243872141852540469e+00,3.722728343635947734e+00,8.642011579958271961e-01,-1.721293779762622378e-01,-4.727851898661012409e-01,4.103063368648587925e+02
-1.397174290678720610e+01,-3.610222669390986905e+00,4.834166548810686415e+00,8.758496251288080403e-01,-4.784193886104954468e-02,-4.802047303477607887e-01,4.168517221651289333e+02
-1.550506526082525127e+01,-3.869298531309908196e+00,5.695514250010453416e+00,8.738014379635408169e-01,7.719365161485847171e-02,-4.801147645760110994e-01,4.233971074653990740e+02
-1.680972520247742352e+01,-3.955747127391539664e+00,6.294798425640465211e+00,8.580886279970205699e-01,2.010220742772476643e-01,-4.725167003991911363e-01,4.299424927656692148e+02
-1.777937219344699216e+01,-3.806894408760354676e+00,6.620077171847469799e+00,8.289569140616499521e-01,3.217068880915728846e-01,-4.575293572924827301e-01,4.364878780659393556e+02
-1.830506055509206931e+01,-3.362801551261124011e+00,6.659441118034641782e+00,7.868618597990530983e-01,4.373608116286578085e-01,-4.353871082676753490e-01,4.430332633662094963e+02
-1.839600809439732743e+01,-3.109785856323523667e+00,6.607214883439654685e+00,7.324617498307834929e-01,5.461752358515584715e-01,-4.064362148945696585e-01,4.456396917800642541e+02
-1.824943208787991011e+01,-2.242107844223841795e+00,6.297257367757302049e+00,5.709923956061853101e-01,7.046277833368457255e-01,-4.212663897065601626e-01,4.521850770803343949e+02
-1.738853948100487301e+01,-9.448172337528710774e-01,5.672959873186020019e+00,3.801727002348975204e-01,8.268635311352889872e-01,-4.144435050177945890e-01,4.587304623806045356e+02
-1.569578043736771455e+01,8.323335890216793098e-01,4.722529951855841901e+00,1.698095341558800153e-01,9.065988148962150772e-01,-3.863176295524576864e-01,4.652758476808746764e+02
-1.305114300184032849e+01,3.136613840012882459e+00,3.434213883653424393e+00,-4.928486846112132419e-02,9.397336330486688594e-01,-3.383337119029659612e-01,4.718212329811448171e+02
-9.388690025340093115e+00,5.908969089076589576e+00,1.854829521925274616e+00,-2.658482826793139298e-01,9.245630362721630746e-01,-2.729576569688215715e-01,4.783666182814149579e+02
-4.758399426915771002e+00,8.882651908986328948e+00,1.482921822458653505e-01,-4.687475263072927167e-01,8.618655463783898574e-01,-1.935498294588714474e-01,4.849120035816850987e+02
3.415760436824428203e-01,1.167775198762700839e+01,-1.510451409265912925e+00,-6.475513321397710076e-01,7.548637107396815038e-01,-1.041923720309598095e-01,4.914573888819552394e+02
5.064762797775692604e+00,1.401147890306579846e+01,-3.050494418646029438e+00,-7.930673428916350520e-01,6.090585640867309802e-01,-9.479192702759523317e-03,4.980027741822253802e+02
9.029256365617470692e+00,1.581967477522256971e+01,-4.466467125670741112e+00,-8.978152663260214883e-01,4.319464584880902125e-01,8.572050224167047927e-02,5.045481594824955209e+02
1.227909723873707115e+01,1.714879157823851585e+01,-5.762018479859448483e+00,-9.564115798063086427e-01,2.326329979998240371e-01,1.765128273511867851e-01,5.110935447827656617e+02
1.485957502845938372e+01,1.804406213605933118e+01,-6.940811722096165148e+00,-9.658459197478562741e-01,2.136425176227711720e-02,2.582309586993750128e-01,5.176389300830358025e+02
1.681721446842622569e+01,1.854947407747662425e+01,-8.006523944287511796e+00,-9.256350989150391451e-01,-1.910003275529296995e-01,3.266749738172628481e-01,5.241843153833059432e+02
1.809738588087140698e+01,1.871845299999436563e+01,-8.867501887372892355e+00,-8.378471574406551881e-01,-3.935460031165033956e-01,3.783274827339904167e-01,5.300117934853070665e+02
1.906216933712450867e+01,1.863102547334692005e+01,-9.739380682491923125e+00,-8.608572798763509670e-01,-3.674098021492205879e-01,3.520408796827587117e-01,5.365571787855772072e+02
1.954584463148691142e+01,1.827281976028480770e+01,-1.050887940868810233e+01,-8.822287111213084065e-01,-3.405742175010527117e-01,3.250841485616815518e-01,5.431025640858473480e+02
1.959960112529954301e+01,1.768272939132136301e+01,-1.117972425296072103e+01,-9.019207701641652752e-01,-3.130903316832290839e-01,2.975086024844950661e-01,5.496479493861174888e+02
1.927579170285701693e+01,1.689827904577499140e+01,-1.175565308616273619e+01,-9.198959726265850678e-01,-2.850104612091718392e-01,2.693667324411710973e-01,5.561933346863876295e+02
1.862791750741354946e+01,1.595560003028152529e+01,-1.224041501663823084e+01,-9.361201021068724648e-01,-2.563880570234589595e-01,2.407121073947828260e-01,5.627387199866577703e+02
1.771061246733865957e+01,1.488940602858343887e+01,-1.263776994294999945e+01,-9.505622753028458716e-01,-2.272776027710702307e-01,2.115992723261264086e-01,5.692841052869279110e+02
1.657962761403428331e+01,1.373296912618655519e+01,-1.295148810612746715e+01,-9.631950007931106006e-01,-1.977345111016566570e-01,1.820836444212128036e-01,5.758294905871980518e+02
1.529181519322926697e+01,1.251809611348599915e+01,-1.318534964155839972e+01,-9.739942313649551098e-01,-1.678150182059257867e-01,1.522214075989433424e-01,5.823748758874681926e+02
1.390511257168514447e+01,1.127510507083215963e+01,-1.334314412975803599e+01,-9.829394097893308091e-01,-1.375760767845893573e-01,1.220694055794354915e-01,5.889202611877383333e+02
1.247852594112279867e+01,1.003280223898541657e+01,-1.342867014582497731e+01,-9.900135079557867979e-01,-1.070752476533006203e-01,9.168503369623744181e-02,5.954656464880084741e+02
1.107211382088781626e+01,8.818459178533005982e+00,-1.344573480796262110e+01,-9.952030592928158281e-01,-7.637059018960813683e-02,6.112612965806792781e-02,6.020110317882786148e+02
9.746970360856199278e+00,7.657790221884403614e+00,-1.339815332550769078e+01,-9.984981844117891692e-01,-4.552055183016075895e-02,3.045086346771938568e-02,6.085564170885487556e+02
9.236665229885558048e+00,7.203997092449738737e+00,-1.336401824732199906e+01,-9.998926099255056599e-01,-1.458385682822066140e-02,-2.823732926156902927e-04,6.112118990049212925e+02
8.069158060175746883e+00,6.136227126714761226e+00,-1.324642835923974182e+01,-9.990948095017861963e-01,-3.927964199673747436e-02,1.626872300115824940e-02,6.177572843051914333e+02
7.049916210105818593e+00,5.145889755666841481e+00,-1.307506131378113068e+01,-9.974133511745734149e-01,-6.394068199217760318e-02,3.280542763206641121e-02,6.243026696054615741e+02
6.158494252198906338e+00,4.222819009208668817e+00,-1.285541674558906955e+01,-9.948497224833073860e-01,-8.854516569342718579e-02,4.931311493282563435e-02,6.308480549057317148e+02
5.374159692401654809e+00,3.357387769116796594e+00,-1.259299998634242357e+01,-9.914061911326719212e-01,-1.130713320233818903e-01,6.577718491650740018e-02,6.373934402060018556e+02
4.675898907214259381e+00,2.540513765284066583e+00,-1.229332141207267171e+01,-9.870858029840675618e-01,-1.374974891893189777e-01,8.218307618536323245e-02,6.439388255062719963e+02
4.042423131450875395e+00,1.763665466850443453e+00,-1.196189579015807070e+01,-9.818923793603387962e-01,-1.618020338618809117e-01,9.851627880543141480e-02,6.504842108065421371e+02
3.452174496277922611e+00,1.018867867234017455e+00,-1.160424162574677354e+01,-9.758305136653551148e-01,-1.859634702757493041e-01,1.147623471355737057e-01,6.570295961068122779e+02
2.883332116913296161e+00,2.987081620781207869e-01,-1.122588050748836075e+01,-9.689055673214425068e-01,-2.099604292351701651e-01,1.309069125996316085e-01,6.635749814070824186e+02
2.313818228959238166e+00,-4.036586807192378279e-01,-1.083233645352699348e+01,-9.611236650282578564e-01,-2.337716870075738362e-01,1.469356963904419888e-01,6.701203667073525594e+02
1.721304372639355096e+00,-1.094504459524200390e+00,-1.042913525832010180e+01,-9.524916893472908930e-01,-2.573761840886336638e-01,1.628345220945118244e-01,6.766657520076227001e+02
1.083217624754612807e+00,-1.779522386688598745e+00,-1.002180383901600536e+01,-9.430172746167709841e-01,-2.807530438222182734e-01,1.785893282262211723e-01,6.832111373078928409e+02
3.767468775671961589e-01,-2.463821846576546903e+00,-9.615869581072766792e+00,-9.327088002023438129e-01,-3.038815908588222703e-01,1.941861806605043872e-01,6.897565226081629817e+02
-1.940639518382799023e-01,-2.968820165829564317e+00,-9.320118549918714024e+00,-9.215753830894621856e-01,-3.267413694361979148e-01,2.096112849530461786e-01,6.945787647614342859e+02
-1.057285123207239774e+00,-3.659179321334411039e+00,-8.927985229064811179e+00,-9.611146178580242116e-01,-2.288653082094176949e-01,1.545230145840885694e-01,7.011241500617044267e+02
-2.052435178367251201e+00,-4.360037789178582202e+00,-8.552373351748721930e+00,-9.870273411329586466e-01,-1.277444417998908344e-01,9.724394810730618843e-02,7.076695353619745674e+02
-3.137864442593462311e+00,-5.052858934160337157e+00,-8.145228620507054984e+00,-9.989461706345499348e-01,-2.481241899929430977e-02,3.858616378873502839e-02,7.142149206622447082e+02
-3.449799186727505074e+00,-5.243928712717519147e+00,-8.015547217677656988e+00,-9.967021134512985547e-01,7.847143250541688264e-02,-2.061871285262455167e-02,7.160708230758001491e+02
-4.410946762223035833e+00,-5.848068002972113710e+00,-7.373981844873910063e+00,-9.110747176995226404e-01,3.502982654565955367e-01,2.173292064743084229e-01,7.226162083760702899e+02
-4.979562824862684423e+00,-6.287460054867874959e+00,-6.277727165973010059e+00,-6.998635813382343418e-01,5.738394764797348779e-01,4.253201414816649706e-01,7.291615936763404306e+02
-5.026664435269180053e+00,-6.539251090157137902e+00,-4.634237825588052750e+00,-3.921823819112035259e-01,7.182818790348980409e-01,5.746843669082980499e-01,7.357069789766105714e+02
-4.967207201286112372e+00,-6.580997739950843695e+00,-4.137760912834777649e+00,-3.044229506676376928e-02,7.637153917441176221e-01,6.448333638115059108e-01,7.373958824033109067e+02
-4.597718626357233163e+00,-6.722748463490316517e+00,-2.094054794711331269e+00,5.368477215953291193e-01,4.884190354767085629e-01,6.879239562642840422e-01,7.439412677035810475e+02
-4.315635108777990503e+00,-6.795657390348569749e+00,-7.997460350143877905e-01,8.896865922759111811e-01,1.801702668220092271e-02,4.562139347654580179e-01,7.479009542327726194e+02
-4.009702444878346483e+00,-6.835711842607613775e+00,1.112610004797232932e+00,9.930952167427699040e-01,-3.341180444830912227e-02,1.124435049542697324e-01,7.544463395330427602e+02
-3.941250312466839212e+00,-6.659932301017393641e+00,2.457287843480249201e+00,9.658953065958311157e-01,-8.044642216473307794e-02,-2.461150744210423291e-01,7.609917248333129010e+02
-3.989633981722637834e+00,-6.457956958204214892e+00,2.944838652608869012e+00,8.116640860818294945e-01,-1.169010042411281480e-01,-5.723054836119473299e-01,7.646008626906512973e+02
-4.250019726287550981e+00,-5.902619278655998336e+00,3.430073815299015116e+00,7.635758223640124465e-01,-2.390716397671655696e-02,-6.452739038666092108e-01,7.711462479909214380e+02
-4.702327150752084961e+00,-5.101141336701123130e+00,3.412667754274501863e+00,7.030529237278939636e-01,6.947598069040242241e-02,-7.077341835353571087e-01,7.776916332911915788e+02
-5.242291448263780573e+00,-4.118804473654365417e+00,3.046934899456939849e+00,6.310809905833627553e-01,1.617277167451938169e-01,-7.586691828197955623e-01,7.842370185914617196e+02
-5.768272050328032030e+00,-3.023511892032607840e+00,2.487231073371444445e+00,5.488320628180596294e-01,2.513457568577650014e-01,-7.972494448616309626e-01,7.907824038917318603e+02
-6.181280398490033079e+00,-1.885731628183322961e+00,1.887935155500197304e+00,4.576455345859749557e-01,3.368707018782831630e-01,-8.228467019373189029e-01,7.973277891920020011e+02
-6.387354194266171348e+00,-8.767758377805486836e-01,1.431490021335575902e+00,3.590063444188341668e-01,4.169098050548849521e-01,-8.350441060898972090e-01,8.032508589282145977e+02
-6.340431005102723283e+00,1.439529892624295815e-01,1.169013908703556703e+00,4.638863130166199222e-01,2.773274272665587903e-01,-8.413661430555676723e-01,8.097962442284847384e+02
-5.962787822987510644e+00,1.009284651656530585e+00,1.166984007614034091e+00,5.546070277274177673e-01,1.292801924481189746e-01,-8.220071025450860214e-01,8.163416295287548792e+02
-5.840895410761802076e+00,1.182113221546606585e+00,1.187227193211484622e+00,6.283994501258615140e-01,-2.271310370831505776e-02,-7.775578730870507105e-01,8.178054252697601214e+02
-5.206916911763360467e+00,1.866458581604243605e+00,1.101564935439795834e+00,7.970163264822578419e-01,3.056490780967365678e-02,-6.031821961326138126e-01,8.243508105700302622e+02
-4.474142951197334739e+00,2.387856121097188034e+00,4.480773959223153247e-01,9.164754555825630478e-01,8.195775406507233019e-02,-3.916039655869854585e-01,8.308961958703004029e+02
-3.686637972930292939e+00,2.680886901661622801e+00,-8.314847486116151432e-01,9.794089649307397005e-01,1.282956786942079930e-01,-1.558726988336087971e-01,8.374415811705705437e+02
-3.648102473259252410e+00,2.687565023870030156e+00,-9.021233161860549021e-01,9.819352821060063352e-01,1.667206942790054602e-01,8.947240834035810608e-02,8.377474125983546855e+02
-2.840318056987711337e+00,2.528462302550707363e+00,-2.191956706166019231e+00,8.842732977971763386e-01,-1.188420571986743418e-01,4.515919621116826210e-01,8.442927978986248263e+02
-2.131264784191143846e+00,1.774069738256448536e+00,-2.897042913775234485e+00,5.901125850983631738e-01,-3.779963068026838124e-01,7.133610088533512972e-01,8.508381831988949671e+02
-1.825960293279252911e+00,1.240076402832854141e+00,-3.027529029053658061e+00,1.648200300497390525e-01,-5.531541384671142536e-01,8.166105906680535265e-01,8.540388386169396426e+02
-1.129305431318575970e+00,4.293835143142545052e-02,-3.033659954843631823e+00,-1.237124730881849072e-01,-7.910956336581195236e-01,5.990500166173807761e-01,8.605842239172097834e+02
-4.644004019408450312e-01,-9.513210733559481769e-01,-2.897042849173456780e+00,-3.890860092341855703e-01,-8.809439176432956042e-01,2.693471577441044484e-01,8.659137601400203721e+02
3.572263376445932170e-01,-2.033239020809558983e+00,-2.897042880993106362e+00,-7.778023831638509744e-01,-5.434330899312935781e-01,3.157561234720783760e-01,8.724403359150708184e+02
1.087639774451072627e+00,-2.930264322005371458e+00,-3.057440003752964319e+00,-9.248970412715588063e-01,-3.704077327349927229e-01,8.579961874223503149e-02,8.789857212153409591e+02
1.746589542997873501e+00,-3.657869272196715205e+00,-2.897042969061652151e+00,-9.753817495200634013e-01,-1.586915457347654601e-01,-1.531190256444352749e-01,8.854289603144549119e+02
2.345897995085632459e+00,-4.354213341705101215e+00,-2.174070901933213840e+00,-9.444573162426482815e-01,7.775758020829023898e-02,3.192994464699870916e-01,8.919743456147250527e+02
2.653099044016028252e+00,-4.947710461678762606e+00,-1.569324019390335279e+00,-6.490430073590619520e-01,2.924311421902763275e-01,7.022999371176227301e-01,8.967412072044597835e+02
2.726276099975670775e+00,-6.023361352410204539e+00,-1.206062102330945240e+00,-6.098584750022854051e-01,2.898884197792354067e-01,7.375875165284930812e-01,9.032865925047299243e+02
2.375677793579368036e+00,-7.298520694195715919e+00,-1.365133184671714073e+00,-5.689742073038127623e-01,2.865377466789730820e-01,7.708193505252050048e-01,9.098319778050000650e+02
1.707514306735664400e+00,-8.505080900529156551e+00,-1.723601643889600243e+00,-5.265041435334799624e-01,2.823884609471024043e-01,8.019028270051169471e-01,9.163773631052702058e+02
1.355557867875676559e+00,-8.968217190194797794e+00,-1.880783709687997129e+00,-4.825666412332730304e-01,2.774521256793875956e-01,8.307513194194799944e-01,9.192062492679181105e+02
5.532229775310650854e-01,-9.825479880441863045e+00,-2.127637170977635162e+00,-3.933210777972976357e-01,4.127857150778060924e-01,8.215257045194658270e-01,9.257516345681882513e+02
-5.265749082257974167e-02,-1.027780677698734024e+01,-2.214831891023569810e+00,-2.937055869693497301e-01,5.372361291937348682e-01,7.906404806674868224e-01,9.322970198684583920e+02
-1.960216552993142292e-01,-1.034603772327817062e+01,-2.228055999862016634e+00,-1.863465023444390301e-01,6.475222733363878991e-01,7.389099313144376069e-01,9.346156455443504001e+02
-3.437871267342640924e-01,-1.023589010620568018e+01,-2.344976143460609119e+00,-2.718977916704896636e-01,7.515470702469982944e-01,6.010379289926650603e-01,9.411610308446205408e+02
-1.261942747106302720e-01,-9.650384237907346119e+00,-2.570043876439592978e+00,-3.473483503582482368e-01,8.276526736930234218e-01,4.408380374154215464e-01,9.477064161448906816e+02
2.830979124731978214e-01,-8.700791840576577840e+00,-2.828027455684246405e+00,-4.098952841269801195e-01,8.730118635409783723e-01,2.642615033774290412e-01,9.542518014451608224e+02
7.063758329471626629e-01,-7.493804434948033943e+00,-3.043691343346657252e+00,-4.572150509159484955e-01,8.859396039527052125e-01,7.786793540409055192e-02,9.607971867454309631e+02
7.481333071967869452e-01,-7.351846351403724000e+00,-3.062643464870109522e+00,-4.875497738838070472e-01,8.659556368527340231e-01,-1.114183691707693880e-01,9.615062579861255472e+02
9.933442659223017390e-01,-5.993714540534300639e+00,-3.155185357977769112e+00,-3.189721282326554719e-01,8.637981698629182414e-01,3.900096193076766360e-01,9.680516432863956879e+02
1.006382820905806108e+00,-4.936761452092607527e+00,-3.133684042008144210e+00,-6.112895995702915392e-02,6.199036150460738304e-01,7.822919904405006841e-01,9.728923574258250255e+02
8.317530521204714589e-01,-3.397429446469712122e+00,-3.060142927290804504e+00,-8.060010013500834569e-02,4.796041150040713519e-01,8.737742939276220699e-01,9.794377427260951663e+02
5.199212054559657625e-01,-1.684787779478804426e+00,-3.011120140763825503e+00,-9.777960416307693303e-02,3.256684671236371176e-01,9.404133126080395089e-01,9.859831280263653071e+02
2.173055750963851507e-01,1.473133666152164067e-01,-3.009813047653659979e+00,-1.121790261653653059e-01,1.624733584877062209e-01,9.803143750193152872e-01,9.925285133266354478e+02
1.543684200563415765e-01,6.122864295776477839e-01,-3.014337503536966167e+00,-1.233889612575879702e-01,-5.341263014041692896e-03,9.923430027707150769e-01,9.941600517329895865e+02
-6.271174076243249407e-02,2.432146205062093891e+00,-3.034410133124872733e+00,2.463582302429158030e-02,-1.532058377853246223e-01,9.878861510778745858e-01,1.000705437033259727e+03
-3.660952687219005686e-01,4.085358711653515051e+00,-3.037208022719824818e+00,1.715816412507986943e-01,-2.943606964324835262e-01,9.401646242975491008e-01,1.007250822333529868e+03
-7.752839681325975896e-01,5.244400206620714044e+00,-3.012931828505118315e+00,3.110130287912681313e-01,-4.226239889932607574e-01,8.512683829722761386e-01,1.012534515054157623e+03
-1.409658639205035202e+00,6.449396294255570261e+00,-2.960752254627326163e+00,3.158497048241823979e-01,-3.204964263567923743e-01,8.930391954739732574e-01,1.019079900354427764e+03
-2.006831845823665361e+00,7.401675202464752523e+00,-2.908972943454029014e+00,3.168335649960370426e-01,-2.144593905902572317e-01,9.239164799252523874e-01,1.025625285654697791e+03
-2.341366237409135298e+00,8.127254432646482840e+00,-2.895155394945468696e+00,3.139526094557877900e-01,-1.058063243129036685e-01,9.435235984060381664e-01,1.032170670954967818e+03
-2.326020728077122346e+00,8.553408108643782981e+00,-2.938854159221487183e+00,3.072419786912646833e-01,4.137421245813821188e-03,9.516213786337158753e-01,1.037160837249594579e+03
-1.861673689635346296e+00,8.940335878440201611e+00,-3.072715012031538961e+00,2.710369403444628511e-01,-1.503761084373295837e-02,9.624504388379900854e-01,1.043706222549864606e+03
-9.412335513578122814e-01,9.068106789534992274e+00,-3.181428841590712597e+00,2.343451941672924921e-01,-3.418563427756795420e-02,9.715511681689611434e-01,1.050251607850134633e+03
2.358274896414604138e-01,8.875529545190216751e+00,-3.098951926603994877e+00,1.972326207252400876e-01,-5.327226860371210571e-02,9.789072268148197864e-01,1.056796993150404660e+03
7.175555825658812559e-01,8.722316016719030785e+00,-3.006581049251504822e+00,1.597658558716600341e-01,-7.226324354898068514e-02,9.845054062419451579e-01,1.059310682662409818e+03
1.908280428817510588e+00,8.080172234052684033e+00,-2.510760198729454995e+00,-2.360379483480512797e-01,-1.444746311872626698e-01,9.609428535990571785e-01,1.065856067962679845e+03
2.874661114088027603e+00,7.109548809802944902e+00,-1.579797676950861041e+00,-5.935019312928836444e-01,-1.932189074594566625e-01,7.812937420406552702e-01,1.072401453262949872e+03
3.278159006206147641e+00,6.521463329399661113e+00,-9.355836998043405295e-01,-8.545630534558297242e-01,-2.105785145774192180e-01,4.747385352659435065e-01,1.075989233689780121e+03
3.713549553988764185e+00,5.551473005304055519e+00,3.288002810846184509e-01,-9.674335833224008141e-01,-1.031881431456269926e-01,2.311330114331194008e-01,1.082534618990050149e+03
3.718984358712495553e+00,4.720048749962391099e+00,1.621245054551428977e+00,-9.994109300981621757e-01,1.283041694005612049e-02,-3.179894969284939588e-02,1.089080004290320176e+03
3.353499701285984180e+00,3.945498237581601231e+00,2.790090431087989042e+00,-9.478212936809169431e-01,1.277761441140817245e-01,-2.920719983846536971e-01,1.095625389590590203e+03
3.252606649272925310e+00,3.803192744355418764e+00,2.987840745548608457e+00,-8.169783840738883418e-01,2.320377236747150074e-01,-5.279231144283341726e-01,1.096841725917567601e+03
2.571540811649273728e+00,3.103279806227236648e+00,3.899087303684433348e+00,-7.060106833688168937e-01,1.362282501164778226e-01,-6.949739411218668339e-01,1.103387111217837628e+03
1.667345089837375838e+00,2.649299143851479688e+00,4.499524467050334486e+00,-5.601665332247264262e-01,3.368920639129953376e-02,-8.276934773373884058e-01,1.109932496518107655e+03
1.370048443021108175e+00,2.574693172655030171e+00,4.625072523418777948e+00,-3.866504828237438685e-01,-7.051408448964052722e-02,-9.195255124353476361e-01,1.111877068987771281e+03
3.441991869230855428e-01,2.562074106466680767e+00,4.899399395395197310e+00,-2.463408426589727973e-01,6.283861489318626203e-02,-9.671429561942782582e-01,1.118422454288041308e+03
-6.555501597914571432e-01,2.954365201735718482e+00,4.953594938365775135e+00,-9.624232981491702421e-02,1.936942545368842417e-01,-9.763288122918395429e-01,1.124967839588311335e+03
-1.502851755504901687e+00,3.695100066823316265e+00,4.880689809839236837e+00,5.768056949185386417e-02,3.168530102288204531e-01,-9.467180793731967414e-01,1.131513224888581362e+03
-2.073482173455527544e+00,4.724641539290456826e+00,4.773729768872374990e+00,2.093114057730640909e-01,4.274209117791413770e-01,-8.794874072931121445e-01,1.138058610188851389e+03
-2.122118955131806040e+00,4.866711027532035772e+00,4.761455046265215429e+00,3.526248079495811205e-01,5.210043080606723276e-01,-7.773083402360517757e-01,1.138860141434578054e+03
-2.278751896030144497e+00,6.122641725136500845e+00,4.720162493178052365e+00,3.667793701955048835e-01,5.277733724694776418e-01,-7.661110630071792382e-01,1.145405526734848081e+03
-2.226265682974341242e+00,6.672479999314085752e+00,4.731835045919221550e+00,3.807976549809766187e-01,5.343463418373881613e-01,-7.546291359842248747e-01,1.148053578703284984e+03
-1.712418940681973423e+00,8.066721656936385543e+00,4.799263216242454000e+00,2.664062239850109592e-01,4.332889920483467550e-01,-8.609798912811368332e-01,1.154598964003555011e+03
-6.808742374407117381e-01,9.407553001268937010e+00,4.785987613620269698e+00,1.427948758803042895e-01,3.172361557469278726e-01,-9.375333833564747366e-01,1.161144349303825038e+03
-5.618034007194631085e-01,9.531188738376821235e+00,4.773921109838059174e+00,1.424156695934997684e-02,1.902042014455063712e-01,-9.816402291680572656e-01,1.161785984944732490e+03
4.296441113672087031e-01,1.070712456911044974e+01,4.497297220054683464e+00,3.774355623665099496e-02,-3.685163587743509606e-01,-9.288536576223688224e-01,1.168331370245002518e+03
7.326652741337109642e-01,1.169490985594359422e+01,4.126979987245847248e+00,4.933714842168313019e-02,-8.109669673085283526e-01,-5.830063667920489801e-01,1.173990410582729510e+03
1.354239652657011628e-01,1.283618178787374831e+01,3.780430774441054798e+00,1.108722280965023926e-01,-8.699967624289532964e-01,-4.804279159225460227e-01,1.180535795882999537e+03
-1.178650140768762178e+00,1.349913549396172918e+01,3.623627949011276606e+00,1.704344899391712909e-01,-9.135462968926008065e-01,-3.693010263602102272e-01,1.187081181183269564e+03
-2.355942979994062103e+00,1.335595076542707282e+01,3.603497498815074973e+00,2.269641417182038934e-01,-9.408406968893424649e-01,-2.516029837825271009e-01,1.192657969127693832e+03
-3.185562098894509031e+00,1.257408460272422701e+01,3.364980024689939953e+00,3.303978507740536474e-01,-8.966119088187882724e-01,-2.948259574100954850e-01,1.199203354427963859e+03
-3.289262213917877986e+00,1.228642589773998495e+01,3.214873661279733508e+00,4.290332067215149037e-01,-8.393616469710906136e-01,-3.337671840044254545e-01,1.201110968549146264e+03
-3.565266886403356317e+00,1.158604168138188939e+01,2.250498805437699534e+00,8.610760730312879696e-01,-4.846825854679359113e-01,-1.537165827020671172e-01,1.207656353849416291e+03
-3.595784085018916443e+00,1.153393286501060899e+01,2.076565140050149250e+00,9.961534467190045206e-01,3.715246264463894360e-02,7.934736989623702996e-02,1.208478945707734283e+03
-3.653164287820418465e+00,1.145181036607907110e+01,1.779248637405913769e+00,9.948433217057739419e-01,1.099992916984697360e-02,1.008155085242288390e-01,1.209865610689777441e+03
-3.850095763315358521e+00,1.147399518108324834e+01,3.411387943429570191e-01,9.992794605460963986e-01,-1.777799603953876192e-02,-3.350376968335306432e-02,1.216410995990047468e+03
-3.846649584926331134e+00,1.166179843344114708e+01,-2.131356687262599414e-01,9.848396555849665557e-01,-4.622010265692782366e-02,-1.671901758257869630e-01,1.218977352460894735e+03
-3.707512981606384983e+00,1.202641410178571135e+01,-8.837103930285664655e-01,8.103369431203731876e-01,-1.813928719329432337e-01,-5.571792033304517888e-01,1.222448549475186155e+03
-3.566680372598824977e+00,1.231535785473902145e+01,-1.257607440246778063e+00,8.025679269106693603e-01,-1.918089443791780313e-01,-5.648823341376443263e-01,1.224607003153273808e+03
-2.933821868664637122e+00,1.331406443354709168e+01,-2.188146149604448087e+00,7.995509101875015734e-01,-4.494458034341271557e-01,-3.983902757267155370e-01,1.231152388453543836e+03
-1.880113973164709185e+00,1.395916072247029049e+01,-2.622679640744725038e+00,7.212916348856723836e-01,-6.647872785028003939e-01,-1.944074375748157391e-01,1.237697773753813863e+03
-1.515325613399910232e+00,1.400556921350278117e+01,-2.641520701666320914e+00,5.751546760720711582e-01,-8.175685560188495904e-01,2.787032114625865448e-02,1.239535596146444504e+03
-1.731181906344888832e-01,1.367525879533174304e+01,-2.299013253869204743e+00,3.164000784098920382e-01,-8.456368259137763133e-01,-4.298689905545002854e-01,1.246080981446714532e+03
9.905294735485542512e-01,1.281344638957601845e+01,-1.524352195226701623e+00,-3.008197540871240805e-02,-6.392374311962679689e-01,-7.684195347028197620e-01,1.252626366746984559e+03
1.463882012963582557e+00,1.230767660048594259e+01,-1.006688405911175144e+00,-3.682232362784013668e-01,-2.555982950727861414e-01,-8.939122774749360678e-01,1.256439075760270043e+03
1.670604280522078655e+00,1.205647427633227231e+01,-6.858435671969337344e-01,-5.079597720280036866e-01,-2.543717655225444796e-01,-8.229640787394483237e-01,1.258643091531374012e+03
1.938101579553465070e+00,1.167603916308606138e+01,1.130246234979687264e-01,-9.629966592081010690e-01,3.278594920753909875e-02,-2.675079735033322748e-01,1.263537512859439857e+03
1.857822789866356850e+00,1.159027343111807440e+01,1.410145613930237518e+00,-9.992382226484969321e-01,1.539453192915072113e-02,-3.583270549428037993e-02,1.270082898159709885e+03
1.736761373339773762e+00,1.164818944393848987e+01,1.925132947158317398e+00,-9.802324493201513000e-01,-2.848041508317589784e-03,1.978237446742645012e-01,1.272415143416737919e+03
1.263492131835064480e+00,1.189124916479905636e+01,3.469762124102920176e+00,-9.421772918137514274e-01,2.575956836339439171e-01,-2.143464825010214236e-01,1.278960528717007946e+03
6.897023234676286085e-01,1.212953686417400512e+01,5.131005529320300518e+00,-6.787866840698680848e-01,4.564320922596824537e-01,-5.752533204426607538e-01,1.285505914017277973e+03
2.483098818615432080e-01,1.210438907243267259e+01,6.805033301893399056e+00,-2.530539080252593997e-01,5.461060489908531324e-01,-7.985799289265973488e-01,1.292051299317548001e+03
-7.069740250131489878e-03,1.169547340227024712e+01,8.366619592095876357e+00,2.332000085598973649e-01,5.051706293977142881e-01,-8.309141900334727771e-01,1.298596684617818028e+03
-2.149440347585264421e-02,1.165105117460809048e+01,8.476045086597988387e+00,6.636800683305787985e-01,3.434166891827921675e-01,-6.645236974634669558e-01,1.299084628259237661e+03
-3.212708626256248756e-01,1.104271273367491979e+01,9.765325924607179076e+00,7.041554438983957942e-01,4.493110275661691411e-01,-5.498024293643039018e-01,1.305630013559507688e+03
-8.677113693338812661e-01,1.057198540407856413e+01,1.064680502971404863e+01,7.263137008925395488e-01,5.435174769991323318e-01,-4.207792296341394955e-01,1.312175398859777715e+03
-1.536558137460794171e+00,1.041052662945551432e+01,1.108231687161983459e+01,7.295784449886945078e-01,6.235854778387095454e-01,-2.808103353431889992e-01,1.318720784160047742e+03
-1.882715826110934021e+00,1.035310604933478729e+01,1.120166613547521095e+01,7.138647396684657531e-01,6.874322378238126863e-01,-1.335367060294955777e-01,1.324381940622837419e+03
-1.649833617246536654e+00,1.010056628555445357e+01,1.124190864472517326e+01,5.231769209019077049e-01,8.339285456689360387e-01,-1.756333970329667094e-01,1.330927325923107446e+03
-8.562834594831245649e-01,9.899065994664594470e+00,1.129014183127316251e+01,3.013102664457295021e-01,9.307266533621990634e-01,-2.072631661795890923e-01,1.337472711223377473e+03
-5.491682860764519614e-01,9.901155119435335550e+00,1.131448117473571457e+01,6.148689018490494096e-02,9.720578789615715865e-01,-2.265410388491902460e-01,1.339529752796983757e+03
-2.608069510589972606e-01,9.923877493561118257e+00,1.133922736343182791e+01,-6.614268785352706015e-02,9.977865974484655398e-01,-6.711988493731490917e-03,1.341451046296087952e+03
6.078609971463545536e-01,1.036415158952747184e+01,1.139190112631894891e+01,-5.278490450995250161e-01,8.493363720716802234e-01,-1.054828598130140745e-03,1.347996431596357979e+03
1.049509702762360330e+00,1.125736046474444407e+01,1.134236984786080527e+01,-8.653827708845966971e-01,5.010859534807852178e-01,4.850472142963786412e-03,1.354541816896628006e+03
1.072959470119073000e+00,1.147967910894206511e+01,1.131558931060551920e+01,-9.993415075638376610e-01,3.495866315014219128e-02,9.614735062872964769e-03,1.355968761765152522e+03
8.500486529791241308e-01,1.239502552422704618e+01,1.119906315754570514e+01,-9.331332848462541296e-01,-3.333671416448779623e-01,-1.346351424525949192e-01,1.362514147065422549e+03
3.069493141116918511e-01,1.292745288992416164e+01,1.131426954466667389e+01,-7.168252271827800781e-01,-6.480688741609165193e-01,-2.572281633450421712e-01,1.369059532365692576e+03
1.152600358056993790e-01,1.299993742890394444e+01,1.145443850245619188e+01,-3.852116947589241946e-01,-8.585250293835587909e-01,-3.384445658337891794e-01,1.371438322353818876e+03
-2.298903928082143555e-01,1.282267293332062863e+01,1.215354969556968001e+01,-2.610876598117226610e-01,-7.034169734620314696e-01,-6.610868288956793792e-01,1.377983707654088903e+03
-4.417357358833478020e-01,1.222543408470320081e+01,1.310349486806333985e+01,-9.948098290094513352e-02,-4.473239163926812645e-01,-8.888210437788317542e-01,1.384529092954358930e+03
-5.970695426168859399e-01,1.185823375537582081e+01,1.358064907389151799e+01,7.640753907031544445e-02,-1.270114507015805694e-01,-9.889529712598309485e-01,1.388136004714354613e+03
-6.183185405790914135e-01,1.181724938796472557e+01,1.363153413709533446e+01,1.150936042068610443e-01,-1.325544462011683799e-01,-9.844697969029505558e-01,1.388555737678094602e+03
-1.078204635044029525e+00,1.130918254339267115e+01,1.411160979066917420e+01,2.360957687136706340e-01,-1.853665915423906643e-02,-9.715519441909592491e-01,1.395101122978364629e+03
-1.644948638149712705e+00,1.101215066754814664e+01,1.396465016144741611e+01,3.505324277643178665e-01,9.599656871411040016e-02,-9.316167000860450242e-01,1.401646508278634656e+03
-1.833000831981651757e+00,1.093772182223352551e+01,1.378681297664987149e+01,4.552213198768682578e-01,2.078602882553461928e-01,-8.657745956622293626e-01,1.403961155374455302e+03
-2.134180614849540802e+00,1.074045779830909986e+01,1.292421593568313298e+01,-4.073421955292255009e-02,3.324466687710244117e-01,-9.422409117522921873e-01,1.410506540674725329e+03
-1.861060984760927850e+00,1.049654845000520531e+01,1.142146587308612737e+01,-5.258000992039313370e-01,3.681563170889868841e-01,-7.668071347238705204e-01,1.417051925974995356e+03
-1.030918932354672135e+00,1.029607149049279258e+01,9.347320915928104768e+00,-8.702977685115311779e-01,3.054424341313859426e-01,-3.863738002954159034e-01,1.423597311275265383e+03
-2.154833220300761409e-01,1.031914339792191804e+01,7.407918377965615697e+00,-9.821285342836377774e-01,1.610711200373582119e-01,9.735315318685777708e-02,1.429009903517570365e+03
6.282941726274813288e-01,1.057184743291358409e+01,5.179009689115044779e+00,-9.738799572541926297e-01,7.544013517169653738e-02,2.141602550967804386e-01,1.435555288817840392e+03
1.268525246583114052e+00,1.097858831245898870e+01,3.268797171523264655e+00,-9.451364323781051846e-01,-1.177843619952862776e-02,3.264603997911064148e-01,1.442100674118110419e+03
1.693386695639591988e+00,1.147574499990237484e+01,1.764244866600941375e+00,-8.965028659600572380e-01,-9.874912172894888263e-02,4.318902896370017674e-01,1.448646059418380446e+03
1.911989382660364223e+00,1.200250567814242508e+01,6.946609681953639370e-01,-8.290027311759703421e-01,-1.836416680304734650e-01,5.282312083408858827e-01,1.455191444718650473e+03
1.965000297318020284e+00,1.225888691494103888e+01,2.918538445247521596e-01,-7.440565304296486993e-01,-2.646695543575102172e-01,6.134557086868566156e-01,1.458405581212226934e+03
2.018772324013884401e+00,1.273482352957783803e+01,-3.862070802719314022e-01,-8.531933709774743857e-01,-3.856198559085047828e-01,3.512212955524281477e-01,1.464950966512496962e+03
2.031098465490267735e+00,1.310021504262143566e+01,-9.293901488248357268e-01,-8.810149941376731464e-01,-4.698179193732837655e-01,5.551308621099745183e-02,1.471496351812766989e+03
2.073618592174831576e+00,1.329682253218694932e+01,-1.481328883767623728e+00,-8.248698080789074183e-01,-5.092390982797735388e-01,-2.454859273018251686e-01,1.478041737113037016e+03
2.128633137025674138e+00,1.332902535506258879e+01,-1.841907569988397997e+00,-6.901087979824256369e-01,-5.001262667817600871e-01,-5.230884860347536636e-01,1.481816523951514682e+03
2.331153584304143767e+00,1.319607213942977886e+01,-2.653666972239206334e+00,-7.379436346376997413e-01,-4.676865890204441878e-01,-4.865248673406286084e-01,1.488361909251784709e+03
2.642507328007722478e+00,1.284864976595217634e+01,-3.721599944900550128e+00,-7.823267950115905256e-01,-4.330593568195170162e-01,-4.476855808161196437e-01,1.494907294552054736e+03
2.843214550899767268e+00,1.256210677539728415e+01,-4.817372098630961830e+00,-8.230507004693655704e-01,-3.964065208497195569e-01,-4.067522767938605011e-01,1.501423043705973669e+03
2.631294727254580579e+00,1.272723578156872648e+01,-5.604735152676080467e+00,-8.271919667546727695e-01,-5.216561931074615854e-01,-2.088690171577724519e-01,1.507968429006243696e+03
1.875527294294958791e+00,1.345326019838028131e+01,-5.859070033496367458e+00,-7.859513986611258440e-01,-6.182864828886476261e-01,4.733064309702134532e-04,1.514513814306513723e+03
1.250170224079033776e+00,1.400584070834824857e+01,-5.791129665935175197e+00,-7.015915277292034125e-01,-6.809960345086790712e-01,2.097897261563161364e-01,1.518374598924670863e+03
1.362771937144384715e-01,1.468559421166678014e+01,-5.348434658369540351e+00,-4.391034683613669332e-01,-8.979658310217968342e-01,2.904325033010413115e-02,1.524919984224940890e+03
-1.431589102335672770e-01,1.479277732745103258e+01,-5.171610508091835534e+00,-1.113446901349770951e-01,-9.814570831986377808e-01,-1.560203634689605323e-01,1.526550447678494493e+03
-1.197959877759814384e+00,1.493489863819635133e+01,-4.326329786568471114e+00,1.608244088156939311e-01,-9.834548462394633317e-01,-8.336710944256275901e-02,1.533095832978764520e+03
-2.170699789877684083e+00,1.458818186676911033e+01,-3.653832563267165323e+00,4.202306384056938016e-01,-9.074069743874401128e-01,-4.097972407193227994e-03,1.539641218279034547e+03
-2.306500940145748579e+00,1.450743839676531266e+01,-3.600559837114339690e+00,6.462879665682477182e-01,-7.593485104725429258e-01,7.549638343382841787e-02,1.540574001202621048e+03
-3.189132452323787614e+00,1.379431635381639154e+01,-3.659136586792945067e+00,7.838113963083590541e-01,-6.071801554403700729e-01,1.302687754461692438e-01,1.547119386502891075e+03
-3.822269171046011493e+00,1.286246106734134642e+01,-4.455692827244681631e+00,8.860099900876635681e-01,-4.276474432369417045e-01,1.791702033196004851e-01,1.553664771803161102e+03
-4.080585372125232091e+00,1.187172396022169707e+01,-5.778307485531991361e+00,9.482778961298183873e-01,-2.288415262054251664e-01,2.199967899659391324e-01,1.560210157103431129e+03
-4.090033661685249733e+00,1.171696367845831688e+01,-6.022623493339813727e+00,9.678088276788752164e-01,-1.972214441984919062e-02,2.509085691756841596e-01,1.561251238058522858e+03
-3.943539783162437473e+00,1.082504747321558014e+01,-7.401356406625709816e+00,9.089609042704664965e-01,4.681883515571654691e-02,4.142415613881808012e-01,1.567796623358792885e+03
-3.402812780839040929e+00,1.007614992734244375e+01,-7.977983591518758466e+00,8.186915823222752353e-01,1.117413386418285859e-01,5.632547969366167306e-01,1.574342008659062913e+03
-3.319187692722115113e+00,9.998073731218141802e+00,-7.969169635952503050e+00,7.001213083500779089e-01,1.728011191870691687e-01,6.927971758029000116e-01,1.575088175139991336e+03
-2.489612455166217320e+00,9.340532223862725303e+00,-7.419847192849759132e+00,7.075481899177997747e-01,3.923208084896620540e-01,5.877567032111951084e-01,1.581633560440261363e+03
-1.583412589929639180e+00,8.754753571824091196e+00,-6.376460391406532757e+00,6.730332646230697824e-01,5.885846248432921035e-01,4.478753890407170535e-01,1.588178945740531390e+03
-1.487382367370715386e+00,8.696227748777985767e+00,-6.259625565613982090e+00,5.986224667538966315e-01,7.499585655055543976e-01,2.814450076325764050e-01,1.588887797873073396e+03
-7.700140772162841207e-01,8.279569815101149644e+00,-5.032719304165989449e+00,2.878810056659276140e-01,9.108027540629856089e-01,2.959068599532574395e-01,1.595433183173343423e+03
-3.913361705231035992e-01,8.127488998962638433e+00,-4.011429293351955749e+00,-5.816631197855700458e-02,9.599456386810305553e-01,2.740785488268436820e-01,1.600887889330697590e+03
-2.838494965663805325e-01,8.109852933082700943e+00,-3.705161117218910505e+00,-1.725892154987731728e-02,9.575457874835665573e-01,2.877606548073979864e-01,1.602857601602921704e+03
1.377972697853718509e-01,8.210878041978288522e+00,-3.443813985883618756e+00,-4.931339088201833892e-02,9.527425839144392228e-01,2.997461563784027394e-01,1.609402986903191731e+03
6.322277405604480593e-01,8.567201706820778639e+00,-4.389578595333652800e+00,-8.130896278607481487e-02,9.468016027695635994e-01,3.113736943795885059e-01,1.615948372203461759e+03
8.836191568004363450e-01,9.087218056574602798e+00,-5.886186239328138115e+00,-1.132074356815724048e-01,9.397299376752544786e-01,3.226293860314882744e-01,1.622493757503731786e+03
8.725107547495223326e-01,9.263678081875434955e+00,-6.348111123386827259e+00,-1.449707238343007631e-01,9.315360313990609376e-01,3.334997922392510250e-01,1.624493894945130023e+03
5.252272239689903532e-01,9.892739549829524748e+00,-7.496767768066075810e+00,-1.745043889459901298e-01,5.468025743438253983e-01,8.188731055112414836e-01,1.631039280245400050e+03
6.119799671255277823e-02,1.049601153244721807e+01,-7.971154755255852820e+00,-1.369445943075944250e-01,-4.816555168791832736e-02,9.894060125754313706e-01,1.636281754133308368e+03
-9.437636372005084318e-02,1.074845149441200043e+01,-8.075199623506826185e+00,-1.972478161858363110e-01,-4.448182305252904728e-02,9.793429768968664462e-01,1.638253231754998524e+03
-4.396738201934563550e-01,1.154629450700142534e+01,-8.244161140087641115e+00,-4.186095936754349184e-02,9.874194629193855377e-02,9.942312045600939507e-01,1.644798617055268551e+03
-6.136881791238826267e-01,1.197384328094326378e+01,-8.279710876283569831e+00,1.154046039326009770e-01,2.375341827449620469e-01,9.644984652222745591e-01,1.649936422859968388e+03
-9.845053904889422558e-01,1.194651236862759980e+01,-8.401057942176482385e+00,-7.467080047358407198e-03,5.950384243706801496e-02,9.981991461871362326e-01,1.656481808160238415e+03
-1.284159073686319763e+00,1.167734255845039826e+01,-8.486520795031246678e+00,-1.299808770995339036e-01,-1.213783969746720370e-01,9.840580553675630782e-01,1.660148686695825063e+03
-1.965582309989815535e+00,1.096245006278306633e+01,-8.445304962472983235e+00,1.679766814369037797e-01,7.280549623432452933e-02,9.830977541481391579e-01,1.666694071996095090e+03
-2.631948414423236127e+00,1.029893342775614684e+01,-7.972500593261345969e+00,4.446873253432294670e-01,2.577804189477032604e-01,8.577881080345018949e-01,1.671978387122397407e+03
-3.430809686130340541e+00,9.921313445530937969e+00,-6.594073851180892731e+00,6.393518952308675507e-01,3.994326681256240574e-01,6.570241226149744485e-01,1.678523772422667435e+03
-3.526747051802759270e+00,9.925441884032975892e+00,-6.358574775508341048e+00,7.711898977959287249e-01,5.018342589030657663e-01,3.916969723235779743e-01,1.679380621676957617e+03
-4.075886184792786082e+00,1.039212017973312285e+01,-4.743857193923855853e+00,8.974167960266808963e-01,3.544848428600681500e-01,2.626434663019251436e-01,1.685926006977227644e+03
-4.164126533873075076e+00,1.147264451758470472e+01,-3.520218978063122783e+00,9.749139560341436583e-01,1.878869333205642478e-01,1.193284484800282014e-01,1.692471392277497671e+03
-4.135987704574303869e+00,1.165317620591773817e+01,-3.376602159349593624e+00,9.994733108936658672e-01,1.108673115024217184e-02,-3.046613205946179306e-02,1.693401776851197610e+03
-3.598265527730374114e+00,1.286374118026160396e+01,-2.630074818915675738e+00,9.363885950956031268e-01,-9.539377194208682742e-02,3.377490595837217002e-01,1.699947162151467637e+03
-2.407472227948589616e+00,1.375327738238292774e+01,-2.469470746181889442e+00,7.320023791867562579e-01,-1.874793019885899470e-01,6.549977314395940553e-01,1.706492547451737664e+03
-8.231413677787252636e-01,1.430785736501972671e+01,-2.619215240085944085e+00,4.171566700111668524e-01,-2.512741098590908773e-01,8.734069122579678490e-01,1.713037932752007691e+03
-6.848839973137410553e-01,1.434794621808977411e+01,-2.630112610434960363e+00,3.936184179207281170e-02,-2.771515361692578616e-01,9.600185786796324727e-01,1.713584268264123693e+03
8.004733906721364090e-01,1.500635879780761783e+01,-2.483200479168405472e+00,-1.850664930055553326e-01,-2.956968585955300211e-01,9.371828855582937656e-01,1.720129653564393720e+03
1.937296799073085163e+00,1.596585135394623833e+01,-1.990267673776721757e+00,-4.000131781166508804e-01,-2.990925736628943232e-01,8.663319743105328818e-01,1.726675038864663748e+03
2.704629369329991206e+00,1.711664453530921648e+01,-1.558011654587288630e+00,-5.944657717831479671e-01,-2.871647097560482975e-01,7.510957832719515892e-01,1.733220424164933775e+03
3.096654940080387775e+00,1.820556308274240465e+01,-1.418221372859934215e+00,-7.584617978840817454e-01,-2.605243653958811967e-01,5.973782354464522992e-01,1.738973867391777048e+03
3.299423815755337941e+00,1.945604008823637088e+01,-1.469605172862950671e+00,-7.956951436969776914e-01,-2.514263416433143439e-01,5.510463075087054241e-01,1.745519252692047075e+03
3.337215653972271934e+00,2.065397179441075792e+01,-1.540117048831281865e+00,-8.300514472361218976e-01,-2.414192250687381414e-01,5.027219437249469403e-01,1.752064637992317103e+03
3.328063967906740306e+00,2.172385873216918384e+01,-1.391191491749431020e+00,-8.614064939235689389e-01,-2.305391966645592150e-01,4.525798614847574841e-01,1.758610023292587130e+03
3.331675536728623488e+00,2.226889479102769798e+01,-1.168651083714382866e+00,-8.896469179816498540e-01,-2.188255928078026713e-01,4.008013488645684186e-01,1.762352992655723710e+03
3.346188695293246695e+00,2.309269974307432349e+01,-5.453247237162877070e-01,-9.176933227150739780e-01,-2.831487921412895736e-01,2.786821252836692575e-01,1.768898377955993737e+03
