3.948542983399125461e+00,1.232895843586498685e+01,-1.021697210977491821e+01,-5.319560043323964260e-01,-3.048874043222163932e-01,7.899775187567444901e-01,5.496479493861174888e+02
4.639178967546295773e+00,1.196695229282525297e+01,-1.082158151002773927e+01,-6.136216399290660428e-01,-2.843033744411082586e-01,7.366397181070413192e-01,5.561933346863876295e+02
5.339697140901095374e+00,1.154491002738637029e+01,-1.134728042913022250e+01,-6.891891561786510634e-01,-2.608939596042584852e-01,6.759812488881478121e-01,5.627387199866577703e+02
6.032725386980814619e+00,1.106858848540550611e+01,-1.180023008713022570e+01,-7.579075694534901375e-01,-2.348917999221067920e-01,6.086049280896440594e-01,5.692841052869279110e+02
6.701101725419407629e+00,1.054420403306006904e+01,-1.218660030640382708e+01,-8.190939611796781428e-01,-2.065553019619296160e-01,5.351803340845653345e-01,5.758294905871980518e+02
7.327879280847153787e+00,9.978427881725206561e+00,-1.251256877710372883e+01,-8.721402646247440327e-01,-1.761660708135848463e-01,4.564371526450972660e-01,5.823748758874681926e+02
7.896331210223488384e+00,9.378381325178569483e+00,-1.278432032190785250e+01,-9.165193078885141009e-01,-1.440261116067946823e-01,3.731579256069358919e-01,5.889202611877383333e+02
8.389955588097837591e+00,8.751630889859706386e+00,-1.300804616013380510e+01,-9.517900530363753164e-01,-1.104548282832270023e-01,2.861702742251979736e-01,5.954656464880084741e+02
8.792480249276934501e+00,8.106183398921286809e+00,-1.318994317128470151e+01,-9.776019792966619271e-01,-7.578584944248493993e-02,1.963386744877896051e-01,6.020110317882786148e+02
9.087867588381511652e+00,7.450480950817816250e+00,-1.333621315809192431e+01,-9.936985667450268789e-01,-4.036371280123490779e-02,1.045558661088892421e-01,6.085564170885487556e+02
9.179730079687463018e+00,7.183153309472166903e+00,-1.338797819768823061e+01,-9.999198458343945273e-01,-4.540441211861627295e-03,1.173398057101074192e-02,6.112118990049212925e+02
9.329932236768168963e+00,6.523476693283428496e+00,-1.349775951981829358e+01,-9.989609458590072988e-01,-2.927701471807128003e-02,3.489820991345110590e-02,6.177572843051914333e+02
9.350152006652331593e+00,5.861205769774305629e+00,-1.357284829530515324e+01,-9.968538392525320146e-01,-5.397993299287669189e-02,5.802232328353785357e-02,6.243026696054615741e+02
9.239534793389909240e+00,5.191932641631171741e+00,-1.360545834352631545e+01,-9.936009484302775752e-01,-7.862080300371487862e-02,8.107974229911393826e-02,6.308480549057317148e+02
8.996982682280069810e+00,4.511274507980163939e+00,-1.358780848230056648e+01,-9.892060126750483739e-01,-1.031713030693004046e-01,1.040439652667032727e-01,6.373934402060018556e+02
8.621154729290440244e+00,3.814879190543996490e+00,-1.351212345215044586e+01,-9.836740838340030102e-01,-1.276032154045003142e-01,1.268885976349631295e-01,6.439388255062719963e+02
8.110467301349105540e+00,3.098430654243155669e+00,-1.337063484003848046e+01,-9.770115205093290456e-01,-1.518884585455483605e-01,1.495873823247785284e-01,6.504842108065421371e+02
7.463094467474037152e+00,2.357654521351977728e+00,-1.315558200249474652e+01,-9.692259807481343747e-01,-1.759991196184114981e-01,1.721142299012054788e-01,6.570295961068122779e+02
6.676968440698932028e+00,1.588323578320645302e+00,-1.285921298805351931e+01,-9.603264132399716990e-01,-1.999074864133104923e-01,1.944432485526684795e-01,6.635749814070824186e+02
5.749780070748911065e+00,7.862632743751873932e-01,-1.247378545891699630e+01,-9.503230470321166745e-01,-2.235860792286183396e-01,2.165487738430387499e-01,6.701203667073525594e+02
4.678979387414726965e+00,-5.264278899173807647e-02,-1.199156761176399044e+01,-9.392273797744109531e-01,-2.470076824476271915e-01,2.384053982024824103e-01,6.766657520076227001e+02
3.461776194569162968e+00,-9.324473785256793823e-01,-1.140483909762144599e+01,-9.270521645071581052e-01,-2.701453758119774506e-01,2.599880001232641735e-01,6.832111373078928409e+02
2.095140714763583656e+00,-1.857134160596565442e+00,-1.070589194071703076e+01,-9.138113950072237479e-01,-2.929725653558928888e-01,2.812717730270320460e-01,6.897565226081629817e+02
1.000826529633876971e+00,-2.564011749429354836e+00,-1.012360735414576673e+01,-8.995202897091346683e-01,-3.154630139657493837e-01,3.022322537704810186e-01,6.945787647614342859e+02
-6.060369456776582009e-01,-3.562036755351115414e+00,-9.235171702426058005e+00,-9.928951631337969985e-01,-1.148573901942743641e-01,-3.106404583679601289e-02,7.011241500617044267e+02
-2.371626721301475893e+00,-4.615869870491741800e+00,-8.213491422613703463e+00,-9.273588899218773163e-01,1.041310101806927624e-01,-3.593886781769324301e-01,7.076695353619745674e+02
-4.061700521532495500e+00,-5.604975944304439572e+00,-7.090466433563120674e+00,-7.134003032961534485e-01,3.064534798099248225e-01,-6.301938368226012166e-01,7.142149206622447082e+02
-4.486448547251910668e+00,-5.852838969191599183e+00,-6.763081026393148676e+00,-3.852630533125135925e-01,4.597285815580762769e-01,-8.001374950911082085e-01,7.160708230758001491e+02
-5.485554342869718880e+00,-6.466790349059392540e+00,-5.623711608032401443e+00,-3.083682664171061849e-01,7.319204986467819918e-01,-6.076178041560803544e-01,7.226162083760702899e+02
-5.691625678144255573e+00,-6.698622652894914431e+00,-4.488172315868986573e+00,-1.953742751743665629e-01,9.184298880939097964e-01,-3.439671979360403586e-01,7.291615936763404306e+02
-5.376977443637057874e+00,-6.726412216794103394e+00,-3.307919770300921769e+00,-5.950875991298416878e-02,9.974230313521995628e-01,-4.005001900072432258e-02,7.357069789766105714e+02
-5.244585896887020482e+00,-6.718685531418469914e+00,-2.993621591667343207e+00,8.332316049572689731e-02,9.596526088318982906e-01,2.685556204722524543e-01,7.373958824033109067e+02
-4.710429561812276233e+00,-6.734475804278173605e+00,-1.707194816373816204e+00,6.230927383283855203e-01,6.249409397280073497e-01,4.703214446467998688e-01,7.439412677035810475e+02
-4.423994846895242361e+00,-6.783043289415619626e+00,-8.801964598155834762e-01,8.861509155110802727e-01,1.269716189456251976e-02,4.632206137672876811e-01,7.479009542327726194e+02
-4.155326224315354366e+00,-6.857080209447477870e+00,4.659350517019997806e-01,9.775462553405627197e-01,1.036702602682551891e-03,2.107136538460990804e-01,7.544463395330427602e+02
-4.035577368721854796e+00,-6.807609419771388559e+00,1.655897174857021481e+00,9.983148732881393927e-01,-1.069865617830072051e-02,-5.701712486085745019e-02,7.609917248333129010e+02
-4.010841847035024443e+00,-6.700791338297030109e+00,2.215921220316805496e+00,9.469562485754022818e-01,-2.166105080149508325e-02,-3.206285423375128119e-01,7.646008626906512973e+02
-4.222941184747647902e+00,-6.298617294938680722e+00,2.985485487223244583e+00,8.886583216173079558e-01,4.926553346041253473e-02,-4.559136920877329135e-01,7.711462479909214380e+02
-4.745437072562235237e+00,-5.594801085740350288e+00,3.391378533332284118e+00,8.066053742476945176e-01,1.188751689286571822e-01,-5.790116272122685093e-01,7.776916332911915788e+02
-5.399146541606392624e+00,-4.638541459082314411e+00,3.471986507146921586e+00,7.029907988081910419e-01,1.853071021641259086e-01,-6.866317897379514701e-01,7.842370185914617196e+02
-6.006821644016490325e+00,-3.483821600550551345e+00,3.265734187953655887e+00,5.805843494959042062e-01,2.467855253767288204e-01,-7.758973627904395265e-01,7.907824038917318603e+02
-6.393201612113144527e+00,-2.189365805497785367e+00,2.811080420807193114e+00,4.426581044172078760e-01,3.016670440497574157e-01,-8.444221675963922147e-01,7.973277891920020011e+02
-6.427437519485123651e+00,-9.512559972771508221e-01,2.224638041163564228e+00,2.928990018934283235e-01,3.484846051789215471e-01,-8.903744463107206020e-01,8.032508589282145977e+02
-5.953691183291306643e+00,4.266579993023431050e-01,1.419856109401336886e+00,3.689637158129254191e-01,2.040725503779282357e-02,-9.292186612178094940e-01,8.097962442284847384e+02
-5.020619142141919511e+00,1.670168870955741180e+00,4.100371890506371297e-01,4.026235457112297689e-01,-3.100155518768884511e-01,-8.612680407591464249e-01,8.163416295287548792e+02
-4.781391348203522185e+00,1.917419354068609305e+00,1.535441273470340984e-01,3.900099417161020376e-01,-6.048084852951913781e-01,-6.943320109836991216e-01,8.178054252697601214e+02
-3.855743811881562788e+00,2.733438250045668205e+00,-1.150975608678632245e+00,6.976254904396872458e-01,-6.777753573593280345e-01,-2.322439235864348639e-01,8.243508105700302622e+02
-3.141606442103058949e+00,2.967379969432740960e+00,-2.621380413200072645e+00,7.865511051367500839e-01,-5.382747169359495265e-01,3.026477954871227283e-01,8.308961958703004029e+02
-2.503815996622581697e+00,2.555902105648300005e+00,-3.998884556558722547e+00,6.289104475147274664e-01,-2.300370421847255931e-01,7.426658792677000021e-01,8.374415811705705437e+02
-2.474285580427362685e+00,2.520786248495960002e+00,-4.058034869294835367e+00,2.741210024573267345e-01,1.503116048553139461e-01,9.498747798828172106e-01,8.377474125983546855e+02
-1.748177886765444722e+00,1.568013222712931531e+00,-4.826212722991055415e+00,-3.416775323571390882e-02,9.560531590546123004e-02,9.948317386420891806e-01,8.442927978986248263e+02
-7.096197176865075562e-01,4.968206025235681333e-01,-4.011716051558993357e+00,-3.390378034373125460e-01,3.133313876811514437e-02,9.402497552541112524e-01,8.508381831988949671e+02
-7.907281231726411008e-02,3.379761821451737758e-02,-2.897043090227986450e+00,-6.099851387027368510e-01,-3.607412755957108835e-02,7.915900377608792171e-01,8.540388386169396426e+02
9.337339348326164634e-01,-7.702696756326475880e-01,-5.647172666084463444e-01,-9.560118433405275784e-01,-2.720400245443257981e-01,1.096976774538598876e-01,8.605842239172097834e+02
1.424822154924230588e+00,-1.346273741899703946e+00,5.636137440408556243e-02,-6.898155248245894100e-01,-3.337934453275916979e-01,-6.424441435391725630e-01,8.659137601400203721e+02
1.877206506129618147e+00,-2.097073527235381540e+00,-1.211055255779936557e+00,-8.888402204504216586e-01,-2.602747477979686086e-01,-3.771181753306711015e-01,8.724403359150708184e+02
2.051595885072911241e+00,-2.886852226165272928e+00,-2.897043154733053960e+00,-9.644756737547112158e-01,-2.167039509006259412e-01,-1.510763793514240116e-01,8.789857212153409591e+02
2.088810864268157097e+00,-3.601151988124556169e+00,-3.462071825087024823e+00,-9.834827598212845245e-01,-1.604095622941827670e-01,8.383575285547928413e-02,8.854289603144549119e+02
2.348256171329465403e+00,-4.282872723084932609e+00,-3.019171661525506867e+00,-8.389179503617223421e-01,1.931679475354374995e-02,5.439131677038401280e-01,8.919743456147250527e+02
2.584689299066706525e+00,-4.862154665203532566e+00,-2.511314576137579024e+00,-4.721470302494871762e-01,1.939266607305966950e-01,8.599230384659228843e-01,8.967412072044597835e+02
2.644461646721744774e+00,-5.935638306857737412e+00,-2.010202024353255457e+00,-4.729948851310709634e-01,1.993711249078156389e-01,8.582103431612315703e-01,9.032865925047299243e+02
2.320358605261448215e+00,-7.215258822936817751e+00,-1.806940850201837589e+00,-4.738269918156498006e-01,2.048089503714496107e-01,8.564690745092760071e-01,9.098319778050000650e+02
1.667063678512351155e+00,-8.397795928057281145e+00,-1.819151344658685110e+00,-4.746433227876373229e-01,2.102399574236570312e-01,8.546992900146080929e-01,9.163773631052702058e+02
1.311624358009783942e+00,-8.839829998671985933e+00,-1.866663001146066758e+00,-4.754438510607637003e-01,2.156639665947807927e-01,8.529010481389376341e-01,9.192062492679181105e+02
4.915657414717442553e-01,-9.710483748152835659e+00,-2.011412339354988088e+00,-3.810843086071888930e-01,3.919780226135490264e-01,8.373326576219249917e-01,9.257516345681882513e+02
-1.175457195335821714e-01,-1.035630755830328198e+01,-2.188945707854424771e+00,-2.713927023946334227e-01,5.525216507196525351e-01,7.880760284210582833e-01,9.322970198684583920e+02
-2.544133321512703771e-01,-1.053950291533299755e+01,-2.255922445697956746e+00,-1.507821941569013335e-01,6.908357987374291742e-01,7.071128828600697913e-01,9.346156455443504001e+02
-3.711466863578590236e-01,-1.081518210707817751e+01,-2.469626492723777211e+00,-2.232661096056361427e-01,7.874298272981214986e-01,5.745472229353238980e-01,9.411610308446205408e+02
-1.165967528192922709e-01,-1.058693863529066981e+01,-2.705209820420413802e+00,-2.885702099448692048e-01,8.587016404732599195e-01,4.235052851865725443e-01,9.477064161448906816e+02
3.104294861626976099e-01,-9.721425318159084838e+00,-2.919869117386493240e+00,-3.445944555332213777e-01,9.023592987638008323e-01,2.588442720061029934e-01,9.542518014451608224e+02
7.161049918854438534e-01,-8.079860416712985938e+00,-3.070803548409605011e+00,-3.895372260276537268e-01,9.169988679550751254e-01,8.585933675388020270e-02,9.607971867454309631e+02
7.538693428722973433e-01,-7.855569716472510677e+00,-3.082473488336750389e+00,-4.219532536022224112e-01,9.021495634112757234e-01,-8.988668984430722708e-02,9.615062579861255472e+02
9.392501506136106126e-01,-5.275591487768982013e+00,-3.123277311345791230e+00,-3.706214045169320404e-01,5.713616425558311063e-01,7.322456199456419679e-01,9.680516432863956879e+02
8.987035550850217547e-01,-2.824621418884286417e+00,-3.075111866131745142e+00,-2.725509106660961231e-02,-2.096358581721569359e-01,9.773985711977212221e-01,9.728923574258250255e+02
7.033214552246902507e-01,5.600970043691090305e-01,-2.897043359655216310e+00,-4.360533461158810908e-02,-3.890223278407687890e-01,9.201946550780835121e-01,9.794377427260951663e+02
4.396217087888151798e-01,2.721176009431090392e+00,-2.697940895901877134e+00,-5.839802675015669936e-02,-5.545131883968018593e-01,8.301221562911079710e-01,9.859831280263653071e+02
1.990718031885353179e-01,3.121898278254643166e+00,-2.672363701497820099e+00,-7.110478865538581716e-02,-7.001972849188783377e-01,7.103983890903532439e-01,9.925285133266354478e+02
1.477044873222371768e-01,3.053760525586914465e+00,-2.696896364712433769e+00,-8.127174779070615862e-02,-8.208709309032016233e-01,5.652997592504118707e-01,9.941600517329895865e+02
-4.882591812828714073e-02,3.226589694691610166e+00,-2.811415486491370519e+00,7.880191360763294517e-02,-6.812752700313861043e-01,7.277721242636825405e-01,1.000705437033259727e+03
-3.867521535405353816e-01,4.022096286926378106e+00,-2.922164373872774057e+00,2.332405984991051673e-01,-4.929630393274267441e-01,8.382029975301846791e-01,1.007250822333529868e+03
-8.644839965389932157e-01,4.858188151442855762e+00,-2.983060763019807382e+00,3.710007669454308821e-01,-2.693999799820709362e-01,8.886957194174286423e-01,1.012534515054157623e+03
-1.582742625512037593e+00,5.948175906156623505e+00,-3.022682637864994692e+00,3.306877969648674420e-01,-1.872742634849449694e-01,9.249713137021756681e-01,1.019079900354427764e+03
-2.185642400087066672e+00,7.001876962604213439e+00,-3.038290772876976131e+00,2.871718933176831134e-01,-1.033346848472555812e-01,9.522879011061859966e-01,1.025625285654697791e+03
-2.361796680905690504e+00,7.893700200375529441e+00,-3.052466905225672988e+00,2.408745289220618202e-01,-1.839423840087925366e-02,9.703809114504923228e-01,1.032170670954967818e+03
-2.085427825549979630e+00,8.409540096481039839e+00,-3.073614111223415879e+00,1.922441143792405216e-01,6.672438847274192453e-02,9.790751025669053309e-01,1.037160837249594579e+03
-1.125167554424465033e+00,8.785663756636182598e+00,-3.068768103181697349e+00,4.451117422099381583e-03,1.311722756224152076e-01,9.913485873603310461e-01,1.043706222549864606e+03
2.777809963656680536e-01,8.755205781178148072e+00,-2.914496988435991476e+00,-1.835179827016820975e-01,1.904296069169088002e-01,9.643939624625526008e-01,1.050251607850134633e+03
1.623307589613141699e+00,8.299442296127329755e+00,-2.530627189645684449e+00,-3.642252038980287043e-01,2.421515564637976292e-01,8.992778350137885512e-01,1.056796993150404660e+03
2.066621836816550317e+00,8.028898731025154945e+00,-2.329537884133089154e+00,-5.305199105981296404e-01,2.842914696463017532e-01,7.985768496171404829e-01,1.059310682662409818e+03
2.961731888317724604e+00,7.200322672530504065e+00,-1.676279039725374398e+00,-7.466183953606559953e-01,2.409407775713623412e-01,6.200858919634024691e-01,1.065856067962679845e+03
3.481370201490546545e+00,6.332428977604744880e+00,-8.193480881321928422e-01,-9.026610949379767490e-01,1.782095424443709830e-01,3.917171258278600576e-01,1.072401453262949872e+03
3.659918926521606330e+00,5.903844718156030069e+00,-2.874127368839078378e-01,-9.860964629478139454e-01,1.011436568720725376e-01,1.318397756207681792e-01,1.075989233689780121e+03
3.819178570365971748e+00,5.218266020444143116e+00,7.386859388989341912e-01,-9.892259146520097080e-01,1.418191607029459789e-01,-3.629621795205461438e-02,1.082534618990050149e+03
3.715563753755417586e+00,4.602973077063773566e+00,1.787668512789822861e+00,-9.627438248658344300e-01,1.782494338022096725e-01,-2.033456835814662078e-01,1.089080004290320176e+03
3.332317275440534132e+00,3.941772315690853290e+00,2.767166687863448438e+00,-9.074429128935416200e-01,2.093439797614792541e-01,-3.643081909264554441e-01,1.095625389590590203e+03
3.233100036154954449e+00,3.809007921671409669e+00,2.937902163601502359e+00,-8.249785373326546933e-01,2.341720174042019598e-01,-5.143655112895746395e-01,1.096841725917567601e+03
2.558576030260461653e+00,3.118859052211162997e+00,3.754596884088568398e+00,-7.158858696987330239e-01,1.393642084083298038e-01,-6.841659440366322231e-01,1.103387111217837628e+03
1.640507185408374369e+00,2.637628485140449452e+00,4.346310083250654266e+00,-5.711979376305048595e-01,3.762694605389388380e-02,-8.199482477427465499e-01,1.109932496518107655e+03
1.333382495057140016e+00,2.556208496962175225e+00,4.481197626344880725e+00,-3.981088566600908818e-01,-6.598122794255407986e-02,-9.149611007068256807e-01,1.111877068987771281e+03
2.621398893795248708e-01,2.548034920627581634e+00,4.809828809250037196e+00,-2.455120926734003228e-01,3.142138656292833843e-02,-9.688831244362126061e-01,1.118422454288041308e+03
-7.862240786666975234e-01,2.998223863149505508e+00,4.943541443986168460e+00,-8.415532388034883959e-02,1.277028421663304325e-01,-9.882347218981448744e-01,1.124967839588311335e+03
-1.650048895452357334e+00,3.854517183684645243e+00,4.946565574739436144e+00,8.020414384718363432e-02,2.194277624009693117e-01,-9.723254354368069396e-01,1.131513224888581362e+03
-2.169497606338847806e+00,5.060372455543024728e+00,4.883146753603694989e+00,2.417018739385835557e-01,3.033233526060494789e-01,-9.217229236046320384e-01,1.138058610188851389e+03
-2.206505914041164029e+00,5.227859795065416648e+00,4.873279187913054145e+00,3.945755370992267697e-01,3.763961700226241547e-01,-8.382327055864855492e-01,1.138860141434578054e+03
-2.204383043754783333e+00,6.723718753318301822e+00,4.811600127954005046e+00,3.755963853398238128e-01,3.254003675143865570e-01,-8.677787483728596207e-01,1.145405526734848081e+03
-2.058239222093163345e+00,7.379137560417496466e+00,4.796360429809890746e+00,3.551772874191076457e-01,2.731570564637636478e-01,-8.939979401494791977e-01,1.148053578703284984e+03
-1.378232755515621077e+00,8.842080716210151792e+00,4.767869845439173027e+00,1.851386273808472149e-01,1.707952777751519102e-01,-9.677554762129951804e-01,1.154598964003555011e+03
-3.565884184191137618e-01,9.879415043153679576e+00,4.699975386065510463e+00,6.799975408109251891e-03,6.077653071810647234e-02,-9.981272331958651600e-01,1.161144349303825038e+03
-2.484312542614183217e-01,9.954482232535349695e+00,4.688995759726507728e+00,-1.718435780887444808e-01,-5.196694085168568344e-02,-9.837516057047211993e-01,1.161785984944732490e+03
6.330457771589421689e-01,1.040651917879243094e+01,4.540085293269442879e+00,-8.205482626515415989e-02,-2.317611304512928738e-01,-9.693047941157706404e-01,1.168331370245002518e+03
8.411644622125890036e-01,1.034453876423958896e+01,4.387736717903764294e+00,1.106507751302415743e-02,-4.021465540586139364e-01,-9.155073528461166177e-01,1.173990410582729510e+03
1.404597972406513018e-01,9.949444002945131871e+00,4.227558832651157061e+00,2.218826734539101064e-01,-3.485917451314703430e-01,-9.106315799741011574e-01,1.180535795882999537e+03
-1.221513650209665292e+00,9.659980836548632155e+00,4.026792565592124618e+00,4.221972038431279217e-01,-2.785359890234525015e-01,-8.626501167244148283e-01,1.187081181183269564e+03
-2.344811056940470539e+00,9.847473026493126724e+00,3.750407896585445489e+00,6.025266437266869612e-01,-1.952954162785621450e-01,-7.738341837748056173e-01,1.192657969127693832e+03
-3.100978110488353146e+00,1.057097093866375381e+01,3.180851841841692451e+00,6.535783385224339659e-01,-4.350397255062129487e-01,-6.193333453354394891e-01,1.199203354427963859e+03
-3.201941403882515580e+00,1.084006014924506367e+01,2.960237486680570296e+00,6.497593358205088210e-01,-6.382605539708768871e-01,-4.128368573144203801e-01,1.201110968549146264e+03
-3.533949141291107043e+00,1.139989772209082020e+01,1.981845913464606257e+00,9.354026767558913935e-01,-3.229941373069828980e-01,-1.438562462439132439e-01,1.207656353849416291e+03
-3.578279242657427694e+00,1.142446076907308061e+01,1.833001388185969915e+00,9.840747582416471406e-01,7.409828731488694864e-02,1.615682951838463832e-01,1.208478945707734283e+03
-3.658188251512655143e+00,1.146045148760035737e+01,1.580017109531819397e+00,9.862976757851205090e-01,8.068622135654157299e-03,1.647719395097434203e-01,1.209865610689777441e+03
-3.892390041773433396e+00,1.167349842285131523e+01,3.137758942583457333e-01,9.990432157811239833e-01,-4.368910737396092259e-02,-1.383797519188289778e-03,1.216410995990047468e+03
-3.878123226991073036e+00,1.181380609940766568e+01,-2.049847376514258301e-01,9.813687880135474328e-01,-9.411654248712221504e-02,-1.674973980084785430e-01,1.218977352460894735e+03
-3.733848422718928806e+00,1.214972639392699527e+01,-8.836544262429703034e-01,8.064554807519235258e-01,-2.216108995879177423e-01,-5.481935486182205608e-01,1.222448549475186155e+03
-3.595374784776868449e+00,1.244332341116020046e+01,-1.288286771357750826e+00,8.032142411641838287e-01,-2.419731472038735287e-01,-5.443288332711601063e-01,1.224607003153273808e+03
-2.800475568431098239e+00,1.345756550179511279e+01,-2.262565484194996479e+00,7.024661657154551708e-01,-5.875648139681904913e-01,-4.016302720308145280e-01,1.231152388453543836e+03
-1.398940699801064058e+00,1.399155085253636877e+01,-2.642874324849181722e+00,4.963853803431677592e-01,-8.450529647854430060e-01,-1.987084318506333880e-01,1.237697773753813863e+03
-9.383509388280840691e-01,1.397657000926401061e+01,-2.641412007060806477e+00,2.158729533221383223e-01,-9.758279760831080063e-01,3.400925045717571871e-02,1.239535596146444504e+03
4.759004809154192550e-01,1.349861729950466938e+01,-2.367630890496145391e+00,-5.554612458959720667e-02,-9.190466279326414689e-01,-3.902126647460311126e-01,1.246080981446714532e+03
1.384103110200800346e+00,1.262629067684336270e+01,-1.650936564730305589e+00,-3.126977250431314248e-01,-6.262016474259568533e-01,-7.142055933088369279e-01,1.252626366746984559e+03
1.677408542466968910e+00,1.215774115239539199e+01,-1.082976127489005291e+00,-4.895306813895841658e-01,-1.725124610384937140e-01,-8.547497661681857650e-01,1.256439075760270043e+03
1.795459239972909238e+00,1.193084930792482545e+01,-7.294230239881326350e-01,-5.653125684893530734e-01,-1.954681103571150325e-01,-8.013812561586969307e-01,1.258643091531374012e+03
1.937652854533821190e+00,1.159634198478459943e+01,1.284079088616029429e-01,-9.592866905646074693e-01,6.972552403029005919e-02,-2.736885028702540357e-01,1.263537512859439857e+03
1.846142712235834704e+00,1.154237445482126567e+01,1.470202812693462313e+00,-9.973256280726539025e-01,4.568923813420523727e-02,-5.702705591239794203e-02,1.270082898159709885e+03
1.750281913922901111e+00,1.160498576071551113e+01,1.993565413026256117e+00,-9.865285353695372184e-01,1.941568665131419152e-02,1.624268451051182893e-01,1.272415143416737919e+03
1.325340501981590036e+00,1.190355303278533405e+01,3.535365430994469982e+00,-9.211646494827427922e-01,-1.812279692165812972e-01,-3.443981877225661958e-01,1.278960528717007946e+03
6.706788255275989430e-01,1.234883681544602396e+01,5.143094161122172103e+00,-5.781559876549636767e-01,-3.272498251958523285e-01,-7.474230434170467952e-01,1.285505914017277973e+03
-1.316692075999875977e-01,1.281817702253835201e+01,6.704573972083419875e+00,-6.088517634253198113e-02,-3.746362727519872982e-01,-9.251695295586066514e-01,1.292051299317548001e+03
-1.018725484128169656e+00,1.310871245749516767e+01,8.118208751618526620e+00,4.747347754949161613e-01,-3.091045131985470928e-01,-8.240626753147668460e-01,1.298596684617818028e+03
-1.087209859112262089e+00,1.311837822021046840e+01,8.216335483583101507e+00,8.672646067332921982e-01,-1.504081112570978263e-01,-4.745813965723507666e-01,1.299084628259237661e+03
-1.958949716949074604e+00,1.298377474344375848e+01,9.405255858310765049e+00,9.152049175751287846e-01,1.882007704181579578e-03,-4.029819064087765135e-01,1.305630013559507688e+03
-2.601648951056336312e+00,1.238951920288189434e+01,1.032210015312757534e+01,9.351243053762250401e-01,1.541144846841294713e-01,-3.190442901929920749e-01,1.312175398859777715e+03
-2.773964963983785559e+00,1.150127264905397340e+01,1.093200556703060933e+01,9.264129026403413736e-01,3.016284368437571195e-01,-2.253384563452526801e-01,1.318720784160047742e+03
-2.493119816439049785e+00,1.066589478830549176e+01,1.122583882204091665e+01,8.893374087950063345e-01,4.399074412483408580e-01,-1.247333814626010867e-01,1.324381940622837419e+03
-1.780494198620551582e+00,9.900192069764342406e+00,1.136372761737428938e+01,6.723702535412325876e-01,7.169841380728130265e-01,-1.839836620597321282e-01,1.330927325923107446e+03
-8.150478328553185658e-01,9.660042544716175072e+00,1.137075398037166707e+01,3.697720024607582534e-01,9.027478096288278353e-01,-2.198023166539899431e-01,1.337472711223377473e+03
-4.876298548596618709e-01,9.706841694717045499e+00,1.136108494288590087e+01,2.008059198826413899e-02,9.735401636120543101e-01,-2.276275898462640501e-01,1.339529752796983757e+03
-1.818556504980505806e-01,9.774897541833436065e+00,1.135210797308925201e+01,-1.064608721320554480e-01,9.942220253084023129e-01,-1.366188458030475651e-02,1.341451046296087952e+03
7.075146447134365024e-01,1.039438849719564750e+01,1.133522193509301168e+01,-5.977962538360802602e-01,8.009992479809263655e-01,-3.221558059786890083e-02,1.347996431596357979e+03
1.045757640152136014e+00,1.146166720811672768e+01,1.136704703234785185e+01,-9.222925318033657893e-01,3.842252802840260828e-01,-4.177822123976266538e-02,1.354541816896628006e+03
1.027308043734761478e+00,1.171593477354010027e+01,1.138223075800905804e+01,-9.893858310150540625e-01,-1.397823260785350241e-01,-3.968096145807849945e-02,1.355968761765152522e+03
6.644128605055715786e-01,1.271505013680975260e+01,1.154224847890814587e+01,-8.623676273520347602e-01,-4.195946191034064521e-01,-2.833027195676330323e-01,1.362514147065422549e+03
1.621497423536108484e-01,1.318202400421708198e+01,1.193593985206661046e+01,-6.027342679691241045e-01,-6.348814279856666021e-01,-4.833580190857723058e-01,1.369059532365692576e+03
3.428602779494736852e-02,1.319698756105969650e+01,1.213870386671173129e+01,-2.504122555579096354e-01,-7.525359638798614359e-01,-6.090823633414601534e-01,1.371438322353818876e+03
-1.885678959172290559e-01,1.288486416269518031e+01,1.272749649940491601e+01,-1.105298727932773339e-01,-5.791085022336199817e-01,-8.077217898885186154e-01,1.377983707654088903e+03
-4.602537979361618903e-01,1.218828127203818212e+01,1.315315048962184541e+01,3.920092565117180849e-02,-3.540813563551373777e-01,-9.343916098239446466e-01,1.384529092954358930e+03
-7.431152566775519608e-01,1.177002892189579697e+01,1.323716448234820042e+01,1.854388817183143245e-01,-9.750480212272180647e-02,-9.778053153410657394e-01,1.388136004714354613e+03
-7.825001031968301657e-01,1.172300700267086171e+01,1.324057815448287556e+01,2.442067729873336757e-01,-1.037569208485188132e-01,-9.641553574875341148e-01,1.388555737678094602e+03
-1.550820524315411397e+00,1.112004998441702064e+01,1.296066387661719332e+01,5.540191349123959608e-01,1.085832644705840289e-01,-8.253911029492250195e-01,1.395101122978364629e+03
-2.168317268701276834e+00,1.074311438075305425e+01,1.210678464862660064e+01,7.750067420455210021e-01,3.035144870005451745e-01,-5.542937000948041648e-01,1.401646508278634656e+03
-2.256136267558412900e+00,1.064269937460987947e+01,1.171126297872849698e+01,8.717392035815844098e-01,4.497838951614071545e-01,-1.943275806266902273e-01,1.403961155374455302e+03
-2.025931342980610950e+00,1.034078017835886243e+01,1.043994327403274980e+01,5.637788212276553246e-01,7.949751481015290278e-01,2.239775761803138865e-01,1.410506540674725329e+03
-1.220836234657423969e+00,1.017582436066449780e+01,8.958116895015351133e+00,3.652019534371213350e-02,8.309393371529476546e-01,5.551613218676739736e-01,1.417051925974995356e+03
-2.903244736721172226e-01,1.029022091644601034e+01,7.378425681147407822e+00,-5.049438518316651248e-01,5.436860955912219406e-01,6.703992362422728224e-01,1.423597311275265383e+03
3.845056522806882815e-01,1.049444612973049651e+01,6.071599433550087355e+00,-8.499951648680196259e-01,4.495227763223880874e-02,5.248671378886786698e-01,1.429009903517570365e+03
1.019440868131256561e+00,1.077812182008583086e+01,4.549518409757721926e+00,-8.302289198206129761e-01,-3.067027497418801929e-02,5.565763873218476654e-01,1.435555288817840392e+03
1.456384098910796121e+00,1.113655254547938789e+01,3.126114693694827196e+00,-8.045556312174496627e-01,-1.060745920702746564e-01,5.843256088785666602e-01,1.442100674118110419e+03
1.716355068761601821e+00,1.160374337223944607e+01,1.835195242795006232e+00,-7.731579624127282724e-01,-1.807241863906550172e-01,6.079173739984163882e-01,1.448646059418380446e+03
1.837366516737082511e+00,1.216812519723019115e+01,6.879126041156642390e-01,-7.362593018649195020e-01,-2.540879404224685723e-01,6.271838318603215612e-01,1.455191444718650473e+03
1.867032296608514885e+00,1.245965178276909135e+01,1.640485801132126331e-01,-6.941221741751595342e-01,-3.256438842294466784e-01,6.419879032970603472e-01,1.458405581212226934e+03
1.927961283595260200e+00,1.297119833926277543e+01,-8.646475737940639839e-01,-7.578252262887192892e-01,-3.316511878350283382e-01,5.618775809779722463e-01,1.464950966512496962e+03
2.036726983440418248e+00,1.325296733138456240e+01,-1.868531996376035176e+00,-8.135621243300542593e-01,-3.341722233484766824e-01,4.758608987882182451e-01,1.471496351812766989e+03
2.265666008366904904e+00,1.315211820954436561e+01,-2.904403645807033918e+00,-8.607469846566606630e-01,-3.331804909839885531e-01,3.848420310069479711e-01,1.478041737113037016e+03
2.452399535089287763e+00,1.292363865506578158e+01,-3.522301362846520068e+00,-8.988838127747603712e-01,-3.286864132831156526e-01,2.897777300821577917e-01,1.481816523951514682e+03
2.749390487376526693e+00,1.247073115834484192e+01,-4.538123598960091876e+00,-8.903990720838910189e-01,-4.053658358013472740e-01,2.070411350278351104e-01,1.488361909251784709e+03
2.835965013248974209e+00,1.229558904087325288e+01,-5.334192875815237933e+00,-8.705198152811626233e-01,-4.768577403138798965e-01,1.216550315521674752e-01,1.494907294552054736e+03
2.572747869810506849e+00,1.268661340853882891e+01,-5.781557532841052449e+00,-8.395004296702134328e-01,-5.422472686080260784e-01,3.471207666756311733e-02,1.501423043705973669e+03
2.001635730209507802e+00,1.347988562762655640e+01,-5.889833867892912522e+00,-7.056986949591617098e-01,-7.072519412768863978e-01,4.221425697526438175e-02,1.507968429006243696e+03
1.247230844772316827e+00,1.427469188887664053e+01,-5.728053094172011583e+00,-5.400094232530427973e-01,-8.402988319894716396e-01,4.780895056380841945e-02,1.514513814306513723e+03
7.597174040360885616e-01,1.464416972762401592e+01,-5.544603036734454093e+00,-3.499193542792465306e-01,-9.353761615894964354e-01,5.124335888163568387e-02,1.518374598924670863e+03
-9.586499516755250805e-02,1.500385309723457716e+01,-5.122957659917508622e+00,-1.859510638530905702e-01,-9.787038774240816030e-01,-8.694206211444273358e-02,1.524919984224940890e+03
-3.142141771962228547e-01,1.504132576475701200e+01,-4.997408627592800023e+00,-1.308349866874009525e-02,-9.751925910200707204e-01,-2.209665867941477679e-01,1.526550447678494493e+03
-1.206872180903593605e+00,1.498849763457814888e+01,-4.512441554041689784e+00,2.206735032854915679e-01,-9.750998145015542518e-01,-2.194440034748916177e-02,1.533095832978764520e+03
-2.144925555261598671e+00,1.455924541453606125e+01,-4.248664509310385640e+00,4.336314677207103729e-01,-8.831016020707205261e-01,1.791460594665798267e-01,1.539641218279034547e+03
-2.283008238821441882e+00,1.447146572514782470e+01,-4.240090421925947872e+00,6.057186785767567638e-01,-7.078689773313269207e-01,3.633516111904735446e-01,1.540574001202621048e+03
-3.202061902984871367e+00,1.370522475475878466e+01,-4.400334538803003070e+00,7.874358738451338047e-01,-5.329648449138914001e-01,3.096630728189522785e-01,1.547119386502891075e+03
-3.884851400016100964e+00,1.269147394652301486e+01,-4.880267624722022468e+00,9.167923558923256611e-01,-3.226211552904783009e-01,2.353834453323883635e-01,1.553664771803161102e+03
-4.099909621944879845e+00,1.153398257306615093e+01,-5.460188968358816730e+00,9.851865803700307067e-01,-9.082472050701975719e-02,1.454519577168014999e-01,1.560210157103431129e+03
-4.088206316580456523e+00,1.134277674852585172e+01,-5.551373152020286028e+00,9.880706579136254719e-01,1.470111585186545389e-01,4.584860129729072253e-02,1.561251238058522858e+03
-3.673984671313126782e+00,1.022829284429361962e+01,-6.002113541677700503e+00,9.411273999927973755e-01,3.248877644109083862e-01,9.340855163025507668e-02,1.567796623358792885e+03
-2.731935403606142287e+00,9.332696947332147275e+00,-6.119544413678676520e+00,8.602040226514533483e-01,4.910340171595213299e-01,1.375959062079742390e-01,1.574342008659062913e+03
-2.602453125119223110e+00,9.245695596526743998e+00,-6.108331039016562158e+00,7.482222916186953565e-01,6.394511434004613859e-01,1.768152638406275401e-01,1.575088175139991336e+03
-1.540698929034465481e+00,8.597884557016154616e+00,-5.796308581646681723e+00,6.035782149063919633e-01,7.972339185211485546e-01,1.046028916776142910e-02,1.581633560440261363e+03
-8.006700684915104560e-01,8.198535787706914491e+00,-5.140939429318743592e+00,4.145763480942988299e-01,8.964268136556107214e-01,-1.566633950854574853e-01,1.588178945740531390e+03
-7.477990581344633458e-01,8.169994766249407903e+00,-5.055458222090192244e+00,1.951066419473022617e-01,9.297400391084429394e-01,-3.122736907681920027e-01,1.588887797873073396e+03
-4.223309292200947418e-01,8.037725058406580914e+00,-4.335682604389495154e+00,3.022102488556297623e-02,9.990656576298102554e-01,-3.086262138663406138e-02,1.595433183173343423e+03
-2.204220261551584625e-01,8.097447961140215256e+00,-3.979124726635927090e+00,-1.380247388550895904e-01,9.573094410907455609e-01,2.539799312176884150e-01,1.600887889330697590e+03
-1.185763348114330651e-01,8.143237799495006257e+00,-3.929157942641131829e+00,-9.328857217086952702e-02,9.184880307166181090e-01,3.842850240650760307e-01,1.602857601602921704e+03
3.669011001305669817e-01,8.379225376830094163e+00,-4.180334656304160568e+00,-1.291028011374067974e-01,9.128308514181252553e-01,3.873890853216542807e-01,1.609402986903191731e+03
9.011960699992910273e-01,8.744950606785158342e+00,-5.017723114915035865e+00,-1.647460520868112843e-01,9.059648112431076816e-01,3.899801265445941856e-01,1.615948372203461759e+03
1.075876862816053547e+00,9.202936420005260132e+00,-6.106374417871194282e+00,-2.001711315655956003e-01,8.978990014551228027e-01,3.920547171788099083e-01,1.622493757503731786e+03
1.031459001203746562e+00,9.355761840277020625e+00,-6.449905933176601991e+00,-2.353311348071515929e-01,8.886441009839355365e-01,3.936101100898249383e-01,1.624493894945130023e+03
5.902832633834019793e-01,9.927847309179638202e+00,-7.424730768778781353e+00,-2.289227286033886366e-01,5.016822497514630275e-01,8.342105876894283512e-01,1.631039280245400050e+03
7.514670171674006638e-02,1.051525092251781679e+01,-7.971157981705720985e+00,-1.437855116310640946e-01,-5.781311299269625836e-02,9.879176942493348434e-01,1.636281754133308368e+03
-9.442730147208806823e-02,1.076763676349463061e+01,-8.124549024942000486e+00,-1.926444387254229174e-01,-5.249039417174863192e-02,9.798626835989646677e-01,1.638253231754998524e+03
-5.234056849142653123e-01,1.150462303680977350e+01,-8.406612779257489620e+00,5.401815404480510632e-03,1.325343641604384004e-01,9.911626822604130416e-01,1.644798617055268551e+03
-8.612073710688142869e-01,1.174362715584303807e+01,-8.402296171753397047e+00,2.030505654590045450e-01,3.078066587258010967e-01,9.295286594340085307e-01,1.649936422859968388e+03
-1.623073595252355616e+00,1.120215198961860814e+01,-8.189608097233840311e+00,2.332725158956555911e-01,3.400500599270155355e-01,9.110147584167316293e-01,1.656481808160238415e+03
-2.189084043651658096e+00,1.055517559748842160e+01,-7.974806223356996071e+00,2.629589275151045791e-01,3.715127854800675533e-01,8.904093736288607452e-01,1.660148686695825063e+03
-2.973519255819887963e+00,9.591076806219854589e+00,-7.383510052549604907e+00,5.117214797135957172e-01,5.318722722984309259e-01,6.747229158398598825e-01,1.666694071996095090e+03
-3.284468188520778487e+00,9.346739003721291184e+00,-6.709188089634504415e+00,6.918525054811159869e-01,6.208976373913416280e-01,3.685433957359828261e-01,1.671978387122397407e+03
-3.599720524302516989e+00,9.767608808415296551e+00,-5.731253312048412596e+00,7.783561190852190670e-01,5.880723839505483941e-01,2.198422687159045930e-01,1.678523772422667435e+03
-3.650994867219492956e+00,9.867465420286041677e+00,-5.595426288391002423e+00,8.409856394051555828e-01,5.372095010920809877e-01,6.439802983787620838e-02,1.679380621676957617e+03
-4.010821659835032804e+00,1.079811144872473960e+01,-4.586303538307987537e+00,9.507485556164202434e-01,3.011859209156539374e-01,7.322721512613915296e-02,1.685926006977227644e+03
-4.092178578290964985e+00,1.197891500550705146e+01,-3.720894849898525258e+00,9.960192304116372020e-01,4.473200804952628257e-02,7.708916983410352142e-02,1.692471392277497671e+03
-4.067578936513652543e+00,1.215892089267696541e+01,-3.614667918249021117e+00,9.737268285530569223e-01,-2.147562645039878260e-01,7.572192688760652490e-02,1.693401776851197610e+03
-3.463585530527593992e+00,1.329067900337039809e+01,-3.022967895560100260e+00,8.559693042492745318e-01,-2.943966247727862195e-01,4.250237375789375216e-01,1.699947162151467637e+03
-2.125668071720506980e+00,1.395581544676472951e+01,-2.707101012503944748e+00,6.164745953277466217e-01,-3.321674659644691663e-01,7.138780343101134296e-01,1.706492547451737664e+03
-4.897592053117444388e-01,1.426124905491773376e+01,-2.519894095875079287e+00,2.893040023275012529e-01,-3.226969734076954865e-01,9.012035605739037170e-01,1.713037932752007691e+03
-3.544032870084797282e-01,1.428447427638329437e+01,-2.504659390198846758e+00,-7.901181166625541319e-02,-2.673320589392553792e-01,9.603586329495789053e-01,1.713584268264123693e+03
1.061257478660388776e+00,1.483458056705339878e+01,-2.267774254978534909e+00,-2.514412355347976358e-01,-2.741104444704756116e-01,9.282449942253451214e-01,1.720129653564393720e+03
2.083623583492370646e+00,1.582566401862499106e+01,-1.981754600500998720e+00,-4.161239249403818619e-01,-2.724437076113319645e-01,8.675328842613220237e-01,1.726675038864663748e+03
2.737563810877090109e+00,1.705503125837061162e+01,-1.763385978849445701e+00,-5.679861775948877867e-01,-2.623832009652017350e-01,7.800927880142420889e-01,1.733220424164933775e+03
3.056464908381459455e+00,1.819905603607490363e+01,-1.668446030121741419e+00,-7.023492664121350204e-01,-2.442388752041133593e-01,6.686186355527735659e-01,1.738973867391777048e+03
3.220120952193063157e+00,1.948141623609928175e+01,-1.602902657992207658e+00,-7.865029529277363096e-01,-2.493204147786777514e-01,5.650225091171917624e-01,1.745519252692047075e+03
3.272437192745544898e+00,2.068758089188889571e+01,-1.457206100383402925e+00,-8.566255272541248855e-01,-2.499541138185748523e-01,4.513464822510221408e-01,1.752064637992317103e+03
3.337256178059763378e+00,2.175397504761096101e+01,-1.090553963143153782e+00,-9.114660318330952693e-01,-2.461286681735642690e-01,3.296184938925187380e-01,1.758610023292587130e+03
3.405920468764902953e+00,2.229530454255687388e+01,-7.668163946794329666e-01,-9.500461243449926929e-01,-2.379123200863929866e-01,2.020101224350032976e-01,1.762352992655723710e+03
3.551035016844445558e+00,2.311185434648168879e+01,-2.744516377107429281e-02,-9.542762235006921889e-01,-2.829542284262234197e-01,9.639395144950509142e-02,1.768898377955993737e+03
3.651772495556391718e+00,2.374224235353970158e+01,8.935001639408568508e-01,-9.459084775431272352e-01,-3.242607169685382540e-01,-1.049473879286129396e-02,1.775443763256263765e+03
3.594481472489624352e+00,2.420257369720180662e+01,1.881374390695501830e+00,-9.250533583627277290e-01,-3.612864853478254257e-01,-1.172448706176987265e-01,1.781989148556533792e+03
3.266033347449137203e+00,2.451199518774135555e+01,2.821524364659052431e+00,-8.919861844849180654e-01,-3.935427438767600816e-01,-2.224471969462947507e-01,1.788534533856803819e+03
2.553855561614778669e+00,2.469268369695821974e+01,3.599302596836817969e+00,-8.471434865139561010e-01,-4.206036655582803263e-01,-3.247129036165057880e-01,1.795079919157073846e+03
2.447672917178802976e+00,2.470663991755602140e+01,3.674916086685097838e+00,-7.911172449794520167e-01,-4.421120071354945891e-01,-4.226919420117559167e-01,1.795822939813491757e+03
1.227314531638708850e+00,2.478511713014650653e+01,4.165514090995235286e+00,-4.597607965279676967e-01,-6.335599857261682288e-01,-6.222698405537137045e-01,1.802368325113761784e+03
-4.296530659715395162e-01,2.481695440967794752e+01,4.258767766392137943e+00,-4.275959351236657824e-02,-7.069876911988840495e-01,-7.059306068275817969e-01,1.808913710414031812e+03
-2.048822151562309735e+00,2.489911793444121457e+01,3.888775143689550795e+00,3.822069851886322756e-01,-6.487169108822135044e-01,-6.580898039084368545e-01,1.815269220276476744e+03
-3.233797545047197186e+00,2.512499047068937585e+01,2.988221282589129224e+00,5.359415907164813975e-01,-6.824596412807255597e-01,-4.970044761982668757e-01,1.821814605576746771e+03
-3.394050887473815337e+00,2.518562350738736200e+01,2.761149134727371557e+00,6.624924326140274600e-01,-6.815870068922537106e-01,-3.107103615302638788e-01,1.823075599560264436e+03
-3.838982550444011821e+00,2.548299558935742581e+01,1.405241256562972385e+00,6.834536491232930944e-01,-7.276225777006700701e-01,-5.877494296268558766e-02,1.829620984860534463e+03
-3.614392212506510660e+00,2.564552950341285253e+01,-1.268459194728431272e-01,6.592862706208399981e-01,-7.256130648829994811e-01,1.970413495742950050e-01,1.836166370160804490e+03
-2.919569250445879227e+00,2.562151127214634982e+01,-1.508211671764230877e+00,5.915860847926033284e-01,-6.756911723462436514e-01,4.398469550799984362e-01,1.842711755461074517e+03
-2.157695669700005148e+00,2.548577997500488834e+01,-2.392611254078197636e+00,4.848233298565420846e-01,-5.811532359490158006e-01,6.536094056641168493e-01,1.848176137346606993e+03
-1.244366522285673682e+00,2.508917918231738753e+01,-3.073036196871915315e+00,3.887642188295813428e-01,-4.015226080243018414e-01,8.292406028426804188e-01,1.854721522646877020e+03
-5.315136244185586500e-01,2.431570495874628079e+01,-3.376745614547277174e+00,2.645815457236411761e-01,-1.928454768355385984e-01,9.448837112186022624e-01,1.861266907947147047e+03
-3.912896287012757601e-01,2.405705159025105289e+01,-3.412044801260387672e+00,1.212587595006256180e-01,2.978232753444988792e-02,9.921730323941950758e-01,1.862969455417602603e+03
-2.924840000304134227e-02,2.289890907063039904e+01,-3.477721093943770825e+00,1.350411679980151325e-02,1.493774933840692071e-02,9.997962304727303628e-01,1.869514840717872630e+03
1.665908366163163304e-02,2.259065090800999798e+01,-3.478015977475116038e+00,-9.441108277612819677e-02,-8.443198521700483986e-05,9.955322899399678960e-01,1.871052893727382980e+03
1.343472051087578056e-01,2.123454718068069980e+01,-3.464719526793459625e+00,-9.425945563850364473e-02,1.567658463809364772e-02,9.954232264102778061e-01,1.877598279027653007e+03
6.033471060720521639e-02,1.987564486515541162e+01,-3.437686644651484880e+00,-9.408441025090637233e-02,3.143370298750142178e-02,9.950668550526956535e-01,1.884143664327923034e+03
-3.501743704802935935e-03,1.947459634062789036e+01,-3.429441406548125126e+00,-9.388599002319820974e-02,4.718301528484278307e-02,9.944632642314045201e-01,1.886141432716269264e+03
-4.954805447969513055e-01,1.833886398453849154e+01,-3.395834896845381756e+00,2.144209282917461379e-02,-1.330338820928522216e-02,9.996805772365237042e-01,1.892621027517892571e+03
-8.628142471480160225e-01,1.793330031743287378e+01,-3.374551280568933720e+00,2.899692490111016596e-01,-6.093481046565165510e-02,9.550930758288695976e-01,1.895443756594243041e+03
-2.056221231454507858e+00,1.727508648963000226e+01,-3.199107802901274944e+00,4.474151705826410752e-01,2.021221278077972583e-02,8.940968245027157701e-01,1.901989141894513068e+03
-3.313999481189730201e+00,1.702870286228596086e+01,-2.667957036410308902e+00,5.891591678404449750e-01,1.006498733240547422e-01,8.017225691898081097e-01,1.908534527194783095e+03
-3.414687192169574281e+00,1.702207411747510690e+01,-2.594772779894560344e+00,7.102268444426869110e-01,1.775552717611313669e-01,6.812121218103615039e-01,1.909155685568748140e+03
-4.250062658293424889e+00,1.705276735897437845e+01,-1.681898783039950107e+00,7.734571094384163903e-01,1.626902079410628421e-01,6.126124354601112376e-01,1.915410774006160409e+03
-4.743342619750537281e+00,1.725267667589025322e+01,-4.462336437488312879e-01,9.175408963460153222e-01,1.551575322308249016e-01,3.661186197462341640e-01,1.921956159306430436e+03
-4.709580257603589004e+00,1.755244198521436161e+01,9.316443031851047163e-01,9.867751446986724462e-01,1.349676872711158826e-01,8.975821521080254439e-02,1.928501544606700463e+03
-4.105698136835484569e+00,1.787163246305477315e+01,2.320016392733123656e+00,9.755119744837076334e-01,1.037676811924959502e-01,-1.939243563323793107e-01,1.935046929906970490e+03
-3.111809451856884401e+00,1.812660706819562506e+01,3.566889544606755447e+00,8.846701631044501246e-01,6.410268908139522825e-02,-4.617873404124707704e-01,1.941592315207240517e+03
-2.321990697053220920e+00,1.823559403265559453e+01,4.278796791639523533e+00,7.216602159185914189e-01,1.920843090096083228e-02,-6.919794570234525377e-01,1.945986311538626524e+03
-1.098175886416858260e+00,1.818809487841913253e+01,5.085698799782554680e+00,4.066431770158817627e-01,9.010293374564133650e-02,-9.091318869759127397e-01,1.952531696838896551e+03
-2.871458355723072176e-01,1.795719726541845418e+01,5.463745395267936011e+00,3.005339269055962159e-02,1.473542930860742561e-01,-9.886260698040030270e-01,1.956877363433620303e+03
8.652058621802835026e-01,1.716883999383753689e+01,5.854883632860556908e+00,-2.909416260333689760e-02,2.452071655043960019e-01,-9.690330106285098832e-01,1.963422748733890330e+03
1.912121342497921983e+00,1.581839435936701221e+01,6.029427167246249830e+00,-8.785018205250086365e-02,3.397601541331176089e-01,-9.363991580393694614e-01,1.969968134034160357e+03
2.860690621684698787e+00,1.402184535000911758e+01,6.021000469331224458e+00,-1.454239534445278814e-01,4.297408072793487133e-01,-8.911636843608184977e-01,1.976513519334430384e+03
3.722084062360940582e+00,1.189485233693806343e+01,5.863249724981363542e+00,-2.010406749682226990e-01,5.139382062280187791e-01,-8.339353495251242698e-01,1.983058904634700411e+03
4.511547643234566252e+00,9.552659213516871972e+00,5.589838838001614185e+00,-2.539518823053272256e-01,5.912192614545969116e-01,-7.654843083688085414e-01,1.989604289934970438e+03
5.248397433384978328e+00,7.110004625943012968e+00,5.234445431537467996e+00,-3.034455212307934913e-01,6.605439613395504006e-01,-6.867317458681496678e-01,1.996149675235240466e+03
5.956013271662929931e+00,4.681032309383723167e+00,4.830756848254765146e+00,-3.488555301543470044e-01,7.209793681582677971e-01,-5.987374798450586511e-01,2.002695060535510493e+03
