2.681975198797940330e+00,-5.881870474241410740e+00,-1.379402934246204637e+00,-5.870684868658676558e-01,2.272640170345001376e-01,7.769811183554391487e-01,9.032865925047299243e+02
2.340592218648869238e+00,-7.229441079947201310e+00,-1.449936066211028773e+00,-5.527211867056897043e-01,2.385687928384558898e-01,7.984874581612576572e-01,9.098319778050000650e+02
1.683736215416235193e+00,-8.469515505164983082e+00,-1.722516966174302055e+00,-5.173955340881446485e-01,2.494512879229450475e-01,8.185804274777241929e-01,9.163773631052702058e+02
1.331888559569081698e+00,-8.924321464933379744e+00,-1.856140349189343342e+00,-4.811540483149661096e-01,2.598922420606932238e-01,8.372244647027103914e-01,9.192062492679181105e+02
5.228415412676317153e-01,-9.785093509896078956e+00,-2.091147988725983620e+00,-3.876893504546525260e-01,4.130846960688182024e-01,8.240485431188370180e-01,9.257516345681882513e+02
-8.564227840547948556e-02,-1.033554249352734011e+01,-2.213349209335537360e+00,-2.816723707853450165e-01,5.529025665786244659e-01,7.841922133032903641e-01,9.322970198684583920e+02
-2.265992328857726335e-01,-1.046256449522789467e+01,-2.242582781635787281e+00,-1.665356056552950714e-01,6.748189981037858720e-01,7.189459032816565287e-01,9.346156455443504001e+02
-3.568261905589290572e-01,-1.051972967580634943e+01,-2.377950979757081029e+00,-2.517922571970739321e-01,7.748206885065522798e-01,5.798720202577309912e-01,9.411610308446205408e+02
-1.134545250675002559e-01,-1.005203075254211775e+01,-2.583417971492990795e+00,-3.278306150638624072e-01,8.464556758175467710e-01,4.195686793639579193e-01,9.477064161448906816e+02
3.094359488743579911e-01,-9.082128334076578824e+00,-2.805370686705340955e+00,-3.918668793728825595e-01,8.871013786854999861e-01,2.439046797111291409e-01,9.542518014451608224e+02
7.173083460114062504e-01,-7.626077022654786930e+00,-2.990194087797091615e+00,-4.415566512367415930e-01,8.952697407382468331e-01,5.931117152042498369e-02,9.607971867454309631e+02
7.554699743937679512e-01,-7.442050695368399360e+00,-3.006692568548215760e+00,-4.750807586181453601e-01,8.706617058332634107e-01,-1.274537829418134482e-01,9.615062579861255472e+02
9.424279262681731772e-01,-5.504580180409758938e+00,-3.096756343746318141e+00,-3.330676071182125941e-01,7.617838078606868901e-01,5.556522286197590477e-01,9.680516432863956879e+02
8.953801860823629166e-01,-3.853909970156974119e+00,-3.099019282338831172e+00,-2.496792945110759901e-02,2.730370324157714856e-01,9.616784189262906901e-01,9.728923574258250255e+02
6.687969392236940980e-01,-1.612048271158647683e+00,-3.060437076592053440e+00,-4.117713566855612378e-02,-8.260449250605376298e-03,9.991167141412687913e-01,9.794377427260951663e+02
3.644675085812701942e-01,4.903154978625050564e-01,-2.991558095841978737e+00,-5.405952355032373619e-02,-2.888904886201917321e-01,9.558335909030305499e-01,9.859831280263653071e+02
1.325649673534236017e-01,2.361901466456064469e+00,-2.897043499066747518e+00,-6.257429260623287304e-02,-5.461802496728794809e-01,8.353260398026465250e-01,9.925285133266354478e+02
9.499118007516192674e-02,2.787263955749882616e+00,-2.871464924416950115e+00,-6.603351231314791292e-02,-7.593426211820779592e-01,6.473301776589946988e-01,9.941600517329895865e+02
-5.384842932991897035e-02,3.995265600871062972e+00,-2.853806615450985795e+00,7.604609127522615752e-02,-6.738573470614955818e-01,7.349362338406689732e-01,1.000705437033259727e+03
-3.711433846469003872e-01,4.677857337231504431e+00,-2.911206159625277401e+00,2.154511928304602419e-01,-5.646730407126134832e-01,7.966951365479387759e-01,1.007250822333529868e+03
-8.443127182297786026e-01,5.256537918536774434e+00,-2.931505521645699108e+00,3.472790767086332275e-01,-4.356295823974341008e-01,8.304348919807038598e-01,1.012534515054157623e+03
-1.562927473873084949e+00,6.129593797492684182e+00,-2.914525959731057991e+00,3.187744961488537809e-01,-3.185732020694324040e-01,8.926880393098431954e-01,1.019079900354427764e+03
-2.171289745058213594e+00,7.067913406205300397e+00,-2.891115945595324810e+00,2.844075977856553861e-01,-1.956582257801129654e-01,9.385244679842199567e-01,1.025625285654697791e+03
-2.355970855607319336e+00,7.918559668446750521e+00,-2.913305781417815155e+00,2.448103894338614084e-01,-6.914505690037858754e-02,9.671012534011389494e-01,1.032170670954967818e+03
-2.086916455237276313e+00,8.433322911875707817e+00,-2.983535018365022662e+00,2.007110605302154516e-01,5.863973295718724610e-02,9.778928632001396837e-01,1.037160837249594579e+03
-1.134103258144632420e+00,8.822984061390165778e+00,-3.072583937194821146e+00,1.689207335682614899e-02,1.192802565095545803e-01,9.927159101496479954e-01,1.043706222549864606e+03
2.669248027266383771e-01,8.804157858394885849e+00,-2.983251857001188778e+00,-1.675634841472132264e-01,1.754255162061526818e-01,9.701269850096156944e-01,1.050251607850134633e+03
1.615128269029779684e+00,8.332835816856951183e+00,-2.615191232021931267e+00,-3.457041700561520603e-01,2.249596076467738626e-01,9.109773881566163301e-01,1.056796993150404660e+03
2.059939301461990002e+00,8.047424611289237362e+00,-2.413554445178174745e+00,-5.108165204831595085e-01,2.660157720436406859e-01,8.174962332785519203e-01,1.059310682662409818e+03
2.958771630653946438e+00,7.174990905653714890e+00,-1.751614399750729412e+00,-7.307435776286330675e-01,2.347410369657243756e-01,6.410214265673565004e-01,1.065856067962679845e+03
3.480998296138657189e+00,6.285889319632726568e+00,-8.754335062124963818e-01,-8.918533958924925731e-01,1.845721162521657688e-01,4.129511522407204316e-01,1.072401453262949872e+03
3.660295045646993817e+00,5.864500288814857853e+00,-3.299962518193255145e-01,-9.811783834757248357e-01,1.195470662671245243e-01,1.516426020162943422e-01,1.075989233689780121e+03
3.819738098009429539e+00,5.216775295686860048e+00,7.242535351347848538e-01,-9.883712303231153573e-01,1.493886273619373373e-01,-2.834341341193312436e-02,1.082534618990050149e+03
3.715291717535861959e+00,4.647782360150740644e+00,1.805527957052519783e+00,-9.626144693078066972e-01,1.742499721416920500e-01,-2.073844996312963485e-01,1.089080004290320176e+03
3.331072246384568558e+00,3.997781398766299787e+00,2.819585298957947739e+00,-9.047667649218258390e-01,1.933022979184322032e-01,-3.795119533185777327e-01,1.095625389590590203e+03
3.231671774187853785e+00,3.861576511138549606e+00,2.996861367455934122e+00,-8.167565791998996350e-01,2.059104538953451247e-01,-5.389875465252442766e-01,1.096841725917567601e+03
2.556883839788088864e+00,3.127188438943536930e+00,3.841542304214311088e+00,-7.007599710064299492e-01,1.363865624111342822e-01,-7.002372231092348631e-01,1.103387111217837628e+03
1.639989732758127206e+00,2.574362307967193786e+00,4.436117679144807369e+00,-5.537264990759095395e-01,6.082207820593579090e-02,-8.304731416625160678e-01,1.109932496518107655e+03
1.333436895907010200e+00,2.471025253006207123e+00,4.565955890584024068e+00,-3.821682638139218269e-01,-1.743625306892129800e-02,-9.239271590395579103e-01,1.111877068987771281e+03
2.641445563077630121e-01,2.401093973947139304e+00,4.860962096185316383e+00,-2.320399728112771953e-01,8.620284362714743243e-02,-9.688779700086337376e-01,1.118422454288041308e+03
-7.825153841786192110e-01,2.816041316124024529e+00,4.942425868523337762e+00,-7.372065736466761054e-02,1.867989398227709874e-01,-9.796271845751821639e-01,1.124967839588311335e+03
-1.645546879641254234e+00,3.671086689147041948e+00,4.896179000109915691e+00,8.720099358440418225e-02,2.808009865913290715e-01,-9.557953717439569008e-01,1.131513224888581362e+03
-2.165213401648026892e+00,4.916230614876415217e+00,4.808068437620714342e+00,2.450444349000125699e-01,3.648907065650670023e-01,-8.982238012805292549e-01,1.138058610188851389e+03
-2.202292020737770084e+00,5.091239987179350557e+00,4.797387077097035935e+00,3.942377807313757754e-01,4.360997242108651251e-01,-8.089447464362928830e-01,1.138860141434578054e+03
-2.200835420815030474e+00,6.673501114350772312e+00,4.759229021673965221e+00,3.776096903330287691e-01,3.592300504240716896e-01,-8.534416750020912268e-01,1.145405526734848081e+03
-2.054900211395424670e+00,7.373077627139825729e+00,4.767556770809347810e+00,3.578982520442092752e-01,2.794271030241868847e-01,-8.909698846033567987e-01,1.148053578703284984e+03
-1.376315659914046918e+00,8.907569817432186454e+00,4.802562249866916488e+00,1.900120719638425937e-01,1.569453402670191455e-01,-9.691550818499620190e-01,1.154598964003555011e+03
-3.586850841022106717e-01,9.971768195015984659e+00,4.749565468125075185e+00,1.275821124518865084e-02,2.672609950255858818e-02,-9.995603751901457334e-01,1.161144349303825038e+03
-2.510571163203946243e-01,1.004859392102530791e+01,4.735184558039009062e+00,-1.651246825208697866e-01,-1.048107871666296292e-01,-9.806867686037709086e-01,1.161785984944732490e+03
6.281172689115557262e-01,1.051371362922754038e+01,4.516009541235116664e+00,-7.902907286830446187e-02,-2.909629452872863897e-01,-9.534636700518470676e-01,1.168331370245002518e+03
8.428405161255407840e-01,1.044673355404838055e+01,4.289131990338538536e+00,1.044947076680985930e-02,-4.646600574725465171e-01,-8.854263603187431109e-01,1.173990410582729510e+03
1.627689610318385771e-01,1.001693058734666231e+01,4.103434269855132044e+00,2.219640485656923790e-01,-3.936389848997011720e-01,-8.920640732091387193e-01,1.180535795882999537e+03
-1.178875510724224585e+00,9.680611643340586880e+00,3.937477997404693397e+00,4.224189046226309308e-01,-3.030042402925168243e-01,-8.542532993094421601e-01,1.187081181183269564e+03
-2.305912743396409059e+00,9.838040009014219933e+00,3.701809687490533296e+00,6.018261321887504733e-01,-1.972718011511085945e-01,-7.738779897914928041e-01,1.192657969127693832e+03
-3.091361911914840999e+00,1.056478209680358127e+01,3.169503186828866337e+00,6.528496892992153855e-01,-4.369356925750700338e-01,-6.187669058171173520e-01,1.199203354427963859e+03
-3.201884344356941359e+00,1.084478556349193212e+01,2.958754092622469134e+00,6.489674183375384597e-01,-6.398524689677328459e-01,-4.116164572640135244e-01,1.201110968549146264e+03
-3.536047276090743097e+00,1.139599509218204787e+01,2.004855102439959680e+00,9.353024393736201203e-01,-3.215044053907111787e-01,-1.477912859957518921e-01,1.207656353849416291e+03
-3.577181261904172960e+00,1.141280612440590581e+01,1.857633861399416331e+00,9.850644497091249896e-01,7.816409667824655849e-02,1.534157876807350218e-01,1.208478945707734283e+03
-3.651582586380573314e+00,1.143401273066672452e+01,1.606834432242308930e+00,9.875253150899500065e-01,1.675020686762966615e-02,1.565604758431322630e-01,1.209865610689777441e+03
-3.871111913295086193e+00,1.157580261528196708e+01,3.314060793775914227e-01,9.997528026385387179e-01,-2.078880646643845032e-02,-7.756232261837862213e-03,1.216410995990047468e+03
-3.857416533428473127e+00,1.169825534771652364e+01,-1.960929823409254258e-01,9.834286233217454098e-01,-5.773411776843397764e-02,-1.718514313973791841e-01,1.218977352460894735e+03
-3.715407470192723327e+00,1.204737569998862590e+01,-8.768473322554812821e-01,8.090913157059780314e-01,-1.879069061631002679e-01,-5.568305284941154065e-01,1.222448549475186155e+03
-3.576728385998759752e+00,1.237094383234050987e+01,-1.277625160841335150e+00,8.040294348401492153e-01,-2.143551217026609113e-01,-5.546048590110876919e-01,1.224607003153273808e+03
-2.787835017064862253e+00,1.347168878008467985e+01,-2.270609757751553825e+00,7.122064592481269774e-01,-5.652653585874247710e-01,-4.162151292135564118e-01,1.231152388453543836e+03
-1.410484818627763870e+00,1.399377125333002425e+01,-2.643820039521439291e+00,5.130386291261112008e-01,-8.309780100923831458e-01,-2.150927980359189085e-01,1.237697773753813863e+03
-9.586199591654115393e-01,1.395422592541279094e+01,-2.622683521717227517e+00,2.365446930023908378e-01,-9.714444150531225119e-01,1.844875805072462849e-02,1.239535596146444504e+03
4.426456750366469239e-01,1.341075330991885295e+01,-2.307484225533925848e+00,-3.637610835117999902e-02,-9.066489749383475072e-01,-4.203122826945341894e-01,1.246080981446714532e+03
1.361371406935368400e+00,1.252344831825444516e+01,-1.603248652440985245e+00,-2.994317977591057778e-01,-5.959740535322732846e-01,-7.450862540718251603e-01,1.252626366746984559e+03
1.664654897534671552e+00,1.207119816046772343e+01,-1.056215569662265485e+00,-4.812827872214691660e-01,-1.236735551059070792e-01,-8.677959037075942961e-01,1.256439075760270043e+03
1.788067517663818995e+00,1.185959150472849366e+01,-7.157878533320274350e-01,-5.634314298586408087e-01,-1.627330054567127371e-01,-8.099759211025707728e-01,1.258643091531374012e+03
1.938765306207550276e+00,1.156508226255112426e+01,1.162383284975303382e-01,-9.597245441768325058e-01,8.425416153721933255e-02,-2.680075289377290559e-01,1.263537512859439857e+03
1.850252174039686448e+00,1.154476895032592410e+01,1.437951205392866472e+00,-9.976245074072508379e-01,5.182101197004983228e-02,-4.536435755971665595e-02,1.270082898159709885e+03
1.753739955705870379e+00,1.161011980005520172e+01,1.958485617373061149e+00,-9.835897307574898996e-01,1.669014156758073450e-02,1.796404206193792097e-01,1.272415143416737919e+03
1.326115850070950897e+00,1.190119482200087120e+01,3.509162517811405646e+00,-9.279558151428499713e-01,-1.706889729461072147e-01,-3.313023990967849941e-01,1.278960528717007946e+03
6.684139961422158605e-01,1.232669022654056157e+01,5.150842714450319271e+00,-5.946101156721330661e-01,-3.069868069097569929e-01,-7.430988566183134303e-01,1.285505914017277973e+03
-1.344557612546921077e-01,1.278957648350993992e+01,6.762194540229543804e+00,-8.331166750948773569e-02,-3.514116352149324052e-01,-9.325057794334120631e-01,1.292051299317548001e+03
-1.013413343368946284e+00,1.308930416886850345e+01,8.226810365182805285e+00,4.529178068848345173e-01,-2.906681246501734428e-01,-8.428377670170608127e-01,1.298596684617818028e+03
-1.080812027000295661e+00,1.309984375288033931e+01,8.328392041484121933e+00,8.535993003883355357e-01,-1.429368048342179176e-01,-5.009344310358658792e-01,1.299084628259237661e+03
-1.938573145343331028e+00,1.297459437024135376e+01,9.549982820782711102e+00,9.013486978014324524e-01,9.953885283217675864e-03,-4.329774187402535834e-01,1.305630013559507688e+03
-2.577320601071425354e+00,1.238965293487484942e+01,1.047115489541939226e+01,9.218108584123108074e-01,1.625432132392070905e-01,-3.519125532608893825e-01,1.312175398859777715e+03
-2.757570930260524023e+00,1.149906799856061035e+01,1.105470137169819544e+01,9.143663216796182880e-01,3.102117572308168425e-01,-2.601939573726085864e-01,1.318720784160047742e+03
-2.484411230439094176e+00,1.064064457419559950e+01,1.130578601467717448e+01,8.792404440452468162e-01,4.484890583896875560e-01,-1.605982753917792605e-01,1.324381940622837419e+03
-1.777221147175533478e+00,9.838689779748706954e+00,1.139141828669323786e+01,6.620009545214765589e-01,7.208246467444270333e-01,-2.053401199436054592e-01,1.330927325923107446e+03
-8.146519226662021218e-01,9.580268596013658211e+00,1.136957657263632981e+01,3.630959005884846769e-01,9.042380346786275114e-01,-2.247508478656664033e-01,1.337472711223377473e+03
-4.879006532966981280e-01,9.627609443043079196e+00,1.135773224153655292e+01,1.939863639565157089e-02,9.761030611291690029e-01,-2.164359188302243664e-01,1.339529752796983757e+03
-1.827857861283442298e-01,9.697808735120764467e+00,1.134799368680197063e+01,-1.013611653430938481e-01,9.947904679487993285e-01,-1.076285426616940821e-02,1.341451046296087952e+03
7.039531171483773830e-01,1.035263468575503687e+01,1.131781970725845632e+01,-6.043435062253207368e-01,7.966247262523081796e-01,1.248887530718785326e-02,1.347996431596357979e+03
1.042738196260550865e+00,1.149008963778559789e+01,1.128128997730034655e+01,-9.303728220387905701e-01,3.652054754666115843e-01,3.208383861564084727e-02,1.354541816896628006e+03
1.025222533210240927e+00,1.176174058865024108e+01,1.127171730762893809e+01,-9.839868873320953835e-01,-1.731468152006530870e-01,4.228458281547771425e-02,1.355968761765152522e+03
6.689763841433071789e-01,1.282675120033749039e+01,1.132123636011438705e+01,-8.623021991410855236e-01,-4.731246673980267214e-01,-1.805158343627625561e-01,1.362514147065422549e+03
1.729458341902863627e-01,1.330776516338748294e+01,1.170377230642692545e+01,-6.074486422741187663e-01,-7.000358337528247432e-01,-3.754383817102758258e-01,1.369059532365692576e+03
4.617723740311663327e-02,1.331190913651284191e+01,1.194231076856044282e+01,-2.587843028507987309e-01,-8.188375791016829774e-01,-5.123804286355254645e-01,1.371438322353818876e+03
-1.800257051258068730e-01,1.294630864114203561e+01,1.268817865677017664e+01,-1.173344742090068338e-01,-6.401655382392422711e-01,-7.592224343450463264e-01,1.377983707654088903e+03
-4.687248336856542075e-01,1.219999045461294962e+01,1.324663156982392032e+01,3.735805375209566570e-02,-3.892425525010038134e-01,-9.203763421243290610e-01,1.384529092954358930e+03
-7.669038347097745234e-01,1.177519834830938628e+01,1.334116298994405625e+01,1.878342727719824190e-01,-9.438844610174471073e-02,-9.776538790462442341e-01,1.388136004714354613e+03
-8.082637767656648542e-01,1.172847367931007945e+01,1.334277606060616428e+01,2.442206644618584999e-01,-1.005426486602565284e-01,-9.644923238770028995e-01,1.388555737678094602e+03
-1.601852856453688023e+00,1.114784962878697705e+01,1.293022202640544016e+01,5.852792931321449954e-01,1.298601965549045500e-01,-8.003639661937784755e-01,1.395101122978364629e+03
-2.203817336641896940e+00,1.073392371594730399e+01,1.189202258433385673e+01,8.114212540201994894e-01,3.347656187855710397e-01,-4.790882267426845309e-01,1.401646508278634656e+03
-2.273763191519335258e+00,1.059255519047676763e+01,1.145463634071063552e+01,8.782447797180655824e-01,4.739415173916023960e-01,-6.374594097230119882e-02,1.403961155374455302e+03
-2.020792719891048694e+00,1.024698456043671158e+01,1.014718933152971303e+01,5.767613634069669315e-01,7.178354122645006496e-01,3.899444198561341501e-01,1.410506540674725329e+03
-1.223723122223579818e+00,1.014387972878508393e+01,8.721770495050630956e+00,6.982763580426956662e-02,7.060273783021486782e-01,7.047321777539579113e-01,1.417051925974995356e+03
-2.989030382903274385e-01,1.033253852842528708e+01,7.210561675060388254e+00,-4.619794912441007595e-01,4.427231172037702223e-01,7.684849973556062697e-01,1.423597311275265383e+03
3.765043980181104755e-01,1.056041572011426055e+01,5.938998861927506034e+00,-8.292230457766804896e-01,2.171592115922395261e-02,5.584940099234131372e-01,1.429009903517570365e+03
1.013849601781255050e+00,1.082583088924583237e+01,4.438049193204078868e+00,-8.139360870011370652e-01,-5.347380492253933637e-02,5.784864721511088215e-01,1.435555288817840392e+03
1.453668300205985142e+00,1.114656433696954707e+01,3.034153307969385427e+00,-7.935320010562205706e-01,-1.283273295115763546e-01,5.948420460910140983e-01,1.442100674118110419e+03
1.716114475792525074e+00,1.159813821362044095e+01,1.788591702034931563e+00,-7.681390654996672618e-01,-2.023740680638781986e-01,6.074579101684174365e-01,1.448646059418380446e+03
1.839007754996487609e+00,1.219119911438882653e+01,7.231079326725946554e-01,-7.379169190938735801e-01,-2.751485080420110751e-01,6.162547517339825864e-01,1.455191444718650473e+03
1.869468866115391315e+00,1.250918026350770162e+01,2.477892381898978424e-01,-7.030555584923041668e-01,-3.461931346124738074e-01,6.211772655348950511e-01,1.458405581212226934e+03
1.931482041504560820e+00,1.307300011335024692e+01,-6.948471745814109868e-01,-7.673997906084807363e-01,-3.535115355640594537e-01,5.349066793329632086e-01,1.464950966512496962e+03
2.040158067143078569e+00,1.338096438994275594e+01,-1.659123784923134171e+00,-8.228142620110984184e-01,-3.567163430108697963e-01,4.424117322788055917e-01,1.471496351812766989e+03
2.267603783838912257e+00,1.324344950762623085e+01,-2.741886282356643445e+00,-8.686541633568124476e-01,-3.557702657957087511e-01,3.447687086383721122e-01,1.478041737113037016e+03
2.452811256115978722e+00,1.296319100596216423e+01,-3.426940220850587249e+00,-9.043860890364279204e-01,-3.506843100574558170e-01,2.431137935908326553e-01,1.481816523951514682e+03
2.747451869512268274e+00,1.240541965426527149e+01,-4.585479616621778831e+00,-8.922008836234642803e-01,-4.002847353749375836e-01,2.091595416871807889e-01,1.488361909251784709e+03
2.833324072387189307e+00,1.216485836491089678e+01,-5.494712080968273682e+00,-8.766595963224532717e-01,-4.483794486124313416e-01,1.744185260492696898e-01,1.494907294552054736e+03
2.571204392580567433e+00,1.257853212421244393e+01,-5.968510141464276053e+00,-8.578206797698375574e-01,-4.947875586962055539e-01,1.390214124141519736e-01,1.501423043705973669e+03
2.001767970235658556e+00,1.345039122793759212e+01,-6.042351828154475690e+00,-7.206858757415962602e-01,-6.795043875783900456e-01,1.374178145927558437e-01,1.507968429006243696e+03
1.248362491409985342e+00,1.430611377923368899e+01,-5.852009633756115825e+00,-5.454059750691740982e-01,-8.282557423336339708e-01,1.285408403947618794e-01,1.514513814306513723e+03
7.609404887073084600e-01,1.468768755195317333e+01,-5.665627865607131497e+00,-3.412582903529234324e-01,-9.331684327618665620e-01,1.128603356409384889e-01,1.518374598924670863e+03
-9.503975222710593640e-02,1.504119994576828390e+01,-5.184607933872189101e+00,-1.820783761453664551e-01,-9.821811090186030047e-01,-4.653744755823938789e-02,1.524919984224940890e+03
-3.135989136079504469e-01,1.507380061357793011e+01,-5.028027032610014047e+00,-1.322132180182915631e-02,-9.789925820934141099e-01,-2.034618412711069468e-01,1.526550447678494493e+03
-1.206484048192191461e+00,1.500795549148636177e+01,-4.351907370732575941e+00,2.240272078722229665e-01,-9.722344310309319892e-01,-6.760193229932705272e-02,1.533095832978764520e+03
-2.142533702362405368e+00,1.457358434018689408e+01,-3.905410357007493616e+00,4.445205689019690043e-01,-8.927623032468693376e-01,7.331393949371001195e-02,1.539641218279034547e+03
-2.280103493863047337e+00,1.448530911970433799e+01,-3.880863180053559347e+00,6.317680110098428115e-01,-7.465199390663883605e-01,2.087466427042666273e-01,1.540574001202621048e+03
-3.196630247256882384e+00,1.371530461515942356e+01,-4.033511464856580631e+00,8.053933171343854447e-01,-5.623580036885934552e-01,1.873314720024766011e-01,1.547119386502891075e+03
-3.884124584389936352e+00,1.269724689514818472e+01,-4.662976483010176310e+00,9.270545450116495223e-01,-3.419127161331464992e-01,1.538296626784643184e-01,1.553664771803161102e+03
-4.099543316122264969e+00,1.153055778779026852e+01,-5.456310617854641443e+00,9.889021394738842785e-01,-9.940719726671129464e-02,1.104027521194500816e-01,1.560210157103431129e+03
-4.086132723366080910e+00,1.133711109562496056e+01,-5.582747560111195106e+00,9.869456860411075505e-01,1.495121213024083462e-01,5.985263894148069169e-02,1.561251238058522858e+03
-3.659918935600503076e+00,1.021506014500184811e+01,-6.229032662973948753e+00,9.331463394668279010e-01,3.209702200292293695e-01,1.619074642908715223e-01,1.567796623358792885e+03
-2.714252825169196193e+00,9.326007345698956286e+00,-6.474945349360866409e+00,8.394946458460780248e-01,4.787204483939033750e-01,2.570476062606767420e-01,1.574342008659062913e+03
-2.585376279705250635e+00,9.240596008931065697e+00,-6.473587619965172735e+00,7.099901976946535465e-01,6.160257473627062108e-01,3.412099027905695636e-01,1.575088175139991336e+03
-1.525675541445188355e+00,8.605268438816441545e+00,-6.181942910020975290e+00,5.802843823510307475e-01,7.977933629888527278e-01,1.636880740010502600e-01,1.581633560440261363e+03
-7.817721334576744896e-01,8.220014356536758271e+00,-5.388875346512123521e+00,4.033566651919693324e-01,9.146387537195218576e-01,-2.715420481897745653e-02,1.588178945740531390e+03
-7.281813232056478791e-01,8.193332441092916696e+00,-5.278318084148443390e+00,1.936048688328370349e-01,9.570534038216220729e-01,-2.157867859648554543e-01,1.588887797873073396e+03
-4.111237825725542194e-01,8.059385725090479013e+00,-4.268400181775520608e+00,3.534052767855472982e-02,9.973285065286865425e-01,-6.391320025264690674e-02,1.595433183173343423e+03
-2.532651693370099877e-01,8.069408503379586151e+00,-3.631614304276569172e+00,-1.246814861756676690e-01,9.880011062050624293e-01,9.113913067398173029e-02,1.600887889330697590e+03
-1.776904414953849320e-01,8.083531808866775137e+00,-3.485518266472543036e+00,-6.832284530157382851e-02,9.802611101345187761e-01,1.855212784335110443e-01,1.602857601602921704e+03
1.987252429553388600e-01,8.164003888752635163e+00,-3.500606733314342023e+00,-9.533233671658290775e-02,9.831671082595199174e-01,1.558594969923315365e-01,1.609402986903191731e+03
6.616405242470764225e-01,8.347346214894709959e+00,-4.267908944416603845e+00,-1.221875944653474516e-01,9.844825562342551795e-01,1.259455764181448834e-01,1.615948372203461759e+03
9.476388024747049998e-01,8.715622220533418840e+00,-5.473221098712578225e+00,-1.488451793472093387e-01,9.842053268883114159e-01,9.582790355480133582e-02,1.622493757503731786e+03
9.814998180442703335e-01,8.867245640608595991e+00,-5.885525151869182459e+00,-1.752619717576107961e-01,9.823358680701669288e-01,6.555519466858140964e-02,1.624493894945130023e+03
7.465667310970207637e-01,9.552374944852672911e+00,-7.173574242560015968e+00,-2.681242971368246741e-01,6.723728343937263041e-01,6.899435722248296043e-01,1.631039280245400050e+03
2.491915720682246205e-01,1.034081393862843612e+01,-7.969968097858966871e+00,-2.283824425474754449e-01,2.987950460188998694e-02,9.731118513001375536e-01,1.636281754133308368e+03
5.026519738705065299e-02,1.067821335278231487e+01,-8.186339251049655985e+00,-2.502702149484286598e-01,-9.929536333029712405e-03,9.681240745773355139e-01,1.638253231754998524e+03
-4.522804982074318247e-01,1.164711543189739196e+01,-8.514677528297315945e+00,-3.612036149433325849e-02,1.091107241468717709e-01,9.933721202852739962e-01,1.644798617055268551e+03
-7.968113166004132664e-01,1.197039208678982902e+01,-8.440784197825340840e+00,1.802208425892015964e-01,2.215314136912964749e-01,9.583539433019276910e-01,1.649936422859968388e+03
-1.460810642397268877e+00,1.133370760224720009e+01,-8.198322631706703945e+00,1.635603308556333735e-01,3.020841678656259743e-01,9.391438514338864563e-01,1.656481808160238415e+03
-1.927533464853525835e+00,1.054491548485003527e+01,-8.002285471641068071e+00,1.457327560584805448e-01,3.804814471347644500e-01,9.132326276409665766e-01,1.660148686695825063e+03
-2.633159939642499392e+00,9.402415585719877456e+00,-7.437353903760081764e+00,4.062362717839302362e-01,5.809378230243210650e-01,7.053235691982701061e-01,1.666694071996095090e+03
-3.038895236516027332e+00,9.179586239657739455e+00,-6.754445968266171718e+00,6.052878787452038445e-01,6.935149632212271875e-01,3.907193105437455904e-01,1.671978387122397407e+03
-3.533746382527905183e+00,9.707531510003475361e+00,-5.727699674994775947e+00,7.315268830759276142e-01,6.417964800518927149e-01,2.301384312277844624e-01,1.678523772422667435e+03
-3.605440530910271946e+00,9.818614224414536906e+00,-5.583200737019432758e+00,8.252880033240054258e-01,5.615838997782702791e-01,5.933999558933626683e-02,1.679380621676957617e+03
-4.060410387077385330e+00,1.078776527462234114e+01,-4.500265119834997662e+00,9.455270542799374400e-01,3.224593853183213565e-01,4.468259666289298854e-02,1.685926006977227644e+03
-4.110908903069383946e+00,1.196030251256592791e+01,-3.573011794011124564e+00,9.978271980072521696e-01,6.016526243521989198e-02,2.681462497959359245e-02,1.692471392277497671e+03
-4.072280862015993819e+00,1.213909900779745321e+01,-3.460813669272363224e+00,9.784305333783488434e-01,-2.064519600049400661e-01,7.019940342510113708e-03,1.693401776851197610e+03
-3.383421680556712108e+00,1.328025539826955637e+01,-2.857345226683964512e+00,8.798645799525618427e-01,-2.802979836738357933e-01,3.837569039032283080e-01,1.699947162151467637e+03
-2.046682919737810025e+00,1.392453223308552879e+01,-2.602861149570615762e+00,6.430723171713128572e-01,-3.101093239272191826e-01,7.002058283829674101e-01,1.706492547451737664e+03
-4.830447500221610735e-01,1.414747016625891085e+01,-2.501167664250443234e+00,3.052537190591408378e-01,-2.912026383881068381e-01,9.066527396950765372e-01,1.713037932752007691e+03
-3.537083897313952341e-01,1.416269095080882146e+01,-2.491393616538927436e+00,-8.052006713008623418e-02,-2.265481658836306644e-01,9.706649511156716370e-01,1.713584268264123693e+03
1.019802132227850544e+00,1.468305821573476422e+01,-2.252384511498464637e+00,-2.609912785039779082e-01,-2.498360183854427541e-01,9.324502755974536372e-01,1.720129653564393720e+03
2.045898740090049461e+00,1.573689036562176824e+01,-1.883875314243545596e+00,-4.324393085621722199e-01,-2.644863850658744631e-01,8.619983738527219330e-01,1.726675038864663748e+03
2.720946099115982175e+00,1.704521103407271099e+01,-1.609435816344299441e+00,-5.889367916986517626e-01,-2.699927698115587305e-01,7.617449439495634911e-01,1.733220424164933775e+03
3.055883241937705108e+00,1.823201353357038457e+01,-1.537617230354633380e+00,-7.250732276139377763e-01,-2.661647999776754481e-01,6.351559760008201883e-01,1.738973867391777048e+03
3.228575100970869194e+00,1.952797774401085107e+01,-1.570934839870047561e+00,-7.827609424086453549e-01,-2.633318213115699580e-01,5.638613827184535410e-01,1.745519252692047075e+03
3.281345505236850091e+00,2.072619393132543664e+01,-1.557792912853538159e+00,-8.338587130149858195e-01,-2.582818969856429114e-01,4.878197499235526480e-01,1.752064637992317103e+03
3.341013700500138128e+00,2.178205450678566990e+01,-1.304424088288234085e+00,-8.779363699171861546e-01,-2.510575407825371697e-01,4.076712420439850826e-01,1.758610023292587130e+03
3.405508945505845375e+00,2.232055953355543565e+01,-1.025974665142211695e+00,-9.146228378468441722e-01,-2.417195705827623609e-01,3.240905948692410221e-01,1.762352992655723710e+03
3.543129195613775817e+00,2.313868106738047103e+01,-3.253598487172283393e-01,-9.337898384240846950e-01,-2.934890404600342673e-01,2.046917701940817180e-01,1.768898377955993737e+03
3.637188994093155436e+00,2.377615220011994523e+01,6.088594339103917674e-01,-9.367989460136278979e-01,-3.401800949353879222e-01,8.175107190167986426e-02,1.775443763256263765e+03
3.575416845964089152e+00,2.424338637441985256e+01,1.649176442948477428e+00,-9.235980998216661852e-01,-3.809848190352009834e-01,-4.260419779961708425e-02,1.781989148556533792e+03
3.245804087319759113e+00,2.455448226327600025e+01,2.668071832415800593e+00,-8.944157229909571738e-01,-4.151971508238774256e-01,-1.662222620887056357e-01,1.788534533856803819e+03
2.536648186430435548e+00,2.472721751053752470e+01,3.538028795329290155e+00,-8.497567699139352282e-01,-4.422250977709025199e-01,-2.869641003442915950e-01,1.795079919157073846e+03
2.431067881002445308e+00,2.473959766785084824e+01,3.624503311437217157e+00,-7.903939896063123527e-01,-4.616009797268226245e-01,-4.027404582466184157e-01,1.795822939813491757e+03
1.218623789609973418e+00,2.479639551462733138e+01,4.207110255948447453e+00,-4.683627261265561059e-01,-6.235803388905649669e-01,-6.259248499017672218e-01,1.802368325113761784e+03
-4.246688694983308254e-01,2.479683539889099819e+01,4.373947694080538184e+00,-6.214183884220989690e-02,-6.734692122174024131e-01,-7.365973201557508565e-01,1.808913710414031812e+03
-2.023630471477179338e+00,2.485515459381961278e+01,4.033359733633863797e+00,3.552492991255421506e-01,-6.022999100081566359e-01,-7.148641506431783199e-01,1.815269220276476744e+03
-3.188386748089731437e+00,2.509602270249973799e+01,3.093560368126250015e+00,5.138449078752986843e-01,-6.578277961311281841e-01,-5.506577896351982915e-01,1.821814605576746771e+03
-3.345693881123345648e+00,2.516582145761205780e+01,2.850712147776408578e+00,6.440763969405104428e-01,-6.770437505866438999e-01,-3.560552691554091931e-01,1.823075599560264436e+03
-3.786149277362891752e+00,2.550188181888655237e+01,1.379695836141714649e+00,6.801727225889527828e-01,-7.290668517912523017e-01,-7.631902164734057081e-02,1.829620984860534463e+03
-3.571123800230022738e+00,2.564674151732370433e+01,-2.894978014228757335e-01,6.603167696218296134e-01,-7.211155496485437411e-01,2.096953213866942500e-01,1.836166370160804490e+03
-2.893208811105203004e+00,2.557237013056940356e+01,-1.733933726237959494e+00,5.861419406620155259e-01,-6.538439511719262853e-01,4.784597296669868549e-01,1.842711755461074517e+03
-2.147991127394811350e+00,2.541910491957291640e+01,-2.576443799896516396e+00,4.637499774508339612e-01,-5.327859259770609812e-01,7.078651817225418696e-01,1.848176137346606993e+03
-1.248819342520646636e+00,2.503494227565012764e+01,-3.145151644188437512e+00,3.727546169417129129e-01,-3.591684151411224102e-01,8.555992315992198005e-01,1.854721522646877020e+03
-5.429437415406248579e-01,2.428803915303365457e+01,-3.347237812537253721e+00,2.593013062604045404e-01,-1.639115164636657518e-01,9.517845593104080626e-01,1.861266907947147047e+03
-4.041882291039216035e-01,2.403475809533557950e+01,-3.362459557631790386e+00,1.302254107913222991e-01,4.122087802105792870e-02,9.906261563266268722e-01,1.862969455417602603e+03
-5.780984754713078266e-02,2.284417157420876521e+01,-3.371801502309170750e+00,2.385840015912477421e-02,3.900977968566656656e-02,9.989529587642297370e-01,1.869514840717872630e+03
-1.811650361323348737e-02,2.251591908521780638e+01,-3.363572937758704029e+00,-8.278031493171070232e-02,3.635443061931721564e-02,9.959034967439059916e-01,1.871052893727382980e+03
7.489676203644243802e-02,2.106394749027455404e+01,-3.331376728123126796e+00,-8.320306102207493393e-02,7.158362242572992307e-02,9.939572604596812466e-01,1.877598279027653007e+03
1.515477669214976460e-02,1.966947777819012444e+01,-3.325312930974966719e+00,-8.352221383327962378e-02,1.067236799949724257e-01,9.907734836521775446e-01,1.884143664327923034e+03
-3.235979397593537199e-02,1.928114270937917141e+01,-3.331186565278625000e+00,-8.373737614218142167e-02,1.417308672508156842e-01,9.863561289353202088e-01,1.886141432716269264e+03
-4.616891678353752249e-01,1.822277211121400597e+01,-3.367960872142518713e+00,5.774853839805815965e-03,4.128270055995055671e-02,9.991298162325211729e-01,1.892621027517892571e+03
-7.973948950551251746e-01,1.786017662316464083e+01,-3.389042180273115434e+00,2.615742211942617135e-01,-2.832203597277865512e-02,9.647667018919782178e-01,1.895443756594243041e+03
-1.953110558053921864e+00,1.726450543361922385e+01,-3.279948484283059074e+00,4.368802515382159135e-01,4.349176266234720117e-02,8.984665338205264362e-01,1.901989141894513068e+03
-3.344376886291999806e+00,1.702518112583607746e+01,-2.637810091435164317e+00,5.945864251726807881e-01,1.135534674342526945e-01,7.959714775248841745e-01,1.908534527194783095e+03
-3.470481047568190647e+00,1.701694570774903781e+01,-2.540531376049962820e+00,7.283395834304690064e-01,1.790406566238698649e-01,6.614105339974625242e-01,1.909155685568748140e+03
-4.474947539605777180e+00,1.703376430866138591e+01,-1.184476906285605535e+00,8.759363073513702913e-01,1.740309730363882312e-01,4.499408915425588962e-01,1.915410774006160409e+03
-4.731743857743150983e+00,1.725989650737209757e+01,7.830019543515877034e-01,9.872040058631258441e-01,1.405185435352097334e-01,7.537101386002936776e-02,1.921956159306430436e+03
-4.012855458944860843e+00,1.765569483356796354e+01,2.766454952224336239e+00,9.466332869623660384e-01,8.539342921358118732e-02,-3.107915414895146555e-01,1.928501544606700463e+03
-2.828188749526547419e+00,1.809652782018135397e+01,4.288466689028281209e+00,7.604640860927296409e-01,1.713422986296597034e-02,-6.491523641869872963e-01,1.935046929906970490e+03
-1.810778279266420210e+00,1.842813011263488221e+01,5.145328716923232015e+00,4.573304859587432047e-01,-5.376032207285435377e-02,-8.876692257721792156e-01,1.941592315207240517e+03
-1.278606414763125532e+00,1.854185189969256342e+01,5.413016871824558152e+00,8.385654813117662809e-02,-1.163861640771598066e-01,-9.896566779176009243e-01,1.945986311538626524e+03
-5.771989347878926369e-01,1.841856205108975075e+01,5.552697306683334944e+00,2.156208070445357616e-02,-2.048805514843969611e-02,-9.995565598132757357e-01,1.952531696838896551e+03
-1.347597120983511643e-01,1.810462481717597782e+01,5.533174918251739349e+00,-4.101647113438378067e-02,7.567998901229761044e-02,-9.962872017405791647e-01,1.956877363433620303e+03
5.811059702310409358e-01,1.721448914413574016e+01,5.472748311055626758e+00,-1.043892423009770282e-01,1.724658151655841798e-01,-9.794674209442392199e-01,1.963422748733890330e+03
1.367034484229582292e+00,1.579985165805513070e+01,5.391997844905407788e+00,-1.663353741162748589e-01,2.668946310182422899e-01,-9.492617127280051914e-01,1.969968134034160357e+03
2.202868603327098107e+00,1.396822516782277823e+01,5.288615083539971451e+00,-2.260082762948158186e-01,3.576759198664188899e-01,-9.060828854989249059e-01,1.976513519334430384e+03
3.071578249047374420e+00,1.182762903478741734e+01,5.160294260322139337e+00,-2.825924260530767174e-01,4.435690145785762817e-01,-8.505210462083675482e-01,1.983058904634700411e+03
3.959265380134889600e+00,9.486514897428957482e+00,5.004732552520815503e+00,-3.353145136553769001e-01,5.234000534808734839e-01,-7.833355353540971677e-01,1.989604289934970438e+03
4.855168207668996594e+00,7.053692314343460446e+00,4.819630355330338567e+00,-3.834540109891270698e-01,5.960780231433349119e-01,-7.054445490484524406e-01,1.996149675235240466e+03
5.751664735712803456e+00,4.638254337483447287e+00,4.602691555603667162e+00,-4.263530187195414545e-01,6.606096687966118708e-01,-6.179125900332023136e-01,2.002695060535510493e+03
6.644275627118301664e+00,2.349503027600459593e+00,4.351623805275890433e+00,-4.634252574427485949e-01,7.161130685992770362e-01,-5.219359191949843879e-01,2.009240445835780520e+03
7.529177912590935051e+00,2.654711945946435225e-01,4.066575210507121341e+00,-4.941640799650126592e-01,7.618296862517265344e-01,-4.188262064609615809e-01,2.015785831136050547e+03
8.399515603353295390e+00,-1.598438168003926574e+00,3.752570731027242257e+00,-5.181493952231132072e-01,7.971347372629961070e-01,-3.099926045556725684e-01,2.022331216436320574e+03
9.246087191953163753e+00,-3.257912323003940180e+00,3.417075168137905905e+00,-5.350534092427176036e-01,8.215457272349104834e-01,-1.969224906416519039e-01,2.028876601736590601e+03
1.005923726284854247e+01,-4.728265719704793035e+00,3.067555862972547231e+00,-5.446451047034784887e-01,8.347290455174892765e-01,-8.116113905533656192e-02,2.035421987036860628e+03
1.082886136381911157e+01,-6.024429277128151128e+00,2.711481810585516516e+00,-5.467933979199962602e-01,8.365045241679701649e-01,3.570939706048704976e-02,2.041967372337130655e+03
1.103171816627475366e+01,-6.354778515109300585e+00,2.613731625442321516e+00,-5.414689301209076877e-01,8.268478999497195225e-01,1.520919066330599090e-01,2.043757430129056502e+03
1.173802192953075263e+01,-7.483762064474990261e+00,2.259707439799198525e+00,-5.786158230990208207e-01,8.053431787867501024e-01,1.289344548234132026e-01,2.050302815429326529e+03
1.237566489338746756e+01,-8.471128296509018440e+00,1.916110642292871313e+00,-6.143864087053555467e-01,7.819228559695177161e-01,1.054703186217257754e-01,2.056848200729596556e+03
1.293310754203765534e+01,-9.330470814552626280e+00,1.590409468943510651e+00,-6.486956034114939040e-01,7.566426391934318874e-01,8.175530972711661515e-02,2.063393586029866583e+03
1.339838325733746593e+01,-1.007495491792634468e+01,1.290070023075417183e+00,-6.814617996706557879e-01,7.295626599445600435e-01,5.784583652976503509e-02,2.069938971330136610e+03
1.375910369517374754e+01,-1.071730737717357762e+01,1.022555389517898483e+00,-7.126070600043116210e-01,7.007473304845458495e-01,3.379876995319174710e-02,2.076484356630406637e+03
1.400246425574963993e+01,-1.126980630779667081e+01,7.953247490761179428e-01,-7.420573023626660936e-01,6.702651906577794527e-01,9.671308196981564728e-03,2.083029741930676664e+03
1.411524964718443265e+01,-1.174427114414739037e+01,6.158324933499907949e-01,-7.697424763182491025e-01,6.381887448842136212e-01,-1.447915929880369719e-02,2.089575127230946691e+03
1.408383954181201680e+01,-1.215205271512334306e+01,4.915273399799519050e-01,-7.955967296739413497e-01,6.045942897250549120e-01,-3.859518834432139334e-02,2.096120512531216718e+03
1.389421432455268679e+01,-1.250402342331070038e+01,4.298514483983757462e-01,-8.195585650894747776e-01,5.695617324309147911e-01,-6.261941662146564003e-02,2.102665897831486745e+03
1.353196093272343248e+01,-1.281056752920219566e+01,4.382395361654049526e-01,-8.415709863540985491e-01,5.331744009034011800e-01,-8.649470011159360316e-02,2.109211283131756772e+03
1.298227878664255996e+01,-1.308157154210912765e+01,5.241179959678999856e-01,-8.615816339576187755e-01,4.955188455215167598e-01,-1.101642490052900519e-01,2.115756668432026800e+03
1.222998581037465904e+01,-1.332641471937561306e+01,6.949040133593136215e-01,-8.795429096373809097e-01,4.566846333035458616e-01,-1.335717627712034172e-01,2.122302053732296827e+03
1.131675426951893471e+01,-1.354312486230497647e+01,9.408880205975496125e-01,-8.954120896048723965e-01,4.167641348933411316e-01,-1.566615640629518136e-01,2.128530846178800857e+03
1.016003823001647355e+01,-1.376931598983493643e+01,1.177683180138862307e+00,-7.463003205928561146e-01,6.569343302339030188e-01,1.071033017382343189e-01,2.135076231479070884e+03
9.124158337408799113e+00,-1.402832341187726861e+01,1.055211648786664069e+00,-4.856254809722886367e-01,7.989005496684870034e-01,3.548574417565126815e-01,2.141621616779340911e+03
9.038071937113580034e+00,-1.405880290477308137e+01,1.010676768674342751e+00,-1.523553379523607254e-01,8.214405669029113399e-01,5.495645967887604622e-01,2.142313443644631661e+03
8.716232941085074515e+00,-1.420094867859382859e+01,7.514293177577838767e-01,-2.061131856407100449e-01,4.186616110273975733e-01,8.844420897691949168e-01,2.145499142418664633e+03
8.733841055156991828e+00,-1.439217462831972760e+01,-1.361591821766306720e-01,-3.448289148255733738e-01,5.365932193128410965e-01,7.701679923802056127e-01,2.152044527718934660e+03
9.517952785120977310e+00,-1.418153305075961690e+01,-1.079714602994969574e+00,-4.676105754964257621e-01,6.297296072039687553e-01,6.203055468830004360e-01,2.158589913019204687e+03
1.016019479590382346e+01,-1.377180858638188710e+01,-1.470952736088843471e+00,-5.687846453911346023e-01,6.937671049951598112e-01,4.417796183535804833e-01,2.162754429491485098e+03
1.087269892541222482e+01,-1.281115302046524995e+01,-1.808555527171044730e+00,-6.011824340529294819e-01,4.542472716418053391e-01,6.574474102102053630e-01,2.169299814791755125e+03
1.073253191898522019e+01,-1.166754656633590592e+01,-2.103311381997963192e+00,-5.704968527623697216e-01,1.670623314825933070e-01,8.041277997854301418e-01,2.175845200092025152e+03
1.052778436721950861e+01,-1.135817271661154493e+01,-2.213320924719337945e+00,-4.799477947627935892e-01,-1.376528691399350468e-01,8.664293404077895167e-01,2.177622345709097772e+03
9.276968932771442411e+00,-1.042654354648568926e+01,-2.556252129587962774e+00,-3.000901850424298467e-01,-4.018734268830380651e-01,8.651252103635038715e-01,2.184167731009367799e+03
7.458990613561276461e+00,-9.877982303383012308e+00,-2.593981261295636109e+00,-8.957441559818243859e-02,-6.250373184147370864e-01,7.754371506828982019e-01,2.190713116309637826e+03
5.743344789287075258e+00,-9.522801872021920744e+00,-2.236702616303795743e+00,1.300925477150037257e-01,-7.843454132207273721e-01,6.065279892871758838e-01,2.197258501609907853e+03
4.574886511245002119e+00,-9.131261093228287606e+00,-1.619430272790086001e+00,3.364688330731943622e-01,-8.635223051646793158e-01,3.756540334584810292e-01,2.203803886910177880e+03
3.956953033447265344e+00,-8.722170405803129967e+00,-9.261988715007959394e-01,5.084703981289063757e-01,-8.544790505740104125e-01,1.064020975215859977e-01,2.209961793825262248e+03
3.569989496032352161e+00,-8.339366195050015307e+00,-2.071829719014547100e-01,4.561689285725510912e-01,-8.874089857678765236e-01,6.643192438038376946e-02,2.216507179125532275e+03
3.228528582976077921e+00,-8.098286788041420436e+00,3.575840597855648451e-01,4.013961959995298034e-01,-9.155314229471497312e-01,2.610186634902187525e-02,2.223052564425802302e+03
2.919104565149982733e+00,-8.034654759147175085e+00,6.877202947305833813e-01,3.444489045388279269e-01,-9.386940217738530823e-01,-1.436960823984864515e-02,2.228535470921359774e+03
2.817644821333936012e+00,-8.109325734552793818e+00,1.053503555615002085e+00,-1.888698806550266895e-01,-9.621396342236138155e-01,-1.965031613886135398e-01,2.234736411398093878e+03
3.326227810233843840e+00,-8.321267155919430891e+00,1.547083706029923400e+00,-1.263061658960132339e-01,-9.327975126864791466e-01,-3.375404461373116005e-01,2.241281796698363905e+03
4.311276617157536073e+00,-8.544406368566269450e+00,1.984775156579276612e+00,-6.062688792140972366e-02,-8.804463127977453230e-01,-4.702517099780922361e-01,2.247170543447848104e+03
5.748830100669586329e+00,-8.746690914185872856e+00,2.304297090984991137e+00,-1.163534460811641025e-01,-8.381500921088589351e-01,-5.328830065578750164e-01,2.253715928748118131e+03
7.218614062551214516e+00,-8.932391182206657732e+00,2.502608190120196419e+00,-1.710540904837151155e-01,-7.884638160951388253e-01,-5.908157994101822519e-01,2.260261314048388158e+03
7.854877325210613215e+00,-9.031086900043277410e+00,2.594050885144163932e+00,-2.242465430380024272e-01,-7.318255527996498921e-01,-6.435393136396340141e-01,2.263384574859697750e+03
8.931302284275846048e+00,-9.211596131154017542e+00,2.942980174362038515e+00,-2.059926892173018775e-01,-7.291617165415898993e-01,-6.526011056327462034e-01,2.269929960159967777e+03
9.432793744760452626e+00,-9.275550429433454980e+00,3.331215211688932865e+00,-1.876518227041240328e-01,-7.261898709629609483e-01,-6.613872275000179934e-01,2.274173040800676063e+03
9.890834956867147199e+00,-9.274833442466947631e+00,4.233075872282687335e+00,-2.867804010700260586e-01,-7.325909105775384456e-01,-6.173050779780936415e-01,2.280718426100946090e+03
9.896110771778095838e+00,-9.353011482187426395e+00,5.348202495860078898e+00,-3.825218909855581662e-01,-7.303395335574963676e-01,-5.659321237003434035e-01,2.287263811401216117e+03
9.857846217891461649e+00,-9.388708295243358037e+00,5.534678824603767922e+00,-4.737455574494782162e-01,-7.194623261549218940e-01,-5.078750909782931977e-01,2.288346293910029544e+03
9.491026845532219980e+00,-9.858263291456266231e+00,6.509534936024818919e+00,-4.057920638888054543e-01,-3.592466264363561312e-01,-8.404002988331364943e-01,2.294891679210299571e+03
9.111518257917884611e+00,-1.060388722215720136e+01,7.067487154949407824e+00,-2.384412277200956831e-01,8.896525296295652863e-02,-9.670723678650710031e-01,2.300417285006516522e+03
8.750125993379088030e+00,-1.175748411816999628e+01,7.307452924964176866e+00,-8.239174874812867089e-02,3.954874625934028803e-02,-9.958139868498177005e-01,2.306962670306786549e+03
8.242153259812608823e+00,-1.285806634627817857e+01,7.050962662082234544e+00,7.593332290542861851e-02,-1.096006952665414327e-02,-9.970516573110400627e-01,2.313508055607056576e+03
8.212678556953640907e+00,-1.289800896778564443e+01,7.029934417272431624e+00,2.321611833588405616e-01,-6.116618385139156039e-02,-9.707511951536494932e-01,2.313785461999990275e+03
7.312867310961766343e+00,-1.353168387035504949e+01,6.375562233084941965e+00,5.229462232342234618e-01,2.383223509020995778e-01,-8.183689294356302213e-01,2.320330847300260302e+03
6.185774789564172593e+00,-1.351556213750476587e+01,5.539247948649991038e+00,7.104650215463031993e-01,4.907493307143071526e-01,-5.043833339462749921e-01,2.326876232600530329e+03
5.625601802813006813e+00,-1.329777390885979926e+01,5.117997434983529104e+00,7.576882697122958588e-01,6.462680318144442548e-01,-9.079711997094476461e-02,2.330114591040249707e+03
4.573509674456964547e+00,-1.254342846314433579e+01,4.321177510593498639e+00,8.453530829649347211e-01,4.892910679697753951e-01,-2.144071265763833611e-01,2.336659976340519734e+03
3.610953950604610885e+00,-1.147871037709450981e+01,3.643906353092635442e+00,8.927736625764498557e-01,3.090207348499720563e-01,-3.278099645264019868e-01,2.343205361640789761e+03
2.663611462920215445e+00,-1.040471152907315933e+01,3.142913646982127940e+00,8.976925009657805710e-01,1.140390571942079684e-01,-4.256069397276454613e-01,2.349750746941059788e+03
1.648555657319271006e+00,-9.619907620102305046e+00,2.874908122661027132e+00,8.598754408659458059e-01,-8.637159622568299500e-02,-5.031422995150891531e-01,2.356296132241329815e+03
