6.808387867250163872e+00,-1.116128291015253815e+01,-5.235937194362937142e+00,-4.592588411488510158e-01,-3.420110434702985230e-02,8.876427216415957444e-01,3.527230021890468947e+02
6.624241896401052543e+00,-1.098511865776471730e+01,-5.305947030110440998e+00,-4.557021985255284013e-01,-7.099029374501189538e-02,8.872958269078917715e-01,3.569477260694444567e+02
6.097668615493290645e+00,-1.101180950471035480e+01,-5.298331867629499925e+00,-4.515229671712671644e-01,-1.076824993440060607e-01,8.857366930679152484e-01,3.611724499498420187e+02
5.789797119945023773e+00,-1.107333197401914404e+01,-5.277887917508769178e+00,-4.467268561967852603e-01,-1.442275944733625304e-01,8.829674495357849873e-01,3.629244871571564772e+02
4.802508940648441360e+00,-1.135133266081408543e+01,-5.194573480145401767e+00,-3.374807404171905612e-01,-5.438395911588250059e-02,9.397590834032658602e-01,3.671492110375540392e+02
3.371888437795421467e+00,-1.185673339503380497e+01,-5.059797815330181692e+00,-2.203943025895948316e-01,3.672311559862899422e-02,9.747182999038358497e-01,3.713739349179516012e+02
1.541697961573224696e+00,-1.255361708706293022e+01,-4.884671302724836295e+00,-9.818768581358761072e-02,1.269770378282155665e-01,9.870329326925356694e-01,3.755986587983491631e+02
-4.712134950484584972e-01,-1.332011467411307315e+01,-4.680847600305080292e+00,2.630001650564826529e-02,2.142810368442161773e-01,9.764168916920025199e-01,3.798233826787467251e+02
-2.361676719221758702e+00,-1.399673498757374546e+01,-4.460252425784442032e+00,1.501767177837092238e-01,2.966068746000591894e-01,9.431168089777628438e-01,3.840481065591442871e+02
-3.914796150666389085e+00,-1.448289193894172477e+01,-4.230478038479728475e+00,2.705645263445798365e-01,3.720419650990329230e-01,8.879063088467527010e-01,3.882728304395418490e+02
-5.099963882862096121e+00,-1.478489383236663812e+01,-3.990448577589443602e+00,3.846666036973352409e-01,4.388338069938729213e-01,8.120680352284944670e-01,3.924975543199394110e+02
-5.979718286581483966e+00,-1.496011861073164617e+01,-3.734754401606405150e+00,4.898321399005994281e-01,4.954306972594579306e-01,7.173638539360642774e-01,3.967222782003369730e+02
-5.992059896379096529e+00,-1.496221414952219853e+01,-3.730352898877941747e+00,5.836179366344871333e-01,5.405177801471263699e-01,6.059939219034000679e-01,3.967924797770085661e+02
-6.630296648605379595e+00,-1.506670697332157083e+01,-3.453532852178471391e+00,5.902237600336128764e-01,5.903045404720212996e-01,5.506128064154539592e-01,4.010172036574061281e+02
-7.091843344043263997e+00,-1.515514143300119976e+01,-3.150141535559942252e+00,5.935305642793330394e-01,6.367918219272011848e-01,4.921540864321338749e-01,4.052419275378036900e+02
-7.441787526261145480e+00,-1.527995833039666529e+01,-2.814772446263092753e+00,5.935198679652443632e-01,6.797197918418418361e-01,4.309445102423707930e-01,4.094666514182012520e+02
-7.746035295350561789e+00,-1.549193535197364469e+01,-2.442020662494678085e+00,5.901917316544701420e-01,7.188485112796403342e-01,3.673262006946669267e-01,4.136913752985988140e+02
-8.052393866293638069e+00,-1.580503992661995305e+01,-2.032704953255657365e+00,5.835647575016639221e-01,7.539592758814165352e-01,3.016547432303265941e-01,4.179160991789963759e+02
-8.370889554729087578e+00,-1.616192703657387142e+01,-1.600089580174800297e+00,5.736759852953855487e-01,7.848558380797264755e-01,2.342971987163897929e-01,4.221408230593939379e+02
-8.552056388270587561e+00,-1.635475333083532590e+01,-1.353491668574641427e+00,5.605806855004171751e-01,8.113655038648163176e-01,1.656300521664484382e-01,4.245132310070253538e+02
-8.870250302794927322e+00,-1.661251393678393384e+01,-9.230506277547232408e-01,6.062549267692515231e-01,7.823902953683200545e-01,1.425425882937228494e-01,4.287379548874229158e+02
-9.172114009228931053e+00,-1.667750335967224373e+01,-5.192276122796288806e-01,6.498322820847113324e-01,7.507090121630414226e-01,1.189621125144778024e-01,4.329626787678204778e+02
-9.443784358572051119e+00,-1.645789778837981032e+01,-1.615084408959947260e-01,6.911620366655825132e-01,7.164312276712511141e-01,9.497017998235440794e-02,4.371874026482180398e+02
-9.669895829278729593e+00,-1.586220220506185719e+01,1.306233497028358448e-01,7.301012482729225539e-01,6.796754942282386969e-01,7.064976866124754451e-02,4.414121265286156017e+02
-9.762538417993756212e+00,-1.544066716481248314e+01,2.494089239278907133e-01,7.665152413192491965e-01,6.405689332832432692e-01,4.608499249548479032e-02,4.434706400513396716e+02
-9.904639849190804313e+00,-1.423837309119172545e+01,4.303653124246187289e-01,8.934038893239025780e-01,4.381405546872890189e-01,9.929926928076424075e-02,4.476953639317372335e+02
-9.958918025090197190e+00,-1.255027367857179144e+01,5.017647852063485958e-01,9.667688413112268675e-01,2.094632234273835492e-01,1.465645438077047280e-01,4.519200878121347955e+02
-9.911059465021276438e+00,-1.063544568832190329e+01,4.575650992400778772e-01,9.822148029606314612e-01,-3.176303013553238852e-02,1.850491576905953506e-01,4.561448116925323575e+02
-9.752840082134492050e+00,-8.869661864805454599e+00,2.962052554875188592e-01,9.388164047301628123e-01,-2.710863654859073657e-01,2.124475009445129237e-01,4.603695355729299195e+02
-9.486807804040919834e+00,-7.518000822168666275e+00,2.074187073695339667e-02,8.391736428253577795e-01,-4.941689455534312159e-01,2.271181420280480867e-01,4.645942594533274814e+02
-9.128531283178388023e+00,-6.623749841199884969e+00,-3.565391559627992812e-01,6.892561114180997262e-01,-6.876459204376801360e-01,2.281821662153471209e-01,4.688189833337250434e+02
-8.733075002692466171e+00,-6.133756201290931465e+00,-7.805696239486589194e-01,4.980453593824187841e-01,-8.399261165413073327e-01,2.155758306259348001e-01,4.727377794290534894e+02
-8.256987750184013208e+00,-5.905590158980150939e+00,-1.301260552177727181e+00,5.061879457313368524e-01,-7.852417786186699500e-01,3.566049813289859927e-01,4.769625033094510513e+02
-7.744699202679070638e+00,-5.934681564778560237e+00,-1.874273898204680711e+00,5.027155706766053278e-01,-7.125393232132546384e-01,4.894514969582139940e-01,4.811872271898486133e+02
-7.213210594387594377e+00,-6.151851882278704942e+00,-2.482697086920867324e+00,4.877079103152360817e-01,-6.234869761149756107e-01,6.110670870137543398e-01,4.854119510702461753e+02
-6.678390896838965141e+00,-6.488302950791593027e+00,-3.109493798800098130e+00,4.615093291195754843e-01,-5.201281276321616520e-01,7.186611649323872975e-01,4.896366749506437372e+02
-6.154994810841980524e+00,-6.876405685778014032e+00,-3.737382829611952673e+00,4.247209782644379428e-01,-4.048344450502748271e-01,8.097648811373878708e-01,4.938613988310412992e+02
-5.656680864415475796e+00,-7.248947047154625345e+00,-4.348960934253505606e+00,3.781870016482725694e-01,-2.802514523043444505e-01,8.822877734991659837e-01,4.980861227114388612e+02
-5.196012843788337499e+00,-7.538376859549222431e+00,-4.926825673487716273e+00,3.229751661237092453e-01,-1.492378256279256465e-01,9.345657352320101419e-01,5.023108465918364232e+02
-4.784457135005019346e+00,-7.676825340869078751e+00,-5.453576274477045516e+00,2.603523604135390968e-01,-1.479979815945359732e-02,9.653991995035512419e-01,5.065355704722339851e+02
-4.432380169145927695e+00,-7.596120661858537737e+00,-5.911814491555479556e+00,1.917555249462339628e-01,1.199778212709660535e-01,9.740806645531230323e-01,5.107602943526315471e+02
-4.149045971365754149e+00,-7.227806535403757948e+00,-6.284145466940183056e+00,1.187586796953332413e-01,2.520024322631062019e-01,9.604109277445344039e-01,5.149850182330291091e+02
-3.969172870477454484e+00,-6.692191145895640680e+00,-6.519167711096072182e+00,4.303680664183893306e-02,3.782446056131535395e-01,9.247036560970602892e-01,5.184288607475059507e+02
-3.828685071518666660e+00,-5.738808909591949003e+00,-6.708653359720639031e+00,2.050513061088432010e-01,7.751574675276065585e-02,9.756758021336374709e-01,5.226535846279034558e+02
-3.820605024568589858e+00,-4.526614969787363663e+00,-6.857959015516508217e+00,3.426062690576890946e-01,-2.324595654581930737e-01,9.102645191536540281e-01,5.268783085083009610e+02
-3.965083920778967208e+00,-3.196722100251511378e+00,-6.886670065342589631e+00,4.392934699353390204e-01,-5.147059709521156767e-01,7.362723753740688659e-01,5.311030323886984661e+02
-4.099897674079089782e+00,-2.410600650683274893e+00,-6.714940279444777005e+00,4.835795720448306523e-01,-7.355557230110612021e-01,4.744539765320049396e-01,5.335538792580680365e+02
-4.372598995827432944e+00,-1.098392395407737032e+00,-5.865990797484545993e+00,4.444500077941225258e-01,-8.198170829246277380e-01,3.610569776586093349e-01,5.377786031384655416e+02
-4.635310903308912600e+00,1.259641984006018012e-01,-4.681663553412022338e+00,3.957692170769990803e-01,-8.864605407283456806e-01,2.399008890046680220e-01,5.420033270188630468e+02
-4.719443451306558401e+00,1.279612638199137509e+00,-3.748274810712805216e+00,3.385833438080429469e-01,-9.340539507497194194e-01,1.135893321746634516e-01,5.462280508992605519e+02
-4.530387944155632063e+00,2.299598549662669633e+00,-3.299939191809664329e+00,2.741212981725104636e-01,-9.615745361934546764e-01,-1.516328564441772261e-02,5.500948565851313106e+02
-4.038252480331421701e+00,3.366455899516246575e+00,-3.239478322609226080e+00,1.770217386655622283e-01,-9.771259474094987629e-01,1.178396662398306094e-01,5.543195804655288157e+02
-3.313205453574115555e+00,4.357093287297438167e+00,-3.508144895596247537e+00,7.507886480337276625e-02,-9.659431827232733969e-01,2.476185207348058082e-01,5.585443043459263208e+02
-2.438168503633422191e+00,5.247266440014456634e+00,-3.958502546847832537e+00,-2.891816581078644408e-02,-9.283322041602213304e-01,3.706225281951995298e-01,5.627690282263238259e+02
-1.496410698765330727e+00,6.014834192586588912e+00,-4.443105918404546273e+00,-1.321239942870091333e-01,-8.653220490983276614e-01,4.834862991632318807e-01,5.669937521067213311e+02
-5.715317318207350228e-01,6.639763830133545319e+00,-4.814507955333118261e+00,-2.317149092188954818e-01,-7.786366756649450993e-01,5.831218810469711578e-01,5.712184759871188362e+02
2.708411269795164000e-01,7.116708140397924431e+00,-4.980762966877305686e+00,-3.249661031342368500e-01,-6.706477953437226525e-01,6.668032441545073130e-01,5.754431998675163413e+02
1.001629640079917394e+00,7.466960035025272724e+00,-4.960926940874152535e+00,-4.093262229680928455e-01,-5.443099832631438373e-01,7.322408656387282555e-01,5.796679237479138465e+02
1.610439189394716752e+00,7.724946904211107856e+00,-4.829560836469478424e+00,-4.824871749273812460e-01,-4.030798414666750262e-01,7.776443707983570208e-01,5.838926476283113516e+02
1.939804630043859168e+00,7.858745367091972689e+00,-4.720757002154559068e+00,-5.424472739303152213e-01,-2.508214267417346321e-01,8.017715178860876923e-01,5.865778203509069044e+02
2.359810765819213785e+00,8.049971740414214594e+00,-4.570730593084313398e+00,-5.064154579072986939e-01,-2.171247679870178804e-01,8.345047747707261543e-01,5.908025442313044095e+02
2.633117739332573759e+00,8.240502998632416976e+00,-4.505702631338447617e+00,-4.686085485041087684e-01,-1.826670452589602145e-01,8.643128940617553768e-01,5.950272681117019147e+02
2.751294321798372522e+00,8.465613885647794490e+00,-4.600236378332895448e+00,-4.291590624841867263e-01,-1.475690357027146515e-01,8.910913975488933270e-01,5.992519919920994198e+02
2.715025548244073494e+00,8.749871688772632439e+00,-4.898423970025176821e+00,-3.882052730927939010e-01,-1.119537603273785126e-01,9.147464246923996400e-01,6.034767158724969249e+02
2.652712847920046801e+00,8.909940095477518085e+00,-5.107733757351381243e+00,-3.458907256577684608e-01,-7.594605303907417393e-02,9.351950614323389921e-01,6.055587724482752492e+02
2.455876213270353770e+00,9.268474154880257387e+00,-5.623656969409473128e+00,-3.098609572855281491e-01,-8.295518349408359526e-02,9.471550161821323810e-01,6.097834963286727543e+02
2.162320939624156502e+00,9.675073062118492828e+00,-6.255752366786229146e+00,-2.733694036675549666e-01,-8.984068354419910696e-02,9.577034095774644706e-01,6.140082202090702594e+02
1.798446076281002171e+00,1.011993348369461287e+01,-6.956694710663443360e+00,-2.364704475149299878e-01,-9.659229193241647415e-02,9.668245221284809121e-01,6.182329440894677646e+02
1.390470020299819476e+00,1.059258713496607562e+01,-7.679155351283760922e+00,-1.992190785812363030e-01,-1.031999469320455942e-01,9.745047612403704429e-01,6.224576679698652697e+02
9.644252208555107453e-01,1.108190376745265304e+01,-8.375804569905550778e+00,-1.616708117367364472e-01,-1.096538013364087849e-01,9.807326814594065079e-01,6.266823918502627748e+02
5.461529015204976689e-01,1.157609421878190226e+01,-8.999313920993607496e+00,-1.238816042609717089e-01,-1.159442371290233254e-01,9.854990015215480126e-01,6.309071157306602800e+02
1.612978006036445422e-01,1.206271352513836170e+01,-9.502358574435840310e+00,-8.590777247693141827e-02,-1.220618798125367721e-01,9.887966181790304177e-01,6.351318396110577851e+02
-1.646970698149147760e-01,1.252866409572660444e+01,-9.837619657277889118e+00,-4.780590785064465359e-02,-1.279976123751281059e-01,9.906206167844198163e-01,6.393565634914552902e+02
-4.065956458405217688e-01,1.296019894905255398e+01,-9.957786595109446637e+00,-9.632792680835153276e-03,-1.337425888736242796e-01,9.909682786163791501e-01,6.435812873718527953e+02
-4.591282203342904600e-01,1.307430875656435809e+01,-9.955150228307005023e+00,2.855468449610915754e-02,-1.392882476131452052e-01,9.898390849362178612e-01,6.447593772604591322e+02
-5.364295868594523009e-01,1.326407761909004002e+01,-9.932339166954628595e+00,-2.640155420016439269e-02,-1.228176838626862666e-01,9.920770002545551414e-01,6.467409287698892513e+02
-5.956821611405404004e-01,1.365531887049529480e+01,-9.734717592505989003e+00,-1.090664797597114127e-01,-2.522899976938982602e-01,9.614844044793204869e-01,6.509656526502867564e+02
-4.921533763137961315e-01,1.402687244636930686e+01,-9.319077165686167064e+00,-1.890557255130960457e-01,-3.755729951672504563e-01,9.073041705802831203e-01,6.551903765306842615e+02
-2.489921728736390338e-01,1.438117463692840658e+01,-8.729607604726032477e+00,-2.644069545474728167e-01,-4.896422352596961347e-01,8.308654787854699020e-01,6.594151004110817667e+02
1.107263772248840705e-01,1.472124828342799674e+01,-8.010507225695647548e+00,-3.332716126145389146e-01,-5.916993142009450146e-01,7.340435639660917166e-01,6.636398242914792718e+02
5.640057542498173593e-01,1.505070145105825397e+01,-7.205980755442850771e+00,-3.939602774259959861e-01,-6.792405167247757003e-01,6.192137112907778462e-01,6.678645481718767769e+02
1.087932665882867411e+00,1.537372604658572151e+01,-6.360237144117082408e+00,-4.449841040448255236e-01,-7.501182379031250402e-01,4.891929847341708326e-01,6.720892720522742820e+02
1.659681713578261997e+00,1.569509638049652089e+01,-5.517487377570168050e+00,-4.850913497013629727e-01,-8.025936688692368870e-01,3.471711179468861541e-01,6.763139959326717872e+02
2.256520049841390207e+00,1.602016767384067109e+01,-4.721942289778399804e+00,-5.132980820563740609e-01,-8.353794540147975178e-01,1.966322627843894444e-01,6.805387198130692923e+02
2.501940209149881689e+00,1.615365721363087559e+01,-4.416121860168614077e+00,-5.289123175927753495e-01,-8.476712732113736992e-01,4.126951503618939143e-02,6.822554503958920122e+02
3.112002925237113082e+00,1.647510237211276163e+01,-3.721084273593683101e+00,-7.692937879735907147e-01,-3.889479786949351370e-01,5.068575121816552009e-01,6.864801742762895174e+02
3.207793971988447623e+00,1.652377010996801587e+01,-3.620912305958099431e+00,-6.365804918551635216e-01,2.584086530906593016e-01,7.266279965689396159e-01,6.871365691795111843e+02
3.819251692948511412e+00,1.685426677118551808e+01,-3.032124229535720250e+00,-6.768331438417549695e-01,2.065100895866882058e-01,7.065751752585717194e-01,6.913612930599086894e+02
4.372835262551309832e+00,1.730779294525500944e+01,-2.578645712366081089e+00,-7.138939355235917050e-01,1.536376659937795097e-01,6.831902490567617336e-01,6.955860169403061946e+02
4.777147554745299729e+00,1.805886228176384023e+01,-2.311448919004969849e+00,-7.475881036518601253e-01,1.000407086282392721e-01,6.565834934651256782e-01,6.998107408207036997e+02
4.811720175597122839e+00,1.816563068098523104e+01,-2.293424885909834288e+00,-7.777567582025026738e-01,4.597195990103079138e-02,6.268803745279606376e-01,7.002871871487596991e+02
5.013646524347342037e+00,1.925985449872505129e+01,-2.238611839359258227e+00,-7.650278147549811614e-01,1.445858496978753892e-03,6.439940621923900821e-01,7.045119110291572042e+02
5.033557727702478779e+00,2.049335711098594359e+01,-2.366178924610249368e+00,-7.504341328367287733e-01,-4.308375644679991734e-02,6.595380217992085070e-01,7.087366349095547093e+02
4.917961434774334784e+00,2.156444508841802943e+01,-2.626812331122303945e+00,-7.340112828883827989e-01,-8.750835182031227455e-02,6.734743684425122945e-01,7.129613587899522145e+02
4.692379169169977438e+00,2.226949207169926837e+01,-2.976959225234677486e+00,-7.157992927333246547e-01,-1.317196505119050953e-01,6.857691347575640695e-01,7.171860826703497196e+02
4.463876263831879854e+00,2.256586376025900620e+01,-3.267779957018192238e+00,-6.958425500917858608e-01,-1.756098951098096772e-01,6.963923536452826246e-01,7.202712785080751701e+02
4.042580525721691131e+00,2.275331262702464485e+01,-3.691390710436476041e+00,-6.230268975409241072e-01,-1.304568245266217730e-01,7.712434776860548347e-01,7.244960023884726752e+02
3.460423163812428538e+00,2.273139102301643177e+01,-4.127059593084264399e+00,-5.421470315332777012e-01,-8.361517941353883987e-02,8.361118932115076952e-01,7.287207262688701803e+02
2.695071485313337067e+00,2.259487050083515314e+01,-4.548527560233906364e+00,-4.542498147301510247e-01,-3.569125017366811536e-02,8.901579862456859837e-01,7.329454501492676854e+02
2.409818060651020222e+00,2.253957157735220207e+01,-4.680966360833521911e+00,-3.604729332049784740e-01,1.269466510234836150e-02,9.326822127083219671e-01,7.343277757035457398e+02
1.506419002644838523e+00,2.240722510176628646e+01,-5.022226080606373877e+00,-2.738804839954704362e-01,-1.741330932336996110e-02,9.616050421780919510e-01,7.385524995839432449e+02
6.561704016865852473e-01,2.239983824518030175e+01,-5.193903759209460347e+00,-1.847570457638478270e-01,-4.736035561396115257e-02,9.816413962106290692e-01,7.427772234643407501e+02
5.482387048056605594e-02,2.262131085336140401e+01,-5.098718865183585969e+00,-9.392621310404314361e-02,-7.686973178121354888e-02,9.926061206870016029e-01,7.470019473447382552e+02
-1.800044446212377691e-01,2.296347884454740651e+01,-4.831576937856071119e+00,-2.227357621452881031e-03,-1.056687400096145008e-01,9.943978862909506056e-01,7.502232324820287204e+02
-2.061880595501950908e-01,2.361750821360784514e+01,-4.250347470744344491e+00,4.046379327749474383e-03,-2.678361752450225675e-01,9.634549341016078738e-01,7.544479563624262255e+02
4.371942476758523821e-02,2.447026885279593600e+01,-3.440736045712599278e+00,1.020967020865752237e-02,-4.226929920534532870e-01,9.062143218374657527e-01,7.586726802428237306e+02
4.721252309196158903e-01,2.545087349505014629e+01,-2.479780057819150674e+00,1.609428682194315521e-02,-5.660123431519216153e-01,8.242384371840028034e-01,7.628974041232212357e+02
9.803373410619427020e-01,2.649095621829636471e+01,-1.444524390896663402e+00,2.153960737117356292e-02,-6.938822973347502643e-01,7.197648246197458910e-01,7.671221280036187409e+02
1.468584807861931019e+00,2.752468978411691580e+01,-4.120176049696348541e-01,2.639700073091204302e-02,-8.028126181309579446e-01,5.956451112216868404e-01,7.713468518840162460e+02
1.836038166719928366e+00,2.848880273332342128e+01,5.406918766904270646e-01,3.053388342314831277e-02,-8.898300319710641393e-01,4.552671700943217159e-01,7.755715757644137511e+02
2.013192575424334496e+00,2.933815773957822870e+01,1.359553840618002551e+00,3.383733855000417567e-02,-9.525593851099343201e-01,3.024626462211928435e-01,7.797962996448112563e+02
1.994589612645124355e+00,3.006022896972352854e+01,2.036513217892890193e+00,3.621719789214245672e-02,-9.892884738806969613e-01,1.414023692305922675e-01,7.840210235252087614e+02
1.806971891709242772e+00,3.065789947768229240e+01,2.586516222034831003e+00,3.760850304300546870e-02,-9.990147787102979793e-01,-2.351749174039353268e-02,7.882457474056062665e+02
1.477087052344695062e+00,3.113335136212933563e+01,3.024515348610646637e+00,3.797327840689622425e-02,-9.814728264877343733e-01,-1.877954232503715182e-01,7.924704712860037716e+02
1.344625671823417301e+00,3.126866681073692078e+01,3.150507853079044907e+00,3.730156767905658949e-02,-9.371414348000217664e-01,-3.469474372729959843e-01,7.938692576050638081e+02
8.925035743779229369e-01,3.161096565205301090e+01,3.483532309349831824e+00,6.600559554095426773e-02,-9.378643325922656482e-01,-3.406636978074009114e-01,7.980939814854613132e+02
3.607263697668592339e-01,3.183315532130113112e+01,3.739428226805607824e+00,9.465259433418719837e-02,-9.377769804868486547e-01,-3.340856495723577568e-01,8.023187053658588184e+02
-2.239831668451577329e-01,3.193508136855250967e+01,3.933163168040697322e+00,1.232178164439785978e-01,-9.368794542920423352e-01,-3.272189753540066803e-01,8.065434292462563235e+02
-8.349218302515235557e-01,3.191588932209542762e+01,4.079707769834335807e+00,1.516765849158246415e-01,-9.351725295961372808e-01,-3.200696072303400586e-01,8.107681531266538286e+02
-1.445411657065463595e+00,3.177402508172795237e+01,4.194035002112356025e+00,1.800043147588283599e-01,-9.326576810934600337e-01,-3.126437214484281690e-01,8.149928770070513337e+02
-2.028805594927451494e+00,3.150723537921252770e+01,4.291119426822112004e+00,2.081765341697437988e-01,-9.293370813103908334e-01,-3.049477330921722129e-01,8.192176008874488389e+02
-2.558493168798933848e+00,3.111256830586002664e+01,4.385936456748432910e+00,2.361689056594158675e-01,-9.252135987298656383e-01,-2.969882905441946774e-01,8.234423247678463440e+02
-3.007906144077312049e+00,3.058637390720872062e+01,4.493461614297969753e+00,2.639572470634888868e-01,-9.202907953159702448e-01,-2.887722697466181265e-01,8.276670486482438491e+02
-3.346613330769938610e+00,2.993872040146132107e+01,4.625548285576194907e+00,2.915175524193537870e-01,-9.145729234407442565e-01,-2.803067682656540383e-01,8.318155236432169204e+02
-3.560812367795634259e+00,2.914082951544289912e+01,4.801890412056754265e+00,2.747343259437879937e-01,-8.600640841831107553e-01,-4.298939651206655777e-01,8.360402475236144255e+02
-3.615793397763980899e+00,2.819641167233295320e+01,5.035590318423389000e+00,2.509098605246406488e-01,-7.835124343946554548e-01,-5.684632855701379217e-01,8.402649714040119306e+02
-3.485212431570621217e+00,2.709904431057675467e+01,5.341616627209944568e+00,2.206547598701582846e-01,-6.868799370705847007e-01,-6.924633051630180169e-01,8.444896952844094358e+02
-3.142795877947340166e+00,2.584161078334616946e+01,5.734934378391867149e+00,1.847444391741299985e-01,-5.726432095308001680e-01,-7.987159988213665684e-01,8.487144191648069409e+02
-2.584005869909286712e+00,2.444276886267088500e+01,6.197658163029734268e+00,1.440992520910626407e-01,-4.437300504883404106e-01,-8.844981898461221625e-01,8.529391430452044460e+02
-1.847129598100513359e+00,2.297415346013247728e+01,6.646206882670672833e+00,9.976090321823528895e-02,-3.034444042080609028e-01,-9.476113421358302036e-01,8.571638669256019512e+02
-9.907537332949184483e-01,2.153500060972007191e+01,6.964154011210510475e+00,5.286575050618742139e-02,-1.553816845231172639e-01,-9.864379070872368871e-01,8.613885908059994563e+02
-1.687469404685433549e-01,2.034247112940732904e+01,7.056586061051046244e+00,4.615681712282725807e-03,-3.336628499106201150e-03,-9.999827810482312396e-01,8.651793028177307860e+02
7.593294451597157879e-01,1.918292188750600502e+01,6.903805086704636551e+00,-1.046879513417485197e-01,6.827734839393000132e-02,-9.921575663876657236e-01,8.694040266981282912e+02
1.665103827604191178e+00,1.819864348634738604e+01,6.561419662686204468e+00,-2.121975159784770248e-01,1.387212360942427225e-01,-9.673296402309495834e-01,8.736287505785257963e+02
2.513182458393517837e+00,1.734408800224846559e+01,6.191306556644086356e+00,-3.160706159650049640e-01,2.067878345351500669e-01,-9.259244878564084624e-01,8.778534744589233014e+02
3.267424253430030401e+00,1.657464011925637593e+01,5.955343904670022503e+00,-4.145271747670879470e-01,2.713106843076680819e-01,-8.686516758520306247e-01,8.820781983393208066e+02
3.901819495629418544e+00,1.585830361123246846e+01,5.961970538234133699e+00,-5.058799393233037733e-01,3.311840553599548764e-01,-7.964926920355089868e-01,8.863029222197183117e+02
4.411622628798095747e+00,1.518701752606343547e+01,6.212747955841677161e+00,-5.885633931703425636e-01,3.853818950214146777e-01,-7.106841261839229595e-01,8.905276461001158168e+02
4.545104366541107055e+00,1.499240576298613092e+01,6.323695032219822210e+00,-6.611605836687213245e-01,4.329754107922027528e-01,-6.126964797126668305e-01,8.918004599719630505e+02
4.925204933060184587e+00,1.437378957516337330e+01,6.775668747817914728e+00,-7.269090884368343275e-01,3.823236401293585440e-01,-5.704645574845544909e-01,8.960251838523605556e+02
5.194533444896258345e+00,1.380817595113443197e+01,7.352382705317865863e+00,-7.863538142568294864e-01,3.283563595220557740e-01,-5.232855625422579982e-01,9.002499077327580608e+02
5.359197681102741306e+00,1.329888060575336617e+01,8.001936554092097253e+00,-8.389792608511918992e-01,2.715415726927289941e-01,-4.715686314432208093e-01,9.044746316131555659e+02
5.425336529552772902e+00,1.284907215460903807e+01,8.672426334202597786e+00,-8.843290638891709854e-01,2.123719759620443792e-01,-4.157622524796911745e-01,9.086993554935530710e+02
5.399118839788842550e+00,1.246177170838788051e+01,9.311947044809564034e+00,-9.220099521484491634e-01,1.513606858706697256e-01,-3.563503766127487649e-01,9.129240793739505762e+02
5.286742273949887938e+00,1.213985248080527768e+01,9.868595212625788093e+00,-9.516951576536646362e-01,8.903678977757346902e-02,-2.938482209656131383e-01,9.171488032543480813e+02
5.094432155835729503e+00,1.188603941010848608e+01,1.029047146032942628e+01,-9.731272492440898869e-01,2.594075799169313218e-02,-2.287978012422613172e-01,9.213735271347455864e+02
4.870933747423320526e+00,1.171952382169929763e+01,1.051843518070384853e+01,-9.861203650114789276e-01,-3.738024280786018949e-02,-1.617632317831026734e-01,9.250397566458357232e+02
4.553935543943143038e+00,1.159177004179242410e+01,1.057348520861468799e+01,-9.429798593238480908e-01,-1.218877471598235340e-01,-3.097262694741367839e-01,9.292644805262332284e+02
4.174921329940628922e+00,1.153903374205802201e+01,1.034497106561510904e+01,-8.707053020347766958e-01,-2.026294275128846523e-01,-4.481200643967305219e-01,9.334892044066307335e+02
3.740212360009175896e+00,1.156346382994806810e+01,9.781032800515177428e+00,-7.715296732422084469e-01,-2.771107173465802709e-01,-5.726688516403479756e-01,9.377139282870282386e+02
3.275699116377666975e+00,1.165007743004116136e+01,8.863209064262687065e+00,-6.485170718123142164e-01,-3.430304693041771325e-01,-6.795246166972445101e-01,9.419386521674257438e+02
2.846017767222322359e+00,1.174911469737571679e+01,7.639820031560825342e+00,-5.054680499989394615e-01,-3.983520483521097444e-01,-7.653859784477581307e-01,9.461633760478232489e+02
2.623470734478197564e+00,1.179450599768067143e+01,6.789136113805455786e+00,-3.468021970077221905e-01,-4.413662534382912228e-01,-8.276001851599426029e-01,9.487435166074565132e+02
2.390897682997074281e+00,1.178788996831318414e+01,5.292519913476747995e+00,-4.149050578739034156e-01,-4.069188870721081597e-01,-8.137989999336762148e-01,9.529682404878540183e+02
2.378684791983790792e+00,1.167504391955538345e+01,3.739717676834783067e+00,-4.805122081440473258e-01,-3.700238683443923260e-01,-7.951027321538615134e-01,9.571929643682515234e+02
2.579409454352273201e+00,1.157614814700866468e+01,2.320517691734027999e+00,-5.432290220265985070e-01,-3.309031218298112975e-01,-7.716238420304974976e-01,9.614176882486490285e+02
2.958287736761622266e+00,1.167620291248059772e+01,1.260719474444661925e+00,-6.026782585250531898e-01,-2.897919589529929230e-01,-7.435035556242685084e-01,9.656424121290465337e+02
3.458910993906438414e+00,1.207995509469510864e+01,7.006520598904222297e-01,-6.585023300419228232e-01,-2.469376628731372592e-01,-7.109110155163427258e-01,9.698671360094440388e+02
3.766672368365989954e+00,1.241952459828196886e+01,5.720380959320632286e-01,-7.103654528503219323e-01,-2.025980014073268942e-01,-6.740422636753659047e-01,9.722779632674273671e+02
4.242029455573632646e+00,1.309999563764517916e+01,5.901859358037233605e-01,-7.899219866946226576e-01,-1.633668388377170766e-01,-5.910435947575234383e-01,9.765026871478248722e+02
4.528186073601658812e+00,1.381922699442450231e+01,8.951425762118842000e-01,-8.578215240776108086e-01,-1.217248575940468314e-01,-4.993228333175728784e-01,9.807274110282223774e+02
4.491225938417610308e+00,1.444848478836672356e+01,1.370808790460608106e+00,-9.130620764560601899e-01,-7.828656850841116122e-02,-4.002335040052280024e-01,9.849521349086198825e+02
4.055948287387797890e+00,1.490979095693288947e+01,1.921471403438674397e+00,-9.548284584967220434e-01,-3.369298950913377638e-02,-2.952378656302492299e-01,9.891768587890173876e+02
3.883283269477504795e+00,1.500701384802385441e+01,2.072846075723200787e+00,-9.825043165277993484e-01,1.139781273581647741e-02,-1.858853352686995197e-01,9.902990691568544435e+02
3.086224699452495113e+00,1.531778801283902247e+01,2.640075666885396632e+00,-9.371685068382168415e-01,-2.716050630498001994e-01,-2.189609086484841372e-01,9.945237930372519486e+02
2.071835880052847578e+00,1.555816954231871918e+01,3.183666165851342544e+00,-8.138226280754540243e-01,-5.319995710079229445e-01,-2.338101505053314655e-01,9.987485169176494537e+02
9.480860848161836163e-01,1.578837332471193733e+01,3.669084459575131074e+00,-6.227339745088052991e-01,-7.481103765837763264e-01,-2.291969926496185139e-01,1.002973240798046959e+03
-1.761185700487082895e-01,1.606584787249956037e+01,4.061800312296775850e+00,-3.798088183677029162e-01,-9.019483241282552077e-01,-2.055054308088519466e-01,1.007197964678444464e+03
-1.217517638002908020e+00,1.642257431026199299e+01,4.340825753656159414e+00,-1.052683479294026642e-01,-9.807079042202762054e-01,-1.647075636511669550e-01,1.011422688558841969e+03
-2.145572549501077564e+00,1.684326971101007331e+01,4.512253796647160087e+00,1.780345966138996983e-01,-9.778332007756652677e-01,-1.101994277184786264e-01,1.015647412439239474e+03
-2.868681638372239995e+00,1.723507515422839376e+01,4.592935397553918442e+00,4.465178389087803290e-01,-8.935635777227165510e-01,-4.651829859357421715e-02,1.019352225004376919e+03
-3.586931644142516529e+00,1.767186956338796122e+01,4.623946948083683672e+00,5.421679293406724831e-01,-8.263153936250712261e-01,-1.524952676415410047e-01,1.023576948884774424e+03
-4.183046067216788622e+00,1.806175204641784049e+01,4.603863345344744396e+00,6.243167124548869573e-01,-7.384899656326668893e-01,-2.546747203981232777e-01,1.027801672765172043e+03
-4.655142437517466369e+00,1.836600384048754009e+01,4.552330286707955587e+00,6.909184957875560418e-01,-6.322743583266734468e-01,-3.505121509758971632e-01,1.032026396645569548e+03
-5.001944616678343891e+00,1.854585208257402940e+01,4.488995023439526832e+00,7.403147405798854441e-01,-5.103135887868738285e-01,-4.376209843917733822e-01,1.036251120525967053e+03
-5.222783252059432613e+00,1.856247941845849780e+01,4.433505388320453378e+00,7.712753613878796655e-01,-3.756447619789813896e-01,-5.138320053422387179e-01,1.040475844406364558e+03
-5.313506985226404744e+00,1.846608380492756751e+01,4.406205753857657115e+00,7.830293576745018802e-01,-2.316214433751623558e-01,-5.772473750384004010e-01,1.043555864160539841e+03
-5.341519475819407781e+00,1.815165673652937528e+01,4.403788782639676214e+00,7.487541054914300664e-01,-2.786676489304933391e-01,-6.014230050034256037e-01,1.047780588040937346e+03
-5.244407335666640080e+00,1.756816945857995194e+01,4.462832691629404991e+00,7.115043547012006586e-01,-3.246068085458775343e-01,-6.232094135081037711e-01,1.052005311921334851e+03
-5.023766397216600232e+00,1.667671928174041085e+01,4.602979078001300017e+00,6.714280824096419131e-01,-3.692564280883043337e-01,-6.425200545239685423e-01,1.056230035801732356e+03
-4.684497650142124492e+00,1.547105022478725544e+01,4.827743873592971191e+00,6.286844933467934382e-01,-4.124391360516968530e-01,-6.592782165948766204e-01,1.060454759682129861e+03
-4.236793959599433279e+00,1.401029772453506439e+01,5.108395521942445505e+00,5.834433875460692809e-01,-4.539833879931162164e-01,-6.734173274822130573e-01,1.064679483562527366e+03
-3.692376668331823097e+00,1.238647324821778994e+01,5.400078049062091878e+00,5.358844859684540607e-01,-4.937241478365733127e-01,-6.848812185623481819e-01,1.068904207442924871e+03
-3.481374240373678930e+00,1.178677996990161603e+01,5.500821096613827343e+00,4.861967167435286008e-01,-5.315035433440764567e-01,-6.936243479278574320e-01,1.070406437877591088e+03
-2.815146894888235884e+00,1.019139062049640998e+01,5.753085930133150505e+00,5.002705181511901689e-01,-2.578898249264743869e-01,-8.265713803827406947e-01,1.074631161757988593e+03
-2.017543187564070806e+00,8.874659281072375450e+00,5.950864251795175974e+00,4.679503889051049859e-01,3.964012122381851272e-02,-8.828641426132354253e-01,1.078855885638386098e+03
-1.168132319551562270e+00,7.875037975262848100e+00,6.108056323418185052e+00,3.922335757092008102e-01,3.334940269783566169e-01,-8.572820749643529359e-01,1.083080609518783604e+03
-4.120904973341979471e-01,7.094731030692620344e+00,6.247868681288011317e+00,2.801418786255775450e-01,5.964204596821187643e-01,-7.521975559065559036e-01,1.087305333399181109e+03
1.487858784779281240e-01,6.457114454768554168e+00,6.386760108123113788e+00,1.420704658626918970e-01,8.040361414126236950e-01,-5.773559266442560567e-01,1.091530057279578614e+03
5.014537980647416626e-01,5.922648920264292904e+00,6.527692208007832342e+00,-9.176186139452471510e-03,9.370872719271048368e-01,-3.489716928347979530e-01,1.095754781159976119e+03
6.216831728417030467e-01,5.676229872780198527e+00,6.600112091384582769e+00,-1.595717941925688388e-01,9.832350868862214099e-01,-8.822474944296573862e-02,1.097930474787374806e+03
7.592276372256238082e-01,5.236042448027743212e+00,6.737559044812174491e+00,-1.771256561515570926e-01,9.343970523636866421e-01,-3.090738592430506415e-01,1.102155198667772311e+03
7.663896201491419147e-01,4.841416700948576235e+00,6.867522319234379502e+00,-1.855632641766952473e-01,8.374677142048251310e-01,-5.140156638206462292e-01,1.106379922548169816e+03
6.734669329493296885e-01,4.468257201968128811e+00,6.986215353487122748e+00,-1.844503504933146520e-01,6.974357922994587344e-01,-6.925022626842277651e-01,1.110604646428567321e+03
5.103369666603665422e-01,4.091704997778293773e+00,7.089852140380540568e+00,-1.738441918691059629e-01,5.215084087532909640e-01,-8.353473388676104783e-01,1.114829370308964826e+03
3.064506104136368037e-01,3.686144462766467012e+00,7.174647413998624934e+00,-1.542906627702856914e-01,3.187401549625490382e-01,-9.351989654595298518e-01,1.119054094189362331e+03
9.082621089072553944e-02,3.225210222154905271e+00,7.236816836980095147e+00,-1.267961406343474928e-01,9.956706853512746480e-02,-9.869179994223606922e-01,1.123278818069759836e+03
-1.079564268749388378e-01,2.681794146379120836e+00,7.272577187776294139e+00,-9.277570914545422986e-02,-1.247304930805404471e-01,-9.878425845694347451e-01,1.127503541950157341e+03
-2.444845972897510267e-01,2.154580182190870108e+00,7.281393513924759198e+00,-5.398032571395419005e-02,-3.426084343544387179e-01,-9.379251490100429800e-01,1.131018260572192730e+03
-3.483527495889566783e-01,1.404532254146525716e+00,7.263364849156178416e+00,-3.479692758431886940e-02,-3.271279055733791741e-01,-9.443381318199137731e-01,1.135242984452590235e+03
-3.567034231697491786e-01,4.913504670147833542e-01,7.208220788147356117e+00,-1.559095856048773113e-02,-3.114351474219835825e-01,-9.501384483036059425e-01,1.139467708332987741e+03
-2.825240694605833380e-01,-5.777445097216665770e-01,7.077142170356154338e+00,3.625125750937614917e-03,-2.955403371543941504e-01,-9.553223369947922983e-01,1.143692432213385246e+03
-2.243038522500424570e-01,-1.319562858625284774e+00,6.923855583186343310e+00,2.283886318903673163e-02,-2.794537829141389706e-01,-9.598864357443843698e-01,1.146432912737599963e+03
-2.268299062370222885e-01,-2.437778094204824608e+00,6.463669381787371826e+00,7.800387861208006590e-02,-1.411152579074237412e-01,-9.869143219689229252e-01,1.150657636617997468e+03
-4.244911569758918479e-01,-3.453391262729702316e+00,5.687481069752673868e+00,1.313817162720301857e-01,4.563731700899034140e-04,-9.913307401434039434e-01,1.154882360498394974e+03
-8.587568301920280867e-01,-4.318535523375038210e+00,4.769749245622490363e+00,1.817494271838320796e-01,1.420175346483505407e-01,-9.730345140698400952e-01,1.159107084378792479e+03
-1.541700767945270556e+00,-5.010668723745608233e+00,3.991061610669613291e+00,2.279530281940538028e-01,2.803248934716224272e-01,-9.324448353857850424e-01,1.163331808259189984e+03
-2.437185726748350767e+00,-5.519402881645526726e+00,3.541857723648039968e+00,2.689339398014042870e-01,4.122096644096329698e-01,-8.704916591159320705e-01,1.167556532139587489e+03
-2.738466818057292418e+00,-5.644598735046895577e+00,3.467112501196695895e+00,3.037532384718773515e-01,5.346502074976088315e-01,-7.885943987504775432e-01,1.168850675330724926e+03
-3.693100140997174652e+00,-5.973342525465073827e+00,3.376044117583286486e+00,4.085995701300346727e-01,4.572148118085065382e-01,-7.899360778898445457e-01,1.173075399211122431e+03
-4.494258041405540638e+00,-6.177520353434048594e+00,3.520070665390055975e+00,5.065034376559185425e-01,3.720109760635745277e-01,-7.778560929443353311e-01,1.177300123091519936e+03
-4.963161085414562912e+00,-6.295174652138918248e+00,3.819160536504425885e+00,5.958013906586429043e-01,2.804863743731080272e-01,-7.525596964227547758e-01,1.181524846971917441e+03
-5.017928904433048842e+00,-6.379075084900131642e+00,4.200478926549822134e+00,6.749761962872022902e-01,1.841960714156168910e-01,-7.144766908165807173e-01,1.185749570852314946e+03
-4.817988387088207425e+00,-6.477632469528087356e+00,4.555196568234438637e+00,7.426826154961650994e-01,8.477610351432794678e-02,-6.642541267556515416e-01,1.189435480108141292e+03
-4.500472430629538501e+00,-6.695509863568390507e+00,4.939060736301049914e+00,7.283143408631865823e-01,1.026719470673686380e-01,-6.775062303449274070e-01,1.193660203988538797e+03
-4.272849497029241661e+00,-7.100986525030807961e+00,5.250804638298072646e+00,7.134345539801271174e-01,1.204956771852691982e-01,-6.902824993758872596e-01,1.197884927868936302e+03
-4.229647516792629958e+00,-7.323343279737549949e+00,5.355482805388506407e+00,6.980536987364153179e-01,1.382347836703658184e-01,-7.025739663845789185e-01,1.199635257361118420e+03
-4.272855331397327205e+00,-7.925945180854059302e+00,5.546626733891943495e+00,5.344008215914405335e-01,-8.386852025284313727e-02,-8.410587572776033749e-01,1.203859981241515925e+03
-4.528177903024307227e+00,-8.530730201530019485e+00,5.646525539777149660e+00,3.198247324471497621e-01,-2.979799271961613982e-01,-8.993987455537363340e-01,1.208084705121913430e+03
-4.783845888823999637e+00,-8.874654488322534007e+00,5.677751367178026420e+00,7.477239364630941520e-02,-4.836967544546160180e-01,-8.720347119687941184e-01,1.210967255010378949e+03
-5.128566073181730189e+00,-9.268901577725575436e+00,5.682622622991185146e+00,2.977610761054043723e-02,-4.304801949397820682e-01,-9.021076350247537734e-01,1.215191978890776454e+03
-5.248302089660432657e+00,-9.480438864374411523e+00,5.665303494765356440e+00,-1.539172102469500182e-02,-3.747836122949259607e-01,-9.269834620252590529e-01,1.217587369489866660e+03
-5.149990019384898865e+00,-1.003177600460623253e+01,5.585709204011282125e+00,2.239197655202954662e-01,-1.965988790463946423e-01,-9.545715370612992690e-01,1.221812093370264165e+03
-4.695328744211494154e+00,-1.085426399781866458e+01,5.398942612842601463e+00,4.431274704020988775e-01,-7.633139028335601383e-04,-8.964571726120104112e-01,1.226036817250661670e+03
-4.112529749682295233e+00,-1.190113415972908228e+01,5.052023694817928678e+00,6.225507292956993233e-01,1.951407842605125953e-01,-7.578579443220873069e-01,1.230261541131059175e+03
-3.638068115565979976e+00,-1.291214033068038169e+01,4.616926462277350929e+00,7.460807450242686878e-01,3.735249621957359989e-01,-5.512174022298489406e-01,1.233855742262691592e+03
-3.141464921795433796e+00,-1.413586133321430260e+01,3.954060111656034771e+00,7.296098894098506094e-01,5.528564135195528362e-01,-4.025135964235906361e-01,1.238080466143089097e+03
-2.686157933828854816e+00,-1.527846935140707352e+01,3.150166876875498456e+00,6.733431892898694704e-01,7.020328885360203053e-01,-2.318550686330003718e-01,1.242305190023486603e+03
-2.237868105492409221e+00,-1.620382181749264561e+01,2.244213099007904777e+00,5.803496459351238368e-01,8.129176861726559178e-01,-4.855022111911623528e-02,1.246529913903884108e+03
-1.760102184179384466e+00,-1.677664389084638685e+01,1.275170169008858823e+00,4.557015016543252139e-01,8.794626910208018788e-01,1.374027528563761813e-01,1.250754637784281613e+03
-1.230437453557075012e+00,-1.696917119288982789e+01,3.074011395818711523e-01,3.061975773699521230e-01,8.980382698763975657e-01,3.158612186551884582e-01,1.254979361664679118e+03
-6.528704045229172248e-01,-1.690515681722797225e+01,-5.797652514140285707e-01,1.399924306344627611e-01,8.676312482371731916e-01,4.770913292523412119e-01,1.259204085545076623e+03
-3.741334175616296137e-02,-1.669055660075278169e+01,-1.353238378939711772e+00,-3.384843528702387999e-02,7.899001674483355773e-01,6.122989538568400780e-01,1.263428809425474128e+03
2.126075682183774795e-01,-1.657820919427766171e+01,-1.631822944100362438e+00,-2.058430463846366021e-01,6.690848111178826496e-01,7.141093444193653550e-01,1.265089389682868614e+03
8.651144630391878199e-01,-1.625139181658424548e+01,-2.277761680141765055e+00,-2.293316512259273021e-01,6.516791945681393861e-01,7.229932372489056291e-01,1.269314113563266119e+03
1.541795759651249487e+00,-1.587807265958753966e+01,-2.816539788266267053e+00,-2.526061492791408791e-01,6.336651762846641223e-01,7.312021455830564065e-01,1.273538837443663624e+03
2.235831257891845780e+00,-1.550148868639367805e+01,-3.250895867816792073e+00,-2.756448131004616831e-01,6.150595732024052298e-01,7.387284063969205006e-01,1.277763561324061129e+03
2.939699976575278484e+00,-1.516469282142892716e+01,-3.583573684789621350e+00,-2.984261353823710050e-01,5.958797543977791822e-01,7.455649938231022622e-01,1.281988285204458634e+03
3.645181664769386654e+00,-1.491054274891856402e+01,-3.817322035749405984e+00,-3.209288490144520112e-01,5.761436248837805696e-01,7.517055257019479297e-01,1.286213009084856139e+03
4.346846519645668927e+00,-1.476376592236623075e+01,-3.958059123462093876e+00,-3.431319469211099871e-01,5.558696089081875957e-01,7.571442695345973473e-01,1.290437732965253645e+03
5.045934992960641630e+00,-1.471314436372125911e+01,-4.018036775753926371e+00,-3.650147016572010128e-01,5.350766327682647816e-01,7.618761478311271151e-01,1.294662456845651150e+03
5.359347782028772045e+00,-1.471186341874589232e+01,-4.025751269735107662e+00,-3.865566847434170339e-01,5.137841071578765906e-01,7.658967428488284712e-01,1.296555730976829182e+03
6.063005303479856778e+00,-1.473578932311230005e+01,-4.011369580134015678e+00,-3.655632891821738450e-01,5.312920282682001005e-01,7.642579815017819245e-01,1.300780454857226687e+03
6.777317680721287374e+00,-1.478496788441850107e+01,-3.953984691809272256e+00,-3.442957491392992786e-01,5.484015099189968323e-01,7.620460753993362202e-01,1.305005178737624192e+03
7.508450442487137444e+00,-1.483070074353604895e+01,-3.869023120080418376e+00,-3.227700106590541407e-01,5.650997239876077716e-01,7.592626832372533219e-01,1.309229902618021697e+03
8.235911579315507325e+00,-1.486398035997903477e+01,-3.764929129291725740e+00,-3.010022132444879484e-01,5.813741505238676499e-01,7.559098919267788208e-01,1.313454626498419202e+03
8.554611966199050954e+00,-1.487912100390652625e+01,-3.712308739397489621e+00,-2.790086777860616429e-01,5.972125871117678342e-01,7.519902150315521672e-01,1.315368865982916532e+03
9.159698473550580644e+00,-1.494738801311364540e+01,-3.575050600263051770e+00,-2.462689522286001242e-01,6.083062892652522091e-01,7.545283703062318770e-01,1.319593589863314037e+03
9.537380443350093273e+00,-1.509973120418121439e+01,-3.394968162589289129e+00,-2.132333663006654167e-01,6.186691670231262430e-01,7.561600315141850936e-01,1.323818313743711542e+03
9.584115292015125576e+00,-1.537903979960168321e+01,-3.159559718255826599e+00,-1.799416009752141110e-01,6.282887732347102183e-01,7.568832391155925210e-01,1.328043037624109047e+03
9.570086451880055023e+00,-1.541279483219499191e+01,-3.134108707103536062e+00,-1.464336447452450618e-01,6.371535529791331198e-01,7.566971240864661663e-01,1.328446470627186045e+03
9.288539904789416823e+00,-1.578210179907302724e+01,-2.817040906646516962e+00,-1.325899514270770241e-01,6.882938252009295210e-01,7.132107086716955591e-01,1.332671194507583550e+03
8.885293560607356866e+00,-1.606755884947677870e+01,-2.372148314934852120e+00,-1.181233465824986090e-01,7.362004468532350465e-01,6.663736016968124787e-01,1.336895918387981055e+03
8.791192115511533345e+00,-1.611059034222181197e+01,-2.243417038100087080e+00,-1.031017887052022991e-01,7.806483710619535055e-01,6.164058256674661562e-01,1.337925680324524819e+03
8.531874675145960651e+00,-1.613154910695237021e+01,-1.610394370085358240e+00,-8.210105695301059270e-02,8.048492556117637919e-01,5.877712924084943502e-01,1.342150404204922324e+03
8.518834617032643663e+00,-1.593463030336313757e+01,-7.763283813796092447e-01,-6.094871836432896178e-02,8.275638567025453973e-01,5.580513567769976868e-01,1.346375128085319830e+03
8.759019225105882711e+00,-1.566423986793621026e+01,2.638791833908800677e-01,-3.968382877459803587e-02,8.487502345667603532e-01,5.273008942224850504e-01,1.350599851965717335e+03
8.764427208372522315e+00,-1.566026353462762088e+01,2.806883452939414880e-01,-1.834565174832700207e-02,8.683692700211720350e-01,4.955766821952320988e-01,1.350661896177497738e+03
9.241715893904082435e+00,-1.541712876805290833e+01,1.505181212452237238e+00,-1.798353377429200151e-01,9.078253471950041842e-01,3.788276524878784746e-01,1.354886620057895243e+03
9.897835854925668642e+00,-1.521394970800427515e+01,2.839491419724240906e+00,-3.339039328230758441e-01,9.098189936194573946e-01,2.464458611841216507e-01,1.359111343938292748e+03
1.065497157320431043e+01,-1.501844255081163126e+01,4.183668964121752154e+00,-4.741936157520215134e-01,8.742679289664456732e-01,1.038941921423391368e-01,1.363336067818690253e+03
1.143587176078219336e+01,-1.479634790046053361e+01,5.437763352744521050e+00,-5.949151654178121973e-01,8.026392032620045525e-01,-4.294479413130108947e-02,1.367560791699087758e+03
1.216386515002110080e+01,-1.451143998161957249e+01,6.501828548682885511e+00,-6.910868634842908254e-01,6.978886589770707527e-01,-1.880116134466452982e-01,1.371785515579485264e+03
1.278382221772354121e+01,-1.414014506176178365e+01,7.309210555514157548e+00,-7.587400738336796957e-01,5.643389537013280277e-01,-3.253199128464249745e-01,1.376010239459882769e+03
1.328279891235835741e+01,-1.368687078153648784e+01,7.859833354241378522e+00,-7.950830141493264724e-01,4.075011773657052916e-01,-4.492035073963043801e-01,1.380234963340280274e+03
1.366862207823092312e+01,-1.317046698358720214e+01,8.186916267796847890e+00,-7.986159609189507069e-01,2.338474264405907554e-01,-5.545502034199292218e-01,1.384459687220677779e+03
1.392716703655459831e+01,-1.267555114923310278e+01,8.323993077890786907e+00,-7.691931341584103965e-01,5.054372172744144021e-02,-6.370127585520415359e-01,1.388212437010048006e+03
1.413020538840730111e+01,-1.209587133796853919e+01,8.336925988459302772e+00,-7.865441716352551405e-01,-8.903598566739249695e-03,-6.174682113254847948e-01,1.392437160890445512e+03
1.424078031293784896e+01,-1.150863139468874508e+01,8.222321491890525635e+00,-8.005783184492234472e-01,-6.831336093625235695e-02,-5.953197802400632677e-01,1.396661884770843017e+03
