-8.817829799714136385e+00,-4.180945788201870350e+00,-1.802971838282829697e+00,5.417228827719721140e-01,-7.787106776507439765e-01,3.164553661952864694e-01,4.811872271898486133e+02
-8.599765832456711223e+00,-3.646749091322282865e+00,-2.305072426580831113e+00,5.472732831194448977e-01,-7.488097845777005324e-01,3.738634244002681517e-01,4.854119510702461753e+02
-8.369563403633730303e+00,-3.219248793598825653e+00,-2.802643289274593830e+00,5.505138814389263224e-01,-7.157484943374295971e-01,4.296935642952299794e-01,4.896366749506437372e+02
-8.124629664670489859e+00,-2.887974351901254177e+00,-3.284302698413161803e+00,5.514310010558999275e-01,-6.796663437650568573e-01,4.837101531160396539e-01,4.938613988310412992e+02
-7.864347529896513755e+00,-2.642500422163241325e+00,-3.737719728303672273e+00,5.500207714179995433e-01,-6.407156190235574478e-01,5.356852121797089916e-01,4.980861227114388612e+02
-7.588989501142481942e+00,-2.472411055795436408e+00,-4.150089864569640241e+00,5.462891444225573823e-01,-5.990607129196207081e-01,5.853993789903475520e-01,5.023108465918364232e+02
-7.298631348767997018e+00,-2.367294947941975369e+00,-4.508610629924277191e+00,5.402518692994351390e-01,-5.548774311375049839e-01,6.326428329892197500e-01,5.065355704722339851e+02
-6.993152194501703889e+00,-2.316748446691925256e+00,-4.800482215603355307e+00,5.319344261550207342e-01,-5.083522503164583650e-01,6.772161810449807140e-01,5.107602943526315471e+02
-6.672234612502982110e+00,-2.310378556712041398e+00,-5.012908114485826516e+00,5.213719184573136767e-01,-4.596815311000550519e-01,7.189312989496001727e-01,5.149850182330291091e+02
-6.399248508269768543e+00,-2.330526771965135246e+00,-5.121246019340460975e+00,5.086089249148941782e-01,-4.090706894754843614e-01,7.576121253705859759e-01,5.184288607475059507e+02
-6.052409030163293124e+00,-2.348142635179769400e+00,-5.160485285251818155e+00,5.769914041982362463e-01,-5.687716422174957653e-01,5.861550464604259325e-01,5.226535846279034558e+02
-5.682204222957408568e+00,-2.159133346214804128e+00,-5.064434000423618798e+00,6.109977675234012917e-01,-6.945861822465757562e-01,3.797759385665345211e-01,5.268783085083009610e+02
-5.257778343326163117e+00,-1.640145266928871859e+00,-4.799483213573394025e+00,6.086019915928729818e-01,-7.790185379442770008e-01,1.507704658372687745e-01,5.311030323886984661e+02
-5.014687988181864675e+00,-1.253838553434205361e+00,-4.571469954707449546e+00,5.699468007884059828e-01,-8.170383833200210999e-01,-8.721768429069873263e-02,5.335538792580680365e+02
-4.800948982415635946e+00,-5.229495949238519570e-01,-4.099615461293025120e+00,4.985381020580411104e-01,-8.640434369660066061e-01,-6.990493422802795953e-02,5.377786031384655416e+02
-4.785173330748439646e+00,3.197550795112692468e-01,-3.630169350027789399e+00,4.233363327611543436e-01,-9.044744729493917612e-01,-5.206032217021527159e-02,5.420033270188630468e+02
-4.710590680496364868e+00,1.253843544410595756e+00,-3.333490853186489744e+00,3.449136427105238267e-01,-9.380238871297146286e-01,-3.381961329323870252e-02,5.462280508992605519e+02
-4.439988699069638223e+00,2.163926330280600663e+00,-3.301549892258734076e+00,2.638666847274040994e-01,-9.644364269811842583e-01,-1.532158606212102349e-02,5.500948565851313106e+02
-3.905766488229745370e+00,3.179555389779026076e+00,-3.503392803715490444e+00,1.677607771265424430e-01,-9.789375827653136186e-01,1.163422997370076595e-01,5.543195804655288157e+02
-3.182760644787754778e+00,4.174947321003910083e+00,-3.865310060184564467e+00,6.716189290683037549e-02,-9.672207727996093851e-01,2.448902954523008157e-01,5.585443043459263208e+02
-2.338054555328960671e+00,5.106802598337146115e+00,-4.291717756606409750e+00,-3.523572298842925221e-02,-9.295997992149488409e-01,3.668796221182692441e-01,5.627690282263238259e+02
-1.439494288980310177e+00,5.933261488079067725e+00,-4.687028803792689935e+00,-1.366896524349238418e-01,-8.670822300928237025e-01,4.790431558587566752e-01,5.669937521067213311e+02
-5.556775906158925027e-01,6.613915572529480258e+00,-4.955657654518845767e+00,-2.344827514366165100e-01,-7.813424145278704547e-01,5.783769277375356843e-01,5.712184759871188362e+02
2.583037663807792872e-01,7.129111630225435370e+00,-5.042543194290540320e+00,-3.259959204811058719e-01,-6.746766401968828930e-01,6.622205757924986003e-01,5.754431998675163413e+02
9.755995858198449611e-01,7.498846270179472917e+00,-4.973669628920156072e+00,-4.087782490871240126e-01,-5.499416343871521562e-01,7.283285946888655715e-01,5.796679237479138465e+02
1.584078740873647195e+00,7.762862240127661018e+00,-4.815547036758292876e+00,-4.806126560092123245e-01,-4.104780554706328188e-01,7.749304748565483125e-01,5.838926476283113516e+02
1.913837652130509159e+00,7.894053992988107282e+00,-4.696990294003435373e+00,-5.395752671750120300e-01,-2.600210237558659432e-01,8.007781204918821283e-01,5.865778203509069044e+02
2.334228541724316930e+00,8.075505406572897726e+00,-4.536445470180596296e+00,-5.068092810447485386e-01,-2.258724944306788884e-01,8.319398829857131972e-01,5.908025442313044095e+02
2.617298192005476754e+00,8.256968162705998537e+00,-4.461957227091852829e+00,-4.724160431114416969e-01,-1.909987433914678012e-01,8.604304517098870786e-01,5.950272681117019147e+02
2.753520417156694489e+00,8.479008358199212836e+00,-4.540035931091081167e+00,-4.365059782908781716e-01,-1.555117378824715513e-01,8.861583550883941340e-01,5.992519919920994198e+02
2.742380045944901035e+00,8.768974777838842272e+00,-4.810007096603365007e+00,-3.991943806851016574e-01,-1.195254137168326042e-01,9.090409902204477088e-01,6.034767158724969249e+02
2.691221539387617767e+00,8.936278300283079901e+00,-5.005296717208934432e+00,-3.606010436307612865e-01,-8.315530968407648660e-02,9.290048879307108987e-01,6.055587724482752492e+02
2.513063319735330925e+00,9.315127403877259127e+00,-5.496340017893893481e+00,-3.253520848751860761e-01,-8.508486623063465926e-02,9.417561183253077006e-01,6.097834963286727543e+02
2.240594593194399575e+00,9.742047482644490941e+00,-6.101201361758381125e+00,-2.896447724975182436e-01,-8.689455419503396005e-02,9.531805926546671470e-01,6.140082202090702594e+02
1.898036453848011229e+00,1.020290986659431276e+01,-6.777647611694632701e+00,-2.535294100867565570e-01,-8.858182418859712748e-02,9.632622169700045811e-01,6.182329440894677646e+02
1.509326190479300056e+00,1.068307327124669115e+01,-7.483442087275155252e+00,-2.170568759836985218e-01,-9.014429926985446928e-02,9.719867889507981529e-01,6.224576679698652697e+02
1.098113400122134875e+00,1.116738819980589348e+01,-8.176346654815565884e+00,-1.802785516274348354e-01,-9.157977829165776795e-02,9.793420179021818939e-01,6.266823918502627748e+02
6.877561308135156093e-01,1.164020138884384004e+01,-8.814123818060565441e+00,-1.432462491939635318e-01,-9.288623900081557916e-02,9.853175420612744206e-01,6.309071157306602800e+02
3.013170478915770945e-01,1.208536030028147756e+01,-9.354538809874130223e+00,-1.060121386288409712e-01,-9.406184088597091542e-02,9.899049431889632711e-01,6.351318396110577851e+02
-3.844038177822937941e-02,1.248621766202419714e+01,-9.755361683821217156e+00,-6.862867417632563527e-02,-9.510492776972379048e-02,9.930977584266694747e-01,6.393565634914552902e+02
-3.090556770788343011e-01,1.282563605194576084e+01,-9.974369403752429974e+00,-3.114852050817368614e-02,-9.601403014135707903e-02,9.948914894014251331e-01,6.435812873718527953e+02
-3.716930441847127176e-01,1.290904320567789831e+01,-1.000349274928165144e+01,6.375521444194676146e-03,-9.678786722688677291e-02,9.952836085664361621e-01,6.447593772604591322e+02
-4.659718821057373117e-01,1.304216523680410944e+01,-1.002928497003886221e+01,-4.339046176076776645e-02,-6.531571497973293061e-02,9.969198188286855222e-01,6.467409287698892513e+02
-5.713985868954855052e-01,1.332071864363774338e+01,-9.917843694690210654e+00,-1.277190232448153773e-01,-1.997503912291027084e-01,9.714863006268985579e-01,6.509656526502867564e+02
-5.125202666964596698e-01,1.362924981275217462e+01,-9.553782083073560472e+00,-2.087484841228265109e-01,-3.290253298653326719e-01,9.209584152848537819e-01,6.551903765306842615e+02
-2.940881760050175764e-01,1.398161236908183902e+01,-8.972348769226565324e+00,-2.843857813221462028e-01,-4.498012441876970136e-01,8.466413456178319974e-01,6.594151004110817667e+02
5.708633784076564549e-02,1.436490045280657135e+01,-8.228931735869178254e+00,-3.526771365218419607e-01,-5.589583854426105614e-01,7.504547692690990424e-01,6.636398242914792718e+02
5.139885412329417980e-01,1.476678897930067791e+01,-7.378926983236084425e+00,-4.118585236547491202e-01,-6.536771281838744674e-01,6.348832716199133142e-01,6.678645481718767769e+02
1.049404778806916960e+00,1.517553664731812901e+01,-6.477735786285228947e+00,-4.604012349551560579e-01,-7.315108032038973862e-01,5.029121669320937293e-01,6.720892720522742820e+02
1.635926954146017520e+00,1.557998889183232194e+01,-5.580761952140928628e+00,-4.970513686190620728e-01,-7.904488968216454303e-01,3.579503854836789123e-01,6.763139959326717872e+02
2.245957026362943587e+00,1.596958078307495121e+01,-4.743409078364807741e+00,-5.208622181312306809e-01,-8.289689841225273970e-01,2.037424184768578117e-01,6.805387198130692923e+02
2.495444049542520748e+00,1.612222261050083105e+01,-4.426827134607753678e+00,-5.312187266345089753e-01,-8.460760547018211231e-01,4.427159510897606814e-02,6.822554503958920122e+02
3.111590931891847767e+00,1.647704661125348835e+01,-3.717923152038713042e+00,-7.695022531249263720e-01,-3.877170298049608665e-01,5.074837802683841437e-01,6.864801742762895174e+02
3.207915650956011611e+00,1.652937093369821397e+01,-3.616641272944679741e+00,-6.373177502805363881e-01,2.573039079824042674e-01,7.263737220706827369e-01,6.871365691795111843e+02
3.822217278561067744e+00,1.688408497507551331e+01,-3.018968978328720354e+00,-6.787891474159399863e-01,2.029857952561942847e-01,7.057195337174118066e-01,6.913612930599086894e+02
4.377024803974854272e+00,1.735613923944552539e+01,-2.555744710331920633e+00,-7.168007883023064242e-01,1.476330896989984098e-01,6.814683416792080006e-01,6.955860169403061946e+02
4.780839706977261017e+00,1.810481032413780511e+01,-2.284876515229629756e+00,-7.511589405404689446e-01,9.152790740438063177e-02,6.537437481215864210e-01,6.998107408207036997e+02
4.815145725925333409e+00,1.820990214932004037e+01,-2.267076069282882855e+00,-7.816884897586409142e-01,3.495619906308287950e-02,6.226870555273437136e-01,7.002871871487596991e+02
5.013755449235147488e+00,1.927984962589783535e+01,-2.219035192053539163e+00,-7.684516629772037977e-01,-5.878348474464610215e-03,6.398792750830969434e-01,7.045119110291572042e+02
5.031544640122463719e+00,2.047798495712253342e+01,-2.356947579131245529e+00,-7.535716977970952080e-01,-4.670031678291364230e-02,6.557032687777519797e-01,7.087366349095547093e+02
4.917354408200925953e+00,2.152553886037478037e+01,-2.623018804644265511e+00,-7.370804097489119799e-01,-8.742242475698286386e-02,6.701252041284823102e-01,7.129613587899522145e+02
4.698141844150794277e+00,2.223423397983833993e+01,-2.968932454849718461e+00,-7.190130587314924604e-01,-1.279576048202042682e-01,6.831142457425115611e-01,7.171860826703497196e+02
4.471739303993458314e+00,2.253352429052037209e+01,-3.253631025319299042e+00,-6.994082736887943241e-01,-1.682191889183447808e-01,6.946426211866824074e-01,7.202712785080751701e+02
4.048955043109554452e+00,2.271871518909033938e+01,-3.670234292424672251e+00,-6.266038158655657941e-01,-1.248275721562103063e-01,7.692748112154624840e-01,7.244960023884726752e+02
3.468741075455726630e+00,2.270839759259652979e+01,-4.102947292086546405e+00,-5.458081045745246662e-01,-7.984400122413025380e-02,8.340961865682450238e-01,7.287207262688701803e+02
2.708243441875439306e+00,2.258946405862344875e+01,-4.531898324619907825e+00,-4.580515357623186068e-01,-3.384215520868780885e-02,8.882800792063790807e-01,7.329454501492676854e+02
2.423511513514397642e+00,2.254006425647951772e+01,-4.668977761631649237e+00,-3.644532727811113926e-01,1.259130137071709857e-02,9.311354740782082917e-01,7.343277757035457398e+02
1.515851573956569887e+00,2.242281655413342278e+01,-5.029802182118540799e+00,-2.750282173510700257e-01,-1.944600948238606533e-02,9.612384367957814701e-01,7.385524995839432449e+02
6.558881002139936855e-01,2.242444898642711593e+01,-5.228516942205955864e+00,-1.828723073991497805e-01,-5.129022521875249707e-02,9.817968384453688024e-01,7.427772234643407501e+02
3.362186725504043988e-02,2.264662454607084641e+01,-5.160793586043092240e+00,-8.890057767322241677e-02,-8.262515851382776222e-02,9.926065537097756852e-01,7.470019473447382552e+02
-2.093087795110563087e-01,2.299791832217247745e+01,-4.899463233435950471e+00,5.953908636577619554e-03,-1.131396784021359292e-01,9.935602468598982995e-01,7.502232324820287204e+02
-2.331007287884158674e-01,2.367457101117547680e+01,-4.305263309487253665e+00,4.795008760627149716e-03,-2.769720820681243478e-01,9.608649611917922106e-01,7.544479563624262255e+02
1.346248284801169690e-02,2.453935171344264177e+01,-3.478876108343620821e+00,3.502273175877204485e-03,-4.330738107123531799e-01,9.013505469892780786e-01,7.586726802428237306e+02
4.386236725748154930e-01,2.552049137933869716e+01,-2.498938464704951734e+00,2.111783996464691032e-03,-5.770878342545285866e-01,8.166781323899290346e-01,7.628974041232212357e+02
9.493529333842525286e-01,2.654821539074097814e+01,-1.444094818468702801e+00,6.623518132789910692e-04,-7.049945065920688592e-01,7.092110454337197112e-01,7.671221280036187409e+02
1.451362989863396180e+00,2.755476282671024180e+01,-3.929933212302764156e-01,-8.055675769722519652e-04,-8.132237617959878762e-01,5.819488502535099528e-01,7.713468518840162460e+02
1.849124663802949264e+00,2.847440553705248334e+01,5.757180595052068250e-01,-2.251002368235426303e-03,-8.987547616464613975e-01,4.384436239772641075e-01,7.755715757644137511e+02
2.075790697503515414e+00,2.926086240807513050e+01,1.406883954703807227e+00,-3.633608345360226071e-03,-9.592002127378836951e-01,2.827008114141725259e-01,7.797962996448112563e+02
2.123551027395078172e+00,2.990385682930668665e+01,2.092332844013733428e+00,-4.914794964043775471e-03,-9.928729994496640066e-01,1.190674252456311588e-01,7.840210235252087614e+02
2.014379023439391680e+00,3.041044710580899135e+01,2.647388939043359368e+00,-6.058802476228866522e-03,-9.988332729130489085e-01,-4.788928726552943438e-02,7.882457474056062665e+02
1.770337376917450189e+00,3.078720388185308465e+01,3.087382903815587998e+00,-7.033700034853367956e-03,-9.769146818617655548e-01,-2.135093239820876898e-01,7.924704712860037716e+02
1.666093173398605964e+00,3.088741024674106583e+01,3.212740109977837211e+00,-7.812276919664460847e-03,-9.277290136392092323e-01,-3.731699955542827629e-01,7.938692576050638081e+02
1.295508454329716841e+00,3.111952284783599865e+01,3.540184051118694608e+00,1.960210708927066087e-02,-9.295920113513237437e-01,-3.680658226789358944e-01,7.980939814854613132e+02
8.419977499587213421e-01,3.123503243198935309e+01,3.788323422667740914e+00,4.700117591130101996e-02,-9.307289293888574289e-01,-3.626741643081671795e-01,8.023187053658588184e+02
3.278933825378337885e-01,3.123887458301182818e+01,3.972504489786362392e+00,7.436353020130731517e-02,-9.311388800935689325e-01,-3.569992315806670424e-01,8.065434292462563235e+02
-2.243995100785133312e-01,3.113549214600615045e+01,4.108076681155361065e+00,1.016677993061338298e-01,-9.308215434845578118e-01,-3.510454568348801430e-01,8.107681531266538286e+02
-7.924068010465712408e-01,3.092883417303987059e+01,4.210391829218501414e+00,1.288926579430810238e-01,-9.297771675038164485e-01,-3.448174901481638743e-01,8.149928770070513337e+02
-1.353589207035126529e+00,3.062235491364621964e+01,4.294803410333996041e+00,1.560168428429346277e-01,-9.280065678220628111e-01,-3.383201957074318811e-01,8.192176008874488389e+02
-1.885346126422433377e+00,3.021901285021643702e+01,4.376665784862888486e+00,1.830191693446527046e-01,-9.255111272022435998e-01,-3.315586480129867897e-01,8.234423247678463440e+02
-2.365019483063362848e+00,2.972126977834893324e+01,4.471333437228516949e+00,2.098785479288477474e-01,-9.222927944212010454e-01,-3.245381279184822998e-01,8.276670486482438491e+02
-2.763651641829258043e+00,2.914265090837956507e+01,4.591458431134223694e+00,2.365740006772459603e-01,-9.183540827503327009e-01,-3.172641185100845695e-01,8.318155236432169204e+02
-3.073333617052127487e+00,2.846335104177689601e+01,4.756670505996232201e+00,2.453542355804743669e-01,-8.728687522156056700e-01,-4.217812709077680688e-01,8.360402475236144255e+02
-3.263061338585976134e+00,2.769403784138646074e+01,4.980467443508385550e+00,2.509277222553635833e-01,-8.159751490070719093e-01,-5.207857855270265901e-01,8.402649714040119306e+02
-3.309986089449312718e+00,2.683518706812037991e+01,5.278196690083598597e+00,2.532216172013682098e-01,-7.484168656721659207e-01,-6.129836928987661970e-01,8.444896952844094358e+02
-3.191220904126714331e+00,2.588677388633746901e+01,5.665202031227355661e+00,2.522059401590833749e-01,-6.710768781242790748e-01,-6.971699845775642945e-01,8.487144191648069409e+02
-2.891364431525281997e+00,2.485219527685827501e+01,6.128897178135871648e+00,2.478939658688725511e-01,-5.849660056355616700e-01,-7.722443615443028708e-01,8.529391430452044460e+02
-2.409927892809408778e+00,2.374240707322172739e+01,6.600840736367149297e+00,2.403420505767802362e-01,-4.912097002115040079e-01,-8.372256142420434477e-01,8.571638669256019512e+02
-1.753671527833587485e+00,2.257232044152904749e+01,6.984665247450845271e+00,2.296488955553130928e-01,-3.910333379331351611e-01,-8.912644463879678680e-01,8.613885908059994563e+02
-1.023425556790631408e+00,2.148346282575397836e+01,7.179754514095148643e+00,2.159542572542225425e-01,-2.857462044053863393e-01,-9.336545750124471965e-01,8.651793028177307860e+02
-5.778026680544844085e-02,2.024097555075714183e+01,7.139376195022988369e+00,6.323919214263354349e-02,-1.688745173737876415e-01,-9.836057146842268617e-01,8.694040266981282912e+02
1.035032242099267918e+00,1.899054887673730718e+01,6.809398635365445429e+00,-9.197229629145288465e-02,-4.533633646459216127e-02,-9.947279594499549571e-01,8.736287505785257963e+02
2.160067481626103625e+00,1.777353820252076488e+01,6.326536926919888337e+00,-2.435530699646449304e-01,7.999153663586562601e-02,-9.665822552572087556e-01,8.778534744589233014e+02
3.193347539795466261e+00,1.664190827605068179e+01,5.905194618063634771e+00,-3.855193203889981657e-01,2.021616531624798041e-01,-9.002796896510173452e-01,8.820781983393208066e+02
4.046689260824916090e+00,1.563449029265037105e+01,5.696267553544849704e+00,-5.122667839454883021e-01,3.163512217524022119e-01,-7.984376284736487417e-01,8.863029222197183117e+02
4.702160572376360648e+00,1.476018122624166473e+01,5.723631749185979167e+00,-6.187919737969724832e-01,4.180524914010215198e-01,-6.650763923028178981e-01,8.905276461001158168e+02
4.867216632309703250e+00,1.451911019248101553e+01,5.768273470882844478e+00,-7.008896959131416526e-01,5.032506979874810105e-01,-5.054605515156722628e-01,8.918004599719630505e+02
5.318087473944766330e+00,1.378813818972123251e+01,6.011463764879069416e+00,-7.698263939032550240e-01,4.531048986204976314e-01,-4.495122624535430877e-01,8.960251838523605556e+02
5.609571860136814969e+00,1.317396342330382630e+01,6.399708526214429760e+00,-8.307591206136950568e-01,3.982481299657093521e-01,-3.888903579367604668e-01,9.002499077327580608e+02
5.758192183215581572e+00,1.266905138112204199e+01,6.893348756293161905e+00,-8.830543583694642207e-01,3.392507422827983898e-01,-3.242251286151997536e-01,9.044746316131555659e+02
5.780294732741526609e+00,1.226552789602246385e+01,7.452720238555988530e+00,-9.261683931259395708e-01,2.767261349226955436e-01,-2.561889026198431174e-01,9.086993554935530710e+02
5.692047165229941363e+00,1.195518193327142953e+01,8.038155501263839042e+00,-9.596529669792404071e-01,2.113243790824218538e-01,-1.854890556707713689e-01,9.129240793739505762e+02
5.509435990671334160e+00,1.172946840754800313e+01,8.609985780409179057e+00,-9.831599383886768795e-01,1.437254593795043167e-01,-1.128606568911528912e-01,9.171488032543480813e+02
5.248264076014573121e+00,1.157951102915530939e+01,9.128542982655996951e+00,-9.964449016924866731e-01,7.463220447269960922e-02,-3.905882674428409751e-02,9.213735271347455864e+02
4.970661530369162584e+00,1.150324957552672345e+01,9.507493277647682817e+00,-9.993697282986550023e-01,4.762980183411038085e-03,3.514911350107863264e-02,9.250397566458357232e+02
4.606438239761361686e+00,1.146853343201624220e+01,9.825251960155659603e+00,-9.829469610413560376e-01,-6.903697142714604329e-02,-1.704322984542237795e-01,9.292644805262332284e+02
4.207919634392444763e+00,1.148228721678655972e+01,9.975998468539428288e+00,-9.193624535432325384e-01,-1.395245254955577718e-01,-3.678363573669050091e-01,9.334892044066307335e+02
3.790175050451218830e+00,1.153438106358819226e+01,9.920085661256782927e+00,-8.116669962739775368e-01,-2.033176967430376791e-01,-5.475916374009711651e-01,9.377139282870282386e+02
3.372841574749945615e+00,1.161192764471886285e+01,9.626783494703561317e+00,-6.650278110367664475e-01,-2.573556967709378362e-01,-7.010735024859932052e-01,9.419386521674257438e+02
2.984824665463600812e+00,1.169670874046230047e+01,9.083187417105081707e+00,-4.864806287085907677e-01,-2.990457882881522589e-01,-8.209179096591463498e-01,9.461633760478232489e+02
2.772859709170118148e+00,1.174433404634398315e+01,8.637060986895692238e+00,-2.845921199455984651e-01,-3.263876829439760763e-01,-9.013747310014676994e-01,9.487435166074565132e+02
2.493352275562116027e+00,1.179802015802333237e+01,7.716477933643680842e+00,-3.308998797996733909e-01,-2.875264119414575048e-01,-8.987946550697493153e-01,9.529682404878540183e+02
2.329347060734374253e+00,1.180190145654053957e+01,6.535221888827625669e+00,-3.759961169173121065e-01,-2.476124365748657297e-01,-8.929238496725333540e-01,9.571929643682515234e+02
2.313137365525536282e+00,1.173282294521900049e+01,5.089339968889912136e+00,-4.197157271602798279e-01,-2.067918888247827769e-01,-8.837838101527339951e-01,9.614176882486490285e+02
2.470133636459256099e+00,1.163711639322484537e+01,3.485387090971974189e+00,-4.618986461257898468e-01,-1.652142193748932231e-01,-8.714079999752800676e-01,9.656424121290465337e+02
2.814113976489128977e+00,1.170096806723970317e+01,2.050915404160201128e+00,-5.023904349560658344e-01,-1.230316506390447262e-01,-8.558417282435540896e-01,9.698671360094440388e+02
3.090493895848251515e+00,1.188395498270640260e+01,1.431772577653973588e+00,-5.410428455770623923e-01,-8.039861965177196035e-02,-8.371419838981333239e-01,9.722779632674273671e+02
3.657675236036530109e+00,1.252370853607033041e+01,8.669378220622515618e-01,-6.751081230878368533e-01,-6.936705498973352868e-02,-7.344489320728752046e-01,9.765026871478248722e+02
4.172794059806519407e+00,1.342672984513669832e+01,9.042745868939972009e-01,-7.898375354145877880e-01,-5.634874276273058730e-02,-6.107204653845162978e-01,9.807274110282223774e+02
4.373744828048292455e+00,1.429895406415558590e+01,1.288450442862212553e+00,-8.819451256319702503e-01,-4.171654066962589974e-02,-4.695002935129408139e-01,9.849521349086198825e+02
4.094620204288951903e+00,1.494339918945020251e+01,1.817344967894932939e+00,-9.487928397335488873e-01,-2.588952906798711734e-02,-3.148330979344217684e-01,9.891768587890173876e+02
3.946104053072647666e+00,1.507408215881202729e+01,1.967764203800618228e+00,-9.884660797404068999e-01,-9.321008791221989387e-03,-1.511486949909376376e-01,9.902990691568544435e+02
3.193420767186775144e+00,1.546298233887951312e+01,2.544564049369193004e+00,-9.382643040998671635e-01,-2.904395464988214770e-01,-1.878908339472644684e-01,9.945237930372519486e+02
2.167885407829031053e+00,1.571108356570287157e+01,3.116696896105383807e+00,-8.102822455102548505e-01,-5.474812954694244782e-01,-2.090572020323105684e-01,9.987485169176494537e+02
1.007411490231718165e+00,1.589323812720281737e+01,3.641720364152849498e+00,-6.151293292438202442e-01,-7.591379461992351363e-01,-2.128931350324660965e-01,1.002973240798046959e+03
-1.487572679715453428e-01,1.608131884827132652e+01,4.077194406159534878e+00,-3.689833703099147932e-01,-9.078635210435332947e-01,-1.990806359060314501e-01,1.007197964678444464e+03
-1.196728786193673288e+00,1.632095194862483822e+01,4.396005096420657843e+00,-9.224944396358664145e-02,-9.813289471598887204e-01,-1.687647402578009992e-01,1.011422688558841969e+03
-2.105220932219043828e+00,1.660930032961331193e+01,4.601687661614549008e+00,1.921317029326295167e-01,-9.734441268341260667e-01,-1.244585901433727243e-01,1.015647412439239474e+03
-2.793266099261058510e+00,1.688175008466089722e+01,4.705091547153292808e+00,4.605854359300187717e-01,-8.848627670779013465e-01,-6.983508895109297177e-02,1.019352225004376919e+03
-3.459588418998646553e+00,1.719009994949833597e+01,4.752945021476685739e+00,5.643862942828786755e-01,-8.032737122040721767e-01,-1.903088387543874771e-01,1.023576948884774424e+03
-4.003627633453153756e+00,1.747135027630670123e+01,4.741948373859407262e+00,6.501576085470760491e-01,-6.960237875938776186e-01,-3.047030868770804757e-01,1.027801672765172043e+03
-4.432248898148397842e+00,1.769939402572880738e+01,4.690974940462637299e+00,7.151593930770444585e-01,-5.665391307434103352e-01,-4.093634764250318470e-01,1.032026396645569548e+03
-4.752773830668142629e+00,1.784826974367049246e+01,4.618900036421261568e+00,7.573151474817889639e-01,-4.189561677072716761e-01,-5.009466008819890570e-01,1.036251120525967053e+03
-4.972979407363590454e+00,1.789216846296009322e+01,4.544600021222989561e+00,7.752781889749026378e-01,-2.579894772840366501e-01,-5.765268071051978804e-01,1.040475844406364558e+03
-5.077452434832634864e+00,1.784703381869995553e+01,4.498491494872849827e+00,7.684746727010650647e-01,-8.878118729578167445e-02,-6.336896544836143619e-01,1.043555864160539841e+03
-5.151142438828213876e+00,1.765737999081893861e+01,4.462620067034457350e+00,7.509936637494453171e-01,-1.845745287030577941e-01,-6.339864039250190375e-01,1.047780588040937346e+03
-5.147961550054983348e+00,1.729321824601575841e+01,4.476035899268981488e+00,7.263916955766102079e-01,-2.786177058257411354e-01,-6.282716598713080636e-01,1.052005311921334851e+03
-5.077374221139501209e+00,1.672936805337117860e+01,4.557611064076003693e+00,6.949020471120782583e-01,-3.700190035343379757e-01,-6.165996123439437815e-01,1.056230035801732356e+03
-4.935237745895535433e+00,1.594678694871591951e+01,4.715689999395618948e+00,6.568233044271016841e-01,-4.579117574120898371e-01,-5.990809370903542597e-01,1.060454759682129861e+03
-4.689596452541636040e+00,1.493812809037351030e+01,4.937564834603715092e+00,6.125165296431068773e-01,-5.414625706417734996e-01,-5.758817461143698191e-01,1.064679483562527366e+03
-4.294519433205178593e+00,1.370118767709315044e+01,5.200000280673650721e+00,5.624018376332805547e-01,-6.198792155071140009e-01,-5.472220127230225106e-01,1.068904207442924871e+03
-4.116985241271054363e+00,1.321185648107514155e+01,5.298882458483156199e+00,5.069544129494960583e-01,-6.924181446572398313e-01,-5.133734860117978860e-01,1.070406437877591088e+03
-3.481870956915839699e+00,1.169435579383856805e+01,5.576870323373395166e+00,5.718315488814301739e-01,-4.166949491889483936e-01,-7.066625779131706642e-01,1.074631161757988593e+03
-2.602926349500170211e+00,1.005074429856575335e+01,5.835606327879795607e+00,5.694651246726005756e-01,-9.197087584174529207e-02,-8.168530037748645833e-01,1.078855885638386098e+03
-1.543035081397194030e+00,8.500053769629545286e+00,6.050278393510421182e+00,5.001332152889447213e-01,2.435686806171089569e-01,-8.309868018109480836e-01,1.083080609518783604e+03
-5.135738970925441960e-01,7.156700634992666288e+00,6.218297066468975842e+00,3.719887350050601338e-01,5.504661883460761906e-01,-7.474017370289695039e-01,1.087305333399181109e+03
2.857052552669237522e-01,6.021897972536547350e+00,6.349338890139991420e+00,2.001007679512407655e-01,7.926322107029903918e-01,-5.759269582325599046e-01,1.091530057279578614e+03
8.138355855746547407e-01,5.081655719196162657e+00,6.450315114858745424e+00,4.682407790542610082e-03,9.415895930427203853e-01,-3.367270605841523601e-01,1.095754781159976119e+03
9.994706396402648352e-01,4.661294429043732812e+00,6.493168764109089608e+00,-1.912863667842860105e-01,9.798222155993550064e-01,-5.793057655620399010e-02,1.097930474787374806e+03
1.220502519596844859e+00,3.950610082516325505e+00,6.562806753677820737e+00,-2.115464566154138804e-01,9.413198680737571156e-01,-2.629885979728061596e-01,1.102155198667772311e+03
1.265003990997786820e+00,3.374513666118573951e+00,6.616287096345826235e+00,-2.225108185047246501e-01,8.614542424637379181e-01,-4.564904421673674495e-01,1.106379922548169816e+03
1.169805428080707088e+00,2.907907942874657703e+00,6.659141419354026148e+00,-2.236976571737196995e-01,7.437347696367153649e-01,-6.299332906022058198e-01,1.110604646428567321e+03
9.712317774548155924e-01,2.524923980445525462e+00,6.696901877864753772e+00,-2.150548190543754845e-01,5.933342485193845439e-01,-7.756957485611791769e-01,1.114829370308964826e+03
7.050967406915967794e-01,2.198928988318337385e+00,6.735100881039763010e+00,-1.969620846833144701e-01,4.168615461341914075e-01,-8.873727449906512188e-01,1.119054094189362331e+03
4.066970030376926837e-01,1.902534222468754255e+00,6.779270817907601554e+00,-1.702144809414650184e-01,2.220711925671277343e-01,-9.600569857618156400e-01,1.123278818069759836e+03
1.108065088644443336e-01,1.607602957452673120e+00,6.834943783465014633e+00,-1.359873462465083782e-01,1.752263162527544632e-02,-9.905545916516653726e-01,1.127503541950157341e+03
-1.105861703181868494e-01,1.343770636874204394e+00,6.893417017753095344e+00,-9.578468375898936682e-02,-1.877958991382477349e-01,-9.775254444895690176e-01,1.131018260572192730e+03
-3.159780698883167815e-01,9.774217182719041608e-01,6.983380903933383621e+00,-5.937807897460473106e-02,-2.503872314967564017e-01,-9.663221398874372037e-01,1.135242984452590235e+03
-4.232556946352955540e-01,5.288920725143366752e-01,7.100510438653388157e+00,-2.265270444319368928e-02,-3.116343086997867551e-01,-9.499310041359427803e-01,1.139467708332987741e+03
-4.205696050215333992e-01,-1.776783651407046888e-02,7.230057505234103843e+00,1.419428344770015324e-02,-3.712083329364418982e-01,-9.284400335358002909e-01,1.143692432213385246e+03
-3.738023291210125221e-01,-4.181924823999060292e-01,7.300948128201116383e+00,5.096507556958030510e-02,-4.287894868401496140e-01,-9.019645985531844490e-01,1.146432912737599963e+03
-2.739487947217142949e-01,-1.081726467428811622e+00,7.327669951686072380e+00,1.318027099340736419e-02,-3.405409068881352641e-01,-9.401362513974966806e-01,1.150657636617997468e+03
-1.771957678077434872e-01,-1.779959841309312507e+00,7.186909021876633830e+00,-2.474519354344155778e-02,-2.486578893667945878e-01,-9.682742015832588311e-01,1.154882360498394974e+03
-1.331644509761796824e-01,-2.481477431140272305e+00,6.803100458758295943e+00,-6.240655857264486295e-02,-1.541210572075829566e-01,-9.860781516553052128e-01,1.159107084378792479e+03
-1.902515379842438237e-01,-3.157924665820988519e+00,6.158317130710561749e+00,-9.940188353938725352e-02,-5.793935441525861763e-02,-9.933580909009238624e-01,1.163331808259189984e+03
-3.950797687422032967e-01,-3.788152356035687784e+00,5.349896260082739552e+00,-1.353363360188955256e-01,3.886072070128896577e-02,-9.900363228381952041e-01,1.167556532139587489e+03
-4.885015086674495688e-01,-3.971068716139507515e+00,5.089372015879011890e+00,-1.698264050970751948e-01,1.352460695721124928e-01,-9.761482944697891240e-01,1.168850675330724926e+03
-9.234543431030191041e-01,-4.523379794191871639e+00,4.298052218886757814e+00,4.973924024660627413e-02,1.026511852296414784e-01,-9.934720641020442500e-01,1.173075399211122431e+03
-1.611046882433548655e+00,-4.986728481339966379e+00,3.700508283908712670e+00,2.668392067255564437e-01,6.496770963545853150e-02,-9.615477286434478410e-01,1.177300123091519936e+03
-2.523821745926641213e+00,-5.359532676794596995e+00,3.403391773031531287e+00,4.707115027798310369e-01,2.406367339164255589e-02,-8.819578338980592624e-01,1.181524846971917441e+03
-3.489677471789560226e+00,-5.678716360009865127e+00,3.416721386504143254e+00,6.512498479799259110e-01,-1.803324528972562873e-02,-7.586477691068352902e-01,1.185749570852314946e+03
-4.193886648433917230e+00,-5.958558617470297136e+00,3.647819807914910228e+00,7.995046472312153929e-01,-5.923623325052638361e-02,-5.977301964315340221e-01,1.189435480108141292e+03
-4.615178745143805550e+00,-6.341268996010174241e+00,4.128377589233013012e+00,7.951634841127701581e-01,-1.126152877558395625e-02,-6.062888845199420063e-01,1.193660203988538797e+03
-4.604558738484310076e+00,-6.846227454728848194e+00,4.731490860044274882e+00,7.889189609615817611e-01,3.674011853253012633e-02,-6.133963129288719784e-01,1.197884927868936302e+03
-4.534496361667121000e+00,-7.095699661281228643e+00,4.975636338960858218e+00,7.807860227154185262e-01,8.465382963118059378e-02,-6.190354722064430604e-01,1.199635257361118420e+03
-4.480929823629379527e+00,-7.765559378432035587e+00,5.409363708299980367e+00,6.037414335306389157e-01,-1.276783814508647141e-01,-7.868878651681402436e-01,1.203859981241515925e+03
-4.628017152103633514e+00,-8.440853508895614254e+00,5.621388035541162509e+00,3.635428845394246267e-01,-3.266548423507278920e-01,-8.724283266091238387e-01,1.208084705121913430e+03
-4.830128219946431045e+00,-8.829189557968611268e+00,5.678528235084816522e+00,8.531612048861110520e-02,-4.914618070076545719e-01,-8.667089775914695871e-01,1.210967255010378949e+03
-5.147775450052447077e+00,-9.278722546382223157e+00,5.686161621652895626e+00,3.625506096709592285e-02,-4.299899581484199484e-01,-9.021043212606548733e-01,1.215191978890776454e+03
-5.257689144472113441e+00,-9.525156773115410758e+00,5.661311509973414147e+00,-1.307568706440352495e-02,-3.653195758187631759e-01,-9.307892532266549557e-01,1.217587369489866660e+03
-5.134873241602637250e+00,-1.011527747655269138e+01,5.577446254197711006e+00,2.158298561310263985e-01,-2.047921606974192898e-01,-9.547123357953596345e-01,1.221812093370264165e+03
-4.675051052395510887e+00,-1.091190675728209492e+01,5.418189595309329754e+00,4.277410845903599212e-01,-2.813958712076860061e-02,-9.034620789998321078e-01,1.226036817250661670e+03
-4.099375044709695715e+00,-1.185340894122008493e+01,5.149395565006079423e+00,6.059723032847490476e-01,1.507286775389812261e-01,-7.810738975408162421e-01,1.230261541131059175e+03
-3.638421518644373798e+00,-1.272091172188497410e+01,4.816319924587438628e+00,7.364897350780824636e-01,3.177287045815185285e-01,-5.971845111938333117e-01,1.233855742262691592e+03
-3.162335724293499073e+00,-1.375992661885990209e+01,4.285800996026646104e+00,7.332980394829429205e-01,4.992296186736201458e-01,-4.615644842595142405e-01,1.238080466143089097e+03
-2.726767356848551316e+00,-1.476324331187854533e+01,3.590329216090945685e+00,6.924546638443084268e-01,6.550972710079860928e-01,-3.022451058964608084e-01,1.242305190023486603e+03
-2.295749658351943001e+00,-1.566970771932469653e+01,2.718420680016604862e+00,6.160567322377507038e-01,7.773285183269981191e-01,-1.274067394617746651e-01,1.246529913903884108e+03
-1.832188064467522803e+00,-1.641893751424835202e+01,1.658600222325818940e+00,5.080269500541905181e-01,8.596473049161514890e-01,5.397341168808152123e-02,1.250754637784281613e+03
-1.345637520402905407e+00,-1.696917120147923441e+01,5.061139010816959605e-01,3.739121883764645604e-01,8.978269165247253492e-01,2.325822507147313756e-01,1.254979361664679118e+03
-8.976897166922339633e-01,-1.731736639721641779e+01,-5.392814451117969865e-01,2.205986710430868913e-01,8.899070049475722444e-01,3.992489810628077618e-01,1.259204085545076623e+03
-5.121140210318932962e-01,-1.748416667927471480e+01,-1.388957646575112337e+00,5.595839064233187887e-02,8.362942394675240143e-01,5.454159912862037718e-01,1.263428809425474128e+03
-3.727381722424387145e-01,-1.750911459251206992e+01,-1.679124147017210245e+00,-1.115550887195517760e-01,7.397414188901730858e-01,6.635782511202413803e-01,1.265089389682868614e+03
-3.671532511196297366e-02,-1.748626982336476132e+01,-2.320033356680213377e+00,-6.332115892066478291e-02,7.367994946916887056e-01,6.731381250922643389e-01,1.269314113563266119e+03
2.805650508621578831e-01,-1.734022669731763600e+01,-2.813813961475017944e+00,-1.493358401008842810e-02,7.320696810321237757e-01,6.810645859094275334e-01,1.273538837443663624e+03
5.966452444800595112e-01,-1.709590359441232010e+01,-3.180783485580532144e+00,3.349022338420566680e-02,7.255634555042014266e-01,6.873384006240225164e-01,1.277763561324061129e+03
9.286011746452459414e-01,-1.677857849216962549e+01,-3.441265731310873210e+00,8.183276282665702395e-02,7.172966058381131660e-01,6.919443461574039667e-01,1.281988285204458634e+03
1.293039715325356331e+00,-1.641388182078925340e+01,-3.615589773030003506e+00,1.299767311043279749e-01,7.072891915948597008e-01,6.948712462193186168e-01,1.286213009084856139e+03
1.706096061985615808e+00,-1.602778928839286365e+01,-3.724088950720722213e+00,1.778053067779583329e-01,6.955654955053512944e-01,6.961119984181745046e-01,1.290437732965253645e+03
2.183431139923226016e+00,-1.564661467531399452e+01,-3.787099863838695235e+00,2.252024335656419296e-01,6.821539645718441847e-01,6.956635914956373901e-01,1.294662456845651150e+03
2.418975329765443050e+00,-1.548265603121077305e+01,-3.806142574840399639e+00,2.720531018735236617e-01,6.670871410740787377e-01,6.935271126437365652e-01,1.296555730976829182e+03
3.003658099395405401e+00,-1.515138519575360654e+01,-3.842844590496717228e+00,2.950177983224337996e-01,6.376689578860030849e-01,7.115762775800756890e-01,1.300780454857226687e+03
3.688986684678961403e+00,-1.489070931640185869e+01,-3.883852587488198616e+00,3.174754771582149471e-01,6.071548951648069181e-01,7.284025361528365661e-01,1.305005178737624192e+03
4.478649335682056254e+00,-1.472129110424478426e+01,-3.935113468260468483e+00,3.393875468111428040e-01,5.755973894961908810e-01,7.439769742861590540e-01,1.309229902618021697e+03
5.355379416490704259e+00,-1.465028151515981847e+01,-3.973787361080463931e+00,3.607163530661390838e-01,5.430506700128719944e-01,7.582728284874615809e-01,1.313454626498419202e+03
5.772764407812370102e+00,-1.464777939946025853e+01,-3.980510249328890193e+00,3.814252436966165116e-01,5.095706653077385351e-01,7.712655317863134075e-01,1.315368865982916532e+03
6.718480327054455969e+00,-1.470728718325665518e+01,-3.944460915238373833e+00,3.089994723430526391e-01,5.265026970155751718e-01,7.920304515126681544e-01,1.319593589863314037e+03
7.683588904221053895e+00,-1.486397425189190358e+01,-3.804494255755661580e+00,2.347310377942910531e-01,5.402949902055147469e-01,8.080721895049211012e-01,1.323818313743711542e+03
8.556363747780006079e+00,-1.511892655249782358e+01,-3.531645614131905031e+00,1.590628132605871881e-01,5.508653007106696364e-01,8.192950884186255278e-01,1.328043037624109047e+03
8.630333646698554517e+00,-1.514812421274598186e+01,-3.498655120234852589e+00,8.244601807957868678e-02,5.581505951190748327e-01,8.256322227644627976e-01,1.328446470627186045e+03
9.107478623783638483e+00,-1.550696554998710219e+01,-3.078265057142254957e+00,1.394297306186709738e-03,6.281129206280376964e-01,7.781196661647015178e-01,1.332671194507583550e+03
9.067514175711895774e+00,-1.586783834345039423e+01,-2.515803999594194984e+00,-7.967653927454396157e-02,6.894565337759354096e-01,7.199300918283777495e-01,1.336895918387981055e+03
9.003125568969196024e+00,-1.593936825936277657e+01,-2.360812083257460170e+00,-1.596541066952769372e-01,7.413397293443966252e-01,6.518619270271709398e-01,1.337925680324524819e+03
8.781072978489774528e+00,-1.605476046818618840e+01,-1.652947911775752843e+00,-1.290832821297493715e-01,7.772439777862999444e-01,6.158143431781117894e-01,1.342150404204922324e+03
8.693065382518842199e+00,-1.592258232553903952e+01,-7.942673133422483156e-01,-9.805768887156283975e-02,8.104098899058556071e-01,5.775971779626580815e-01,1.346375128085319830e+03
8.828489035728336987e+00,-1.568981036143166818e+01,2.498910950232299810e-01,-6.668662646342696232e-02,8.407206273317087142e-01,5.373450666231792683e-01,1.350599851965717335e+03
8.832442330131387465e+00,-1.568620052203565152e+01,2.667152843136139095e-01,-3.508061123112509588e-02,8.680694080232826959e-01,4.951998117565876711e-01,1.350661896177497738e+03
9.234067277128939821e+00,-1.545802128457163782e+01,1.496075990118172383e+00,-1.950902595882342827e-01,9.050246341977181697e-01,3.779791027416937177e-01,1.354886620057895243e+03
9.855884435874854077e+00,-1.525303880117195554e+01,2.841713989205583157e+00,-3.471578851250448627e-01,9.051367108374575032e-01,2.453710200698158428e-01,1.359111343938292748e+03
1.060924992566008918e+01,-1.504529466043485186e+01,4.201273849355324330e+00,-4.850928750177445070e-01,8.684010660457524011e-01,1.027739806459446043e-01,1.363336067818690253e+03
1.140604998432858785e+01,-1.480693479704200399e+01,5.472399450101911533e+00,-6.032799480065745845e-01,7.963131876813043242e-01,-4.400694784014993338e-02,1.367560791699087758e+03
1.215871543190038828e+01,-1.450821775078933840e+01,6.552739047914757364e+00,-6.969077536295920083e-01,6.918077440102101683e-01,-1.889963710198494518e-01,1.371785515579485264e+03
1.280391760006761714e+01,-1.413010474369485081e+01,7.373887704334879167e+00,-7.621647430676803392e-01,5.591391134787105921e-01,-3.262918267488505997e-01,1.376010239459882769e+03
1.332595340299210740e+01,-1.367752564027754758e+01,7.935328034160555433e+00,-7.963943367367176673e-01,4.037081876203659214e-01,-4.503040746677123285e-01,1.380234963340280274e+03
1.373260536904971829e+01,-1.316781397621326555e+01,8.270492867414343863e+00,-7.982030714086012502e-01,2.318424990399856611e-01,-5.559846332707953920e-01,1.384459687220677779e+03
1.400444343227499466e+01,-1.268124259611768778e+01,8.407892342687640408e+00,-7.675173246081193890e-01,5.053862685067062044e-02,-6.390313009728380012e-01,1.388212437010048006e+03
1.421653146718208127e+01,-1.211212718779943565e+01,8.413671775973535105e+00,-7.858743800273596536e-01,-6.644144445242645101e-03,-6.183488612097839399e-01,1.392437160890445512e+03
1.433373414772154320e+01,-1.153683416730589961e+01,8.289795979180627938e+00,-8.010607266859887110e-01,-6.380009844993980717e-02,-5.951716219692233523e-01,1.396661884770843017e+03
1.436246400554881042e+01,-1.097327365049110526e+01,8.069731857257549379e+00,-8.130150960177606745e-01,-1.206986369728005881e-01,-5.695930939526864245e-01,1.400886608651240522e+03
1.430877860403334978e+01,-1.043949070701855142e+01,7.786951073537684564e+00,-8.216892583177030085e-01,-1.771102005462044660e-01,-5.417164753136405331e-01,1.405111332531638027e+03
1.417837951764988169e+01,-9.953659874781251915e+00,7.474928393354168144e+00,-8.270482172555874145e-01,-2.328071943762114737e-01,-5.116542353771682539e-01,1.409336056412035532e+03
1.397661134383045045e+01,-9.534079662538625044e+00,7.167140027574241401e+00,-8.290703510395799336e-01,-2.875649063701594121e-01,-4.795276609848799221e-01,1.413560780292433037e+03
1.380904609525129523e+01,-9.299386806442790032e+00,6.979644369472307375e+00,-8.277474996607886437e-01,-3.411624135459974672e-01,-4.454663672902217098e-01,1.416348523323084919e+03
1.350695948406517921e+01,-9.023097991636189974e+00,6.746928035549471403e+00,-8.103312566702907116e-01,-3.413677666361570884e-01,-4.762659995849458094e-01,1.420573247203482424e+03
1.314604885825387548e+01,-8.862366170580866509e+00,6.607482914726041656e+00,-7.919004923497982018e-01,-3.411457316113734040e-01,-5.064693475574713055e-01,1.424797971083879929e+03
1.273034424353580185e+01,-8.835897245004241896e+00,6.594776528440743135e+00,-7.724782810937124156e-01,-3.404965866277584463e-01,-5.360385991038656428e-01,1.429022694964277434e+03
1.226351451123690950e+01,-8.962495324375945316e+00,6.742270124489859739e+00,-7.520889383099446102e-01,-3.394211444731920491e-01,-5.649367358848571552e-01,1.433247418844674939e+03
1.174747709244090821e+01,-9.243570731729104040e+00,7.057542663757405244e+00,-7.307579899929005363e-01,-3.379207515487383517e-01,-5.931275796404512635e-01,1.437472142725072445e+03
1.118144051115715243e+01,-9.645609982743282629e+00,7.496416087615116908e+00,-7.085121407849725994e-01,-3.359972861837318137e-01,-6.205758374552053924e-01,1.441696866605469950e+03
1.056394267000817777e+01,-1.011760747957033146e+01,7.988831862139664786e+00,-6.853792405652534558e-01,-3.336531562862020683e-01,-6.472471459172737251e-01,1.445921590485867455e+03
1.034923826674152458e+01,-1.028145761494582366e+01,8.154265898130764967e+00,-6.613882496070432326e-01,-3.308912963315559508e-01,-6.731081141162514880e-01,1.447321010137442954e+03
9.670489401017453801e+00,-1.076491858346567376e+01,8.614078859970513591e+00,-6.766368084379162928e-01,-2.436735747683587139e-01,-6.948264664117927980e-01,1.451545734017840459e+03
8.940527509023693753e+00,-1.119948490554765463e+01,8.964106054501504772e+00,-6.862617340832674051e-01,-1.544306604838099062e-01,-7.107700074112933697e-01,1.455770457898237964e+03
8.161005764862979461e+00,-1.153416391659137652e+01,9.134293466355726920e+00,-6.901830353404030394e-01,-6.390426118153730295e-02,-7.208062313348423400e-01,1.459995181778635470e+03
7.334512326449256214e+00,-1.171799764405816546e+01,9.054595980075925254e+00,-6.883681235918801544e-01,2.715324929301917919e-02,-7.248517279247242984e-01,1.464219905659032975e+03
6.475851353449739278e+00,-1.170593419976878913e+01,8.698341406644495066e+00,-6.808320835077165123e-01,1.179850835531121717e-01,-7.228728754943913870e-01,1.468444629539430480e+03
5.623179257751537818e+00,-1.146502107526914571e+01,8.125592363908234361e+00,-6.676375476277969234e-01,2.078363299077503334e-01,-7.148861202792897718e-01,1.472669353419827985e+03
4.826502853148606498e+00,-1.096904248397478732e+01,7.439782744858925767e+00,-6.488941758716613162e-01,2.959602260049605804e-01,-7.009578397755233947e-01,1.476894077300225490e+03
4.199418241659460982e+00,-1.028981390028182297e+01,6.811981573621712194e+00,-6.247577442971140593e-01,3.816243647815205642e-01,-6.812037912002198992e-01,1.480679423907843557e+03
3.644530115991463148e+00,-9.246681553930857334e+00,6.194507734866192550e+00,-6.193435479349412853e-01,2.782854730963912337e-01,-7.341449210441846063e-01,1.484904147788241062e+03
3.293145323269901503e+00,-7.878472535873687121e+00,5.763531138630090034e+00,-6.055613847225825852e-01,1.711866736810574996e-01,-7.771669911203719083e-01,1.489128871668638567e+03
3.146276756755600257e+00,-6.226883167065998315e+00,5.575067954909428636e+00,-5.835974677376697395e-01,6.177497541754421034e-02,-8.096887352943697991e-01,1.493353595549036072e+03
3.102101173828317737e+00,-4.460795794397714786e+00,5.590300981927270207e+00,-5.537485515917452972e-01,-4.847136483294661041e-02,-8.312707551703634179e-01,1.497578319429433577e+03
3.004452553889854105e+00,-2.810283039858768817e+00,5.722992253033941878e+00,-5.164179231016527982e-01,-1.580628137152367829e-01,-8.416214562497412732e-01,1.501803043309831082e+03
2.743895119731273535e+00,-1.433220719081299777e+00,5.906230684276254195e+00,-4.721099528971451353e-01,-2.655186851742211140e-01,-8.406009875076219107e-01,1.506027767190228587e+03
2.580259923208937600e+00,-9.241449747582310970e-01,5.992336136975442429e+00,-4.214232815253711184e-01,-3.693871448301105365e-01,-8.282231311804900686e-01,1.507853526682818256e+03
2.113343273834217495e+00,9.062168428662058239e-02,6.201201715184502916e+00,-3.362086118283313385e-01,-3.581971094176985004e-01,-8.710089552565440929e-01,1.512078250563215761e+03
1.532976043283071688e+00,8.852491902045817040e-01,6.419596119696206138e+00,-2.478949866612687736e-01,-3.437054298510518469e-01,-9.057663347017684830e-01,1.516302974443613266e+03
8.814761142772871150e-01,1.508788881964086004e+00,6.638602026568171333e+00,-1.572964248711015145e-01,-3.260456823688052674e-01,-9.321749018995744152e-01,1.520527698324010771e+03
2.020461186743489068e-01,2.009355275904126881e+00,6.849302083122117857e+00,-6.524800518602989763e-02,-3.053806437728525114e-01,-9.499912421850044142e-01,1.524752422204408276e+03
-4.612338496396065635e-01,2.434112633239370549e+00,7.042779349319209459e+00,2.740183051928424957e-02,-2.819007910919077986e-01,-9.590511371485956893e-01,1.528977146084805781e+03
