-2.499189253552064560e+00,3.934010714773160444e+00,-3.792519648403150256e+00,-2.332671833712483128e-02,-8.522033217592425158e-01,5.226885904578050246e-01,5.627690282263238259e+02
-1.974410873835431790e+00,4.552603026612484172e+00,-3.878277291670995108e+00,-7.365676084775130139e-02,-7.661778116136133132e-01,6.383919192573083157e-01,5.669937521067213311e+02
-1.425287000714085872e+00,5.161606099265010350e+00,-4.003863101158243509e+00,-1.222690683942607021e-01,-6.622844148430976352e-01,7.392074328431489372e-01,5.712184759871188362e+02
-8.671114460809089541e-01,5.752879830445065679e+00,-4.157649376081387516e+00,-1.680299634308852763e-01,-5.429460068740812329e-01,8.227840330302331751e-01,5.754431998675163413e+02
-3.153351607736366025e-01,6.318588670592959033e+00,-4.328007017519921007e+00,-2.098722652311640069e-01,-4.109456527749033583e-01,8.871726454037520693e-01,5.796679237479138465e+02
2.128270258946294013e-01,6.854108387388231804e+00,-4.509702280730824242e+00,-2.468201772538195227e-01,-2.693617047769319983e-01,9.308716732721774578e-01,5.838926476283113516e+02
5.211517128974478830e-01,7.176583004167679469e+00,-4.636399634462095243e+00,-2.780120434817310304e-01,-1.214960134118470564e-01,9.528620164559834516e-01,5.865778203509069044e+02
9.451059303771189857e-01,7.659775869359943812e+00,-4.864795146246599700e+00,-2.453938392254165490e-01,-1.223144030660641840e-01,9.616751272980512688e-01,5.908025442313044095e+02
1.288795736212406062e+00,8.122691154677573522e+00,-5.134907041983070464e+00,-2.124953329282218417e-01,-1.229930740100224212e-01,9.693897241153328626e-01,5.950272681117019147e+02
1.530286232557350079e+00,8.570899447200964971e+00,-5.460685371704979474e+00,-1.793540991483195679e-01,-1.235312511923086498e-01,9.759969964547544619e-01,5.992519919920994198e+02
1.658110150677963412e+00,9.009270641994781670e+00,-5.847634084195040494e+00,-1.460079895181433107e-01,-1.239283199581239919e-01,9.814893980579945110e-01,6.034767158724969249e+02
1.667916106034916801e+00,9.221847980314649362e+00,-6.064124285786324009e+00,-1.124950895834689463e-01,-1.241838267493882292e-01,9.858606554600999328e-01,6.055587724482752492e+02
1.594617547730772245e+00,9.647437598600294706e+00,-6.540939810028691959e+00,-1.102461378480851656e-01,-1.259223474434338630e-01,9.858941887628823730e-01,6.097834963286727543e+02
1.446457847330356650e+00,1.006836738144873777e+01,-7.037933511824396859e+00,-1.079962954877497355e-01,-1.276598502736516205e-01,9.859197547070737144e-01,6.140082202090702594e+02
1.243189437565305422e+00,1.048541681232609868e+01,-7.535271389428387145e+00,-1.057455805913484898e-01,-1.293963212648474026e-01,9.859373530611500458e-01,6.182329440894677646e+02
1.004562391278079447e+00,1.089897182566031120e+01,-8.013119419752213091e+00,-1.034940112579468829e-01,-1.311317464536384259e-01,9.859469836854825031e-01,6.224576679698652697e+02
7.503214825393978993e-01,1.130902488783425852e+01,-8.451644539676482992e+00,-1.012416055933691023e-01,-1.328661118849334966e-01,9.859486465035582903e-01,6.266823918502627748e+02
5.002032484604530538e-01,1.171517511228950070e+01,-8.831015627327781559e+00,-9.898838171006110742e-02,-1.345994036120387316e-01,9.859423415019801240e-01,6.309071157306602800e+02
2.739330518331075104e-01,1.211662840873191094e+01,-9.131404483283640516e+00,-9.673435772695372636e-02,-1.363316076967626966e-01,9.859280687304673441e-01,6.351318396110577851e+02
9.122214473164284854e-02,1.251219766642889653e+01,-9.332986811668947169e+00,-9.447955176932576471e-02,-1.380627102095219605e-01,9.859058283018552471e-01,6.393565634914552902e+02
-2.823526679062454345e-02,1.290030297158653028e+01,-9.415943201107500826e+00,-9.222398196866686548e-02,-1.397926972294463721e-01,9.858756203920943095e-01,6.435812873718527953e+02
-4.001665515872521867e-02,1.300597569971081313e+01,-9.401886132266522367e+00,-8.996766646254061861e-02,-1.415215548444843374e-01,9.858374452402490773e-01,6.447593772604591322e+02
-2.068841012916357303e-02,1.317916017599955758e+01,-9.313424205520940191e+00,-1.834657569368888796e-01,-1.183565720960842865e-01,9.758739866678340924e-01,6.467409287698892513e+02
1.053310217151757905e-01,1.353940892257719320e+01,-8.992257747247499822e+00,-2.581280145111549129e-01,-2.358990751828606569e-01,9.368668819276387838e-01,6.509656526502867564e+02
3.097377075424371240e-01,1.389273714122099967e+01,-8.555492519900344206e+00,-3.273922193077618004e-01,-3.485083800895188433e-01,8.782677517389603228e-01,6.551903765306842615e+02
5.812766453509216058e-01,1.424231157682927318e+01,-8.025806166872147429e+00,-3.898099006134696509e-01,-4.538295714774379652e-01,8.013020413282818666e-01,6.594151004110817667e+02
9.087744153175170148e-01,1.459152193286664811e+01,-7.425880925129303201e+00,-4.440757645860810565e-01,-5.496601460443496512e-01,7.075792811822441131e-01,6.636398242914792718e+02
1.281140838778451752e+00,1.494397961245520001e+01,-6.778402502956670794e+00,-4.890549904049501517e-01,-6.339960711498607848e-01,5.990594278760341673e-01,6.678645481718767769e+02
1.687370629673804912e+00,1.530351644025220459e+01,-6.106058957573579526e+00,-5.238069614674140118e-01,-7.050736929415631904e-01,4.780118770915854909e-01,6.720892720522742820e+02
2.116545038380871269e+00,1.567418336520086264e+01,-5.431539572662696713e+00,-5.476049354532736002e-01,-7.614066177341717312e-01,3.469680059290687346e-01,6.763139959326717872e+02
2.557833487861759458e+00,1.606024914424110506e+01,-4.777533735853417340e+00,-5.599512419824548282e-01,-8.018167954907664541e-01,2.086682368539645449e-01,6.805387198130692923e+02
2.737861749672044542e+00,1.622545753958982928e+01,-4.527976361513959880e+00,-5.605876900831603393e-01,-8.254591554566128586e-01,6.600473013755342455e-02,6.822554503958920122e+02
3.173629922217875432e+00,1.665494669094035274e+01,-3.968027228807464279e+00,-7.506526222944196469e-01,-3.987224638109875263e-01,5.268197390907662925e-01,6.864801742762895174e+02
3.238541771688383086e+00,1.672550789018800899e+01,-3.891155581661469576e+00,-6.175013863010769821e-01,1.996962322296461090e-01,7.607965909163892926e-01,6.871365691795111843e+02
3.627542723405750458e+00,1.720464840270677342e+01,-3.469437078397666241e+00,-6.253248456104024688e-01,1.536592140352030789e-01,7.650854092168892784e-01,6.913612930599086894e+02
3.972993834510293976e+00,1.770660699473095079e+01,-3.129087110810712336e+00,-6.317732067433619036e-01,1.072843086256498879e-01,7.676917951601464063e-01,6.955860169403061946e+02
4.253381467644799407e+00,1.823091804282226747e+01,-2.880364146455858698e+00,-6.368322917631177305e-01,6.067348354820948503e-02,7.686100185100454008e-01,6.998107408207036997e+02
4.275617607667903997e+00,1.829263263434751963e+01,-2.863465728002424271e+00,-6.404909763918147370e-01,1.392922491324282211e-02,7.678380596491359844e-01,7.002871871487596991e+02
4.384151656112940998e+00,1.885879734339390268e+01,-2.811111835383750091e+00,-6.395141869308401672e-01,5.848574618782809154e-02,7.665500780776199896e-01,7.045119110291572042e+02
4.405801862927512857e+00,1.943248933750857788e+01,-2.846263799927648552e+00,-6.372661075247511020e-01,1.029259931909690118e-01,7.637382720014933568e-01,7.087366349095547093e+02
4.339849839669985165e+00,1.999977009247797710e+01,-2.955998694015462558e+00,-6.337512073701127013e-01,1.471616302477084803e-01,7.594082312785931377e-01,7.129613587899522145e+02
4.185277887671003505e+00,2.054671770646896078e+01,-3.127389897059214441e+00,-6.289764731706565248e-01,1.911047283588215850e-01,7.535685628995301144e-01,7.171860826703497196e+02
4.006245855064687333e+00,2.092164282961858746e+01,-3.288779807396851940e+00,-6.229513952634558871e-01,2.346679398141753303e-01,7.462308738963606691e-01,7.202712785080751701e+02
3.676269747106779562e+00,2.139662906124139852e+01,-3.542943009581558389e+00,-5.917336041913361377e-01,1.896878787852253889e-01,7.834971922782496545e-01,7.244960023884726752e+02
3.282123333957629008e+00,2.184162266046586609e+01,-3.802424328678564613e+00,-5.579201560968058971e-01,1.438757544605236971e-01,8.173266584999236972e-01,7.287207262688701803e+02
2.851002310055837263e+00,2.227029529771418126e+01,-4.033258832324788656e+00,-5.216593676453962214e-01,9.743251265713046005e-02,8.475708876668130998e-01,7.329454501492676854e+02
2.704813381849762166e+00,2.240833509489372943e+01,-4.090184095811608245e+00,-4.831102884760704597e-01,5.056186701526964311e-02,8.740972181441295508e-01,7.343277757035457398e+02
2.262063998061096370e+00,2.283354336831132159e+01,-4.187825512628592151e+00,-4.869569364620538465e-01,-8.373712865937026073e-02,8.694015385966676890e-01,7.385524995839432449e+02
1.852191715007272865e+00,2.327862574452137423e+01,-4.190014410750164231e+00,-4.820027639032259392e-01,-2.165227054192589151e-01,8.489930822018286749e-01,7.427772234643407501e+02
1.508948645480436834e+00,2.376176428353722869e+01,-4.075025399844236951e+00,-4.683373096794428148e-01,-3.453950481570131625e-01,8.132406931958665597e-01,7.470019473447382552e+02
1.313799579457289424e+00,2.416556023934625230e+01,-3.888454699055047481e+00,-4.462075444903607080e-01,-4.680250622018723439e-01,7.627905140923816329e-01,7.502232324820287204e+02
1.139607015185918781e+00,2.473103570084677116e+01,-3.521080213743479348e+00,-3.765086342123633023e-01,-5.968373423419507384e-01,7.085368269540222030e-01,7.544479563624262255e+02
1.026487731797575131e+00,2.531082746239951220e+01,-3.049550968026605524e+00,-2.976251488021710023e-01,-7.110903453051139467e-01,6.369990515021489719e-01,7.586726802428237306e+02
9.513335392437022309e-01,2.588216968066213042e+01,-2.493586951985780509e+00,-2.114813762488259030e-01,-8.079969740528465394e-01,5.499222830742707124e-01,7.628974041232212357e+02
8.905968214274855299e-01,2.642275981407414065e+01,-1.872912332644568911e+00,-1.201787133148291969e-01,-8.851932800814196201e-01,4.494306773741094663e-01,7.671221280036187409e+02
8.202940077165313815e-01,2.691076514409857268e+01,-1.207254478129120789e+00,-2.594440367933098512e-02,-9.407961304318023243e-01,3.379756335633350428e-01,7.713468518840162460e+02
7.160090821519053961e-01,2.732482925596262291e+01,-5.163429817097527907e-01,6.892279398375567023e-02,-9.734491454548901412e-01,2.182759942891212279e-01,7.755715757644137511e+02
5.528971301945474481e-01,2.764407847846965893e+01,1.800913142400351052e-01,1.621086825240354024e-01,-9.823557866106810144e-01,9.325172150236005209e-02,7.797962996448112563e+02
3.172882473497981581e-01,2.785535154991478990e+01,8.662892982680473475e-01,2.513400793911708675e-01,-9.672987871113463143e-01,-3.404733388864841087e-02,7.840210235252087614e+02
1.848356060836981590e-02,2.796012066661696238e+01,1.534436373297288991e+00,3.344402690562816582e-01,-9.286454514501689683e-01,-1.605158307921400740e-01,7.882457474056062665e+02
-3.225562375092079770e-01,2.796680825047218377e+01,2.180690839025312133e+00,4.093821020057112903e-01,-8.673386946447546597e-01,-2.830686901262435828e-01,7.924704712860037716e+02
-4.436099646026837595e-01,2.793839293680644431e+01,2.386361926490358609e+00,4.743374449888637101e-01,-7.848740399376037402e-01,-3.987163524536930792e-01,7.938692576050638081e+02
-8.198890897431396763e-01,2.776522927806197316e+01,2.979922128912847690e+00,4.585426197420416905e-01,-7.356836833929439878e-01,-4.985039456913033518e-01,7.980939814854613132e+02
-1.189567738004743136e+00,2.751207023950863473e+01,3.542639387426528508e+00,4.369578910538295391e-01,-6.772040348130163867e-01,-5.919970411067583260e-01,8.023187053658588184e+02
-1.531188458974263034e+00,2.718590810801658009e+01,4.070676779593275008e+00,4.098558049143614657e-01,-6.101735030654396041e-01,-6.780151291345264397e-01,8.065434292462563235e+02
-1.823151841153190844e+00,2.679329928126907134e+01,4.560199097166737658e+00,3.775785726968157174e-01,-5.354384652516094301e-01,-7.554720851028976503e-01,8.107681531266538286e+02
-2.043719807994992976e+00,2.634036215338347375e+01,5.007373035579486320e+00,3.405337501800849154e-01,-4.539425799187448152e-01,-8.233898828170487239e-01,8.149928770070513337e+02
-2.171018926273474481e+00,2.583277503889000570e+01,5.408367383359532710e+00,2.991890915920716876e-01,-3.667148720991348920e-01,-8.809109433160934310e-01,8.192176008874488389e+02
-2.191716259823127011e+00,2.527636808434490234e+01,5.760675340265290600e+00,2.540666436327497779e-01,-2.748567405790663387e-01,-9.273089629415766089e-01,8.234423247678463440e+02
-2.109679811944310313e+00,2.467794525397967931e+01,6.064436769901615065e+00,2.057361540224762475e-01,-1.795280513938590505e-01,-9.619980840370694342e-01,8.276670486482438491e+02
-1.940286421561095098e+00,2.405643157351715899e+01,6.316478314503862102e+00,1.548078777691908048e-01,-8.193249307524777536e-02,-9.845402925016148998e-01,8.318155236432169204e+02
-1.689401870628623570e+00,2.339667003027261316e+01,6.527518520928365042e+00,9.260981572352934565e-02,-2.018352257980307596e-02,-9.954968847000411625e-01,8.360402475236144255e+02
-1.372169991867889571e+00,2.271803060673207852e+01,6.694385780212757098e+00,2.968925982949011111e-02,4.172290124479478834e-02,-9.986870117119778234e-01,8.402649714040119306e+02
-1.000438223331371779e+00,2.202875128445479547e+01,6.818551226835471546e+00,-3.346291219017694801e-02,1.033038127123151600e-01,-9.940857889471355069e-01,8.444896952844094358e+02
-5.858737627900998390e-01,2.133730320798021651e+01,6.901488104555506098e+00,-9.635401620288024105e-02,1.640787860907791107e-01,-9.817291151414350159e-01,8.487144191648069409e+02
-1.399618398661532370e-01,2.065238795552918560e+01,6.944671693423241088e+00,-1.584934050462506738e-01,2.235736833454432249e-01,-9.617133921662994744e-01,8.529391430452044460e+02
3.258751222482232368e-01,1.997970048795148301e+01,6.953458259446144041e+00,-2.193962960013244590e-01,2.813243528222874046e-01,-9.341947729514219478e-01,8.571638669256019512e+02
8.000725201087414140e-01,1.931869564061128131e+01,6.940963812202721961e+00,-2.785875525241979234e-01,3.368802500415247203e-01,-8.993879433871387885e-01,8.613885908059994563e+02
1.223117772610346377e+00,1.873318959438310216e+01,6.925524434041988364e+00,-3.356053907575656248e-01,3.898079523768992471e-01,-8.575644476991935994e-01,8.651793028177307860e+02
1.680713907833467857e+00,1.808595434851487482e+01,6.919727978512907107e+00,-3.498025967970574968e-01,3.993997855183748502e-01,-8.474172258045603590e-01,8.694040266981282912e+02
2.112559511468139917e+00,1.744077395232692851e+01,6.941892594968164687e+00,-3.638610921480704974e-01,4.088332422100439678e-01,-8.369339792799724842e-01,8.736287505785257963e+02
2.506747806379284960e+00,1.679478476565040523e+01,7.009012645992851454e+00,-3.777753034021307244e-01,4.181045826486581851e-01,-8.261188643871396620e-01,8.778534744589233014e+02
2.851308546387867349e+00,1.614536094075997497e+01,7.138080265006118807e+00,-3.915397143261985513e-01,4.272101312695044117e-01,-8.149761688753566213e-01,8.820781983393208066e+02
3.137990407418894456e+00,1.549386569250970069e+01,7.333988679862179616e+00,-4.051488680421352906e-01,4.361462781976074288e-01,-8.035103102805817299e-01,8.863029222197183117e+02
3.366143023533963330e+00,1.484930182767577200e+01,7.577436135207236134e+00,-4.185973691847132971e-01,4.449094806752958431e-01,-7.917258341783359743e-01,8.905276461001158168e+02
3.418716015259505969e+00,1.466058456967087587e+01,7.657315473321604671e+00,-4.318798860354383096e-01,4.534962644633745987e-01,-7.796274123862430017e-01,8.918004599719630505e+02
3.541881065988250921e+00,1.406073223957833385e+01,7.923709372235921755e+00,-5.957060700795760999e-01,4.478753976328695985e-01,-6.667382591888744159e-01,8.960251838523605556e+02
3.614680667230588451e+00,1.349736577672473459e+01,8.165381102935219459e+00,-7.359335676790963454e-01,4.245121017063539504e-01,-5.274364980437062922e-01,9.002499077327580608e+02
3.640986648471935982e+00,1.298306565858501216e+01,8.350930994812376440e+00,-8.470073141681624396e-01,3.843319040123079899e-01,-3.672405169701635774e-01,9.044746316131555659e+02
3.624909299442708566e+00,1.253033783740974094e+01,8.448962149818271428e+00,-9.245271585421487304e-01,3.289265275230662255e-01,-1.924964223308190947e-01,9.086993554935530710e+02
3.570796828167861481e+00,1.215161020562384486e+01,8.428081996229995099e+00,-9.654221747669547993e-01,2.604908359445378130e-01,-1.012664098769954120e-02,9.129240793739505762e+02
3.485148566745711385e+00,1.185403155623386162e+01,8.269564584073188840e+00,-9.680723167885543212e-01,1.817358854281292402e-01,1.726443089586373880e-01,9.171488032543480813e+02
3.378390343429406251e+00,1.163422034510593228e+01,7.980012253726170179e+00,-9.323725974651612125e-01,9.578152716437449143e-02,3.485760154552063894e-01,9.213735271347455864e+02
3.277791371730701009e+00,1.150352015558172702e+01,7.631206268790270641e+00,-8.597372485234647810e-01,6.032815314525297699e-03,5.106990000393440976e-01,9.250397566458357232e+02
3.163996119505185334e+00,1.141369607378700657e+01,7.134876539214214830e+00,-9.242160049041596714e-01,-1.261399006637092535e-01,3.604323816474574449e-01,9.292644805262332284e+02
3.063768819424010914e+00,1.137580425346447477e+01,6.562787761738705150e+00,-9.478376835929476218e-01,-2.527363038482056123e-01,1.942320423588254907e-01,9.334892044066307335e+02
2.988821367542372709e+00,1.138038683281489227e+01,5.934223130887061437e+00,-9.295580432756269662e-01,-3.681599201708078972e-01,1.944524008582923860e-02,9.377139282870282386e+02
2.950681457282205766e+00,1.141775886484570535e+01,5.268468632242720773e+00,-8.701851766545164457e-01,-4.673081931939954692e-01,-1.562011872715525218e-01,9.419386521674257438e+02
2.955239423481663685e+00,1.148225372241223141e+01,4.586538743583703059e+00,-7.723437871803937593e-01,-5.457980504701743785e-01,-3.249423987528149982e-01,9.461633760478232489e+02
2.981498675855044134e+00,1.153947969256441297e+01,4.173588888717696399e+00,-6.403591621347708429e-01,-6.001596653884103683e-01,-4.793188078004272379e-01,9.487435166074565132e+02
3.054539760018111672e+00,1.166805031512434709e+01,3.524284765022823951e+00,-6.367633120392651724e-01,-5.515354270853431995e-01,-5.388312881679889754e-01,9.529682404878540183e+02
3.148563627030972256e+00,1.183793218804242997e+01,2.925465532635040056e+00,-6.293984660867155689e-01,-4.996466670983575886e-01,-5.951544160498085656e-01,9.571929643682515234e+02
3.253366836754418401e+00,1.205658492085821365e+01,2.403322470594194016e+00,-6.183082181654573350e-01,-4.448005110590863564e-01,-6.479548230464214909e-01,9.614176882486490285e+02
3.358898942278733646e+00,1.233167454313713129e+01,1.984043061324600954e+00,-6.035582111662162186e-01,-3.873215877663003792e-01,-6.969199906606924344e-01,9.656424121290465337e+02
3.451222055881905337e+00,1.266421698242582217e+01,1.684175219557576764e+00,-5.852357484783454744e-01,-3.275501081135007153e-01,-7.417600996118441925e-01,9.698671360094440388e+02
3.484946733370002381e+00,1.288095478513558945e+01,1.580403009149368820e+00,-5.634492773713277725e-01,-2.658398518586172488e-01,-7.822097448840938938e-01,9.722779632674273671e+02
3.490222545462625447e+00,1.329327809259588200e+01,1.506858518490248322e+00,-6.918203809094295442e-01,-1.834750528005813508e-01,-6.983691470549850955e-01,9.765026871478248722e+02
3.418798759754111849e+00,1.372163416678534986e+01,1.530570232927315200e+00,-7.992345717260582738e-01,-9.555236061669306058e-02,-5.933732768996358153e-01,9.807274110282223774e+02
3.243688975642492700e+00,1.414809443118202203e+01,1.639161915668370106e+00,-8.824380315454346535e-01,-4.735153323390304744e-03,-4.704026985522867799e-01,9.849521349086198825e+02
2.949586522998665306e+00,1.455853044177580813e+01,1.818887067928491641e+00,-9.389103292285196911e-01,8.622550957663328852e-02,-3.331824652739877046e-01,9.891768587890173876e+02
2.840736619122425921e+00,1.466122547995169789e+01,1.882016774934948788e+00,-9.669407689284972296e-01,1.745742186511724248e-01,-1.858692862357107511e-01,9.902990691568544435e+02
2.328158867759692718e+00,1.502161564468770649e+01,2.166318318749191008e+00,-9.762576565826356356e-01,-1.211554460012571055e-01,-1.795559686209731165e-01,9.945237930372519486e+02
1.730740087714867981e+00,1.535381143883492427e+01,2.482677132501768913e+00,-9.000710533399375324e-01,-4.062740645228294367e-01,-1.575166132023773646e-01,9.987485169176494537e+02
1.068761266928483611e+00,1.565292424949146799e+01,2.813239200737005952e+00,-7.450535513558790290e-01,-6.558100504895035820e-01,-1.216814829297518108e-01,1.002973240798046959e+03
3.623858590357155185e-01,1.591365931658289234e+01,3.140149803537692019e+00,-5.247820603819095542e-01,-8.479082402453184120e-01,-7.518912969706663396e-02,1.007197964678444464e+03
-3.680765659337806306e-01,1.613027002699099199e+01,3.445749331845028074e+00,-2.585486771180002807e-01,-9.657440980605928038e-01,-2.211150427274654121e-02,1.011422688558841969e+03
-1.101045868118707416e+00,1.629556039436186765e+01,3.718463551541705048e+00,3.032903990066680364e-02,-9.989972784350569235e-01,3.290269013316608065e-02,1.015647412439239474e+03
-1.726202235858232736e+00,1.638701505910365697e+01,3.928639152050401595e+00,3.165503481878127467e-01,-9.447554707661727225e-01,8.503515461172134193e-02,1.019352225004376919e+03
-2.396425358472878298e+00,1.642000011161699291e+01,4.140622047786838067e+00,5.221960979336810471e-01,-8.406634400890414804e-01,-1.435068493160703007e-01,1.023576948884774424e+03
-3.000803379322053210e+00,1.637101826634253499e+01,4.330444404419337090e+00,6.728248734592852109e-01,-6.480015832709890011e-01,-3.569294576420942167e-01,1.027801672765172043e+03
-3.515656555108513714e+00,1.622816801872656711e+01,4.503815923705440483e+00,7.525668193226363600e-01,-3.870681479275747683e-01,-5.327470612911154868e-01,1.032026396645569548e+03
-3.917524482801698404e+00,1.597906913168029419e+01,4.666447118928910065e+00,7.530205251605802674e-01,-8.535434123923511807e-02,-6.524359931199171792e-01,1.036251120525967053e+03
-4.192400463447722103e+00,1.561730055285751995e+01,4.822838113787596193e+00,6.741382072740683684e-01,2.253521009495737526e-01,-7.033861728034024319e-01,1.040475844406364558e+03
-4.302417239604307220e+00,1.527508951328081110e+01,4.933789390164438515e+00,5.242307276292721419e-01,5.123160420921530900e-01,-6.802296797587525923e-01,1.043555864160539841e+03
-4.341187053224474290e+00,1.470898484595241307e+01,5.082522682351013010e+00,5.355852097759079555e-01,4.104758980798111079e-01,-7.380081436982027787e-01,1.047780588040937346e+03
-4.280994483989248423e+00,1.405838813422732159e+01,5.228595105580322588e+00,5.395278793300879450e-01,3.029553111072044724e-01,-7.855735146360514065e-01,1.052005311921334851e+03
-4.134890950757360351e+00,1.333653796828544635e+01,5.372874811813772133e+00,5.360041778358259901e-01,1.912422229462692747e-01,-8.222675559118777233e-01,1.056230035801732356e+03
-3.915640171925717450e+00,1.255692281178050251e+01,5.516230038535542057e+00,5.250628698598693855e-01,7.688259184310752836e-02,-8.475824737252284358e-01,1.060454759682129861e+03
-3.635716348353818184e+00,1.173327665275759735e+01,5.659529065693826411e+00,5.068553680326356448e-01,-3.854100028464928912e-02,-8.611679436635197860e-01,1.064679483562527366e+03
-3.300961255756870827e+00,1.088110198532593742e+01,5.802090424247694500e+00,4.816336378528454643e-01,-1.534312473326714388e-01,-8.628359584709752728e-01,1.068904207442924871e+03
-3.161080380661926093e+00,1.057321989368438331e+01,5.851697101317742344e+00,4.497467112301644643e-01,-2.661982222962204769e-01,-8.525634300060819237e-01,1.070406437877591088e+03
-2.718772667423247746e+00,9.699135879097047663e+00,5.987239623263267418e+00,4.685456505044247044e-01,-2.195536920423813917e-02,-8.831652932248107435e-01,1.074631161757988593e+03
-2.256032531402388575e+00,8.816815915142138138e+00,6.119588966213457937e+00,4.587892764196298545e-01,2.236255586125937556e-01,-8.599430268209014017e-01,1.078855885638386098e+03
-1.803404127630477083e+00,7.928405758375268064e+00,6.249723079523781699e+00,4.210721842543637683e-01,4.555777255780809054e-01,-7.843118968909653654e-01,1.083080609518783604e+03
-1.391384710445388251e+00,7.036658239664190795e+00,6.378620018437735517e+00,3.576930283782840947e-01,6.597648954502434160e-01,-6.608812148801743724e-01,1.087305333399181109e+03
-1.041041878505992280e+00,6.145666552613056055e+00,6.505885027005287036e+00,2.725144301859409590e-01,8.237429658685747613e-01,-4.971734219796486998e-01,1.091530057279578614e+03
-7.546109901832949163e-01,5.261348584436256637e+00,6.628377688944667945e+00,1.707275686419399974e-01,9.375183720608013527e-01,-3.031656302331286468e-01,1.095754781159976119e+03
-6.356346267240313708e-01,4.812708671658834980e+00,6.686980850724610903e+00,5.853580232016165202e-02,9.941571373177350290e-01,-9.068156465125633281e-02,1.097930474787374806e+03
-4.544244950273203520e-01,3.959710219289357180e+00,6.788659387662337785e+00,3.875932680252286433e-02,9.736037502414335298e-01,-2.249254367611298044e-01,1.102155198667772311e+03
-3.185835035537293858e-01,3.130016145320590581e+00,6.874216384764328502e+00,1.825282116179575975e-02,9.347125357467528373e-01,-3.549328246839725809e-01,1.106379922548169816e+03
-2.205678063520610521e-01,2.329894362553899256e+00,6.939140483637754819e+00,-2.597475160110819265e-03,8.782160127017246687e-01,-4.782550450938791164e-01,1.110604646428567321e+03
-1.527190687273834446e-01,1.565464541640940954e+00,6.978921342835077368e+00,-2.339884768203367299e-02,8.051782927250625832e-01,-5.925693299962234706e-01,1.114829370308964826e+03
-1.072655632728584385e-01,8.426964244462633591e-01,6.989049861038168387e+00,-4.375950345403023523e-02,7.169750378842176808e-01,-6.957225746725490545e-01,1.119054094189362331e+03
-7.951247624577466311e-02,1.651566969642509763e-01,6.965354779762602533e+00,-6.329595026234592636e-02,6.152675508934229986e-01,-7.857718902445722797e-01,1.123278818069759836e+03
-7.109207607079888469e-02,-4.681592610263732301e-01,6.904339269359729414e+00,-8.164021951879692207e-02,5.019714856857263596e-01,-8.610211972511477851e-01,1.127503541950157341e+03
-8.361006362461351205e-02,-9.608019231688227357e-01,6.820024324409928340e+00,-9.844679682384563368e-02,3.792207674879302104e-01,-9.200531711272226243e-01,1.131018260572192730e+03
-1.266109350839141334e-01,-1.514643928683216290e+00,6.675453594676088009e+00,-5.077413204756488913e-02,3.159665065385682814e-01,-9.474097077069608686e-01,1.135242984452590235e+03
-2.028183816464562694e-01,-2.033021147945482276e+00,6.484622989647690794e+00,-2.744931993671302726e-03,2.504934858022439537e-01,-9.681133605708743817e-01,1.139467708332987741e+03
-3.172835547315737137e-01,-2.518842050126351317e+00,6.244380141906115789e+00,4.530354543634357301e-02,1.832614529667902781e-01,-9.820187516662171046e-01,1.143692432213385246e+03
-4.181801373011636014e-01,-2.814587725381479277e+00,6.057301549272494867e+00,9.303390686579110502e-02,1.147425062798803214e-01,-9.890282348963413961e-01,1.146432912737599963e+03
-6.154682466498604398e-01,-3.242353534171507512e+00,5.732670068416176434e+00,9.703457701027567994e-02,1.500610967472701951e-01,-9.839024128950766279e-01,1.150657636617997468e+03
-8.543801729677411583e-01,-3.643381131856112898e+00,5.391974092592877632e+00,1.009101021510497714e-01,1.851861466704427528e-01,-9.775076686956126748e-01,1.154882360498394974e+03
-1.133977693091708927e+00,-4.019590041302600447e+00,5.057352605409175972e+00,1.046554845850807963e-01,2.200723597917613183e-01,-9.698522495697758927e-01,1.159107084378792479e+03
-1.453370713760008703e+00,-4.372915711047980380e+00,4.750944286534109828e+00,1.082658944019938285e-01,2.546747478334061565e-01,-9.609460280988304515e-01,1.163331808259189984e+03
-1.811717376979296246e+00,-4.705308777823574928e+00,4.494886416226052006e+00,1.117366757056504900e-01,2.889486884527694421e-01,-9.508004894493581327e-01,1.167556532139587489e+03
-1.932852635344782133e+00,-4.801608264941207516e+00,4.437486485784386758e+00,1.150633526122031292e-01,3.228499827275269629e-01,-9.394287165781677329e-01,1.168850675330724926e+03
-2.360309384952909095e+00,-5.101149322293967892e+00,4.325704280941595314e+00,2.316320221222767095e-01,2.735533560584209045e-01,-9.335486959533371154e-01,1.173075399211122431e+03
-2.806684001625533664e+00,-5.392115782161015503e+00,4.285189328067680492e+00,3.444822782509561754e-01,2.198653823597086499e-01,-9.126824056649817107e-01,1.177300123091519936e+03
-3.253250747461653436e+00,-5.684848338342654905e+00,4.307940507548559061e+00,4.518025518693717935e-01,1.626479090861669419e-01,-8.771648144982531203e-01,1.181524846971917441e+03
-3.681493154021696856e+00,-5.990058735249427002e+00,4.385953566006072002e+00,5.518700441480479668e-01,1.028194404559793634e-01,-8.275660801626082419e-01,1.185749570852314946e+03
-4.023477887995322355e+00,-6.276809532881808984e+00,4.495473736210175986e+00,6.430783795537586833e-01,4.134039444840964528e-02,-7.646823978204302374e-01,1.189435480108141292e+03
-4.362254275465064168e+00,-6.639651032125620134e+00,4.661022429454902749e+00,7.003649296541660796e-01,6.606461874345596896e-02,-7.107196574286706037e-01,1.193660203988538797e+03
-4.638372318832247210e+00,-7.045115212320931519e+00,4.852134867641350269e+00,7.528854646200686673e-01,9.033926535887444598e-02,-6.519204662326609778e-01,1.197884927868936302e+03
-4.726772108424753149e+00,-7.232458137413266819e+00,4.933095675251935042e+00,8.002826043809569967e-01,1.139991553740109381e-01,-5.886849290525556500e-01,1.199635257361118420e+03
-4.877536592050737418e+00,-7.731082487028251293e+00,5.115705844550572756e+00,6.393229944735714376e-01,-1.324374396637452433e-01,-7.574459936610248301e-01,1.203859981241515925e+03
-4.961297467519426796e+00,-8.274443504257474657e+00,5.269777410232877379e+00,4.047648677467001743e-01,-3.636278690042731299e-01,-8.390102351711068440e-01,1.208084705121913430e+03
-4.967737885057369240e+00,-8.674947681790056819e+00,5.343891840614821476e+00,1.236103687075844476e-01,-5.529576721137569040e-01,-8.239880397182161031e-01,1.210967255010378949e+03
-4.897034019214428824e+00,-9.304661354540069595e+00,5.391599455174285183e+00,-7.479604622954355575e-03,-4.585917311744608371e-01,-8.886144718662849495e-01,1.215191978890776454e+03
-4.806905590679799722e+00,-9.685013381353837048e+00,5.376331883819598367e+00,-1.383432025816810074e-01,-3.503459819028991173e-01,-9.263459673688485552e-01,1.217587369489866660e+03
-4.554913975857967756e+00,-1.039040522780332765e+01,5.266760326807220061e+00,1.299928567598994666e-01,-2.074449345815236323e-01,-9.695702431017394485e-01,1.221812093370264165e+03
-4.217027252143180860e+00,-1.111521895066350218e+01,5.071266379480991127e+00,3.860714102260055514e-01,-4.498320216644165898e-02,-9.213703803191772845e-01,1.226036817250661670e+03
-3.804364764698154211e+00,-1.183943845586910193e+01,4.787387707336358211e+00,6.057459599241095116e-01,1.217201547931991978e-01,-7.862913174855753473e-01,1.230261541131059175e+03
-3.398559927513442602e+00,-1.243833204146682903e+01,4.470974760279995408e+00,7.683026463026632058e-01,2.769461180587222682e-01,-5.770700922563918311e-01,1.233855742262691592e+03
-2.868926854714580532e+00,-1.310352793701120611e+01,4.017314957907165862e+00,7.358083038719768210e-01,5.045272365374439127e-01,-4.517038936567286944e-01,1.238080466143089097e+03
-2.299809719771714445e+00,-1.371097702053323353e+01,3.491769911177775132e+00,6.528625887426304786e-01,6.975150664552497437e-01,-2.953661664571469170e-01,1.242305190023486603e+03
-1.703934315931839194e+00,-1.424030644959643155e+01,2.904588054782487383e+00,5.251527125424523268e-01,8.426771682745847203e-01,-1.187763384568768649e-01,1.246529913903884108e+03
-1.093611439526745333e+00,-1.467088611345518778e+01,2.266020871776937007e+00,3.614352198059988530e-01,9.300603136197788112e-01,6.595752354686447438e-02,1.250754637784281613e+03
-4.805629782204133282e-01,-1.499383537287254242e+01,1.587115722100627568e+00,1.729355848354280911e-01,9.536729735084877868e-01,2.461689320292754501e-01,1.254979361664679118e+03
1.275726738070948052e-01,-1.522090571578705820e+01,8.813911393707107855e-01,-2.742149699389876891e-02,9.118961487693144630e-01,4.095014961656817665e-01,1.259204085545076623e+03
7.303151265029299566e-01,-1.536945523793969315e+01,1.649253343560534990e-01,-2.258983334602230608e-01,8.075943642777546616e-01,5.447561708936283775e-01,1.263428809425474128e+03
9.662130245031558262e-01,-1.540101509595046814e+01,-1.152568934122177730e-01,-4.088861921458898929e-01,6.479192247596312626e-01,6.426591320907368843e-01,1.265089389682868614e+03
1.565751238097545128e+00,-1.542298783061601597e+01,-8.126168813187579776e-01,-4.085567389111803283e-01,6.394367803334124467e-01,6.513063757013857202e-01,1.269314113563266119e+03
2.166609021267252633e+00,-1.540057744752536451e+01,-1.480129619120080564e+00,-4.081672951148497264e-01,6.308604454295778652e-01,6.598579828821832249e-01,1.273538837443663624e+03
2.770938625317728388e+00,-1.534812649320471323e+01,-2.100836136181706504e+00,-4.077179179397376063e-01,6.221914788596533130e-01,6.683126985234763007e-01,1.277763561324061129e+03
3.380607366175486739e+00,-1.528001408841835485e+01,-2.657779777476351857e+00,-4.072086733577722217e-01,6.134311530182915417e-01,6.766692817257810022e-01,1.281988285204458634e+03
3.997197380812298473e+00,-1.521065167593461176e+01,-3.134007042415349886e+00,-4.066396361165666162e-01,6.045807536914975522e-01,6.849265059750572204e-01,1.286213009084856139e+03
4.619191703351273937e+00,-1.515164938121569982e+01,-3.518382277982512463e+00,-4.060108897284979146e-01,5.956415798688647900e-01,6.930831593218004238e-01,1.290437732965253645e+03
5.239235319518446232e+00,-1.510890802830120450e+01,-3.811402083982995403e+00,-4.053225264585222365e-01,5.866149435539040891e-01,7.011380445580307486e-01,1.294662456845651150e+03
5.512175344696666812e+00,-1.509741437456977486e+01,-3.904229222756161910e+00,-4.045746473107247887e-01,5.775021695724942283e-01,7.090899793921555672e-01,1.296555730976829182e+03
6.102741560580414060e+00,-1.509083000072189229e+01,-4.030061261868889133e+00,-3.465774802249303455e-01,5.967132705063392661e-01,7.237508708105053756e-01,1.300780454857226687e+03
6.666044446973659277e+00,-1.510717684811772621e+01,-4.080006594221759819e+00,-2.872121473034315309e-01,6.135687303806326431e-01,7.355546176437208761e-01,1.305005178737624192e+03
7.191676340010273449e+00,-1.514886105539472894e+01,-4.060391076986089587e+00,-2.267129955759001614e-01,6.280020128393352108e-01,7.444546255503352583e-01,1.309229902618021697e+03
7.671079161630730781e+00,-1.521579939693348571e+01,-3.975657332020731793e+00,-1.653188471663911974e-01,6.399561420452994920e-01,7.504157614459162629e-01,1.313454626498419202e+03
7.865402880416739961e+00,-1.525526686863889658e+01,-3.908152254532443415e+00,-1.032720569869375465e-01,6.493839274928078220e-01,7.534144921328290723e-01,1.315368865982916532e+03
8.241705033485738241e+00,-1.535724646416654338e+01,-3.694038110667579922e+00,-6.968327099866647445e-02,6.587748124909447167e-01,7.491047911734890485e-01,1.319593589863314037e+03
8.563023474500958798e+00,-1.546895833729251102e+01,-3.413720662282652807e+00,-3.600843631648240756e-02,6.673521275598911506e-01,7.438699687069476596e-01,1.323818313743711542e+03
8.826810069595431685e+00,-1.558315712998672531e+01,-3.065994524660254239e+00,-2.289132025945826363e-03,6.751052823842547124e-01,7.377164886052489656e-01,1.328043037624109047e+03
8.846387795321691172e+00,-1.559365899686891765e+01,-3.026275780802285542e+00,3.143300790982551246e-02,6.820247036444233579e-01,7.306519483452514896e-01,1.328446470627186045e+03
9.000191926827572075e+00,-1.569229449815978938e+01,-2.542138947581432440e+00,-5.498880905427882410e-02,7.242292225953228524e-01,6.873618144865552004e-01,1.332671194507583550e+03
9.126970949868725924e+00,-1.576605629315154111e+01,-1.990719471052561529e+00,-1.407989143199759319e-01,7.583774030622659756e-01,6.364254710862058406e-01,1.336895918387981055e+03
9.157586525002285427e+00,-1.577448707387797455e+01,-1.840362642718324171e+00,-2.250427924971282467e-01,7.840893943193565363e-01,5.784095117276193410e-01,1.337925680324524819e+03
9.295954110059467368e+00,-1.576537088164923439e+01,-1.162873054516645466e+00,-2.293138834793172764e-01,8.009875972168715164e-01,5.530208060596886188e-01,1.342150404204922324e+03
9.459238455068531337e+00,-1.571313914729241823e+01,-4.344177406468996416e-01,-2.333674967402941391e-01,8.171261553915769582e-01,5.271076338157408836e-01,1.346375128085319830e+03
9.662123293955991343e+00,-1.561816212902749790e+01,3.330437234670676205e-01,-2.371997890229645689e-01,8.324897677246276828e-01,5.006945642882856262e-01,1.350599851965717335e+03
9.665682758459800183e+00,-1.561620178122433877e+01,3.447331084396740852e-01,-2.408071267479505173e-01,8.470638672750262499e-01,4.738066403615545097e-01,1.350661896177497738e+03
9.946782432168808086e+00,-1.544423482904302958e+01,1.161379106308522369e+00,-3.856156172996842990e-01,8.457978230713014689e-01,3.686795874237089876e-01,1.354886620057895243e+03
1.026466547197872003e+01,-1.522946498650140690e+01,1.986080194674600508e+00,-5.180755945530155504e-01,8.174469100111980691e-01,2.517463557673537689e-01,1.359111343938292748e+03
1.060177717895039429e+01,-1.497063023415305238e+01,2.800121252760051860e+00,-6.339453102648608951e-01,7.629190033421674455e-01,1.267514809894221550e-01,1.363336067818690253e+03
1.094059601095540124e+01,-1.466611495304480250e+01,3.584787686152560937e+00,-7.295142826327080110e-01,6.839602405471963964e-01,-2.302343567845055363e-03,1.367560791699087758e+03
1.126363624259866292e+01,-1.431395044330900390e+01,4.321366352521575749e+00,-8.017221169127681790e-01,5.830991057133732003e-01,-1.312824442549130333e-01,1.371785515579485264e+03
1.155345062204495576e+01,-1.391181547363201787e+01,4.991146487280646582e+00,-8.482565086547346755e-01,4.635654607623569401e-01,-2.560585072076562163e-01,1.376010239459882769e+03
1.179263302462848984e+01,-1.345703686156310397e+01,5.575420629161533803e+00,-8.676272910356288559e-01,3.291871162481917468e-01,-3.726348431731983379e-01,1.380234963340280274e+03
1.196742485787950727e+01,-1.295563227370401016e+01,6.064596650054655314e+00,-8.592141548831927489e-01,1.842672537548346312e-01,-4.772783414762826193e-01,1.384459687220677779e+03
1.205929722159201489e+01,-1.248911948604256139e+01,6.421886821153471203e+00,-8.232865130851830804e-01,3.344662521693744783e-02,-5.666380155213628367e-01,1.388212437010048006e+03
1.208791260904584774e+01,-1.197106691193489780e+01,6.753921082778858498e+00,-7.685645089163711807e-01,6.323904205404415682e-03,-6.397394812492661620e-01,1.392437160890445512e+03
1.203787028820539717e+01,-1.149196074229955045e+01,7.033012533132209754e+00,-7.068685765587396919e-01,-2.085619459829013075e-02,-7.070359500196582436e-01,1.396661884770843017e+03
1.190421353210153832e+01,-1.108441353262792184e+01,7.276917229677720478e+00,-6.387585426065397476e-01,-4.784704141428217095e-02,-7.679167825192119157e-01,1.400886608651240522e+03
1.168131657339223217e+01,-1.078093969830323573e+01,7.503392967020757531e+00,-5.648524326285655484e-01,-7.440372394976073334e-02,-8.218295536275168622e-01,1.405111332531638027e+03
1.136778769082087948e+01,-1.059846767526109446e+01,7.723118957966788933e+00,-4.858208636619748000e-01,-1.002852694932507699e-01,-8.682850644534564344e-01,1.409336056412035532e+03
1.097178316040209012e+01,-1.052298386154966003e+01,7.932615864921110926e+00,-4.023809596694645774e-01,-1.252568312635690406e-01,-9.068617808225809540e-01,1.413560780292433037e+03
1.066398337830323584e+01,-1.052654579426288350e+01,8.057753212553464550e+00,-3.152898451181795902e-01,-1.490918191940353854e-01,-9.372096579815961670e-01,1.416348523323084919e+03
1.013850987898380041e+01,-1.058863972816173060e+01,8.218777090195462875e+00,-2.350944775023252886e-01,-1.828141017088047715e-01,-9.546243192292270807e-01,1.420573247203482424e+03
9.567246300269475867e+00,-1.068023226671392933e+01,8.341491081364772242e+00,-1.530485115157043385e-01,-2.150973078740068267e-01,-9.645243912249512608e-01,1.424797971083879929e+03
8.965102859311574690e+00,-1.077280293545111256e+01,8.415340989326029586e+00,-6.979779078891730493e-02,-2.456873138513777921e-01,-9.668319462105272599e-01,1.429022694964277434e+03
8.347546641125980216e+00,-1.083813403287573784e+01,8.429775030596358576e+00,1.400235833088790682e-02,-2.743433241546235912e-01,-9.615288214363297836e-01,1.433247418844674939e+03
7.730599312685196622e+00,-1.084831891268959048e+01,8.374244357124499771e+00,9.769228491365151978e-02,-3.008397669396504215e-01,-9.486567620039303428e-01,1.437472142725072445e+03
7.127789939929312091e+00,-1.078310948217230703e+01,8.245120524269177409e+00,1.806132055936375547e-01,-3.249680694843000706e-01,-9.283170922591481578e-01,1.441696866605469950e+03
6.546912933838854975e+00,-1.063718207978083541e+01,8.052612616318651106e+00,2.621123898933897522e-01,-3.465382998938180137e-01,-9.006699183222316440e-01,1.445921590485867455e+03
6.362844551331834353e+00,-1.056333094583922438e+01,7.972598480835967116e+00,3.415482979408420161e-01,-3.653806621185364256e-01,-8.659328680231738185e-01,1.447321010137442954e+03
5.835693727036677991e+00,-1.026487746157961567e+01,7.693397265195917711e+00,2.200499195273094011e-01,-3.861970018502781654e-01,-8.957834050026063366e-01,1.451545734017840459e+03
5.342114837693452856e+00,-9.891012575872888846e+00,7.390748495238492310e+00,9.501177914253700063e-02,-4.008008734568533349e-01,-9.112241336030943994e-01,1.455770457898237964e+03
4.886830738379924099e+00,-9.444089257000362281e+00,7.081786057889563502e+00,-3.155473049052769791e-02,-4.089573582831315668e-01,-9.120066765600822745e-01,1.459995181778635470e+03
4.474525745490646855e+00,-8.926547189186379683e+00,6.783644148022799136e+00,-1.576136332173843357e-01,-4.105352512381116870e-01,-8.981184499359448070e-01,1.464219905659032975e+03
4.109845025467645740e+00,-8.340912211121871422e+00,6.513456420650610035e+00,-2.811371196553275609e-01,-4.055091710577946040e-01,-8.697828649383713140e-01,1.468444629539430480e+03
3.797393986682461975e+00,-7.689795747438516571e+00,6.288355143135202496e+00,-4.001381658424025822e-01,-3.939599684297168114e-01,-8.274557338683253827e-01,1.472669353419827985e+03
3.536207764501194006e+00,-6.978877954793948568e+00,6.119728282251111651e+00,-5.127024957982388997e-01,-3.760734254377706143e-01,-7.718179380411599455e-01,1.476894077300225490e+03
3.337303268973675241e+00,-6.298475377740972547e+00,6.019294196481348003e+00,-6.170193740175506925e-01,-3.521372672439312956e-01,-7.037644755919348905e-01,1.480679423907843557e+03
3.137550577433201315e+00,-5.504199294750169891e+00,5.958197505174278596e+00,-5.661728024290643146e-01,-3.536694024054153340e-01,-7.445564529235360052e-01,1.484904147788241062e+03
2.942759971551889731e+00,-4.688505434592296517e+00,5.942394051734062543e+00,-5.129190352390670116e-01,-3.536978361257046566e-01,-7.821827817127048332e-01,1.489128871668638567e+03
2.734496973205024162e+00,-3.864987093904099336e+00,5.966035373039494161e+00,-4.574844891708629291e-01,-3.522224481641564320e-01,-8.164834898366262195e-01,1.493353595549036072e+03
2.494056349120868710e+00,-3.046867417411962986e+00,6.023271050146788319e+00,-4.001048521048699014e-01,-3.492495116338296124e-01,-8.473127438815810653e-01,1.497578319429433577e+03
2.208051780911532536e+00,-2.243499881485222058e+00,6.106315692223172498e+00,-3.410240812223458984e-01,-3.447916663244318114e-01,-8.745394690110042113e-01,1.501803043309831082e+03
1.874098506706848299e+00,-1.457017426600897947e+00,6.203516016224702057e+00,-2.804933660191326061e-01,-3.388678649762721373e-01,-8.980479061296712251e-01,1.506027767190228587e+03
1.709265890682722722e+00,-1.124339642116484850e+00,6.246620275446866266e+00,-2.187700605878636628e-01,-3.315032927326850287e-01,-9.177381039794180184e-01,1.507853526682818256e+03
1.282630646908464955e+00,-3.701624729259148650e-01,6.339173159441444660e+00,-1.314118794615100894e-01,-3.609320145078082076e-01,-9.232859789033092124e-01,1.512078250563215761e+03
8.156787872640544057e-01,3.706464027338233769e-01,6.412835386884292888e+00,-4.293299252969133561e-02,-3.872825968626763538e-01,-9.209597973416601135e-01,1.516302974443613266e+03
3.116173541872886421e-01,1.099301001444927817e+00,6.454020789306309958e+00,4.591203025339271604e-02,-4.103303168103212828e-01,-9.107794006148122179e-01,1.520527698324010771e+03
-2.263328353513777147e-01,1.816949823172356870e+00,6.449144801640754210e+00,1.343654972066247455e-01,-4.298786186645438545e-01,-8.928316114337734311e-01,1.524752422204408276e+03
-7.949376869591138206e-01,2.524675669579238946e+00,6.384625134519510858e+00,2.216730562182939457e-01,-4.457607901285097207e-01,-8.672694933702932429e-01,1.528977146084805781e+03
-1.388515427309168215e+00,3.222496663591178034e+00,6.252365773377229097e+00,3.070901275421327736e-01,-4.578413839276611608e-01,-8.343110455514733959e-01,1.533201869965203286e+03
-1.996528607521275145e+00,3.908302781539415793e+00,6.055240706067624323e+00,3.898882532746872354e-01,-4.660173728739649412e-01,-7.942373437063738884e-01,1.537426593845600792e+03
-2.310126288945343553e+00,4.250916989208724850e+00,5.924926884140274019e+00,4.693613094046160672e-01,-4.702190285163452277e-01,-7.473901434021195112e-01,1.539588861081658251e+03
-2.917865541710247257e+00,4.901284234693975783e+00,5.619148170014512722e+00,5.447977731242623634e-01,-4.719283880422884825e-01,-6.931644703522884532e-01,1.543813584962055756e+03
-3.507835196910297437e+00,5.530792047341723361e+00,5.269509810571587849e+00,6.155304322131130990e-01,-4.695631076096879464e-01,-6.329540070113278682e-01,1.548038308842453262e+03
-4.067296706419821994e+00,6.135458857906317398e+00,4.884379211300617918e+00,6.809485827922112655e-01,-4.631436103541575755e-01,-5.672786121313778684e-01,1.552263032722850767e+03
-4.583586178365329999e+00,6.711047468762348700e+00,4.472125531030839873e+00,7.404874064922667420e-01,-4.527253231383362442e-01,-4.967053277507749165e-01,1.556487756603248272e+03
-5.044116295778429127e+00,7.253066166354274813e+00,4.041119267964599970e+00,7.936328467960463984e-01,-4.383981979397929551e-01,-4.218434834508232867e-01,1.560712480483645777e+03
-5.436378228855237360e+00,7.756769855892827970e+00,3.599731845660669727e+00,8.399260471360465719e-01,-4.202859351919206454e-01,-3.433394355774423978e-01,1.564937204364043282e+03
-5.751072458249796071e+00,8.218011766164817544e+00,3.157743103797886697e+00,8.789673124507714208e-01,-3.985449157844586643e-01,-2.618709868346475456e-01,1.569161928244440787e+03
-5.985217147667350801e+00,8.634178099730331013e+00,2.727748719240421504e+00,9.104195600129156851e-01,-3.733628509421473285e-01,-1.781415344115268029e-01,1.573386652124838292e+03
-6.138986671011560148e+00,9.003462668745632058e+00,2.323751678113942898e+00,9.340112297466517388e-01,-3.449571616325975421e-01,-9.287399714495141179e-02,1.577611376005235797e+03
-6.198540369398749306e+00,9.261882266069811465e+00,2.029773793594230824e+00,9.495386289113586509e-01,-3.135731014869084232e-01,-6.804574126571527430e-03,1.581017114993511768e+03
-6.192738333117346450e+00,9.532041650792711707e+00,1.717070517478413105e+00,9.650566962372719715e-01,-2.619739573597890669e-01,-5.763567311321699145e-03,1.585241838873909273e+03
-6.107235070149932277e+00,9.750097630868761911e+00,1.469649584303246881e+00,9.777718779258410819e-01,-2.096139546400224429e-01,-4.705821179830152294e-03,1.589466562754306779e+03
-5.942267599326658711e+00,9.914241702659282396e+00,1.301505158410184881e+00,9.876472474914509414e-01,-1.566451582364947748e-01,-3.634407658933957834e-03,1.593691286634704284e+03
-5.701293275794939497e+00,1.002488207053905356e+01,1.225986373686782871e+00,9.946541245467809267e-01,-1.032214007641677200e-01,-2.552438360553099719e-03,1.597916010515101789e+03
-5.663406689810388528e+00,1.003243647482687528e+01,1.229240965278577846e+00,9.987721580458451820e-01,-4.949783607176624911e-02,-1.463055550781513928e-03,1.598433194824553539e+03
-5.292819818758178307e+00,1.004909629545312733e+01,1.364338931650175279e+00,9.885271645910483906e-01,1.132062322959857537e-01,-9.998196753667798475e-02,1.602657918704951044e+03
-4.886465799011042499e+00,1.002579490604269452e+01,1.607447901011106683e+00,9.424148291375340492e-01,2.718027579915127112e-01,-1.948731653333550806e-01,1.606725656537611030e+03
