-3.673334870788331763e+00,-5.791505922181548804e+00,-1.092883088880473785e+01,-3.843809662317960174e-01,1.735838826952101621e-01,9.067071790079004323e-01,1.234228587876197878e+02
-3.195577294592787165e+00,-5.997910720252363603e+00,-1.010817419077305956e+01,-3.826291021350161081e-01,2.277423905091876255e-01,8.953917431839343299e-01,1.276475826680173498e+02
-2.729651291970758287e+00,-6.211151859413794440e+00,-9.277866993066403722e+00,-3.797047640730398799e-01,2.812030307294381415e-01,8.813325976306243259e-01,1.318723065484149117e+02
-2.272930650279097797e+00,-6.383718860116884386e+00,-8.509122534414332861e+00,-3.756169130053949590e-01,3.338019905693140332e-01,8.645728227013532718e-01,1.360970304288124737e+02
-1.823252280369094258e+00,-6.483178152429477592e+00,-7.849374797169025975e+00,-3.703780748238175158e-01,3.853780974330320852e-01,8.451637733044057299e-01,1.403217543092100357e+02
-1.380653737654392144e+00,-6.507164293680363087e+00,-7.298499956308519998e+00,-3.640043019829043436e-01,4.357733126246837729e-01,8.231649215918575013e-01,1.445464781896075976e+02
-1.234469221841799857e+00,-6.502588905817674458e+00,-7.132609462762665942e+00,-3.565151243354350297e-01,4.848332154657538640e-01,7.986436748001393138e-01,1.459556462470970075e+02
-8.017813777473437042e-01,-6.459597555857949480e+00,-6.672852653701656145e+00,-3.727738674740671554e-01,3.536442609572256202e-01,8.578889091371764142e-01,1.501803701274945695e+02
-3.800647059266429317e-01,-6.370566856863694838e+00,-6.266178306453095814e+00,-3.812099781814789479e-01,2.150340929906636445e-01,8.991314094094338127e-01,1.544050940078921315e+02
2.867271589944021121e-02,-6.248028812249819097e+00,-5.888673434959478925e+00,-3.816464229469865854e-01,7.191143662918905721e-02,9.215056989154511990e-01,1.586298178882896934e+02
4.221832340893871827e-01,-6.104466698871068076e+00,-5.516423605710427225e+00,-3.740740411649408070e-01,-7.272028625094696663e-02,9.245422498155582147e-01,1.628545417686872554e+02
7.979800182164270561e-01,-5.952311423393981116e+00,-5.125514121537628753e+00,-3.586517377134321727e-01,-2.158259841993274419e-01,9.081773370765224840e-01,1.670792656490848174e+02
1.153337481499645767e+00,-5.803937883458586633e+00,-4.692031205419652018e+00,-3.357031485322786168e-01,-3.544025883732406235e-01,8.727543763394952636e-01,1.713039895294823793e+02
1.485291722510736712e+00,-5.671661333872748401e+00,-4.192063184253269625e+00,-3.057098491389899642e-01,-4.855420728974673694e-01,8.190167175252025533e-01,1.755287134098799413e+02
1.790640988135786316e+00,-5.567733758083444506e+00,-3.601701672547934496e+00,-2.693012486029441876e-01,-6.064924807042626487e-01,7.480920453727971653e-01,1.797534372902775033e+02
2.065946157771871405e+00,-5.504340245167357537e+00,-2.897042756000324015e+00,-2.272413810890733521e-01,-7.147156740199832603e-01,6.614687143251318791e-01,1.839781611706750653e+02
2.307531244078547150e+00,-5.493595375837241335e+00,-2.095237362692708771e+00,-1.804128722153743591e-01,-8.079405974464801687e-01,5.609645145077992723e-01,1.882028850510726272e+02
2.533061210124498697e+00,-5.547690702115680494e+00,-1.273141217340157727e+00,-1.297984167713624459e-01,-8.842109358320293655e-01,4.486885244342059265e-01,1.924276089314701892e+02
2.803116639109240804e+00,-5.679646562433689816e+00,-5.038634651196850500e-01,-7.646015656964101626e-02,-9.419261668458496217e-01,3.269968511603486561e-01,1.966523328118677512e+02
2.872753612513893273e+00,-5.718664484069503118e+00,-3.436733945621200381e-01,-2.151739125392224464e-02,-9.798751468742034065e-01,1.984431868629619178e-01,1.975830039243116971e+02
3.285030034722359105e+00,-5.950162907340171614e+00,3.104595739312993041e-01,6.326475274064689847e-02,-9.957466281976911082e-01,6.696434491682387580e-02,2.018077278047092591e+02
3.622564187244551537e+00,-6.194151525826281812e+00,7.662806125657380951e-01,1.464825737352738189e-01,-9.869966293344822894e-01,-6.617030504908390232e-02,2.048679677756856563e+02
3.824553621397609238e+00,-6.694501801435425392e+00,1.634228377280295685e+00,1.946095150228107362e-01,-9.536784073533967065e-01,-2.293962336459766105e-01,2.090926916560832183e+02
3.639763978127734667e+00,-7.357998831361027392e+00,2.787621219498610081e+00,2.368847244668390306e-01,-8.916839713643969212e-01,-3.857244126661906747e-01,2.133174155364807802e+02
3.196226539254444443e+00,-8.072911025063767454e+00,4.023287528148206782e+00,2.720370294029152980e-01,-8.028774427702437544e-01,-5.304542077550253865e-01,2.175421394168783422e+02
2.623997861427202150e+00,-8.730223497075488837e+00,5.138051618626785277e+00,2.990094361071954920e-01,-6.899291518468078088e-01,-6.592337389359604893e-01,2.217668632972759042e+02
2.027325666149223160e+00,-9.262239740943789101e+00,5.990313578801583994e+00,3.169909116440434715e-01,-5.562353434299823762e-01,-7.681907345542960952e-01,2.259915871776734662e+02
1.455841709627316849e+00,-9.680400162302470690e+00,6.561626067598454348e+00,3.254407702211461473e-01,-4.058160566067402497e-01,-8.540489642161126493e-01,2.302163110580710281e+02
1.069421677817153027e+00,-9.939376772122592740e+00,6.834360816694598384e+00,3.241049309517265442e-01,-2.431942486400743841e-01,-9.142267504080445750e-01,2.332426390315659148e+02
5.795757996510727539e-01,-1.028811595551136726e+01,7.061545851781169780e+00,2.776706568920744855e-01,-1.567969330534836336e-01,-9.477930829487837272e-01,2.374673629119634768e+02
1.706315164909687487e-01,-1.066200042401147030e+01,7.124979310418557255e+00,2.282521658931336295e-01,-6.871448048143377618e-02,-9.711731405556913721e-01,2.416920867923610388e+02
-1.386528177589047006e-01,-1.111301373495115818e+01,7.067823596618842075e+00,1.763805722064201720e-01,2.010646389141485316e-02,-9.841156557323392784e-01,2.459168106727586007e+02
-3.304811649090247938e-01,-1.169353216969964393e+01,6.933247078206390412e+00,1.226133530792167525e-01,1.087113190160360621e-01,-9.864815329056920712e-01,2.501415345531561627e+02
-4.026376429577033789e-01,-1.243154705058735665e+01,6.749315293449408948e+00,6.752835806233996319e-02,1.961478259500083199e-01,-9.782453430667663596e-01,2.543662584335537247e+02
-4.060101842683752071e-01,-1.263626378761655467e+01,6.697692929157780029e+00,1.171759944063226547e-02,2.814762808997336441e-01,-9.594955972557998036e-01,2.554184293606945744e+02
-3.866619458097749207e-01,-1.351284481474002064e+01,6.456297538154983862e+00,1.673683817648281141e-02,3.778667142428387971e-01,-9.257076344691341774e-01,2.596431532410921363e+02
-3.263088985392241792e-01,-1.446633691079881423e+01,6.141856326331253335e+00,2.158104285648872536e-02,4.703054162795477500e-01,-8.822386717928226707e-01,2.638678771214896983e+02
-2.651953173465431135e-01,-1.544868465463582474e+01,5.737123985938431758e+00,2.619955358141845547e-02,5.578256784769810572e-01,-8.295433055743965944e-01,2.680926010018872603e+02
-2.426483773874245076e-01,-1.641099998169675089e+01,5.224859674139802124e+00,3.054407070308082575e-02,6.395122279946833244e-01,-7.681726173130462021e-01,2.723173248822848223e+02
-2.786763898763895964e-01,-1.730855214302758682e+01,4.601331034434763545e+00,3.456915987293004977e-02,7.145107982892694443e-01,-6.987684110726327669e-01,2.765420487626823842e+02
-3.547518495845906061e-01,-1.809876288041069259e+01,3.898169623766904568e+00,3.823272713710718085e-02,7.820370619650831578e-01,-6.220565024880732041e-01,2.807204880425874762e+02
-4.361734336855065952e-01,-1.876969962172683282e+01,3.136382998735200101e+00,-6.793229529963040053e-03,8.664254766132851726e-01,-4.992581952340593432e-01,2.849452119229850382e+02
-4.852486543984076417e-01,-1.928268080272475160e+01,2.359784985160575665e+00,-5.165459285005705864e-02,9.298219428650107421e-01,-3.643637709826672566e-01,2.891699358033826002e+02
-4.642842259054514864e-01,-1.960962855259197468e+01,1.605165816237842158e+00,-9.526445462748742155e-02,9.706904874012893814e-01,-2.206414769568596501e-01,2.933946596837801621e+02
-3.350465335678056711e-01,-1.972324203413212373e+01,9.093146359562616077e-01,-1.365662287896078630e-01,9.880409444322910684e-01,-7.157343976683216979e-02,2.976193835641777241e+02
-7.576511487445843074e-02,-1.961148116608834613e+01,2.947803298464506949e-01,-1.745592497945222532e-01,9.814529442128121506e-01,7.922869813168592623e-02,3.018441074445752861e+02
3.014985183563406168e-01,-1.929157273871523515e+01,-2.443669395359147067e-01,-2.083230162583469547e-01,9.510860976127375466e-01,2.281112794781406661e-01,3.060688313249728481e+02
5.115974332816880521e-01,-1.908311943394935639e+01,-4.835064596635217371e-01,-2.370394925781955375e-01,8.976761300413853562e-01,3.714671513235051625e-01,3.080890373362083210e+02
9.905356444118895709e-01,-1.855375252468150293e+01,-9.594639755536747971e-01,-2.461950833398860450e-01,8.386314069665500304e-01,4.858840851362303814e-01,3.123137612166058830e+02
1.513043101701908366e+00,-1.789244363220091216e+01,-1.410026133148018390e+00,-2.512487257072995583e-01,7.656139464420884666e-01,5.922055072726528646e-01,3.165384850970034449e+02
2.048284510748830556e+00,-1.712887982128931341e+01,-1.855368512994143959e+00,-2.521162209797042086e-01,6.798403202597215200e-01,6.886599669418668190e-01,3.207632089774010069e+02
2.564872216131031113e+00,-1.629208292294114457e+01,-2.315666953118222793e+00,-2.487831164243231585e-01,5.827396311108440363e-01,7.736404095671994829e-01,3.249879328577985689e+02
3.032703536475128026e+00,-1.541527294768303591e+01,-2.800056728360359237e+00,-2.413049459382516915e-01,4.759297025753465027e-01,8.457309508777143270e-01,3.292126567381961308e+02
3.424675428283710854e+00,-1.454078238621244346e+01,-3.295592276115477670e+00,-2.298063048172233336e-01,3.611901253189822025e-01,9.037304662555262214e-01,3.334373806185936928e+02
3.611341443884777291e+00,-1.406008248353012036e+01,-3.573357979183587663e+00,-2.144787740407555765e-01,2.404326083800994718e-01,9.466726024943672435e-01,3.358241066674566468e+02
3.859362579411732774e+00,-1.326924992857280650e+01,-4.042397214422908114e+00,-1.345829594954544850e-01,2.173569692545191667e-01,9.667685218960642146e-01,3.400488305478542088e+02
3.962868122452836595e+00,-1.259952261503884152e+01,-4.461061238689145725e+00,-5.370205544288211147e-02,1.926903500527241686e-01,9.797879965773677036e-01,3.442735544282517708e+02
3.893439387962892795e+00,-1.209609506304459003e+01,-4.805368016936216513e+00,2.757192081337743114e-02,1.666133016062252281e-01,9.856357323625916100e-01,3.484982783086493328e+02
3.621767456188492496e+00,-1.180357373957868816e+01,-5.051339191466194478e+00,1.086440755638082012e-01,1.393166980320536819e-01,9.842689279326808371e-01,3.527230021890468947e+02
3.135137611389246626e+00,-1.174293759349403388e+01,-5.185541703931791702e+00,1.889209925577644555e-01,1.110003397558024102e-01,9.756975879566561760e-01,3.569477260694444567e+02
2.455494645214352900e+00,-1.188899055221914303e+01,-5.215628895495901141e+00,2.678150760416472820e-01,8.187149122902978582e-02,9.599844498573674167e-01,3.611724499498420187e+02
2.132127527998308292e+00,-1.199265410853767477e+01,-5.205118829051838425e+00,3.447488512202296906e-01,5.214336403126262204e-02,9.372445247473232266e-01,3.629244871571564772e+02
1.281426182469323383e+00,-1.231367609141961061e+01,-5.137220463578710650e+00,3.629244064602067943e-01,1.158777920996564986e-01,9.245843457969817880e-01,3.671492110375540392e+02
3.361110669476676249e-01,-1.272824125726538291e+01,-5.009158428341919489e+00,3.794476670394494877e-01,1.790846516552240253e-01,9.077147985569017363e-01,3.713739349179516012e+02
-6.617689824183277114e-01,-1.319085902815024980e+01,-4.839139920045128385e+00,3.942434086120492065e-01,2.414761827382339854e-01,8.867126862380872998e-01,3.755986587983491631e+02
-1.669325929936092079e+00,-1.365693703310560991e+01,-4.645374208843950470e+00,4.072442715084583220e-01,3.027683374934724281e-01,8.616736256463172205e-01,3.798233826787467251e+02
-2.642839425379563956e+00,-1.408279378449105579e+01,-4.446071737244959188e+00,4.183910673470713215e-01,3.626820731864986991e-01,8.327116118758082219e-01,3.840481065591442871e+02
-3.550476801418415818e+00,-1.443893540499792039e+01,-4.250955493996069201e+00,4.276330484572562485e-01,4.209446224349670529e-01,7.999584993671081667e-01,3.882728304395418490e+02
-4.385347784600353016e+00,-1.472297486267312649e+01,-4.052772808037656382e+00,4.349281388891144684e-01,4.772907348792120308e-01,7.635634016899056631e-01,3.924975543199394110e+02
-5.153297074195104521e+00,-1.494583811904895043e+01,-3.835783432530492920e+00,4.402431259595118718e-01,5.314638846459430743e-01,7.236920127800595681e-01,3.967222782003369730e+02
-5.165526176385625945e+00,-1.494907796807667566e+01,-3.831956016604098014e+00,4.435538114629213324e-01,5.832174381139699770e-01,6.805258527165077842e-01,3.967924797770085661e+02
-5.872662726738613337e+00,-1.512150928308567366e+01,-3.580277335943035322e+00,4.965105467880311929e-01,6.167123319403516879e-01,6.108528272509015089e-01,4.010172036574061281e+02
-6.525245400361914250e+00,-1.525438666500349072e+01,-3.278053530920753911e+00,5.451075776489777702e-01,6.447920726562667015e-01,5.358161175523945552e-01,4.052419275378036900e+02
-7.129686391492530362e+00,-1.535823273116182364e+01,-2.909549510820480300e+00,5.889181949479654898e-01,6.672101057010236813e-01,4.560745931416870791e-01,4.094666514182012520e+02
-7.692583914428709591e+00,-1.544343076797151326e+01,-2.459033463244194806e+00,6.275577165370153088e-01,6.837695887007186890e-01,3.723284329494511713e-01,4.136913752985988140e+02
-8.216372441003365168e+00,-1.550557423520937661e+01,-1.926543638104877054e+00,6.606868645355135072e-01,6.943251195902789830e-01,2.853129778608038403e-01,4.179160991789963759e+02
-8.694603658455781314e+00,-1.551093955836392979e+01,-1.343654351184277118e+00,6.880147440912143253e-01,6.987840132011290395e-01,1.957922746359056221e-01,4.221408230593939379e+02
-8.943215719657667151e+00,-1.547995742026227894e+01,-1.009818955769343995e+00,7.093013974556409140e-01,6.971071151165726398e-01,1.045523678382694333e-01,4.245132310070253538e+02
-9.341145349155119959e+00,-1.532660389515726074e+01,-4.406999328524315862e-01,7.937453642758720562e-01,6.042387722700131025e-01,6.972662888524924774e-02,4.287379548874229158e+02
-9.662384753116960212e+00,-1.499333868711383566e+01,5.754787500282626533e-02,8.647209052948116037e-01,5.011176193144125657e-01,3.371776324752853715e-02,4.329626787678204778e+02
-9.893038128008239340e+00,-1.443260009762863660e+01,4.375858988775583880e-01,9.210237105637104627e-01,3.894934229201183484e-01,-2.863229129343737231e-03,4.371874026482180398e+02
-1.002532174416908006e+01,-1.362638701906228711e+01,6.687972125944197099e-01,9.616984318104326857e-01,2.712602251048858992e-01,-3.939564098809859166e-02,4.414121265286156017e+02
-1.005969305705399108e+01,-1.316368427657173612e+01,7.344434426008360495e-01,9.860548912979882896e-01,1.484242083644016219e-01,-7.525958887663973529e-02,4.434706400513396716e+02
-1.007919077431124499e+01,-1.212236243214337783e+01,7.872190830666031536e-01,9.992795406021049986e-01,-1.097451168628592842e-02,-3.630371644502723705e-02,4.476953639317372335e+02
-1.002823571987902618e+01,-1.097962267459196717e+01,7.230598479413447022e-01,9.854232609421964550e-01,-1.700757957928881181e-01,3.635997801636221567e-03,4.519200878121347955e+02
-9.922813713773301458e+00,-9.804704973589664974e+00,5.615189535391136300e-01,9.448615729130099838e-01,-3.245679337987849022e-01,4.347717082068741634e-02,4.561448116925323575e+02
-9.780203860864723708e+00,-8.666496301007235559e+00,3.221544353071339462e-01,8.786937207208702638e-01,-4.702641285603949561e-01,8.214009103786218402e-02,4.603695355729299195e+02
-9.613867895627775439e+00,-7.615869497346775319e+00,2.192442500407961944e-02,7.887128813146944140e-01,-6.032159572268234182e-01,1.185769783551630097e-01,4.645942594533274814e+02
-9.427894679628103347e+00,-6.668167012365513457e+00,-3.274174434006061896e-01,6.773575691183385539e-01,-7.198203724364475864e-01,1.518003787350919176e-01,4.688189833337250434e+02
-9.237472596891196375e+00,-5.876421042959215413e+00,-6.866304653263095581e-01,5.476455531597673732e-01,-8.169173443445777449e-01,1.809099240334478276e-01,4.727377794290534894e+02
-9.011951217292251570e+00,-5.114774962892859378e+00,-1.102977307456447065e+00,5.524647008431069484e-01,-7.970322136461526208e-01,2.439680403914059048e-01,4.769625033094510513e+02
-8.764126306760200436e+00,-4.449276700584404054e+00,-1.541636709596643673e+00,5.548557784901928525e-01,-7.736441473970450122e-01,3.059539152784657712e-01,4.811872271898486133e+02
-8.493012662283767611e+00,-3.877673623441328932e+00,-1.993451894904105348e+00,5.548082782227624632e-01,-7.468559361182570688e-01,3.665951242179565917e-01,4.854119510702461753e+02
-8.197577674399505909e+00,-3.397744409300060386e+00,-2.449265434477172487e+00,5.523224094001444318e-01,-7.167853134321989783e-01,4.256251525959680593e-01,4.896366749506437372e+02
-7.879514983831761299e+00,-3.007280353876182755e+00,-2.897040744261796252e+00,5.474090976753916982e-01,-6.835644386353099122e-01,4.827845668778670274e-01,4.938613988310412992e+02
-7.546017734460916060e+00,-2.703988998766390317e+00,-3.323608435632676272e+00,5.400899369658618276e-01,-6.473393158896075805e-01,5.378221547052742801e-01,4.980861227114388612e+02
-7.207004137570798719e+00,-2.485397770077669932e+00,-3.722170634118593391e+00,5.303970945495543043e-01,-6.082691525842860436e-01,5.904960288670786372e-01,5.023108465918364232e+02
-6.872342631014037195e+00,-2.348835309859089282e+00,-4.090555560450328088e+00,5.183731697042522901e-01,-5.665256596854498783e-01,6.405746902966693579e-01,5.065355704722339851e+02
-6.551850413080697599e+00,-2.291432242334987990e+00,-4.426592926625281699e+00,5.040710065101978721e-01,-5.222922971463985764e-01,6.878380454272540190e-01,5.107602943526315471e+02
-6.255291981383781064e+00,-2.310121957544465143e+00,-4.728114043090248408e+00,4.875534616380015063e-01,-4.757634676917933403e-01,7.320783734371725249e-01,5.149850182330291091e+02
-6.035758679074855415e+00,-2.375673713060264980e+00,-4.948753064250919209e+00,4.688931281408947327e-01,-4.271436625155146660e-01,7.731012391366817171e-01,5.184288607475059507e+02
-5.764839865433171617e+00,-2.272786811644850413e+00,-5.132198608044756583e+00,5.091893523455219839e-01,-6.315481522218049371e-01,5.846974729582681274e-01,5.226535846279034558e+02
-5.337376474499037293e+00,-1.718652001645706529e+00,-5.053872992001791964e+00,5.093099708178111529e-01,-7.861227653176242613e-01,3.501604653236062292e-01,5.268783085083009610e+02
-4.827172622455889517e+00,-6.604494729963552579e-01,-4.484172271629644158e+00,4.692454779027614986e-01,-8.786714332078844336e-01,8.799541995388732163e-02,5.311030323886984661e+02
-4.625907948654365498e+00,1.748043307259201651e-01,-3.923017466472308978e+00,3.921569931239337059e-01,-9.018919669970713038e-01,-1.811125964989526715e-01,5.335538792580680365e+02
-4.562567000318384913e+00,1.684484617110024507e+00,-2.897042263682757746e+00,3.605929346316545936e-01,-9.213403497515633145e-01,-1.452676681393836322e-01,5.377786031384655416e+02
-4.707780757397031834e+00,2.593196414982688935e+00,-2.361931647726124517e+00,3.280699254614255489e-01,-9.383385221351036032e-01,-1.090364245489320039e-01,5.420033270188630468e+02
-4.767833151716608597e+00,2.694862648804276173e+00,-2.628870240665268199e+00,2.946744493379736540e-01,-9.528412843809779265e-01,-7.251520998940773344e-02,5.462280508992605519e+02
-4.582187893144308966e+00,2.750682003639546291e+00,-3.184159278545822591e+00,2.604953093641795281e-01,-9.648100705299911262e-01,-3.580113959124110734e-02,5.500948565851313106e+02
-4.092645680369678018e+00,3.211801627122178981e+00,-3.760193642395591507e+00,1.543646780210562452e-01,-9.836185176363890781e-01,9.308145864178257733e-02,5.543195804655288157e+02
-3.363950297109451704e+00,3.968714772479822184e+00,-4.271074866811685133e+00,4.387660348119011566e-02,-9.746611364154161850e-01,2.193365287155938925e-01,5.585443043459263208e+02
-2.474802008901568762e+00,4.876532172943620402e+00,-4.682695713775984814e+00,-6.785003011954948704e-02,-9.381907787331175141e-01,3.394001121295733836e-01,5.627690282263238259e+02
-1.506586173366489145e+00,5.792063264881288198e+00,-4.960953855239645272e+00,-1.776613764786428018e-01,-8.752369387506475640e-01,4.498830251907124378e-01,5.669937521067213311e+02
-5.433601442954958394e-01,6.573856800872945882e+00,-5.071753560642351388e+00,-2.824576543775451642e-01,-7.875766921790287034e-01,5.476665293958539182e-01,5.712184759871188362e+02
3.446172509395782901e-01,7.133974681330134793e+00,-5.008609142061719588e+00,-3.792806488021704947e-01,-6.776845328249941902e-01,6.299903677157135951e-01,5.754431998675163413e+02
1.118660681804604984e+00,7.489299477510432013e+00,-4.820247033004865678e+00,-4.653972159995920510e-01,-5.486625223867658274e-01,6.945306817330711979e-01,5.796679237479138465e+02
1.757166735876958708e+00,7.709118423884477878e+00,-4.583001619024672735e+00,-5.383764353146226478e-01,-4.041527251415787392e-01,7.394656101936831760e-01,5.838926476283113516e+02
2.095082547139495155e+00,7.810657050233650089e+00,-4.435991171067298566e+00,-5.961582299532950380e-01,-2.482343992242507236e-01,7.635267172151009030e-01,5.865778203509069044e+02
2.504226216077617639e+00,7.967260757409026617e+00,-4.273064734401342157e+00,-5.395313305736472165e-01,-2.310289581611938703e-01,8.096478023299897853e-01,5.908025442313044095e+02
2.727122496691542164e+00,8.172607500049254625e+00,-4.262442886343121629e+00,-4.798669929625161701e-01,-2.125228751270514249e-01,8.512107239752122467e-01,5.950272681117019147e+02
2.746839856258736834e+00,8.497439558013331506e+00,-4.480450951844526131e+00,-4.175011074401215327e-01,-1.928203333699611555e-01,8.879814999891251226e-01,5.992519919920994198e+02
2.564129598468737115e+00,8.982139715412200687e+00,-4.965299629039143348e+00,-3.527847715646547089e-01,-1.720322511374164642e-01,9.197531242230635451e-01,6.034767158724969249e+02
2.417013367471571250e+00,9.269783868680924854e+00,-5.283936247465207181e+00,-2.860823142261614271e-01,-1.502756574503339160e-01,9.463467315217989340e-01,6.055587724482752492e+02
2.039738873885107218e+00,9.912854664178565756e+00,-6.035369999566613686e+00,-2.505697865916621248e-01,-1.540349909219917435e-01,9.557646172652934924e-01,6.097834963286727543e+02
1.567768805087368156e+00,1.061520789533881803e+01,-6.901994022653466843e+00,-2.147154942557074897e-01,-1.575842245436810118e-01,9.638788661957610193e-01,6.140082202090702594e+02
1.049359201900262883e+00,1.132262865824964315e+01,-7.807675812338384702e+00,-1.785683402059702884e-01,-1.609185174799745432e-01,9.706784115275023384e-01,6.182329440894677646e+02
5.317203107848124111e-01,1.197989948269007776e+01,-8.676280926989782927e+00,-1.421776267915229874e-01,-1.640333220402163394e-01,9.761539795021364485e-01,6.224576679698652697e+02
6.100901857283401453e-02,1.253081628697858108e+01,-9.431676755196626516e+00,-1.055929884995443629e-01,-1.669243898784336100e-01,9.802981020286318792e-01,6.266823918502627748e+02
-3.176786195069650209e-01,1.291820442054937423e+01,-9.997736283167776961e+00,-6.886432427991853733e-02,-1.695877777853853074e-01,9.831051268632211571e-01,6.309071157306602800e+02
-5.725862426840101493e-01,1.312256117017692603e+01,-1.032049308064241089e+01,-3.204172950970839845e-02,-1.720198530648708868e-01,9.845712253153491300e-01,6.351318396110577851e+02
-6.966028888101207794e-01,1.320103817098560128e+01,-1.039029519015140757e+01,4.824572310016359868e-03,-1.742172984869960750e-01,9.846943974691929613e-01,6.393565634914552902e+02
-6.935358431189860839e-01,1.324932346981866615e+01,-1.021965438578045671e+01,4.168429803215607798e-02,-1.761771168116569586e-01,9.834744749136380415e-01,6.435812873718527953e+02
-6.737021763827313325e-01,1.326611766364484879e+01,-1.013662884112288687e+01,7.848717342328329072e-02,-1.778966348760895877e-01,9.809131209769635928e-01,6.447593772604591322e+02
-6.311463947869165869e-01,1.330209026834496555e+01,-9.979569824961384228e+00,-2.379475025007261706e-03,-1.307798305851465559e-01,9.914075720872662645e-01,6.467409287698892513e+02
-4.687735287595556355e-01,1.345404570188736670e+01,-9.520832557335953794e+00,-9.216620019092230942e-02,-2.639350870295072982e-01,9.601258570508425239e-01,6.509656526502867564e+02
-2.014050667131518646e-01,1.371608053862940402e+01,-8.893572919705412971e+00,-1.794855803793025395e-01,-3.900246450992556624e-01,9.031410203570948703e-01,6.551903765306842615e+02
1.514311875766677085e-01,1.406090563286614525e+01,-8.147823277237597139e+00,-2.620000262034095639e-01,-5.056730160228359860e-01,8.219785807041161130e-01,6.594151004110817667e+02
5.697157107594906789e-01,1.446165658141926436e+01,-7.333621853934992885e+00,-3.375005795179379930e-01,-6.077842280728555924e-01,7.188113041205765885e-01,6.636398242914792718e+02
1.032940549475216852e+00,1.489190112504527974e+01,-6.501010256614844884e+00,-4.039660481993468943e-01,-6.936247070349280675e-01,5.964010376361709165e-01,6.678645481718767769e+02
1.520112652746962612e+00,1.532564651119229104e+01,-5.700030998765096335e+00,-4.596171143064051168e-01,-7.608964550984486097e-01,4.580247731901061492e-01,6.720892720522742820e+02
2.009757247051120466e+00,1.573734681762050513e+01,-4.980725024370363130e+00,-5.029639671903480824e-01,-8.077985692410482033e-01,3.073869210633818350e-01,6.763139959326717872e+02
2.479921253913056400e+00,1.610191023640499353e+01,-4.393129231796326195e+00,-5.328461864503386547e-01,-8.330754523059025196e-01,1.485201412306973723e-01,6.805387198130692923e+02
2.664298277297859840e+00,1.623534484018721358e+01,-4.191414587520590374e+00,-5.484638070769469742e-01,-8.360504261661944048e-01,-1.432261269795066273e-02,6.822554503958920122e+02
3.151143184046242052e+00,1.653028562708029625e+01,-3.702922319975149534e+00,-7.895669912111720201e-01,-3.914693781625857572e-01,4.725819424727820128e-01,6.864801742762895174e+02
3.232390224283081093e+00,1.657176032878001237e+01,-3.625977365021138432e+00,-6.415241178760536789e-01,2.460513063883366103e-01,7.265697219182959410e-01,6.871365691795111843e+02
3.794850357155902465e+00,1.686114968757527421e+01,-3.095704647943144039e+00,-6.826848630958863851e-01,1.991853332524338160e-01,7.030395299783280816e-01,6.913612930599086894e+02
4.360542331170540464e+00,1.728644210822951521e+01,-2.580969102608472898e+00,-7.208115395537528780e-01,1.514341313846070958e-01,6.763848226367435990e-01,6.955860169403061946e+02
4.787477719452096103e+00,1.802805444688744885e+01,-2.245670790508980108e+00,-7.557347111932819494e-01,1.030099101908619752e-01,6.467240560666903670e-01,6.998107408207036997e+02
4.823738946268327332e+00,1.813503392190379770e+01,-2.222873417640576221e+00,-7.872991761592150750e-01,5.412786952562477494e-02,6.141890433364484148e-01,7.002871871487596991e+02
5.027478357920290186e+00,1.924039872377303340e+01,-2.163602021461763947e+00,-7.741062681581061256e-01,6.107288375524594706e-03,6.330246335034982463e-01,7.045119110291572042e+02
5.034711251121058773e+00,2.049690391388206123e+01,-2.334175114925523431e+00,-7.587189167216298324e-01,-4.193059421280451865e-02,6.500657125807288717e-01,7.087366349095547093e+02
4.913611113444505740e+00,2.159066063630930543e+01,-2.632597797767648906e+00,-7.411807407658504987e-01,-8.984960737307964851e-02,6.652639758532452596e-01,7.129613587899522145e+02
4.701675449254477890e+00,2.230914475803753660e+01,-2.982180950514746520e+00,-7.215414550042021924e-01,-1.375139172400822729e-01,6.785763415201957471e-01,7.171860826703497196e+02
4.491492336283114284e+00,2.260684784821075866e+01,-3.251908943712388922e+00,-6.998567291162981485e-01,-1.847884117354622879e-01,6.899650727347292900e-01,7.202712785080751701e+02
4.094064991032905887e+00,2.278603674456909189e+01,-3.640378124459628051e+00,-6.292814605342124112e-01,-1.365550868165508469e-01,7.650853231442709124e-01,7.244960023884726752e+02
3.523880339462949429e+00,2.274793709948623999e+01,-4.052630645814573995e+00,-5.505567643983056980e-01,-8.655333064344558625e-02,8.302973986037953669e-01,7.287207262688701803e+02
2.744503244744407766e+00,2.258944274365400773e+01,-4.487907976323359804e+00,-4.647021406813064415e-01,-3.543067443184020476e-02,8.847567958223466755e-01,7.329454501492676854e+02
2.448440743102561878e+00,2.252618756304480740e+01,-4.634053697034113739e+00,-3.728294180568715865e-01,1.615083552923623003e-02,9.277582527474668161e-01,7.343277757035457398e+02
1.501162019489986621e+00,2.237506621228794756e+01,-5.038515445775809454e+00,-2.798220201727128487e-01,-1.813118841092612593e-02,9.598796263236228921e-01,7.385524995839432449e+02
6.046797648931702129e-01,2.236914228145830208e+01,-5.293932787579939792e+00,-1.837764946872517402e-01,-5.221634626168897980e-02,9.815791629723844558e-01,7.427772234643407501e+02
-1.634737057685253445e-02,2.263053285414856575e+01,-5.271237550282896756e+00,-8.573562749104374214e-02,-8.573456892768116511e-02,9.926212701062745447e-01,7.470019473447382552e+02
-2.373785067252591474e-01,2.303306787767388997e+01,-5.035381646533673816e+00,1.323613306052613507e-02,-1.183219422070717064e-01,9.928860572953360775e-01,7.502232324820287204e+02
-2.141915208287124284e-01,2.378896925716686184e+01,-4.460037543333842613e+00,7.209446087396489955e-02,-2.901173038694155326e-01,9.542705793991745900e-01,7.544479563624262255e+02
1.018924923304690977e-01,2.474125526301308398e+01,-3.625164629216406809e+00,1.284677639189832632e-01,-4.519125951858289358e-01,8.827621649945461835e-01,7.586726802428237306e+02
5.900286942633289344e-01,2.578546141092343191e+01,-2.614548863470547158e+00,1.804128970864808668e-01,-5.981308531099631676e-01,7.808256329824390107e-01,7.628974041232212357e+02
1.127462094263578241e+00,2.681969227706900227e+01,-1.511984900976229174e+00,2.261393481002338668e-01,-7.237320353275489282e-01,6.519746438941785849e-01,7.671221280036187409e+02
1.589547188224486041e+00,2.774465029899188906e+01,-4.012719456862317569e-01,2.640709568878568114e-01,-8.243867521635352968e-01,5.006505893185779765e-01,7.713468518840162460e+02
1.849767764612727072e+00,2.846366434645775456e+01,6.337903960623691990e-01,2.929002466076662814e-01,-8.966255031860297375e-01,3.320694996127330212e-01,7.755715757644137511e+02
1.826717422992030437e+00,2.891515755540365262e+01,1.535294096937379393e+00,3.116334929538219223e-01,-9.379582725952715361e-01,1.520422472179584761e-01,7.797962996448112563e+02
1.531899135604486650e+00,2.910379636070795328e+01,2.297113408629702924e+00,3.196249777368480594e-01,-9.469603596606390727e-01,-3.322575564037953677e-02,7.840210235252087614e+02
1.024000605919004325e+00,2.906608625905927212e+01,2.939017329783032206e+00,3.165992458284553890e-01,-9.233214852044459020e-01,-2.173484587032475379e-01,7.882457474056062665e+02
3.623369231807694324e-01,2.883726809011284686e+01,3.480780792437253357e+00,3.026605984226040102e-01,-8.678564820119143430e-01,-3.939792999543992869e-01,7.924704712860037716e+02
1.209793342429682367e-01,2.873009209008800369e+01,3.643631558887818311e+00,2.782894958277173925e-01,-7.824772020897901026e-01,-5.570299675260452776e-01,7.938692576050638081e+02
-6.347128118841407485e-01,2.833332635171000646e+01,4.098745380156771034e+00,3.023494307124959257e-01,-7.080813899217304197e-01,-6.381250402505260766e-01,7.980939814854613132e+02
-1.403181482208295527e+00,2.782246361655924716e+01,4.499833094648059806e+00,3.225725331171873655e-01,-6.246999967059782000e-01,-7.111222644485295508e-01,8.023187053658588184e+02
-2.123092748870341939e+00,2.722846185541444441e+01,4.866681940479930191e+00,3.387021725820917317e-01,-5.333911365082888434e-01,-7.750953062579615249e-01,8.065434292462563235e+02
-2.732527899707467789e+00,2.658097471434676251e+01,5.219080847554154801e+00,3.505336645401613271e-01,-4.353135215397510582e-01,-8.292323486148448497e-01,8.107681531266538286e+02
-3.168993412862794123e+00,2.590834266261335372e+01,5.576819457947646441e+00,3.579168675943072975e-01,-3.317117583883566478e-01,-8.728463926940183137e-01,8.149928770070513337e+02
-3.392551978955428371e+00,2.523158842984356198e+01,5.949628105550144319e+00,3.607580887067743936e-01,-2.239005544226989886e-01,-9.053839755387627086e-01,8.192176008874488389e+02
-3.409105349995474654e+00,2.455906075203381889e+01,6.327118293548424255e+00,3.590212721365920734e-01,-1.132480347280219735e-01,-9.264321933007921839e-01,8.234423247678463440e+02
-3.247504888786040045e+00,2.389339671151314803e+01,6.688842249069448798e+00,3.527284570411882147e-01,-1.158381209166046239e-03,-9.357239409925663942e-01,8.276670486482438491e+02
-2.944279218839481516e+00,2.324943464434797136e+01,7.009278418639611097e+00,3.419594979292913672e-01,1.109459859079609118e-01,-9.331413022619167164e-01,8.318155236432169204e+02
-2.516676479519458720e+00,2.260733229111615117e+01,7.279945331024487487e+00,2.435692880506076241e-01,1.571321852287492216e-01,-9.570692129015023752e-01,8.360402475236144255e+02
-1.996353234331665449e+00,2.198356988773000964e+01,7.473880292762391520e+00,1.421621527336728308e-01,2.013720818248944944e-01,-9.691425111880543897e-01,8.402649714040119306e+02
-1.411741684720026369e+00,2.138318716577976986e+01,7.570644613922087984e+00,3.899415399603381460e-02,2.431177068934330943e-01,-9.692116572500177885e-01,8.444896952844094358e+02
-7.911573758146159818e-01,2.081182292474490581e+01,7.549804409131808391e+00,-6.465683674549699278e-02,2.818519865214433318e-01,-9.572757968090003233e-01,8.487144191648069409e+02
-1.627946392255201769e-01,2.027571319504792768e+01,7.390931608825585641e+00,-1.675069660675499728e-01,3.170951459683705176e-01,-9.334827715188031005e-01,8.529391430452044460e+02
4.506938697930505944e-01,1.977465158181588833e+01,7.095478370264745038e+00,-2.682822999708766032e-01,3.484106520037726917e-01,-8.981272878010307936e-01,8.571638669256019512e+02
1.037440423362957942e+00,1.929479857163067535e+01,6.708650405757019541e+00,-3.657346024845327670e-01,3.754106197337613859e-01,-8.516472668520999045e-01,8.613885908059994563e+02
1.536887022251268053e+00,1.886572358183859777e+01,6.337761606798148151e+00,-4.586567960960905022e-01,3.977606169719880569e-01,-7.946184209926281383e-01,8.651793028177307860e+02
2.056632336066491540e+00,1.836967800329648171e+01,5.961521987650374221e+00,-4.695209038917293465e-01,4.078439667948050573e-01,-7.830781694985810004e-01,8.694040266981282912e+02
2.528958956959119320e+00,1.783536499078410387e+01,5.688267540274539513e+00,-4.802193242695915743e-01,4.177833939857806822e-01,-7.712615874626763679e-01,8.736287505785257963e+02
2.945959066441529384e+00,1.724256608319473827e+01,5.585076252232171079e+00,-4.907482829237538313e-01,4.275753919993441343e-01,-7.591728439240789106e-01,8.778534744589233014e+02
3.299331492324576232e+00,1.657122699924691744e+01,5.719017690916347263e+00,-5.011040653010487844e-01,4.372165062742284225e-01,-7.468162038734351693e-01,8.820781983393208066e+02
3.582420169518458763e+00,1.581727538788778809e+01,6.118408152744372330e+00,-5.112830179048468704e-01,4.467033354461898420e-01,-7.341960267470243329e-01,8.863029222197183117e+02
3.792651167245440824e+00,1.500837991240800839e+01,6.734067730166050758e+00,-5.212815495803914123e-01,4.560325325446438760e-01,-7.213167648929333930e-01,8.905276461001158168e+02
3.843687230703419555e+00,1.475957214447060828e+01,6.947284975237142390e+00,-5.310961327783392250e-01,4.652008061702839758e-01,-7.081829620047483953e-01,8.918004599719630505e+02
3.972649403828237169e+00,1.394490480821641576e+01,7.689834254166848737e+00,-6.461367157883167733e-01,4.340292661360733995e-01,-6.277929122316032728e-01,8.960251838523605556e+02
4.030126297101009669e+00,1.317526837147495833e+01,8.446288126390642859e+00,-7.478225485294546226e-01,3.938869514757069590e-01,-5.344272685489730446e-01,9.002499077327580608e+02
4.018040754263751957e+00,1.249412782691951307e+01,9.128706901318023981e+00,-8.340519337220528850e-01,3.456035476927213357e-01,-4.300157667776408066e-01,9.044746316131555659e+02
3.939120804547953103e+00,1.194490907165763360e+01,9.649154547310391905e+00,-9.030426355151067730e-01,2.901770035734858588e-01,-3.167164426418017098e-01,9.086993554935530710e+02
3.796899375194839887e+00,1.157098671732511797e+01,9.919703043355493577e+00,-9.533687146782140465e-01,2.287529054129804063e-01,-1.968710292006042861e-01,9.129240793739505762e+02
3.599733320682672932e+00,1.139155040690134690e+01,9.886254795803617768e+00,-9.839900002065115059e-01,1.626008000178787438e-01,-7.295655781090526482e-02,9.171488032543480813e+02
3.364214612895876755e+00,1.137736098674335494e+01,9.562363380935829937e+00,-9.942735883125985996e-01,9.308795573452052774e-02,5.246583728022996551e-02,9.213735271347455864e+02
3.144360008555596497e+00,1.145454513049681822e+01,9.090443071354366467e+00,-9.840069244335523102e-01,2.165110367728025759e-02,1.768038528330077575e-01,9.250397566458357232e+02
2.890782172151856511e+00,1.159609942543422889e+01,8.370977787831005656e+00,-9.877123237524660926e-01,-1.415371916555792087e-01,6.625397260642729158e-02,9.292644805262332284e+02
2.653074986992800088e+00,1.174780616934079092e+01,7.496992791234112552e+00,-9.530297917324216384e-01,-2.992245573487102850e-01,-4.687089022383520570e-02,9.334892044066307335e+02
2.448190215082411303e+00,1.185486201322401989e+01,6.515901795714721167e+00,-8.813072879647737556e-01,-4.452824069358538028e-01,-1.581740884406873382e-01,9.377139282870282386e+02
2.292048112956906802e+00,1.186211324747617368e+01,5.475123811691447351e+00,-7.753323387309525305e-01,-5.740341398684820629e-01,-2.633297757258666327e-01,9.419386521674257438e+02
2.199419831000612557e+00,1.174853098650601524e+01,4.423232661949445976e+00,-6.392237005796892468e-01,-6.804757605670782583e-01,-3.582510291654938395e-01,9.461633760478232489e+02
2.173998750408957292e+00,1.163856591650297467e+01,3.791906528770508267e+00,-4.782712880303038872e-01,-7.604703584977313691e-01,-4.392486868418362111e-01,9.487435166074565132e+02
2.195642123796758050e+00,1.145809041533174799e+01,2.818229430377225508e+00,-5.336042465892522069e-01,-6.849314191593951495e-01,-4.961183921903094540e-01,9.529682404878540183e+02
2.320837807918463280e+00,1.133598586110030837e+01,1.968118328298021691e+00,-5.825328465334306260e-01,-6.011719165160555045e-01,-5.470336456759807842e-01,9.571929643682515234e+02
2.567493284652672347e+00,1.135340466861011954e+01,1.293592904098058050e+00,-6.244698527998502335e-01,-5.101971331825626566e-01,-5.913833682443335737e-01,9.614176882486490285e+02
2.955075276137260065e+00,1.159112219962472068e+01,8.466641481399969082e-01,-6.589119418391917726e-01,-4.130989457627231576e-01,-6.286352789265157170e-01,9.656424121290465337e+02
3.465610702192970294e+00,1.208105076901841990e+01,6.560573699220028088e-01,-6.854457416527763858e-01,-3.110427212655953455e-01,-6.583422824012249430e-01,9.698671360094440388e+02
3.783438851612353826e+00,1.244496768416924581e+01,6.442724547780401823e-01,-7.037527925613921154e-01,-2.052533318342356361e-01,-6.801478344685630839e-01,9.722779632674273671e+02
4.279877402996174141e+00,1.314320436576793050e+01,7.612832939673565003e-01,-7.832573801485592790e-01,-1.682633570990804128e-01,-5.984925388840144356e-01,9.765026871478248722e+02
4.588523825979139659e+00,1.385703595292214629e+01,1.052188074506499094e+00,-8.515168445718559465e-01,-1.288576574643693906e-01,-5.082447909448454260e-01,9.807274110282223774e+02
4.569983332481738714e+00,1.448053494105893257e+01,1.475851138904783921e+00,-9.075512088026574942e-01,-8.760196964770319839e-02,-4.107002536084295996e-01,9.849521349086198825e+02
4.144219868021351338e+00,1.494899643781145215e+01,1.990019159066195309e+00,-9.505560029049248127e-01,-4.508858908331209170e-02,-3.072593439995890963e-01,9.891768587890173876e+02
3.972313867400819376e+00,1.505007690795542352e+01,2.136161730382612589e+00,-9.799138123353018370e-01,-1.927867564839872349e-03,-1.994071305645796488e-01,9.902990691568544435e+02
3.169419025428649839e+00,1.537395952726194182e+01,2.693493785351663394e+00,-9.262043113605825662e-01,-2.919847661931060379e-01,-2.385130393247330005e-01,9.945237930372519486e+02
2.132462374037484842e+00,1.561822933356435605e+01,3.239146552671698931e+00,-7.904819802290917741e-01,-5.561873329933754162e-01,-2.564992973677991395e-01,9.987485169176494537e+02
9.660582329982332350e-01,1.583016917664017065e+01,3.727527180330606260e+00,-5.847646011941242117e-01,-7.711410974714459909e-01,-2.517732491350623270e-01,1.002973240798046959e+03
-2.243371731058357854e-01,1.605485099753216716e+01,4.113045648831480605e+00,-3.272679016587835554e-01,-9.178124239324886302e-01,-2.247533648654124749e-01,1.007197964678444464e+03
-1.352297278870445929e+00,1.631429541790386040e+01,4.369178189864082462e+00,-4.079257564990704937e-02,-9.832139529062322580e-01,-1.778321921979650055e-01,1.011422688558841969e+03
-2.370822275416740954e+00,1.658718972698939353e+01,4.507529761421201542e+00,2.492947214675264034e-01,-9.615546169926016962e-01,-1.151644927424118336e-01,1.015647412439239474e+03
-3.159525379081362662e+00,1.680679930714858727e+01,4.558332400239296867e+00,5.173075764532666376e-01,-8.547523839869383133e-01,-4.229933111801312956e-02,1.019352225004376919e+03
-3.915415933327747400e+00,1.699408016948486733e+01,4.564633280281189087e+00,6.663844275435834019e-01,-7.161519410750473158e-01,-2.074998602950949012e-01,1.023576948884774424e+03
-4.487333484196679656e+00,1.706979956685658095e+01,4.541404646761439068e+00,7.696637819698071148e-01,-5.283337068526847702e-01,-3.584398930474138045e-01,1.027801672765172043e+03
-4.850921030460984440e+00,1.698940825772100638e+01,4.519326589206619005e+00,8.200477280107563161e-01,-3.042055495641506901e-01,-4.847460236034387693e-01,1.032026396645569548e+03
-4.982619038491705510e+00,1.670783615763412300e+01,4.529079137429806501e+00,8.140736067091374206e-01,-5.917075201481622471e-02,-5.777378168045816942e-01,1.036251120525967053e+03
-4.884980807459141872e+00,1.620090511599799399e+01,4.592432635075278213e+00,7.521519870496577997e-01,1.899305824873359083e-01,-6.310243752929040051e-01,1.040475844406364558e+03
-4.706515570454029351e+00,1.571006045372357462e+01,4.671990795971018073e+00,6.385384521745568476e-01,4.259788727388376106e-01,-6.409435584161783384e-01,1.043555864160539841e+03
-4.381920359175035529e+00,1.490643330683507983e+01,4.822602992396106458e+00,6.112470511612178026e-01,3.649962287945556771e-01,-7.022483858378215649e-01,1.047780588040937346e+03
-4.015802180898138118e+00,1.396934231235105983e+01,5.022191074908130659e+00,5.789299818540755149e-01,3.010125965465105802e-01,-7.577793167078816783e-01,1.052005311921334851e+03
-3.684938787700606344e+00,1.294307766016311589e+01,5.265791431270691270e+00,5.418529549199134765e-01,2.345540459970816005e-01,-8.070797821470437894e-01,1.056230035801732356e+03
-3.465263326609620886e+00,1.187352399445631868e+01,5.548438267954912462e+00,5.003208157552363478e-01,1.661669947176853956e-01,-8.497444387508877872e-01,1.060454759682129861e+03
-3.285472650513048709e+00,1.085327901319613453e+01,5.826748376457077327e+00,4.546750382713080629e-01,9.641371569299574118e-02,-8.854225008428038279e-01,1.064679483562527366e+03
-2.933657596656563005e+00,9.990195722625797359e+00,6.027161693794990782e+00,4.052909176343198472e-01,2.586771485953972410e-02,-9.138206243078512703e-01,1.068904207442924871e+03
-2.755065911179293447e+00,9.721385006014770624e+00,6.076443099510868251e+00,3.525744850158518684e-01,-4.489098369726782917e-02,-9.347053183210154437e-01,1.070406437877591088e+03
-2.172102189794773430e+00,9.025956007772958145e+00,6.172192127514314564e+00,3.313898013515561014e-01,1.828727398600661636e-01,-9.256005405015196308e-01,1.074631161757988593e+03
-1.505115535654413916e+00,8.399034056770025458e+00,6.209329960122357939e+00,2.928376059648072904e-01,4.010524483233783855e-01,-8.679867915049729321e-01,1.078855885638386098e+03
-8.584749371725937106e-01,7.774760577891652424e+00,6.215855139550352959e+00,2.389383479614527184e-01,5.982137527031579083e-01,-7.648835022085169744e-01,1.083080609518783604e+03
-3.377777396069672200e-01,7.089483179697918303e+00,6.219767719302374154e+00,1.725167874771555976e-01,7.640238027655783526e-01,-6.216941264373859743e-01,1.087305333399181109e+03
-1.242783786579469175e-02,6.305498531697671716e+00,6.242302842653831618e+00,9.705395414773181073e-02,8.897928128855072671e-01,-4.459229531232885568e-01,1.091530057279578614e+03
1.223852064808189505e-01,5.433744993012976643e+00,6.291164655942563577e+00,1.650471198025229777e-02,9.689294756926821739e-01,-2.467818178411916308e-01,1.095754781159976119e+03
1.378209094215889774e-01,4.963489206508513440e+00,6.325293818816843938e+00,-6.490950784314968025e-02,9.972863968158437453e-01,-3.470732657965521634e-02,1.097930474787374806e+03
9.562929316768806198e-02,4.034084042076007570e+00,6.409684700220764419e+00,-6.445383167896868992e-02,9.811591401524102363e-01,-1.821275522207051745e-01,1.102155198667772311e+03
-2.889484656310429764e-02,3.101112629301675749e+00,6.522758438270202852e+00,-6.258061856931164402e-02,9.434531931135752281e-01,-3.255422224289520328e-01,1.106379922548169816e+03
-1.917186595953320472e-01,2.196567394151485164e+00,6.665449497171032966e+00,-5.933106645802509183e-02,8.849978284363433367e-01,-4.617972154708732124e-01,1.110604646428567321e+03
-3.482217729445613030e-01,1.351512614671460666e+00,6.838690871349647260e+00,-5.477664298070904908e-02,8.070786587017105829e-01,-5.878958734782535611e-01,1.114829370308964826e+03
-4.532033503109922368e-01,5.960755575221811098e-01,7.043414039189841880e+00,-4.901751367283447430e-02,7.114093618796426544e-01,-7.010649065415032188e-01,1.119054094189362331e+03
-4.790560151714211568e-01,-5.539336842480764578e-02,7.265662992003826481e+00,-4.218033906830799540e-02,6.000939930876487693e-01,-7.988153844643007817e-01,1.123278818069759836e+03
-4.343141126864500934e-01,-6.186500542993270679e-01,7.461708999788832841e+00,-3.441548912795616005e-02,4.755807112860098163e-01,-8.789974750596978303e-01,1.127503541950157341e+03
-3.641221265406636154e-01,-1.043597401695347537e+00,7.568970951891974330e+00,-2.589373624501525514e-02,3.406079383413068151e-01,-9.398477253058536984e-01,1.131018260572192730e+03
-2.654462409904689291e-01,-1.529112473053588106e+00,7.577099897031447817e+00,-2.082673615508736156e-02,2.850141387104930812e-01,-9.582959813077477351e-01,1.135242984452590235e+03
-1.743411354907850319e-01,-2.010570309254147148e+00,7.393048853737932191e+00,-1.568774557784381740e-02,2.284351454974930529e-01,-9.734317022445115875e-01,1.139467708332987741e+03
-1.194422795586871505e-01,-2.516570816221084250e+00,6.958223558196293901e+00,-1.049452715517448786e-02,1.710665209699391009e-01,-9.852025732291270765e-01,1.143692432213385246e+03
-1.122943852764942269e-01,-2.863627687188180726e+00,6.546446838373346289e+00,-5.265030930347401085e-03,1.131065561937803082e-01,-9.935679072862321215e-01,1.146432912737599963e+03
-1.825284570886074875e-01,-3.419704832950047457e+00,5.778171684030829702e+00,5.183178716954350840e-02,1.913605218890184201e-01,-9.801492827627152904e-01,1.150657636617997468e+03
-4.042784552241533991e-01,-3.984614426953740907e+00,4.933447164173326627e+00,1.084328838007030810e-01,2.677843358885153013e-01,-9.573567042449071529e-01,1.154882360498394974e+03
-8.293072601259806609e-01,-4.530350621296257430e+00,4.153548860118862152e+00,1.639969430336598866e-01,3.416471043173050504e-01,-9.254081579425067483e-01,1.159107084378792479e+03
-1.508886022710282049e+00,-5.027823520143011926e+00,3.579749141850038008e+00,2.179925671149978983e-01,4.122424263752145768e-01,-8.846091920041198042e-01,1.163331808259189984e+03
-2.430581087698705289e+00,-5.452020384314223200e+00,3.301482083764454956e+00,2.699033579282088535e-01,4.788951492342408134e-01,-8.353499945640429081e-01,1.167556532139587489e+03
-2.745391197293734820e+00,-5.567467072040048315e+00,3.268796058780908620e+00,3.192328550555552091e-01,5.409678242048550079e-01,-7.781016626553783899e-01,1.168850675330724926e+03
-3.746986880189473457e+00,-5.892657141489520356e+00,3.290498918391517869e+00,4.192235521057660619e-01,4.595278594610021639e-01,-7.829966537211371369e-01,1.173075399211122431e+03
-4.586947074291798820e+00,-6.124382713518558674e+00,3.507176521776245615e+00,5.122322292041880942e-01,3.704346607271066794e-01,-7.748511505419136691e-01,1.177300123091519936e+03
