-2.264443557361434767e+00,5.469204465907586687e+00,-4.011941758289224502e+00,-1.130598788859507736e-01,-9.404087762814146156e-01,3.206973608869827519e-01,5.627690282263238259e+02
-1.439334091964547868e+00,6.021382478371362090e+00,-4.417903412505402194e+00,-2.041342419818871490e-01,-8.724641606840103369e-01,4.439971841950136611e-01,5.669937521067213311e+02
-6.170434782557001618e-01,6.511191682993514362e+00,-4.707690191299594318e+00,-2.894695942451921411e-01,-7.799911616198963449e-01,5.548145111683918662e-01,5.712184759871188362e+02
1.601378520421836149e-01,6.921157978028159796e+00,-4.840798674767705201e+00,-3.666668250174253130e-01,-6.655895549358989971e-01,6.500338328060303317e-01,5.754431998675163413e+02
8.673115897152439135e-01,7.260326700984169435e+00,-4.841262462378194797e+00,-4.335556174244821204e-01,-5.324756156657556305e-01,7.269781601407613314e-01,5.796679237479138465e+02
1.488659594653190199e+00,7.551042001902089851e+00,-4.765386349430566604e+00,-4.882554645607958266e-01,-3.843916965085083515e-01,7.834842850896239774e-01,5.838926476283113516e+02
1.820075570942432552e+00,7.718769316636749700e+00,-4.701186074434502871e+00,-5.292285381331289784e-01,-2.255010160310762513e-01,8.179635971086768320e-01,5.865778203509069044e+02
2.229278858872174141e+00,7.974697211468697589e+00,-4.621092304249801330e+00,-4.908850179636593536e-01,-2.043810116387790310e-01,8.469110350063241421e-01,5.908025442313044095e+02
2.512961701462084640e+00,8.242902446774481362e+00,-4.613065604108537165e+00,-4.511894924807755003e-01,-1.826980982285334731e-01,8.735258706952739871e-01,5.950272681117019147e+02
2.656862671007510723e+00,8.546815737695823145e+00,-4.733411161091005681e+00,-4.102512870473113971e-01,-1.605119925807488301e-01,8.977348058915320950e-01,5.992519919920994198e+02
2.657260079744910630e+00,8.901424808529839083e+00,-5.014547459341162750e+00,-3.681831487988115326e-01,-1.378837970256394652e-01,9.194711672769063648e-01,6.034767158724969249e+02
2.593351751765832880e+00,9.100617859021399525e+00,-5.226802219094543567e+00,-3.251009363396581975e-01,-1.148758312769818518e-01,9.386750899935311088e-01,6.055587724482752492e+02
2.353624646930865705e+00,9.546036745008761315e+00,-5.777757125226595569e+00,-2.886983097636395268e-01,-1.218655101548447167e-01,9.496315513775593908e-01,6.097834963286727543e+02
2.027022573153099305e+00,1.002281908388394349e+01,-6.415573334585269905e+00,-2.518643577933950550e-01,-1.286731144111536718e-01,9.591692107749373308e-01,6.140082202090702594e+02
1.639819066466482012e+00,1.051860073301465093e+01,-7.101004330759622007e+00,-2.146541110919453488e-01,-1.352884734492190155e-01,9.672738193194095890e-01,6.182329440894677646e+02
1.218021836636724808e+00,1.102049752892879297e+01,-7.794801236880454454e+00,-1.771231624149830208e-01,-1.417017038774598114e-01,9.739332689933344334e-01,6.224576679698652697e+02
7.873689029788919491e-01,1.151510931253494796e+01,-8.457714757689329232e+00,-1.393275835790938610e-01,-1.479032242702293665e-01,9.791376107076043001e-01,6.266823918502627748e+02
3.733247537976330799e-01,1.198852399906945010e+01,-9.050497121623815033e+00,-1.013238417150584547e-01,-1.538837694777299703e-01,9.828790691581112959e-01,6.309071157306602800e+02
1.076529623504339853e-03,1.242632169250070007e+01,-9.533904022846332538e+00,-6.316871493136415328e-02,-1.596344044638493831e-01,9.851520544377989630e-01,6.351318396110577851e+02
-3.044697695793882053e-01,1.281357884411827008e+01,-9.868696563143261713e+00,-2.491920751353501190e-02,-1.651465376513097660e-01,9.859531703870129116e-01,6.393565634914552902e+02
-5.217481040689466720e-01,1.314932671133795239e+01,-1.002803468014886157e+01,1.336753521442237032e-02,-1.704119337542508716e-01,9.852812196696976166e-01,6.435812873718527953e+02
-5.552804832285821446e-01,1.323398646183692762e+01,-1.002365840977923206e+01,5.163431223965768424e-02,-1.754227260791262066e-01,9.831372055678221367e-01,6.447593772604591322e+02
-5.640440559265739173e-01,1.337103739791735180e+01,-9.937294348581216852e+00,-1.931470142651977445e-02,-1.491990677548389044e-01,9.886175096901738124e-01,6.467409287698892513e+02
-4.758346260583906084e-01,1.366462096166877416e+01,-9.590352800392430765e+00,-1.036267554947057357e-01,-2.750779287154908603e-01,9.558198725072383217e-01,6.509656526502867564e+02
-2.862860119843201878e-01,1.396468689619534231e+01,-9.100906842704093336e+00,-1.854486813375742782e-01,-3.943467320774302620e-01,9.000541325334650011e-01,6.551903765306842615e+02
-7.304231396902678697e-03,1.427187324993186479e+01,-8.496218359551772181e+00,-2.628143205407479921e-01,-5.041394816321848049e-01,8.226603284338752653e-01,6.594151004110817667e+02
3.492415795961917868e-01,1.458705617580154268e+01,-7.803554932933465693e+00,-3.338645985412685979e-01,-6.018178887708822700e-01,7.254982140548984493e-01,6.636398242914792718e+02
7.715209473468201962e-01,1.491134932670950342e+01,-7.050188493663987366e+00,-3.968921972731935255e-01,-6.850347691968545760e-01,6.109025689385179092e-01,6.678645481718767769e+02
1.247743837724625049e+00,1.524610323037682136e+01,-6.263393972068115545e+00,-4.503825811488045838e-01,-7.517904445285633619e-01,4.816270944557428657e-01,6.720892720522742820e+02
1.766162429278117063e+00,1.559290464355952821e+01,-5.470447948562662255e+00,-4.930503906249840140e-01,-8.004807936145170721e-01,3.407782436708470808e-01,6.763139959326717872e+02
2.315072882418323541e+00,1.595357588569814311e+01,-4.698627304177331432e+00,-5.238703288987289763e-01,-8.299357989947225844e-01,1.917405748584490033e-01,6.805387198130692923e+02
2.545946722896716974e+00,1.610713771423053942e+01,-4.402799982593676553e+00,-5.421017995680423862e-01,-8.394476622815089106e-01,3.809542224030642438e-02,6.822554503958920122e+02
3.125695352736079347e+00,1.650506898578576909e+01,-3.731937132205534358e+00,-7.724797953259764371e-01,-3.882096465419634379e-01,5.025596841625051825e-01,6.864801742762895174e+02
3.216521606598492511e+00,1.657076798557915609e+01,-3.636697830631280937e+00,-6.379246151519240016e-01,2.464254998414505404e-01,7.296058239978876481e-01,6.871365691795111843e+02
3.790760754582204406e+00,1.702894929969627924e+01,-3.090187754746741788e+00,-6.779761887061767078e-01,1.933300606363615171e-01,7.092036204062811544e-01,6.913612930599086894e+02
4.320122554588546215e+00,1.754455181802524777e+01,-2.636951952311658243e+00,-7.147466786283750428e-01,1.392990111441378687e-01,6.853692223026076613e-01,6.955860169403061946e+02
4.756969457512782107e+00,1.815051614452062267e+01,-2.306299053989182113e+00,-7.480581439024671653e-01,8.459382234025325520e-02,6.582179719201268764e-01,6.998107408207036997e+02
4.794043745432304604e+00,1.823176697447386019e+01,-2.283151238045515008e+00,-7.777493801122520312e-01,2.947922705216844685e-02,6.278812601938588145e-01,7.002871871487596991e+02
5.002742946744944241e+00,1.905086831319176000e+01,-2.207150648234304402e+00,-7.693649645119010616e-01,2.681229636489085993e-02,6.382449781381882570e-01,7.045119110291572042e+02
5.070205772140458755e+00,1.990564352078814991e+01,-2.270440443881326154e+00,-7.608383585187959985e-01,2.414041092614163664e-02,6.484907345061111661e-01,7.087366349095547093e+02
4.992538253248000046e+00,2.071593526658850948e+01,-2.461694584504670491e+00,-7.521711366991988834e-01,2.146406412315842241e-02,6.586166373858821643e-01,7.129613587899522145e+02
4.764220322209657077e+00,2.140167571821316983e+01,-2.769580695075680943e+00,-7.433648995252672975e-01,1.878375016483605289e-02,6.686208169485226005e-01,7.171860826703497196e+02
4.486754771025241340e+00,2.177327311855096426e+01,-3.066756954437672711e+00,-7.344212730739667627e-01,1.609996399108857071e-02,6.785014257825520145e-01,7.202712785080751701e+02
3.968703101187114335e+00,2.211225757442608142e+01,-3.539852431530060350e+00,-6.512445858781500396e-01,2.007640508124980405e-02,7.586009671242021080e-01,7.244960023884726752e+02
3.336809791072613329e+00,2.232243024531208420e+01,-4.033678805296877279e+00,-5.593737171672067410e-01,2.378482257901753244e-02,8.285730666367994157e-01,7.287207262688701803e+02
2.617669666697266084e+00,2.244663991833544259e+01,-4.499361136090717750e+00,-4.600351363943612215e-01,2.717570959827072738e-02,8.874836077859776795e-01,7.329454501492676854e+02
2.363676325400089429e+00,2.247128069910782244e+01,-4.629358344969575434e+00,-3.545550009088175858e-01,3.020379802678210476e-02,9.345461368564507154e-01,7.343277757035457398e+02
1.583586912233934108e+00,2.254692487595587735e+01,-4.920184694291010352e+00,-3.001768704378303121e-01,-3.923875906797229945e-02,9.530751104913645078e-01,7.385524995839432449e+02
8.932866424036934871e-01,2.270215294074176171e+01,-5.050947237797389633e+00,-2.433605397460664455e-01,-1.083625802871000521e-01,9.638626452380554266e-01,7.427772234643407501e+02
4.076948663999432343e-01,2.302720088278034893e+01,-4.959082455462472616e+00,-1.845674913540127637e-01,-1.766062183118151940e-01,9.668211234690853306e-01,7.470019473447382552e+02
2.476196787369901453e-01,2.344344771177948417e+01,-4.692152989924063711e+00,-1.242752620017694154e-01,-2.434153742561387390e-01,9.619265121759025261e-01,7.502232324820287204e+02
2.921426518457339583e-01,2.418294411456227522e+01,-4.104359141142722045e+00,-6.792616969833036034e-02,-4.042958420255096108e-01,9.121013691422185099e-01,7.544479563624262255e+02
5.161802107775773640e-01,2.504414954218939116e+01,-3.332287164890079367e+00,-9.434652878647904403e-03,-5.524246979237869004e-01,8.335082125863165770e-01,7.586726802428237306e+02
8.371904586529251846e-01,2.595213861004768674e+01,-2.433200665663726614e+00,4.935444414256812129e-02,-6.831298945953206969e-01,7.286258888849683757e-01,7.628974041232212357e+02
1.171184621950229987e+00,2.683365238827156318e+01,-1.464369532070461943e+00,1.065868890637202832e-01,-7.922889301475196655e-01,6.007624207997616095e-01,7.671221280036187409e+02
1.432739583548749751e+00,2.761711989744445717e+01,-4.830671029994650367e-01,1.604575456999303429e-01,-8.764588771867466432e-01,4.539506720209320334e-01,7.713468518840162460e+02
1.535010540114012834e+00,2.823267945807370793e+01,4.534326663325467521e-01,2.092673099223948119e-01,-9.329849775607355067e-01,2.928211478763595998e-01,7.755715757644137511e+02
1.423606328279612754e+00,2.863605137054545935e+01,1.304785610207579216e+00,2.514767012901392151e-01,-9.600843766911684174e-01,1.224559444928643159e-01,7.797962996448112563e+02
1.111097150607105455e+00,2.883150685364233468e+01,2.064506920378069044e+00,2.857544197170148181e-01,-9.569023558398642715e-01,-5.177154624229259733e-02,7.840210235252087614e+02
6.441049308130648576e-01,2.884667082423433371e+01,2.743043894640055047e+00,3.110193354262322796e-01,-9.235392886106362775e-01,-2.243661190637880332e-01,7.882457474056062665e+02
6.975204878397618657e-02,2.870821460762041966e+01,3.350847847465891594e+00,3.264745877364484961e-01,-8.610474719218069728e-01,-3.898840784896210887e-01,7.924704712860037716e+02
-1.422814596242047980e-01,2.861800226922078494e+01,3.531886370369883288e+00,3.316327173106319859e-01,-7.713979322933899319e-01,-5.431049354066970203e-01,7.938692576050638081e+02
-8.171116394919981651e-01,2.822830588945718944e+01,4.024617724315766587e+00,3.466279760885966899e-01,-6.996716921150214485e-01,-6.247452036198269942e-01,7.980939814854613132e+02
-1.488414936584671500e+00,2.774373722743307269e+01,4.470992837775724205e+00,3.574516810022255187e-01,-6.195251443701210725e-01,-6.988668623152162196e-01,8.023187053658588184e+02
-2.107453519798414998e+00,2.718774707733135187e+01,4.881473589246501987e+00,3.639735739469550646e-01,-5.319228258433059686e-01,-7.645778866902107618e-01,8.065434292462563235e+02
-2.625020712738480366e+00,2.658280138190847453e+01,5.266523630955692425e+00,3.661151671935223284e-01,-4.379189993062709840e-01,-8.210874706132094136e-01,8.107681531266538286e+02
-2.991448407528487063e+00,2.595037424410680771e+01,5.636607870747895710e+00,3.638506878363655384e-01,-3.386449661497955566e-01,-8.677155431723821977e-01,8.149928770070513337e+02
-3.175113342071719469e+00,2.530665388058097776e+01,5.996466352438983627e+00,3.572073879099601501e-01,-2.352954520409155093e-01,-9.039009526888950319e-01,8.192176008874488389e+02
-3.181057536691588528e+00,2.465874132979241651e+01,6.339388419511970518e+00,3.462652164465288562e-01,-1.291142293947236952e-01,-9.292082197481092987e-01,8.234423247678463440e+02
-3.032663531216500452e+00,2.400967189336448726e+01,6.652938648502977337e+00,3.311558574188746551e-01,-2.137914962370885200e-02,-9.433327780051050659e-01,8.276670486482438491e+02
-2.758105562700364555e+00,2.337461803662276694e+01,6.919838826609070459e+00,3.120611451352175436e-01,8.661323477357260603e-02,-9.461046396985416385e-01,8.318155236432169204e+02
-2.370254503224390241e+00,2.273415219691988653e+01,7.137580498938591589e+00,2.204387757167985684e-01,1.354258471442960354e-01,-9.659526831505595990e-01,8.360402475236144255e+02
-1.897161897544660469e+00,2.210431543355414163e+01,7.288879551245544874e+00,1.263538324540619540e-01,1.827255707458738110e-01,-9.750097819098627605e-01,8.402649714040119306e+02
-1.361777839050825056e+00,2.148998676992452062e+01,7.361310006169091480e+00,3.085736222141556226e-02,2.279840092632917092e-01,-9.731747606248281057e-01,8.444896952844094358e+02
-7.869352085575554989e-01,2.089650395714797071e+01,7.342449785216529357e+00,-6.498382066537276847e-02,2.706955702028588928e-01,-9.604681209308898460e-01,8.487144191648069409e+02
-1.953462439182229171e-01,2.032966166998501478e+01,7.219881323507151727e+00,-1.600990514677406440e-01,3.103831126394206996e-01,-9.370318122174889908e-01,8.529391430452044460e+02
3.939526622117227594e-01,1.979016000839222400e+01,6.997039269566458941e+00,-2.534257750100862294e-01,3.466032771628669296e-01,-9.031276459175670013e-01,8.571638669256019512e+02
9.690094727080280634e-01,1.926795906465951802e+01,6.709057400632898016e+00,-3.439214150987678908e-01,3.789514385159379883e-01,-8.591343710288482649e-01,8.613885908059994563e+02
1.464916607123354808e+00,1.880174663355757758e+01,6.436787382390744661e+00,-4.305750208493387965e-01,4.070662256228627096e-01,-8.055434435072659216e-01,8.651793028177307860e+02
1.986760009455199372e+00,1.827034904046201902e+01,6.166248650860743474e+00,-4.447964658149277661e-01,4.147842292192255864e-01,-7.937935167144968274e-01,8.694040266981282912e+02
2.468491535322333341e+00,1.771222949296595672e+01,5.978284509660086954e+00,-4.588400429413167503e-01,4.223363677296849139e-01,-7.817261716708117092e-01,8.736287505785257963e+02
2.900584117546178398e+00,1.711254028025368967e+01,5.923874101736479325e+00,-4.727001377423111217e-01,4.297196219215564383e-01,-7.693462330464099219e-01,8.778534744589233014e+02
3.273206111731951751e+00,1.645662304817802735e+01,6.053989956593259336e+00,-4.863712090528769516e-01,4.369310400469785249e-01,-7.566586504075950570e-01,8.820781983393208066e+02
3.578779012636702284e+00,1.574187777591122561e+01,6.388877973191219972e+00,-4.998477912363518683e-01,4.439677390175606475e-01,-7.436684962377103636e-01,8.863029222197183117e+02
3.814849166961720162e+00,1.498956242150633500e+01,6.887338923446722383e+00,-5.131244963641982126e-01,4.508269055541670456e-01,-7.303809639140315113e-01,8.905276461001158168e+02
3.866425455658701882e+00,1.476005165158217736e+01,7.068427087537116904e+00,-5.261960163649366251e-01,4.575057973090132513e-01,-7.168013656367069331e-01,8.918004599719630505e+02
3.973399101955648938e+00,1.401045565412471738e+01,7.725304151868835234e+00,-6.465515566283951410e-01,4.333374503878306694e-01,-6.278437215688236206e-01,8.960251838523605556e+02
4.013198132530698459e+00,1.329993403421232934e+01,8.380227362395489266e+00,-7.520473481876612798e-01,3.992096797120128215e-01,-5.244563067680746427e-01,9.002499077327580608e+02
3.987885135333983921e+00,1.266157647182247281e+01,8.961265461236164853e+00,-8.402587799417255976e-01,3.559068465744201770e-01,-4.090152800238411324e-01,9.044746316131555659e+02
3.900163274838579497e+00,1.212843228513840366e+01,9.396490842069425753e+00,-9.091584866324705638e-01,3.044241817737194933e-01,-2.841738266206463859e-01,9.086993554935530710e+02
3.753375998605567698e+00,1.173350089328610757e+01,9.613983109587790565e+00,-9.571629427768673093e-01,2.459449125506113498e-01,-1.528011811662628450e-01,9.129240793739505762e+02
3.555676597955861773e+00,1.149260024956642745e+01,9.569748651419139662e+00,-9.831688564588445534e-01,1.818130690568372787e-01,-1.791668524190947326e-02,9.171488032543480813e+02
3.323744909028580885e+00,1.138712620465063807e+01,9.275638828041062212e+00,-9.865785266468668491e-01,1.135025952116457265e-01,1.173796048720655849e-01,9.213735271347455864e+02
3.109897288703717066e+00,1.138272573884997385e+01,8.837076703161120150e+00,-9.673135811942592532e-01,4.258347370672115051e-02,2.499781658555094987e-01,9.250397566458357232e+02
2.867396074454602761e+00,1.144403479354304309e+01,8.157605027635261408e+00,-9.849030049714418977e-01,-1.173470707425287723e-01,1.272546100806321301e-01,9.292644805262332284e+02
2.647207246566973371e+00,1.153630197455214734e+01,7.342365660461433130e+00,-9.621623095623599298e-01,-2.724724351855274951e-01,-6.797956792877905873e-04,9.334892044066307335e+02
2.467605753292542392e+00,1.162236957513975177e+01,6.431163488490255098e+00,-9.000226948808920380e-01,-4.164405080143143145e-01,-1.285863600254526229e-01,9.377139282870282386e+02
2.346135633605733073e+00,1.166472173139880120e+01,5.463808143427370645e+00,-8.010286700246284086e-01,-5.433560492637294903e-01,-2.512275333786259668e-01,9.419386521674257438e+02
2.295225483510352937e+00,1.164706081645509350e+01,4.481137578412832667e+00,-6.692338616571391618e-01,-6.480220859608931683e-01,-3.635813726233457777e-01,9.461633760478232489e+02
2.309181474979492332e+00,1.161298581492599169e+01,3.895150835792388300e+00,-5.100350298980890207e-01,-7.261527167110457537e-01,-4.610471779440637463e-01,9.487435166074565132e+02
2.405461234588617270e+00,1.155772591718431741e+01,2.994195716308108324e+00,-5.540292735275829106e-01,-6.548963721091033419e-01,-5.139652769126029641e-01,9.529682404878540183e+02
2.575892259840326659e+00,1.154630323213500098e+01,2.191546405158529609e+00,-5.925866501770967743e-01,-5.772133495121747337e-01,-5.618396667876319750e-01,9.571929643682515234e+02
2.821846750588278940e+00,1.162683117956360945e+01,1.531109721938993973e+00,-6.253287917261717288e-01,-4.938659719457803021e-01,-6.042005494797647591e-01,9.614176882486490285e+02
3.145669922546411534e+00,1.184739539654348306e+01,1.056785446577281906e+00,-6.519343948751022966e-01,-4.056721451623794272e-01,-6.406322310167490430e-01,9.656424121290465337e+02
3.528375105786720756e+00,1.222763174618334681e+01,7.932750574863078885e-01,-6.721423736148232075e-01,-3.134973322191941802e-01,-6.707772001805686335e-01,9.698671360094440388e+02
3.749056822185580895e+00,1.251919869387043249e+01,7.569393080536614971e-01,-6.857544210005713792e-01,-2.182460615872996446e-01,-6.943396364019560618e-01,9.722779632674273671e+02
4.072168718554096678e+00,1.311064339836545400e+01,8.672748175429672024e-01,-7.727066939363598230e-01,-1.705165604610473506e-01,-6.114298551379077074e-01,9.765026871478248722e+02
4.254688284853163083e+00,1.372612335473702316e+01,1.123078516043473085e+00,-8.467448102034577095e-01,-1.199372473420634577e-01,-5.183013439043997472e-01,9.807274110282223774e+02
4.208046717726920072e+00,1.430477237333331963e+01,1.491450430209671385e+00,-9.066313954031420819e-01,-6.735344090096814784e-02,-4.165105363225424240e-01,9.849521349086198825e+02
3.882536335541681982e+00,1.480760575485894748e+01,1.938108077834943765e+00,-9.513655798612120629e-01,-1.364395927546130892e-02,-3.077586324215451641e-01,9.891768587890173876e+02
3.728323587769140524e+00,1.492011537556070877e+01,2.069331037404042561e+00,-9.801997244730402681e-01,4.029356583545185694e-02,-1.938631700304866978e-01,9.902990691568544435e+02
2.936761031353281481e+00,1.527864362920824171e+01,2.586378827141807335e+00,-9.408464622036303293e-01,-2.517080457140113414e-01,-2.268237074941885367e-01,9.945237930372519486e+02
1.984270960069325129e+00,1.559150670768732283e+01,3.096046827787526379e+00,-8.187925557924713438e-01,-5.215845625302804045e-01,-2.398463981557285851e-01,9.987485169176494537e+02
9.413333768297404980e-01,1.587811599799637108e+01,3.559915359034972138e+00,-6.247665217444411390e-01,-7.456137071740662758e-01,-2.317865245882821390e-01,1.002973240798046959e+03
-1.212231335442907065e-01,1.615646959613770761e+01,3.939567005370678388e+00,-3.758233200290980180e-01,-9.041031877815605133e-01,-2.033525460003853813e-01,1.007197964678444464e+03
-1.144074573958050012e+00,1.643165843132237924e+01,4.212419323702095930e+00,-9.384519387803515189e-02,-9.831217195963608546e-01,-1.570438284158053865e-01,1.011422688558841969e+03
-2.091559118989787525e+00,1.668468886678947882e+01,4.387556767339749975e+00,1.963818496605372332e-01,-9.757236094728365394e-01,-9.693093954562377601e-02,1.015647412439239474e+03
-2.836666925000014494e+00,1.686022499823861054e+01,4.476672953449465808e+00,4.693467913943843439e-01,-8.825592457883641995e-01,-2.829782821367409981e-02,1.019352225004376919e+03
-3.567144552879187192e+00,1.697788176163779283e+01,4.528170077822524675e+00,6.335665679277721063e-01,-7.468765743133667367e-01,-2.019078669758375688e-01,1.023576948884774424e+03
-4.156707883708905982e+00,1.698248575312859643e+01,4.553654866221207520e+00,7.499403401273668779e-01,-5.547908791668829664e-01,-3.602701301015885926e-01,1.027801672765172043e+03
-4.583708396706876798e+00,1.684160547687236686e+01,4.578054624591471722e+00,8.096797241222046804e-01,-3.208081834290031908e-01,-4.914253288047609747e-01,1.032026396645569548e+03
-4.827105250917685275e+00,1.652236863400856492e+01,4.626296709791676953e+00,8.082732823223821583e-01,-6.259851809514663246e-02,-5.854688092602183813e-01,1.036251120525967053e+03
-4.883383576293915063e+00,1.601015840696833692e+01,4.714572736212700121e+00,7.458272253994210343e-01,2.003384947785732673e-01,-6.352985419181741422e-01,1.040475844406364558e+03
-4.807546342406437745e+00,1.551058372307508115e+01,4.807641757234965674e+00,6.270573925343241317e-01,4.481462308859366916e-01,-6.371514593966842721e-01,1.043555864160539841e+03
-4.583862550372097999e+00,1.468852317951985142e+01,4.966024155799591888e+00,6.032512807250217657e-01,3.828468568703285446e-01,-6.996528971480020509e-01,1.047780588040937346e+03
-4.284160111273873639e+00,1.376937593596982268e+01,5.145841678704577760e+00,5.741744552446716998e-01,3.142024900643565211e-01,-7.560413283554242581e-01,1.052005311921334851e+03
-3.953655022955016918e+00,1.279688114066692073e+01,5.337075971423368870e+00,5.400809656192546715e-01,2.428128852852320385e-01,-8.058240833549737969e-01,1.056230035801732356e+03
-3.636678253611622669e+00,1.181566633876556338e+01,5.529708111246067759e+00,5.012686912131653072e-01,1.693017816927498420e-01,-8.485662059761357456e-01,1.060454759682129861e+03
-3.313583509702790142e+00,1.087965998465458917e+01,5.709032365144117271e+00,4.580767388195347567e-01,9.431145362509189833e-02,-8.838942533284872560e-01,1.064679483562527366e+03
-2.904569588806179326e+00,1.003027984247099269e+01,5.860512376402794210e+00,4.108824801650438618e-01,1.849709955319179394e-02,-9.114995583108760346e-01,1.068904207442924871e+03
-2.721628359773169858e+00,9.758561028513879521e+00,5.904037439537945353e+00,3.600982551850379632e-01,-5.747888187217985168e-02,-9.311409263643010137e-01,1.070406437877591088e+03
-2.140783491434367303e+00,9.054048975753268280e+00,6.003744376749321709e+00,3.428156483557129874e-01,1.676768796977168852e-01,-9.243159066345948416e-01,1.074631161757988593e+03
-1.543272174301901112e+00,8.376797907757957518e+00,6.088221398818347119e+00,3.080355641304849956e-01,3.842743278288465736e-01,-8.703133528810035324e-01,1.078855885638386098e+03
-9.882403524668496031e-01,7.691311294586671288e+00,6.166876285061222873e+00,2.575331969841656021e-01,5.812582202580940383e-01,-7.718895865562810377e-01,1.083080609518783604e+03
-5.355365063092595301e-01,6.963279506458922796e+00,6.249117099214457127e+00,1.938862146597581382e-01,7.485744048346395507e-01,-6.340682109930667609e-01,1.087305333399181109e+03
-2.231380411465481439e-01,6.173500630973755676e+00,6.341399935612107797e+00,1.203431915038192385e-01,8.776829884447717722e-01,-4.638837010005357753e-01,1.091530057279578614e+03
-4.420875984358267619e-02,5.331199284108148362e+00,6.444276811458506060e+00,4.065779877067680903e-02,9.619942151705315192e-01,-2.700223571821772084e-01,1.095754781159976119e+03
-5.985714322447990669e-03,4.880917384879269960e+00,6.501623624890529030e+00,-4.110278469267704404e-02,9.972048071644695755e-01,-6.237895205324585357e-02,1.097930474787374806e+03
-1.381314608205242225e-02,3.991601950526935561e+00,6.619638667336733562e+00,-4.677680636898777500e-02,9.780386207716190716e-01,-2.031019120187109173e-01,1.102155198667772311e+03
-7.986710795572649069e-02,3.106478163068229215e+00,6.742210162095864767e+00,-5.150581784655654943e-02,9.391135853780510079e-01,-3.397216868070226381e-01,1.106379922548169816e+03
-1.734514212157215463e-01,2.246871426949526906e+00,6.866936915850184953e+00,-5.519428154574872181e-02,8.812160882824363606e-01,-4.694782178520772176e-01,1.110604646428567321e+03
-2.634590066436114375e-01,1.433492972580788338e+00,6.991417624487937132e+00,-5.776768147386854291e-02,8.055158051030252286e-01,-5.897501019135763523e-01,1.114829370308964826e+03
-3.183764771722938924e-01,6.864337554282951004e-01,7.113250991871223228e+00,-5.917402857460371535e-02,7.135420695393325241e-01,-6.981075485485419563e-01,1.119054094189362331e+03
-3.204684484815358836e-01,1.551565869173186264e-02,7.223105655294031813e+00,-5.938491100957860730e-02,6.071529777467826738e-01,-7.923614667297997904e-01,1.123278818069759836e+03
-2.802175220292756896e-01,-5.889789154364258872e-01,7.297790453921805032e+00,-5.839606815895697495e-02,4.884978513502548081e-01,-8.706076891747804858e-01,1.127503541950157341e+03
-2.309452203564782147e-01,-1.051788380482762131e+00,7.306733510519097585e+00,-5.622747674316614513e-02,3.599738172095068300e-01,-9.312654410977971864e-01,1.131018260572192730e+03
-1.758440673625477901e-01,-1.576930052067133214e+00,7.225962080300633694e+00,-3.372816899389357442e-02,3.074869909368042609e-01,-9.509532906591607881e-01,1.135242984452590235e+03
-1.498162690217202386e-01,-2.088298337538662341e+00,7.024733699873189074e+00,-1.110580181751923308e-02,2.538782467090922590e-01,-9.671713896763740603e-01,1.139467708332987741e+03
-1.788001976086270317e-01,-2.603496631939657746e+00,6.672942074828222658e+00,1.155708803035630783e-02,1.993431739837931149e-01,-9.798605679874988761e-01,1.143692432213385246e+03
-2.463545936970245043e-01,-2.946506171079079195e+00,6.341138122499651253e+00,3.417781594924506477e-02,1.440807412755090722e-01,-9.889745279250063970e-01,1.146432912737599963e+03
-4.382699674883283603e-01,-3.481468557366236283e+00,5.708216607719213798e+00,7.365393057411084854e-02,2.091961203037080164e-01,-9.750949091032534710e-01,1.150657636617997468e+03
-7.285387269797684029e-01,-4.003836758299645915e+00,5.026192757383573628e+00,1.126887732746309767e-01,2.730581842299900086e-01,-9.553734706392466025e-01,1.154882360498394974e+03
-1.127038281241225848e+00,-4.493150931368925072e+00,4.374868314838926686e+00,1.510484894534662170e-01,3.352843408579704310e-01,-9.299283653097886182e-01,1.159107084378792479e+03
-1.643264465029380617e+00,-4.928754898645038907e+00,3.834043500994498643e+00,1.885032691958758999e-01,3.955017985032724948e-01,-8.989120340064337134e-01,1.163331808259189984e+03
-2.264880510058133289e+00,-5.298879864732415790e+00,3.458461960030712490e+00,2.248287237442522235e-01,4.533497988686355229e-01,-8.625102926015429938e-01,1.167556532139587489e+03
-2.474021813000727210e+00,-5.394077430571707410e+00,3.395528845816053742e+00,2.598072295149501665e-01,5.084817778735839511e-01,-8.209412190043480217e-01,1.168850675330724926e+03
-3.167657261898282783e+00,-5.656250465750204626e+00,3.346879155249112614e+00,3.779849025921303562e-01,4.399211174830817139e-01,-8.146132970953035013e-01,1.173075399211122431e+03
-3.810945930972414075e+00,-5.882129853263691643e+00,3.441417979863193199e+00,4.890917393103201283e-01,3.631310420017008211e-01,-7.930467305732523675e-01,1.177300123091519936e+03
-4.327730674563026625e+00,-6.090796617179846884e+00,3.658706895688927485e+00,5.910493269771505132e-01,2.795480250550883561e-01,-7.566449595202540124e-01,1.181524846971917441e+03
-4.642216572656084672e+00,-6.302846632644580893e+00,3.978301401558139716e+00,6.819504001847600527e-01,1.907356084679979746e-01,-7.060889316154055351e-01,1.185749570852314946e+03
-4.716647852785819772e+00,-6.510317648483138875e+00,4.321382351339953409e+00,7.600945158293339610e-01,9.835515659851755410e-02,-6.423243652361040334e-01,1.189435480108141292e+03
-4.647628347669593651e+00,-6.797470609638256001e+00,4.741298189208356106e+00,7.551992747497038305e-01,1.113058840354730211e-01,-6.459745006987462901e-01,1.193660203988538797e+03
-4.556720001011901999e+00,-7.157467560749917190e+00,5.128894228920930942e+00,7.501492125671233024e-01,1.242337896698381128e-01,-6.494922049921827423e-01,1.197884927868936302e+03
-4.550173523783313634e+00,-7.341793193705485443e+00,5.257991272671460159e+00,7.449453623375146272e-01,1.371362289122104727e-01,-6.528767585138530727e-01,1.199635257361118420e+03
-4.629713329298135172e+00,-7.857230263619097599e+00,5.483188231018378822e+00,5.833125070001113910e-01,-9.175413157942917397e-02,-8.070475193665921365e-01,1.203859981241515925e+03
-4.780538572031210798e+00,-8.407023325781720402e+00,5.630063510318761288e+00,3.620156850512164515e-01,-3.112594050642165100e-01,-8.786695775639352668e-01,1.208084705121913430e+03
-4.911120953251554511e+00,-8.779547133225314326e+00,5.683612682879433997e+00,1.036901257138992394e-01,-4.989276091551412828e-01,-8.604171073684339088e-01,1.210967255010378949e+03
-5.079426946035397350e+00,-9.319978866300207443e+00,5.699657971677320134e+00,2.453142442479534086e-02,-4.200843379373583319e-01,-9.071523346329920523e-01,1.215191978890776454e+03
-5.094999494075573843e+00,-9.652769115570508873e+00,5.674004080466626299e+00,-5.498707045226614715e-02,-3.350798675876691113e-01,-9.405827472448450299e-01,1.217587369489866660e+03
-4.902197731575358652e+00,-1.032630199205759247e+01,5.560269917843552179e+00,1.823219073548170976e-01,-1.910085044870994675e-01,-9.645063365849769754e-01,1.221812093370264165e+03
-4.506773876310435689e+00,-1.106988313488847453e+01,5.357941054476588860e+00,4.054745441411443108e-01,-3.210638452618443800e-02,-9.135412273820593398e-01,1.226036817250661670e+03
-3.964488113274149850e+00,-1.184241361139906346e+01,5.040855307948310937e+00,5.971442835583891107e-01,1.292886255269247164e-01,-7.916445893981246540e-01,1.230261541131059175e+03
-3.418946277377839849e+00,-1.249030364953628869e+01,4.659830417116076262e+00,7.424490240755153847e-01,2.806450988099358779e-01,-6.082810001664269439e-01,1.233855742262691592e+03
-2.714593798729304286e+00,-1.320448503763834402e+01,4.085681188046525136e+00,7.221754667233728497e-01,5.162503007548860934e-01,-4.603761747013960792e-01,1.238080466143089097e+03
-1.978708167775844684e+00,-1.383455859268019417e+01,3.400871191480347999e+00,6.457188966351040671e-01,7.116929644525977761e-01,-2.766554370978593358e-01,1.242305190023486603e+03
-1.242848947542307014e+00,-1.434120743061158798e+01,2.621754770957297254e+00,5.190273259357884861e-01,8.517681661376715896e-01,-7.141166630774434254e-02,1.246529913903884108e+03
-5.368089898668790827e-01,-1.469180320741239854e+01,1.773066910334277102e+00,3.519569583762988674e-01,9.255783874968579461e-01,1.393877614698934841e-01,1.250754637784281613e+03
1.126363100013618862e-01,-1.490007779834241042e+01,8.984250841539179744e-01,1.575054091459996419e-01,9.273813800247571182e-01,3.393432216381130351e-01,1.254979361664679118e+03
6.920978662674255322e-01,-1.502389981795302809e+01,4.253540305833947849e-02,-4.919951239871740017e-02,8.570369239912234427e-01,5.128987413656491690e-01,1.259204085545076623e+03
1.211509835079489061e+00,-1.509871126482331860e+01,-7.708554927465395279e-01,-2.520767585577744496e-01,7.200177055921141989e-01,6.465522495734679076e-01,1.263428809425474128e+03
1.399488329153206978e+00,-1.511105449091375341e+01,-1.070054759546796408e+00,-4.353431344686677362e-01,5.269834870041623098e-01,7.299059937389530406e-01,1.265089389682868614e+03
1.851482810251667166e+00,-1.510507185403458585e+01,-1.770569874804595045e+00,-4.280780653206063824e-01,5.263265125659101207e-01,7.346615357671301139e-01,1.269314113563266119e+03
2.294658905762033907e+00,-1.507079026439517300e+01,-2.399392357692219591e+00,-4.207805370686393820e-01,5.256296278791406928e-01,7.393613689490075025e-01,1.273538837443663624e+03
2.750002412616940894e+00,-1.501765790364649789e+01,-2.944328799615070213e+00,-4.134511026235727083e-01,5.248928857539904014e-01,7.440051372124840690e-01,1.277763561324061129e+03
3.238310498573603979e+00,-1.495553764140754716e+01,-3.393189942162963657e+00,-4.060903173127777821e-01,5.241163420198040601e-01,7.485924887326693700e-01,1.281988285204458634e+03
3.780188624058231639e+00,-1.489470420548932950e+01,-3.733791280041798721e+00,-3.986987388328291915e-01,5.233000555140429055e-01,7.531230759487127502e-01,1.286213009084856139e+03
4.385830202174632042e+00,-1.484392746699874444e+01,-3.962202882327052755e+00,-3.912769272076678240e-01,5.224440880778689067e-01,7.575965555898744874e-01,1.290437732965253645e+03
5.044846517951894427e+00,-1.480828404825695976e+01,-4.090998805251790493e+00,-3.838254447465924701e-01,5.215485045515095841e-01,7.620125887012805244e-01,1.294662456845651150e+03
5.355891542112657611e+00,-1.479940102925761813e+01,-4.112412013923123055e+00,-3.763448560020845601e-01,5.206133727694026714e-01,7.663708406693638953e-01,1.296555730976829182e+03
6.070014243468057735e+00,-1.479732141395182587e+01,-4.094264376010510631e+00,-3.494079674077607556e-01,5.400417403209513134e-01,7.656807370006548652e-01,1.300780454857226687e+03
6.786742691548168338e+00,-1.481685826240054737e+01,-4.027499295390606804e+00,-3.220855009086277532e-01,5.588741481666976707e-01,7.641456776075539192e-01,1.305005178737624192e+03
7.485292682117437479e+00,-1.485988935315133652e+01,-3.932953666860590669e+00,-2.944076036484377101e-01,5.770898173447306378e-01,7.617673566266296437e-01,1.309229902618021697e+03
8.139359473564352854e+00,-1.492889710681801674e+01,-3.823226806582276982e+00,-2.664048147528484956e-01,5.946686491027639576e-01,7.585483982196126185e-01,1.313454626498419202e+03
8.401784457595557143e+00,-1.497267983463593666e+01,-3.765715880992514641e+00,-2.381080316947374043e-01,6.115912470407736112e-01,7.544923536895447036e-01,1.315368865982916532e+03
8.874860588739494460e+00,-1.509999358149246085e+01,-3.612786300904703651e+00,-2.013530518468144848e-01,6.223646039353633030e-01,7.563843257697447919e-01,1.319593589863314037e+03
9.203594083875191956e+00,-1.526258130408235303e+01,-3.423192877259035427e+00,-1.643019762033583742e-01,6.322227238868215471e-01,7.571639769605534864e-01,1.323818313743711542e+03
9.344921796949458681e+00,-1.546339620831369821e+01,-3.184822484015812361e+00,-1.270092820713607795e-01,6.411511125744511208e-01,7.568301613321570809e-01,1.328043037624109047e+03
9.341926459301340913e+00,-1.548616602746148629e+01,-3.157400058671054666e+00,-8.952980183636022327e-02,6.491366419939337273e-01,7.553833692856932736e-01,1.328446470627186045e+03
9.169393400325350996e+00,-1.574059465742570119e+01,-2.807002042512442230e+00,-1.026960749425396835e-01,6.917618292937944835e-01,7.147846442917792364e-01,1.332671194507583550e+03
8.922609945538075849e+00,-1.595476853203317980e+01,-2.353744397792818521e+00,-1.154886836514556203e-01,7.318700186909902206e-01,6.715851693430346936e-01,1.336895918387981055e+03
8.872017764173239840e+00,-1.598345344261773704e+01,-2.211753608544754890e+00,-1.278610874069815717e-01,7.693152932457701931e-01,6.259421074641248195e-01,1.337925680324524819e+03
8.768090244762147378e+00,-1.598869997860269088e+01,-1.483979653747096616e+00,-1.185040080438910515e-01,8.034061201089437443e-01,5.835181284610977404e-01,1.342150404204922324e+03
8.811192054259693762e+00,-1.590572703355873507e+01,-5.988418451862148606e-01,-1.087855485724320420e-01,8.350469204491746122e-01,5.393146994696086383e-01,1.346375128085319830e+03
9.041753940666572120e+00,-1.577384997563921232e+01,4.505121262599395826e-01,-9.873534354903108767e-02,8.641412132420788206e-01,4.934666103238380397e-01,1.350599851965717335e+03
9.046722944222910456e+00,-1.577164506161901159e+01,4.672138695143807086e-01,-8.838403887042159401e-02,8.906002806290945761e-01,4.461136646749410684e-01,1.350661896177497738e+03
9.483109396020120485e+00,-1.560598773239980730e+01,1.668541792604285368e+00,-2.785699782424970183e-01,8.982775922870260832e-01,3.398442796592866522e-01,1.354886620057895243e+03
1.006951751674755791e+01,-1.540346220136850164e+01,2.940192762268112325e+00,-4.555174940669051709e-01,8.632661280325943931e-01,2.174244806606979441e-01,1.359111343938292748e+03
1.073024088665652265e+01,-1.513520246736535491e+01,4.182883964382466679e+00,-6.108175084802441868e-01,7.872297135518762090e-01,8.467201092940727924e-02,1.363336067818690253e+03
1.139017897324368711e+01,-1.477083081385249663e+01,5.297334016288612446e+00,-7.370896886370256196e-01,6.737818110978149866e-01,-5.210433704078470951e-02,1.367560791699087758e+03
1.197484843025566725e+01,-1.427846696089406642e+01,6.184267879623281949e+00,-8.283331913588084516e-01,5.283138012978165765e-01,-1.864045370996439688e-01,1.371785515579485264e+03
1.243161922333787750e+01,-1.364678361945935237e+01,6.784753091766124733e+00,-8.802118494323947218e-01,3.577387667102094881e-01,-3.118462360063115058e-01,1.376010239459882769e+03
1.275036827455576827e+01,-1.290762449312190263e+01,7.120534000808993014e+00,-8.902602430534132250e-01,1.701629542461091105e-01,-4.224680681906196056e-01,1.380234963340280274e+03
1.294138677845419672e+01,-1.211480062154095627e+01,7.253699370174230054e+00,-8.580008615855174714e-01,-2.549946727216323081e-02,-5.130129615200158533e-01,1.384459687220677779e+03
1.300520972057276836e+01,-1.140942679186093933e+01,7.245694637720593079e+00,-7.849667886685826046e-01,-2.199500424468213977e-01,-5.791779687758821238e-01,1.388212437010048006e+03
1.296557513063175016e+01,-1.066516681665240185e+01,7.153142843801870043e+00,-7.389977406983567754e-01,-2.509909926282598014e-01,-6.252070543914471923e-01,1.392437160890445512e+03
1.282171674801509198e+01,-1.002352980128246251e+01,7.037351311393197584e+00,-6.891893269129719668e-01,-2.807279438645886582e-01,-6.679879439043555633e-01,1.396661884770843017e+03
1.257963489779106325e+01,-9.538967908445458832e+00,6.960430827306210766e+00,-6.358003187258502997e-01,-3.090064042070236883e-01,-7.072983789504807550e-01,1.400886608651240522e+03
1.224422347181986837e+01,-9.266057780773889974e+00,6.984490250254953736e+00,-5.791080887674455724e-01,-3.356794588122133383e-01,-7.429341306296713965e-01,1.405111332531638027e+03
1.182066690352025873e+01,-9.230307104260788265e+00,7.144087939574567336e+00,-5.194071700752910248e-01,-3.606085330606754735e-01,-7.747100603173564526e-01,1.409336056412035532e+03
1.131660916512509729e+01,-9.399001550092057400e+00,7.418684547395659301e+00,-4.570077261855882145e-01,-3.836641123691192923e-01,-8.024610813523869179e-01,1.413560780292433037e+03
1.093708712656743387e+01,-9.608543031211628005e+00,7.646657319735366443e+00,-3.922339400594701542e-01,-4.047264149632612829e-01,-8.260430166127655793e-01,1.416348523323084919e+03
1.029971062989425157e+01,-1.002382731228358281e+01,8.023115923945770334e+00,-2.842084071343231599e-01,-3.868328715844155385e-01,-8.772593178622232202e-01,1.420573247203482424e+03
9.610291741150774669e+00,-1.047971886379237993e+01,8.386652383929593668e+00,-1.720297993700131423e-01,-3.632866074257552480e-01,-9.156563705856477497e-01,1.424797971083879929e+03
8.881893825634804784e+00,-1.091514557789728634e+01,8.689172168342400582e+00,-5.733736037360590704e-02,-3.344317009820230724e-01,-9.406730911873757428e-01,1.429022694964277434e+03
8.128780025615757410e+00,-1.126930649202388679e+01,8.882583760516755689e+00,5.819293387684635471e-02,-3.006898038073261836e-01,-9.519439186913780659e-01,1.433247418844674939e+03
7.366411190762733874e+00,-1.148168968102985055e+01,8.918801038401756642e+00,1.728728648572139537e-01,-2.625539790954746766e-01,-9.493041560309052329e-01,1.437472142725072445e+03
6.611610658813833474e+00,-1.151303921154504373e+01,8.773549839495252911e+00,2.850266401029412089e-01,-2.205814968913426821e-01,-9.327923765024502822e-01,1.441696866605469950e+03
5.882174731493350350e+00,-1.136632421921791014e+01,8.470173347381109608e+00,3.930153802568138732e-01,-1.753856911809768548e-01,-9.026498602507700975e-01,1.445921590485867455e+03
5.653284609270815331e+00,-1.126623246817425894e+01,8.330906937196926876e+00,4.952610668707320141e-01,-1.276269978003382599e-01,-8.593170689998879119e-01,1.447321010137442954e+03
5.012653130643927923e+00,-1.082498916812976297e+01,7.824806852107215605e+00,3.629020439157097377e-01,-2.048510801510918800e-01,-9.090303303428289849e-01,1.451545734017840459e+03
4.439020959496225771e+00,-1.026302615604521407e+01,7.270521813301358272e+00,2.211242993490700193e-01,-2.767584658978334278e-01,-9.351506807952406630e-01,1.455770457898237964e+03
3.949046862742355835e+00,-9.605379256770634200e+00,6.715217798070661104e+00,7.360752150422587847e-02,-3.414828788162224682e-01,-9.370002007758531093e-01,1.459995181778635470e+03
3.558909858107667912e+00,-8.877402810533777000e+00,6.206060829687106484e+00,-7.581965362077802695e-02,-3.973444694799656562e-01,-9.145308921513470857e-01,1.464219905659032975e+03
3.284306900964257370e+00,-8.104762532200863845e+00,5.790214643422820551e+00,-2.232790094279634707e-01,-4.428934131012498554e-01,-8.683259230156733510e-01,1.468444629539430480e+03
3.128093513591541530e+00,-7.309058855138015787e+00,5.498891288394590404e+00,-3.649434021995973110e-01,-4.769475374347895702e-01,-7.995844919246927196e-01,1.472669353419827985e+03
3.068039581009378569e+00,-6.503121941821379259e+00,5.331402518825076875e+00,-4.971360889842132424e-01,-4.986230043263646938e-01,-7.100907044783554278e-01,1.476894077300225490e+03
3.069627267829254436e+00,-5.778788141282747759e+00,5.277724663481937917e+00,-6.164261522952380057e-01,-5.073572487074364812e-01,-6.021672699100842907e-01,1.480679423907843557e+03
3.100126145713747672e+00,-4.974809998694055935e+00,5.309615551225276064e+00,-5.840512416758649739e-01,-4.896736056180333030e-01,-6.473808052882414898e-01,1.484904147788241062e+03
3.125676767915659404e+00,-4.181695607015865512e+00,5.417133158834929851e+00,-5.496875753759591365e-01,-4.703225707338537509e-01,-6.903899252838886502e-01,1.489128871668638567e+03
3.111114588268002912e+00,-3.405356560817232481e+00,5.583622678658462846e+00,-5.134521639217376476e-01,-4.493700358503280867e-01,-7.310481832560253856e-01,1.493353595549036072e+03
3.021154216999606401e+00,-2.651003191529244241e+00,5.792426381115309830e+00,-4.754683906382167757e-01,-4.268873454847978421e-01,-7.692171369430244043e-01,1.497578319429433577e+03
2.832171122355375825e+00,-1.920799656437387704e+00,6.026739814614035851e+00,-4.358655916260287255e-01,-4.029510540005095121e-01,-8.047668197150460445e-01,1.501803043309831082e+03
2.544045777126560104e+00,-1.211832681633301823e+00,6.269468012705175397e+00,-3.947786154893762611e-01,-3.776426650084237502e-01,-8.375761829919531332e-01,1.506027767190228587e+03
2.380629263290992004e+00,-9.130766825880730631e-01,6.371677351296491487e+00,-3.523473643092102092e-01,-3.510483539309861567e-01,-8.675335083235744538e-01,1.507853526682818256e+03
1.920864484842610187e+00,-2.356712651269258496e-01,6.589620338495377538e+00,-2.584563219758586605e-01,-3.708493648237142781e-01,-8.920028465428065934e-01,1.512078250563215761e+03
1.390459059737241487e+00,4.331776399449254189e-01,6.774048774145405183e+00,-1.620307744599659983e-01,-3.870136852541185557e-01,-9.077248677622355988e-01,1.516302974443613266e+03
8.013064675687675553e-01,1.098072401362019779e+00,6.907725354479877566e+00,-6.401630287081561121e-02,-3.993828040441372296e-01,-9.145454000762949232e-01,1.520527698324010771e+03
1.653741344917193656e-01,1.763376501170609068e+00,6.973415283374620799e+00,3.462593129223823230e-02,-4.078354265504747778e-01,-9.123975612268360180e-01,1.524752422204408276e+03
-5.052983580088364901e-01,2.433213472167624847e+00,6.953887125243313427e+00,1.329286110288041001e-01,-4.122886639665608310e-01,-9.013024142510280834e-01,1.528977146084805781e+03
-1.198275447044482078e+00,3.109239531247230293e+00,6.839397879528563706e+00,2.299277490386117950e-01,-4.126988460784522528e-01,-8.813687608870528489e-01,1.533201869965203286e+03
-1.900460653096377461e+00,3.788407813518792633e+00,6.635177684630735762e+00,3.246721402795500477e-01,-4.090619495122828075e-01,-8.527920747681710933e-01,1.537426593845600792e+03
-2.259391447536143627e+00,4.134279185249322808e+00,6.490689675919230517e+00,4.162326892470302186e-01,-4.014136372736983871e-01,-8.158525848537853120e-01,1.539588861081658251e+03
-2.949791176317753116e+00,4.802335241999887927e+00,6.139912959872019904e+00,5.011571305081776728e-01,-4.136197179138244584e-01,-7.601041109571776699e-01,1.543813584962055756e+03
-3.616153139573399677e+00,5.459119516531183436e+00,5.731360654216725692e+00,5.808349180487625274e-01,-4.214955872890731037e-01,-6.963980671078364715e-01,1.548038308842453262e+03
-4.245420772996113534e+00,6.098431699461714928e+00,5.277760791345851743e+00,6.544319037131429706e-01,-4.249587939166511452e-01,-6.254013966052337503e-01,1.552263032722850767e+03
-4.824654436406403235e+00,6.713809878184622271e+00,4.791843629618418809e+00,7.211775996820716239e-01,-4.239730823747689392e-01,-5.478573675136367838e-01,1.556487756603248272e+03
-5.341033373659301198e+00,7.298532278754096936e+00,4.286341023597007194e+00,7.803732443670601260e-01,-4.185487727571964300e-01,-4.645777914408124043e-01,1.560712480483645777e+03
-5.781857662523023578e+00,7.845619030480327716e+00,3.773985794225682699e+00,8.313991174357582281e-01,-4.087426525744244366e-01,-3.764345248433061397e-01,1.564937204364043282e+03
-6.137160631367472696e+00,8.348764151370023257e+00,3.267107878231815032e+00,8.737210274205426952e-01,-3.946573822385576746e-01,-2.843503418114725623e-01,1.569161928244440787e+03
-6.402296756452710014e+00,8.803336911204292292e+00,2.777230497471453230e+00,9.068959040179850328e-01,-3.764404203562039530e-01,-1.892892738585065793e-01,1.573386652124838292e+03
-6.575295686019940966e+00,9.205557059108523177e+00,2.315472809677534549e+00,9.305764365506936642e-01,-3.542824800756779746e-01,-9.224651781168910492e-02,1.577611376005235797e+03
-6.639385315628986817e+00,9.484561309585703981e+00,1.974389842985359023e+00,9.445147100379414074e-01,-3.284155326396036578e-01,5.761982577100323820e-03,1.581017114993511768e+03
-6.623739076292078920e+00,9.770990910679790531e+00,1.599977682391348965e+00,9.584375168414692725e-01,-2.843484042764553021e-01,2.327039515947833953e-02,1.585241838873909273e+03
-6.510824202309954067e+00,9.994053882436649161e+00,1.284877687025149484e+00,9.700195239865545549e-01,-2.395868197285641599e-01,4.072197063097890424e-02,1.589466562754306779e+03
-6.298874296215691615e+00,1.014980702130127455e+01,1.040200567044334834e+00,9.792324474412044122e-01,-1.942400936431331882e-01,5.807408970109312341e-02,1.593691286634704284e+03
-5.988694202886791551e+00,1.023666070557768393e+01,8.922969963809168625e-01,9.860537877185645561e-01,-1.484189693394333542e-01,7.528437594019629642e-02,1.597916010515101789e+03
-5.940752889316175178e+00,1.023931443012478226e+01,8.889363605639410970e-01,9.904668847825235378e-01,-1.022353485667137768e-01,9.231079918904123993e-02,1.598433194824553539e+03
-5.472531978208468040e+00,1.019886729451985019e+01,1.022382978659909014e+00,9.966553667993305332e-01,7.781468501012993311e-02,-2.491896115496441619e-02,1.602657918704951044e+03
-4.942085097296113005e+00,1.010242393867627264e+01,1.375963760360728205e+00,9.567991498676741147e-01,2.542697335573280149e-01,-1.409974801438776404e-01,1.606725656537611030e+03
