-9.590257030781906167e+00,1.052630938130926452e+01,-8.386402357313051809e-03,9.223006708738216153e-01,-3.057237175163864396e-01,2.364159069399176805e-01,8.813919053225350808e+01
-9.016120120382959513e+00,1.174783575298480898e+01,-9.159015694543699571e-01,8.702706919094336246e-01,-4.080562458936659587e-01,2.758931369044920756e-01,9.287871447089520416e+01
-8.368252384978237757e+00,1.303779251206612244e+01,-1.914126574378413270e+00,8.054150426573124522e-01,-5.043750470542259778e-01,3.113043863656442811e-01,9.761823840953690024e+01
-7.782492726774427716e+00,1.424222880812535941e+01,-2.902330467950978932e+00,7.286895268592309405e-01,-5.932606147937178331e-01,3.421277778551852777e-01,1.023577623481785963e+02
-7.350410474652614212e+00,1.525800164527725045e+01,-3.806505856010215627e+00,7.368022896298359603e-01,-5.266899622211257403e-01,4.239316804528471261e-01,1.070972862868202924e+02
-7.070076993933019693e+00,1.607922786369635659e+01,-4.606096440899448474e+00,7.366707000906902447e-01,-4.542259951858458877e-01,5.009920407804142606e-01,1.118368102254619885e+02
-6.938976485393910210e+00,1.654297059399682723e+01,-5.085582807093860680e+00,7.282962348008733544e-01,-3.766795393964278982e-01,5.724466079688974585e-01,1.149588926796404991e+02
-6.778947283691078241e+00,1.716314414428090274e+01,-5.746901030217946627e+00,7.117726013725617085e-01,-2.949182883921979692e-01,6.374958565413267886e-01,1.196984166182821951e+02
-6.635787476024379572e+00,1.769639288614709471e+01,-6.320059630849436338e+00,6.872846896911994907e-01,-2.098570949495617011e-01,6.954119318904685709e-01,1.244379405569238912e+02
-6.457274480080245738e+00,1.818119773641914350e+01,-6.811246517772956643e+00,6.551065030530325295e-01,-1.224477349785096369e-01,7.455467938744434475e-01,1.291774644955656015e+02
-6.190314126826551799e+00,1.865487831158678844e+01,-7.226654699502598866e+00,6.155980923750413725e-01,-3.366825839130695858e-02,7.873394674733549259e-01,1.339169884342072976e+02
-5.780950405787748103e+00,1.915357846148693710e+01,-7.572481898055427152e+00,5.692015277677465734e-01,5.548795396498383548e-02,8.203223194279380959e-01,1.386565123728489937e+02
-5.200303664412019522e+00,1.969529801186196138e+01,-7.857612903818910866e+00,5.054469911244964253e-01,5.129307995167543821e-02,8.613305748152356722e-01,1.433960363114906897e+02
-4.471023689884440877e+00,2.026368573250280392e+01,-8.096301763114956529e+00,4.387791017184502484e-01,4.680255684199433747e-02,8.973741809120365787e-01,1.481355602501323858e+02
-4.180906515334759099e+00,2.047143948420263371e+01,-8.175517521369256357e+00,3.695821249644863915e-01,4.204226747196570385e-02,9.282453881662462436e-01,1.498583834276345783e+02
-3.347684748035860025e+00,2.102466083473000324e+01,-8.384227751421507335e+00,2.982549030237791055e-01,3.703964951800046285e-02,9.537662591983232518e-01,1.545979073662762744e+02
-2.482814555116211519e+00,2.152944210177161821e+01,-8.586535307523886829e+00,2.252085562090290205e-01,3.182353736880601941e-02,9.737896942763233366e-01,1.593374313049179705e+02
-1.636954392032164085e+00,2.195575223711241719e+01,-8.799382298168470840e+00,1.508641136442812891e-01,2.642399594976458516e-02,9.882002791192692204e-01,1.640769552435596665e+02
-8.614387158530730781e-01,2.227467076821914205e+01,-9.039710167053536694e+00,7.565008681836621340e-02,2.087214745631944812e-02,9.969149501455719653e-01,1.688164791822013626e+02
-2.082687543993607115e-01,2.245839900626350882e+01,-9.324458637629549074e+00,0.000000000000000000e+00,1.519999199371368896e-02,9.998834733317381041e-01,1.735560031208430587e+02
2.875663264831742061e-01,2.248886979210193005e+01,-9.663251897966727455e+00,-0.000000000000000000e+00,5.747741775449780564e-03,9.999824815723347138e-01,1.782955270594847548e+02
6.260296538562423185e-01,2.236583887256774617e+01,-1.005108524124892710e+01,-0.000000000000000000e+00,-3.705020382306417701e-03,9.999921363746883118e-01,1.830350509981264508e+02
6.625774632846958001e-01,2.233812125180543617e+01,-1.010809960860701828e+01,-0.000000000000000000e+00,-1.315745001848069029e-02,9.999124369145540037e-01,1.836947673092740558e+02
8.596996612157522533e-01,2.206709071814556111e+01,-1.053245330765191312e+01,-0.000000000000000000e+00,-2.260870270276962857e-02,9.997433903505502650e-01,1.884342912479157519e+02
9.375464672394067112e-01,2.165943842851514489e+01,-1.097948846141544443e+01,-0.000000000000000000e+00,-3.205793411096133361e-02,9.994850118176640263e-01,1.931738151865574480e+02
9.140500080713207520e-01,2.112249960768320278e+01,-1.143688069552703190e+01,-0.000000000000000000e+00,-4.150430010015736942e-02,9.991373244258761055e-01,1.979133391251991441e+02
8.072728441387080345e-01,2.046319897943324762e+01,-1.189230497986225288e+01,-0.000000000000000000e+00,-5.094695678397787725e-02,9.987003592580795397e-01,2.026528630638408401e+02
6.354044574247266208e-01,1.968804868312368228e+01,-1.233343639580115259e+01,-0.000000000000000000e+00,-6.038506060774351952e-02,9.981741553672924816e-01,2.073923870024825362e+02
4.167577263132983267e-01,1.880314623607036850e+01,-1.274795090348135673e+01,-0.000000000000000000e+00,-6.981776842362756585e-02,9.975587597731652156e-01,2.121319109411242323e+02
1.697653876361164826e-01,1.781417254191550370e+01,-1.312352610900959782e+01,-0.000000000000000000e+00,-7.924423756577153588e-02,9.968542274577827378e-01,2.168714348797659284e+02
-8.702351387623973034e-02,1.672638994514309019e+01,-1.344784203159824010e+01,-0.000000000000000000e+00,-8.866362592535818876e-02,9.960606213607599013e-01,2.216109588184076244e+02
-3.349471885358068501e-01,1.554464033189890060e+01,-1.370858187059322120e+01,-0.000000000000000000e+00,-9.807509202563477468e-02,9.951780123736354566e-01,2.263504827570493205e+02
-5.552346768261853249e-01,1.427334327727344210e+01,-1.389343277235271579e+01,-0.000000000000000000e+00,-1.074777950968808377e-01,9.942064793335588790e-01,2.310900066956910166e+02
-6.471882136092693694e-01,1.365908918202455880e+01,-1.395558743290627213e+01,-0.000000000000000000e+00,-1.168708951513131450e-01,9.931461090162760907e-01,2.332890381136658107e+02
-8.031536588723126036e-01,1.233136440284359558e+01,-1.403931578486728782e+01,3.204669457962769537e-04,-5.880065388116560016e-02,9.982686914847954673e-01,2.380285620523075067e+02
-8.592356628784161288e-01,1.110668287676938171e+01,-1.405549448984157479e+01,6.398446498911922750e-04,-5.306028803975711703e-04,9.999986545262882220e-01,2.427680859909492028e+02
-7.675283900396580039e-01,1.017083867436065781e+01,-1.403048422878660695e+01,9.570477866497265193e-04,5.774124123053508278e-02,9.983301223121142653e-01,2.475076099295908989e+02
-4.758700089182390514e-01,9.708562617110858994e+00,-1.399064823464327034e+01,1.270998420251536658e-03,1.158168560489946514e-01,9.932687654470839789e-01,2.522471338682325950e+02
-3.913457911673065004e-01,9.674502243915815924e+00,-1.398234236878064962e+01,6.354994621832927041e-04,1.165624013544296761e-01,9.931821594800774866e-01,2.532220613187311642e+02
-2.044397751662353213e-01,9.639434996279291568e+00,-1.396613432965493296e+01,0.000000000000000000e+00,1.173078338390019654e-01,9.930945933284813787e-01,2.552519230788333289e+02
3.342062346738396417e-01,9.953280017759606579e+00,-1.394441832100100243e+01,-3.941649654515572143e-02,7.840627886641894639e-02,9.961409514856246483e-01,2.599914470174750249e+02
9.917937051762006906e-01,1.075210813746998184e+01,-1.394613727357027422e+01,-7.871172603177374605e-02,3.926353534432381470e-02,9.961229035463856629e-01,2.647309709561167210e+02
1.672474516812199496e+00,1.170312577523515962e+01,-1.396266605598054156e+01,-1.177648228227758248e-01,0.000000000000000000e+00,9.930405059701521431e-01,2.694704948947584171e+02
1.802089201835766374e+00,1.188598556369151282e+01,-1.396690721387644629e+01,-1.679883403598090019e-01,1.768020929829746540e-02,9.856294068784235973e-01,2.703921655938089543e+02
2.431580501327057942e+00,1.273952617864024361e+01,-1.398224412726398569e+01,-2.177263799542146216e-01,3.530932247110497163e-02,9.753699171185985506e-01,2.751316895324506504e+02
2.992219270694388200e+00,1.343706424987212777e+01,-1.397075336358628839e+01,-2.668352035013187851e-01,5.283639306061095609e-02,9.622916864143145066e-01,2.798712134710923465e+02
3.492672782407824528e+00,1.399760883294025149e+01,-1.390479961919163721e+01,-3.151728913456910419e-01,7.021076953483017247e-02,9.464325102211631480e-01,2.846107374097340426e+02
3.942018012217611389e+00,1.443995832238147514e+01,-1.375675096929833430e+01,-3.625997523844344816e-01,8.738224165515344477e-02,9.278382204972561720e-01,2.893502613483757386e+02
4.349739772603049559e+00,1.478269368756606994e+01,-1.349898058919350952e+01,-4.089787277289213541e-01,1.043011855681169053e-01,9.065625532503469586e-01,2.940897852870174347e+02
4.725728802612465529e+00,1.504417173316960188e+01,-1.310386847519378861e+01,-4.541757867598858467e-01,1.209187072024037607e-01,8.826669932488763193e-01,2.988293092256591308e+02
5.080279814204140543e+00,1.524251838482161503e+01,-1.254380316528750150e+01,-4.980603144322192088e-01,1.371867835569935135e-01,8.562205963456062108e-01,3.035688331643008269e+02
5.424089495201367406e+00,1.539562200048454699e+01,-1.179118345937617818e+01,-5.405054887110686268e-01,1.530584014724629405e-01,8.272997899270443378e-01,3.083083571029425229e+02
5.768254468975931637e+00,1.552112670811463779e+01,-1.081842013903471589e+01,-5.813886470493114800e-01,1.684876934847052699e-01,7.959881520649374487e-01,3.130478810415842190e+02
6.124269210974539135e+00,1.563642577015518498e+01,-9.597937686712219474e+00,-6.205916408480682822e-01,1.834300703687445910e-01,7.623761700075182279e-01,3.177874049802259151e+02
6.504023922207445629e+00,1.575865497541119176e+01,-8.102176004292800826e+00,-6.580011768765487989e-01,1.978423499898593896e-01,7.265609787077731418e-01,3.225269289188676112e+02
6.766715342936343802e+00,1.584697878412923089e+01,-6.990904725931859964e+00,-6.935091446651042713e-01,2.116828820898674079e-01,6.886460801435927426e-01,3.256133222141516512e+02
7.204069869912777868e+00,1.600986022419936106e+01,-5.050955146115551742e+00,-7.270129289257662997e-01,2.249116686481305305e-01,6.487410442400828314e-01,3.303528461527933473e+02
7.657039740529959282e+00,1.605205066235538425e+01,-3.080331688735195694e+00,-8.498265231567917466e-01,-5.222387069684532035e-01,-7.113096008795406766e-02,3.350923700914350434e+02
7.910136997495362365e+00,1.593115049347719747e+01,-2.073476881286818063e+00,-9.097764572098885338e-01,-4.109769391039692077e-01,-5.833312464285502624e-02,3.379201917663621089e+02
8.256573307889643942e+00,1.540076061043221856e+01,-8.468672309776228424e-01,-9.550453190685268545e-01,-2.930832919055429975e-01,-4.459397415261633774e-02,3.426597157050038049e+02
8.475641786687175383e+00,1.449797674814210779e+01,-1.278529529804317555e-01,-9.849026284388019414e-01,-1.704602042659174865e-01,-3.013521620656858108e-02,3.473992396436455010e+02
8.552229012402689179e+00,1.337809875487825373e+01,3.259826471326441322e-01,-9.988665941599867981e-01,-4.508642607873940278e-02,-1.519016967036251192e-02,3.521387635822871971e+02
8.474708178029922934e+00,1.219669391497896349e+01,7.570727813440375487e-01,-9.967118863751273095e-01,8.101490948214877530e-02,-0.000000000000000000e+00,3.568782875209288932e+02
8.240473449119104288e+00,1.106916624579793584e+01,1.337713449414809519e+00,-9.881071024184754359e-01,8.136618632167620657e-02,-1.304679955961468574e-01,3.616178114595705892e+02
7.931950397231513961e+00,1.017503616745730177e+01,1.968410223932185676e+00,-9.626095435414799839e-01,8.032641892100959857e-02,-2.587054949309475216e-01,3.656524552456843367e+02
7.456683763995638259e+00,9.196174458017701170e+00,2.834234962973815275e+00,-9.206551204992963200e-01,7.791338339109914191e-02,-3.825201351410187911e-01,3.703919791843260327e+02
6.866075043827143176e+00,8.294293625549062909e+00,3.811004810818936051e+00,-8.629610931471517477e-01,7.416833345428397450e-02,-4.997951680721581247e-01,3.751315031229677288e+02
6.176481118193977160e+00,7.462749050081232127e+00,4.860565235223826441e+00,-7.905138075906543715e-01,6.915529512814544422e-02,-6.085256487328443153e-01,3.798710270616094249e+02
5.404073555382638006e+00,6.694547001094360184e+00,5.944757166295405071e+00,-7.045518329220857856e-01,6.295997208294094871e-02,-7.068527121281976688e-01,3.846105510002511210e+02
4.564835760088534755e+00,5.982347802238836110e+00,7.025419372330478751e+00,-6.065447859311449141e-01,5.568828039410664982e-02,-7.930953524565079737e-01,3.893500749388928170e+02
3.674560144082344326e+00,5.318469032935431606e+00,8.064390835755844478e+00,-4.981682058965949400e-01,4.746453774744382320e-02,-8.657791613869482150e-01,3.940895988775345131e+02
2.748845318113229297e+00,4.694888766587239637e+00,9.023513129056466298e+00,-3.812749090793531859e-01,3.842933806123980528e-02,-9.236615341587349759e-01,3.988291228161762092e+02
1.803093305207653430e+00,4.103248845133818712e+00,9.864632790579193511e+00,-2.578633126949887444e-01,2.873714786581556963e-02,-9.657529126543267228e-01,4.035686467548179053e+02
8.525067755223314503e-01,3.534858189673317330e+00,1.054960370010283022e+01,-1.300432699198392217e-01,1.855366553521800924e-02,-9.913337023654570368e-01,4.083081706934596014e+02
-8.791369709039709157e-02,2.980696146875675190e+00,1.104028945406557050e+01,-0.000000000000000000e+00,8.052988517103476865e-03,-9.999665741302532496e-01,4.130476946321012974e+02
-1.006341273991824270e+00,2.436387928465344466e+00,1.131460572780796880e+01,7.179938475375804985e-02,9.900696027012587108e-03,-9.973689510751647669e-01,4.177872185707429935e+02
-1.896944049517002018e+00,1.907266251820657788e+00,1.138256163815343491e+01,1.432279009352980526e-01,1.169726319999376228e-02,-9.896195948084915983e-01,4.225267425093846896e+02
-2.756692280143000495e+00,1.403528985888758296e+00,1.127021913222634808e+01,2.139165983971364482e-01,1.343341021832884265e-02,-9.767585333242420065e-01,4.272662664480263857e+02
-3.582315041400119693e+00,9.353070365796872787e-01,1.100365137657317227e+01,2.835003483573944050e-01,1.510016935012634814e-02,-9.588521978743292928e-01,4.320057903866680817e+02
-4.370300785973696200e+00,5.126603121437315336e-01,1.060894113322883214e+01,3.516197293272951274e-01,1.668893126859932394e-02,-9.359930798475335489e-01,4.367453143253097778e+02
-5.116897928200103252e+00,1.455736959578566581e-01,1.011217913533514690e+01,4.179228835645096840e-01,1.819148952035789038e-02,-9.082992530568663181e-01,4.414848382639514739e+02
-5.818115454925115060e+00,-1.560469729429588281e-01,9.539462462387406916e+00,4.820673344667645854e-01,1.960008291310247688e-02,-8.759137639010728948e-01,4.462243622025931700e+02
-5.916971820738854859e+00,-1.947626197116854585e-01,9.451179740584706224e+00,5.437217555214434173e-01,2.090743560383445665e-02,-8.390038925478860987e-01,4.469163079477719407e+02
-6.567675642135227143e+00,-4.177819110397339997e-01,8.829455181721641566e+00,6.025676816765530575e-01,2.210679468055801525e-02,-7.977602889522359408e-01,4.516558318864136368e+02
-7.163725020733069826e+00,-5.542875193403040690e-01,8.187793797025307185e+00,6.583011542951283657e-01,2.319196504337184619e-02,-7.523959881686531626e-01,4.563953558250553328e+02
-7.700379772016832547e+00,-5.946473397252948212e-01,7.552301847741015983e+00,7.106342911974230514e-01,2.415734140477549322e-02,-7.031453100402740297e-01,4.611348797636970289e+02
-8.172663094078616908e+00,-5.293248887691658355e-01,6.949085202944886852e+00,7.592967736813335256e-01,2.499793724387228827e-02,-6.502626489439448099e-01,4.658744037023387250e+02
-8.575362313562687078e+00,-3.488832788519697359e-01,6.404247714079628118e+00,8.040372428394787496e-01,2.570941056486302986e-02,-5.940211598388590586e-01,4.706139276409804211e+02
-8.903029657737535629e+00,-4.398918270058440466e-02,5.943889589583476685e+00,8.446245979590508712e-01,2.628808632671160092e-02,-5.347113474020146473e-01,4.753534515796221172e+02
-9.149983052653292148e+00,3.945832122056986968e-01,5.594105769689474705e+00,8.808491902955615238e-01,2.673097542804184559e-02,-4.726395655347609970e-01,4.800929755182638132e+02
-9.311660523762872899e+00,9.701688286505862902e-01,5.371052356413747120e+00,8.623641991612768232e-01,-2.289093202982059663e-02,-5.057687151614920218e-01,4.848324994569055093e+02
-9.386149718109439988e+00,1.674468764275017563e+00,5.271013662507831654e+00,8.405146309177697894e-01,-7.242352207441928036e-02,-5.369245651523156804e-01,4.895720233955472054e+02
-9.373097419037174305e+00,2.493389928535864719e+00,5.280334388178273386e+00,8.153857344323164336e-01,-1.216735400390672878e-01,-5.659855596561249591e-01,4.943115473341889015e+02
-9.272443490949989098e+00,3.412848460923734173e+00,5.385352416802517084e+00,7.870755528903530251e-01,-1.704488339414362563e-01,-5.928383161124824996e-01,4.990510712728305975e+02
-9.195599159462513938e+00,3.892674112509786788e+00,5.463498070989226463e+00,7.556945412446107735e-01,-2.185591041480285102e-01,-6.173780675792907013e-01,5.013812089587234482e+02
-8.984241765419053394e+00,4.914921669504212609e+00,5.666182134544824223e+00,7.213651352484010681e-01,-2.658166458054332937e-01,-6.395090714459946701e-01,5.061207328973651443e+02
-8.686642437358536029e+00,6.002904593591062543e+00,5.930499070511219273e+00,6.842212737549727697e-01,-3.120370811430489000e-01,-6.591449829391323734e-01,5.108602568360068403e+02
-8.303762216910749672e+00,7.142611684048254084e+00,6.242770247942069695e+00,6.444078761470068972e-01,-3.570400787916310215e-01,-6.762091919644390714e-01,5.155997807746485933e+02
-7.836854208342819206e+00,8.320062604517870497e+00,6.589314043207864735e+00,6.020802769350003247e-01,-4.006500573128046194e-01,-6.906351219726528656e-01,5.203393047132902893e+02
-7.287463268618794565e+00,9.521312691684279628e+00,6.956446691885569855e+00,5.574036197300480389e-01,-4.426968701963346353e-01,-7.023664896841853578e-01,5.250788286519319854e+02
-6.657425666593606017e+00,1.073245775969302507e+01,7.330483140753822013e+00,5.105522129546844479e-01,-4.830164696542571523e-01,-7.113575246603375257e-01,5.298183525905736815e+02
-5.948868711359914130e+00,1.193963889991950289e+01,7.697737899852658217e+00,4.617088498044175093e-01,-5.214515466236417929e-01,-7.175731478651778961e-01,5.345578765292153776e+02
-5.164210349769263964e+00,1.312904727569784491e+01,8.044525894564760193e+00,4.110640951117814912e-01,-5.578521444824623421e-01,-7.209891085219359841e-01,5.392974004678570736e+02
-4.306158733151540297e+00,1.428692891161770007e+01,8.357163317675830427e+00,3.588155418936438967e-01,-5.920762440854447917e-01,-7.215920787302132489e-01,5.440369244064987697e+02
-3.380358838825654466e+00,1.540250265878323077e+01,8.626129864258313518e+00,3.299168848634580486e-01,-5.976925906129555432e-01,-7.306958438428275970e-01,5.487764483451404658e+02
-2.397950976104223919e+00,1.647095519549212739e+01,8.850230707251592221e+00,3.007049545485550035e-01,-6.027413942411222747e-01,-7.391057718480343874e-01,5.535159722837821619e+02
-1.372790240466467582e+00,1.749064642240570677e+01,9.032435188740134180e+00,2.712074892228979461e-01,-6.072178609437399732e-01,-7.468138771750415517e-01,5.582554962224238579e+02
-3.187531467381478079e-01,1.846023567884101269e+01,9.175715251895974589e+00,2.414524982765717809e-01,-6.111177401518803620e-01,-7.538128406631132705e-01,5.629950201610655540e+02
7.502648363243442642e-01,1.937868206049740039e+01,9.283045255681505736e+00,2.114682356206828151e-01,-6.144373287891711222e-01,-7.600960165103245458e-01,5.677345440997072501e+02
1.820351753305823772e+00,2.024524470514650432e+01,9.357401789439975914e+00,1.812831728602287418e-01,-6.171734747873457438e-01,-7.656574385830950957e-01,5.724740680383489462e+02
2.673775865381994521e+00,2.090633507805957692e+01,9.397010951473136586e+00,1.509259722603657483e-01,-6.193235800786781597e-01,-7.704918260804559660e-01,5.762830677374723791e+02
3.715019230181854315e+00,2.168476051714575092e+01,9.423913264931016442e+00,1.204254595317284376e-01,-6.208856030624648747e-01,-7.745945885476791526e-01,5.810225916761140752e+02
4.718331467869267826e+00,2.241077695058716301e+01,9.426197588846097375e+00,8.981059646063041524e-02,-6.218580605432213471e-01,-7.779618302345140401e-01,5.857621156147557713e+02
5.669760341578037099e+00,2.308478602496598953e+01,9.406847160894779236e+00,5.911045341011648274e-02,-6.222400291387503168e-01,-7.805903537939005155e-01,5.905016395533974674e+02
6.555348998967855501e+00,2.370749035564138296e+01,9.368846557209236536e+00,2.835418171796328518e-02,-6.220311461567522571e-01,-7.824776633176498963e-01,5.952411634920391634e+02
7.361138447506005988e+00,2.427989362614094659e+01,9.315181506491470032e+00,-2.429013982180004694e-03,-6.212316099391438362e-01,-7.836219667062135352e-01,5.999806874306808595e+02
8.073170030649848172e+00,2.480330065539538964e+01,9.248838704074520578e+00,-3.320990349024550287e-02,-6.198421796737618727e-01,-7.840221773702942265e-01,6.047202113693225556e+02
8.677487904790270434e+00,2.527931743280526788e+01,9.172805625938316609e+00,-6.395925879348104970e-02,-6.178641746736255325e-01,-7.836779152626793810e-01,6.094597353079642517e+02
9.160141516815372142e+00,2.570985112113012860e+01,9.090070342688949978e+00,-9.464788181812955337e-02,-6.152994731244474380e-01,-7.825895072393238561e-01,6.141992592466059477e+02
9.507188082153426478e+00,2.609711002719233974e+01,9.003621333510935187e+00,-1.252466321527189452e-01,-6.121505103015730809e-01,-7.807579867493299464e-01,6.189387831852476438e+02
9.704695063154396450e+00,2.644360354038975203e+01,8.916447300101015827e+00,-1.557264547166543056e-01,-6.084202762580439572e-01,-7.781850928541210743e-01,6.236783071238893399e+02
9.738742647669143437e+00,2.675214203901310484e+01,8.831536980591799590e+00,-1.860584073478547817e-01,-6.041123129859715668e-01,-7.748732685767344419e-01,6.284178310625310360e+02
9.595426227685525333e+00,2.702583676436567117e+01,8.751878963473725292e+00,-2.162136882832583207e-01,-5.992307110539161208e-01,-7.708256585827948371e-01,6.331573550011727320e+02
9.260858877880504991e+00,2.726809966268436014e+01,8.680461501524105117e+00,-2.461636635061097977e-01,-5.937801057234536328e-01,-7.660461061953649509e-01,6.378968789398144281e+02
8.721173833947274190e+00,2.748264319486314733e+01,8.620272325752182496e+00,-2.758798939340847411e-01,-5.877656725486144484e-01,-7.605391497464993877e-01,6.426364028784561242e+02
7.962526970556445427e+00,2.767348011398142305e+01,8.574298459369112280e+00,-3.053341624224403250e-01,-5.811931224623629877e-01,-7.543100182689584932e-01,6.473759268170978203e+02
6.971099278810457989e+00,2.784492321064171705e+01,8.545526031791393251e+00,-3.344985005565671021e-01,-5.740686963547761978e-01,-7.473646265321626236e-01,6.521154507557395164e+02
5.733099343050175989e+00,2.800158502612315914e+01,8.536940092685984638e+00,-3.633452152085111519e-01,-5.663991591480607157e-01,-7.397095694270903188e-01,6.568549746943812124e+02
5.576047059576364262e+00,2.801898888730288562e+01,8.537215303691443324e+00,-3.918469148322585305e-01,-5.581917933740256910e-01,-7.313521157054414523e-01,6.573997440653656668e+02
4.073711445286762434e+00,2.816735286406929717e+01,8.552252924902143505e+00,-4.199765354728211553e-01,-5.494543922600975128e-01,-7.223002010789976168e-01,6.621392680040073628e+02
2.329339449774347148e+00,2.830096921397928256e+01,8.585702043703419051e+00,-2.485924457744723148e-01,-5.857675069561850689e-01,-7.714118379303657180e-01,6.668787919426490589e+02
4.296500883944838756e-01,2.839317618486075290e+01,8.616292091711963863e+00,-6.897918907131329880e-02,-6.026898605379259477e-01,-7.949872976852214723e-01,6.716183158812907550e+02
-1.505819469200274208e+00,2.840475601529352545e+01,8.614668789699175377e+00,1.129174884084330061e-01,-5.996612779033404506e-01,-7.922461691897638714e-01,6.763578398199324511e+02
-3.358464042558573670e+00,2.829386619200601416e+01,8.551479856594024653e+00,2.910762554624261034e-01,-5.767820131696964614e-01,-7.632791905919688036e-01,6.810973637585741471e+02
-5.010632302310533248e+00,2.801605513026068195e+01,8.397376837777501990e+00,4.595995113955018141e-01,-5.348094314391391713e-01,-7.090452462074303686e-01,6.858368876972158432e+02
-6.382376833941564520e+00,2.754163488397282933e+01,8.134352662979887683e+00,5.307710748534825163e-01,-5.049178606502405797e-01,-6.806893712232388038e-01,6.905764116358575393e+02
-7.467680383767658192e+00,2.687412637088884182e+01,7.767078497834740247e+00,5.983530455168354356e-01,-4.716115502745361066e-01,-6.477300198149593680e-01,6.953159355744992354e+02
-8.296952280097144694e+00,2.603451704221000185e+01,7.311567723394614582e+00,6.618883700564149875e-01,-4.351157504761898887e-01,-6.103900959819028582e-01,7.000554595131409314e+02
-8.741220431250201983e+00,2.539499687048136778e+01,6.968439439115911682e+00,7.209473627297795506e-01,-3.956772815903600304e-01,-5.689221291244574985e-01,7.032395558749495876e+02
-9.258703827916310303e+00,2.434983718388948759e+01,6.415849979629645539e+00,7.751306112368488987e-01,-3.535628648587141876e-01,-5.236065661523174875e-01,7.079790798135912837e+02
-9.598243336281937488e+00,2.319231640899895908e+01,5.817832348380518326e+00,8.240716778276627741e-01,-3.090573185919011090e-01,-4.747498748061704243e-01,7.127186037522329798e+02
-9.788144436415434413e+00,2.194571846569398943e+01,5.190414730179659486e+00,8.674395774011461890e-01,-2.624616319590003521e-01,-4.226824710216552927e-01,7.174581276908746759e+02
-9.856128266859762732e+00,2.063393106026226675e+01,4.549627135470392325e+00,9.049410158421082873e-01,-2.140909294304653987e-01,-3.677564843530515826e-01,7.221976516295163719e+02
-9.829326694597959602e+00,1.928143581955371033e+01,3.911500402460528214e+00,9.363223734649943619e-01,-1.642723396395877333e-01,-3.103433765681098411e-01,7.269371755681580680e+02
-9.734277450024970690e+00,1.791329836151246013e+01,3.292065199215816751e+00,9.613714201561674999e-01,-1.133427830730024677e-01,-2.508314295172404673e-01,7.316766995067997641e+02
-9.596919327202529715e+00,1.655515830291311730e+01,2.707351025761264296e+00,9.799187506200723874e-01,-6.164669354894190129e-02,-1.896231192633141827e-01,7.364162234454414602e+02
-9.442587449670519106e+00,1.523321920513494021e+01,2.173385216237848638e+00,9.918389300263429353e-01,-9.533688889144572437e-03,-1.271323942266783247e-01,7.411557473840831562e+02
-9.296008602084972594e+00,1.397423845881064963e+01,1.706191941161175896e+00,9.970513423120177521e-01,4.264379346644272401e-02,-6.378187574851217068e-02,7.458952713227248523e+02
-9.181296627947672206e+00,1.280551710819132794e+01,1.321791209827009705e+00,9.955207354023959399e-01,9.453287991605881235e-02,-0.000000000000000000e+00,7.506347952613665484e+02
-9.114318492831909424e+00,1.174486943117905291e+01,1.029231206140302390e+00,9.960102193182741592e-01,8.922803927095318555e-02,-0.000000000000000000e+00,7.553743192000082445e+02
-9.095363467785345435e+00,1.079037064315965466e+01,8.236210586245925613e-01,9.964714354596680979e-01,8.392066665364023015e-02,-0.000000000000000000e+00,7.601138431386499406e+02
-9.117225032288516218e+00,9.930040044676188060e+00,6.930978121178702489e-01,9.969043707393585585e-01,7.861091259778460461e-02,-0.000000000000000000e+00,7.648533670772916366e+02
-9.172982301035659702e+00,9.151753250833733588e+00,6.257938336611401642e-01,9.973090128821424649e-01,7.329892770547022374e-02,-0.000000000000000000e+00,7.695928910159333327e+02
-9.256001139328621008e+00,8.443246975017578038e+00,6.098375518354347546e-01,9.976853504137986883e-01,6.798486264188015327e-02,-0.000000000000000000e+00,7.743324149545750288e+02
-9.359935247196164099e+00,7.792123826856577118e+00,6.333541962824607019e-01,9.980333726614097900e-01,6.266886813105539134e-02,-0.000000000000000000e+00,7.790719388932167249e+02
-9.478727212177853190e+00,7.185857124032994037e+00,6.844665373743533676e-01,9.983530697536626697e-01,5.735109495165192223e-02,-0.000000000000000000e+00,7.838114628318584209e+02
-9.606609530713145162e+00,6.611795717539130202e+00,7.512956259987064733e-01,9.986444326211258993e-01,5.203169393269635457e-02,-0.000000000000000000e+00,7.885509867705001170e+02
-9.640588505780771200e+00,6.467304872992040821e+00,7.698060636727155348e-01,9.989074529965058513e-01,4.671081594933999825e-02,-0.000000000000000000e+00,7.897730006978659958e+02
-9.772996834692198931e+00,5.912486495138567832e+00,8.390893698828738589e-01,9.991421234148802899e-01,4.138861191861191446e-02,-0.000000000000000000e+00,7.945125246365076919e+02
-9.902579636737536717e+00,5.360886210680739339e+00,8.972662659824155451e-01,9.993484372139095351e-01,3.606523279517055702e-02,-0.000000000000000000e+00,7.992520485751493879e+02
-1.002452055793782826e+01,4.799481389584432378e+00,9.324573465822800777e-01,9.995263885340258669e-01,3.074082956705449093e-02,-0.000000000000000000e+00,8.039915725137910840e+02
-1.013429714830454387e+01,4.215145621105993001e+00,9.327846371725694308e-01,9.996759723186003921e-01,2.541555325143207700e-02,-0.000000000000000000e+00,8.087310964524327801e+02
-1.022768171725408770e+01,3.594653603127972108e+00,8.863723339449833816e-01,9.997971843140878168e-01,2.008955489035035152e-02,-0.000000000000000000e+00,8.134706203910744762e+02
-1.030074215729687381e+01,2.924686042420553633e+00,7.813475435150801784e-01,9.998900210701483493e-01,1.476298554648316531e-02,-0.000000000000000000e+00,8.182101443297161723e+02
-1.035285261465288009e+01,2.198752012655121657e+00,6.122738072986187996e-01,9.954408720995909787e-01,1.369064388809173791e-02,-9.438239467255922499e-02,8.229496682683578683e+02
-1.038949479669117260e+01,1.424198410303457729e+00,3.865842250315315032e-01,9.821034339830420068e-01,1.249605859100398966e-02,-1.879220409613274467e-01,8.276891922069995644e+02
-1.041893391378326861e+01,6.154238992891366555e-01,1.181482071510940729e-01,9.599967982009538492e-01,1.118989609491377775e-02,-2.797837265996863110e-01,8.324287161456412605e+02
-1.044910295181670712e+01,-2.129992674606052128e-01,-1.791621736740058590e-01,9.293183552154924421e-01,9.783819092554352226e-03,-3.691472220459631193e-01,8.371682400842829566e+02
-1.046609462124133039e+01,-6.186024308065888322e-01,-3.296332992310090360e-01,8.903420319769225211e-01,8.290382397399443867e-03,-4.552146039568612523e-01,8.394713424112674147e+02
-1.051131569510146058e+01,-1.448522395069167246e+00,-6.413208041847866525e-01,8.434158461260568007e-01,6.722920846808234929e-03,-5.372173795023695853e-01,8.442108663499091108e+02
-1.057553430453743992e+01,-2.261148858797125794e+00,-9.473917566028519088e-01,7.889587987346612374e-01,5.095430241277384975e-03,-6.144233479372097628e-01,8.489503902885508069e+02
-1.066551458646443962e+01,-3.041348004902790336e+00,-1.233971648256676934e+00,7.274571333130616102e-01,3.422442382401314105e-03,-6.861431381865763512e-01,8.536899142271925029e+02
-1.078768244310471758e+01,-3.773837457657438943e+00,-1.487187184048134991e+00,6.594599944664810698e-01,1.718895324798247340e-03,-7.517363640914536127e-01,8.584294381658341990e+02
-1.094812430184095398e+01,-4.443191908834301707e+00,-1.693167145871459223e+00,5.855745249376080874e-01,0.000000000000000000e+00,-8.106173423658352695e-01,8.631689621044758951e+02
-1.113772565945443738e+01,-5.046358706530078564e+00,-1.847942640803771130e+00,6.716984073749158179e-01,6.853039913206955547e-02,-7.376468219446686847e-01,8.679084860431175912e+02
-1.131768773883189461e+01,-5.605606503771929816e+00,-1.967346732545942389e+00,7.461088886413781429e-01,1.358657248020785635e-01,-6.518128804455273206e-01,8.726480099817592873e+02
-1.143495826629176371e+01,-6.156663009817750165e+00,-2.077114070640298849e+00,8.075083719499481782e-01,2.008317567561892780e-01,-5.546123283063197906e-01,8.773875339204009833e+02
-1.145250875206103736e+01,-6.297137286625502206e+00,-2.105352042331737561e+00,8.548261497133414766e-01,2.622955916125967457e-01,-4.477401884879377847e-01,8.785825676994058995e+02
-1.144195841565242588e+01,-6.883508869213297743e+00,-2.235681747142898246e+00,8.872370739708885790e-01,3.191853979743718983e-01,-3.330601391517288290e-01,8.833220916380475956e+02
-1.125212273281119657e+01,-7.546090630221451434e+00,-2.414332672307934580e+00,9.041759452688615806e-01,3.705091067044621878e-01,-2.125720156707247843e-01,8.880616155766892916e+02
-1.083259887472635086e+01,-8.324316787507662241e+00,-2.667035656478927041e+00,9.053473691451656702e-01,4.153717105649604169e-01,-8.837693841809150797e-02,8.928011395153309877e+02
-1.016740100466697960e+01,-9.231956919808796513e+00,-3.005730372898625102e+00,8.616506901685668796e-01,4.994493885523347276e-01,-9.003552858171118278e-02,8.975406634539726838e+02
-1.003334768296221569e+01,-9.397744548775579077e+00,-3.070971092060906571e+00,8.102153360888384448e-01,5.790413948761343743e-01,-9.088548941750063115e-02,8.983496677306200127e+02
-9.176978524142722193e+00,-1.039288852355611859e+01,-3.479473664889523477e+00,7.515032596030427614e-01,6.534328979884140853e-01,-9.091918737431292641e-02,9.030891916692617087e+02
-8.223757974999204023e+00,-1.139793175550749105e+01,-3.923876015809764528e+00,6.860417665837081902e-01,7.219557731195781480e-01,-9.013631988478600088e-02,9.078287156079034048e+02
-7.255430412636179938e+00,-1.234296632586135622e+01,-4.374745917221999569e+00,6.144187802950372701e-01,7.839946026554153180e-01,-8.854391807621109223e-02,9.125682395465451009e+02
-6.352126148294535923e+00,-1.315629988814721685e+01,-4.802650734941785515e+00,5.372775612450293448e-01,8.389922031672781833e-01,-8.615628362131701190e-02,9.173077634851867970e+02
-5.592346616069381326e+00,-1.376448264845042502e+01,-5.178159261053097318e+00,4.553109300856610364e-01,8.864546294702425611e-01,-8.299486029622467342e-02,9.220472874238284930e+02
-5.052949737339448966e+00,-1.409233453716304574e+01,-5.471843546695597915e+00,3.692550454327766518e-01,9.259556107775199774e-01,-7.908804139876998707e-02,9.267868113624701891e+02
-4.809135461743754725e+00,-1.406297256998722389e+01,-5.654280734701829125e+00,2.798827924722412375e-01,9.571403791155679297e-01,-7.447091475602508892e-02,9.315263353011118852e+02
-4.934431485530262229e+00,-1.359783839593912980e+01,-5.696054891999340342e+00,1.879968417133438263e-01,9.797288556177540242e-01,-6.918494761001402205e-02,9.362658592397535813e+02
-4.962746290136727190e+00,-1.353711614677636987e+01,-5.692908077994060179e+00,9.442244021316816005e-02,9.935181660765003420e-01,-6.327761421032113143e-02,9.366738776834386044e+02
-5.534956830041404707e+00,-1.254854334960730533e+01,-5.562060598537390099e+00,0.000000000000000000e+00,9.983844631532042824e-01,-5.680196945670087927e-02,9.414134016220803005e+02
-6.473471622874732212e+00,-1.111267864291827578e+01,-5.286478848482179416e+00,5.068698197220069535e-01,7.623362237635495919e-01,4.023983943722789780e-01,9.461529255607219966e+02
-7.397723036453212941e+00,-9.622084516850845759e+00,-5.008565196232453332e+00,7.483923528965686911e-01,1.272038900121394978e-01,6.509424371574175083e-01,9.508924494993636927e+02
-7.958733360577147309e+00,-8.454624200477610430e+00,-4.840336578684369506e+00,7.667191557192132301e-01,1.143681995938970186e-01,6.317116835716820589e-01,9.556319734380053887e+02
-8.051122757848901301e+00,-8.184687989443977685e+00,-4.809882091732823106e+00,7.843785636195371724e-01,1.014329603648742861e-01,6.119310610452609600e-01,9.569899367144379312e+02
-8.247468708335960130e+00,-7.364267485715159545e+00,-4.668433990274382772e+00,8.013552095783027518e-01,8.840942861104605921e-02,5.916177828636077773e-01,9.617294606530796273e+02
-8.307617233076804553e+00,-6.680117609296466696e+00,-4.379198775195024318e+00,8.176343202094412677e-01,7.530893738728505760e-02,5.707895254390370487e-01,9.664689845917213233e+02
-8.355918941812074507e+00,-6.052056871332064603e+00,-3.991171261363700040e+00,8.245257201375020273e-01,6.890913660598833868e-02,5.616109575822473277e-01,9.709448363749478403e+02
-8.443551459323414221e+00,-5.381074739315314659e+00,-3.843414234332819479e+00,8.312747262050808050e-01,6.249743761854684859e-02,5.523354051809308274e-01,9.756843603135895364e+02
-8.574424203379926723e+00,-4.725763783605612112e+00,-4.534469373990483554e+00,8.378801759189939968e-01,5.607494484856153510e-02,5.429644659776944327e-01,9.804238842522312325e+02
-8.592716236848893629e+00,-4.649380739295144949e+00,-4.685245608583548993e+00,7.759546851501885056e-01,4.763462436425527219e-02,6.289859053708034553e-01,9.809881345987362238e+02
-8.679462166500757192e+00,-4.056194824474413707e+00,-6.425460186992338230e+00,7.052564958801330608e-01,3.865576340313642278e-02,7.078961837549831992e-01,9.857276585373779199e+02
-8.486702411077240882e+00,-3.608467211617922832e+00,-8.693121124517963594e+00,6.265849024297791559e-01,2.923987400335185255e-02,7.788031778413609940e-01,9.904671824760196159e+02
-7.851235634142240016e+00,-3.382373651642692103e+00,-1.065699984332763961e+01,5.408293392902194796e-01,1.949340872907790595e-02,8.409052460174047949e-01,9.952067064146613120e+02
-6.898021131545523765e+00,-3.397849799141972049e+00,-1.181528911145020899e+01,4.489593261275549585e-01,9.526557261368766641e-03,8.935002899777892971e-01,9.999462303533030081e+02
-5.942224809387028905e+00,-3.628912505518048448e+00,-1.241566007874417465e+01,3.520135077921496269e-01,-5.479992337523450314e-04,9.359936912336245252e-01,1.004685754291944704e+03
-5.230588795179397010e+00,-4.028343153149344325e+00,-1.293038667685715026e+01,3.096979608957247110e-01,1.197591438928843378e-02,9.507585132356016766e-01,1.009425278230586400e+03
-4.810999511658769379e+00,-4.532804443267234085e+00,-1.350124824665098444e+01,2.667117791109648306e-01,2.447389377469652225e-02,9.634645065623386184e-01,1.014164802169228096e+03
-4.631065757164085639e+00,-5.072929531147015503e+00,-1.410477066327380058e+01,2.231480446353355795e-01,3.691887584833452446e-02,9.740841579555344909e-01,1.018904326107869792e+03
-4.630513995129700078e+00,-5.560597786541487508e+00,-1.468951830393204183e+01,1.791010901817740864e-01,4.928391228887925996e-02,9.825944715311299982e-01,1.023424978356343786e+03
-4.755278130784903468e+00,-5.977624881238708276e+00,-1.528917898933480934e+01,1.346662947809894317e-01,6.154222786177587085e-02,9.889770185590583962e-01,1.028164502294985596e+03
-4.956328500107563428e+00,-6.232419203153844123e+00,-1.585215577934678954e+01,8.993987732009491032e-02,7.366727837904697707e-02,9.932179773654231658e-01,1.032904026233627292e+03
-5.175451819844297141e+00,-6.260382616260395494e+00,-1.635497498743802680e+01,4.501868826271244323e-02,8.563280815986809569e-02,9.953081632697938774e-01,1.037643550172268988e+03
-5.352987376540621511e+00,-5.998183314064485572e+00,-1.677416665885023050e+01,0.000000000000000000e+00,9.741290686787916486e-02,9.952430484926604315e-01,1.042383074110910684e+03
-5.440908898396013882e+00,-5.424559861831359520e+00,-1.707888780547880359e+01,-0.000000000000000000e+00,5.859982350367876069e-02,9.982805520885316142e-01,1.047122598049552380e+03
-5.450222565810674880e+00,-5.154890653827536084e+00,-1.716149489042255638e+01,-0.000000000000000000e+00,1.969792880090950882e-02,9.998049767799289667e-01,1.048850609055448558e+03
-5.408600311352924628e+00,-4.318701663583714989e+00,-1.727378005880254364e+01,-0.000000000000000000e+00,-1.923382039023228268e-02,9.998140127774323149e-01,1.053590132994090254e+03
-5.246449714394949559e+00,-3.371726829532935898e+00,-1.715373419453345605e+01,-0.000000000000000000e+00,-5.813642200670532389e-02,9.983076461837654403e-01,1.058329656932731950e+03
-4.959561100728439698e+00,-2.416458217876468417e+00,-1.674841438206700062e+01,-0.000000000000000000e+00,-9.695091807975529663e-02,9.952881590151888558e-01,1.063069180871373646e+03
-4.615407592192236841e+00,-1.641633525644931924e+00,-1.616334246508798955e+01,-1.720590788458706451e-03,-1.485777001253249796e-01,9.888982286303623637e-01,1.067196175604796281e+03
-4.126116030572632098e+00,-8.756452321870288324e-01,-1.528459164780882062e+01,-3.436519488167587809e-03,-1.998019433129332445e-01,9.798292574617445405e-01,1.071935699543437977e+03
-3.550678302132431519e+00,-2.932823237673721217e-01,-1.426683920888586954e+01,-5.143137716398366727e-03,-2.504848835089227843e-01,9.681058161502986703e-01,1.076675223482079673e+03
-2.912443575525908379e+00,5.825345175801587005e-02,-1.321657941394335545e+01,-6.835822320768659109e-03,-3.004892230822736043e-01,9.537596648741072380e-01,1.081414747420721369e+03
-2.235808176432566352e+00,1.322570809927025026e-01,-1.224030853964481835e+01,-8.509987894250357898e-03,-3.496795025689147796e-01,9.368296673276681474e-01,1.086154271359363065e+03
-1.549423833211175383e+00,-9.431397558848254870e-02,-1.141143422019055187e+01,-7.381971179301680466e-03,-2.800018329884705337e-01,9.599700412119853699e-01,1.090893795298004761e+03
-8.887049503300058495e-01,-5.975833954863851716e-01,-1.073718685476847234e+01,-6.214152954399265044e-03,-2.088144755996626245e-01,9.779345065407578641e-01,1.095633319236646457e+03
-7.539144850871430936e-01,-7.322441919712283642e-01,-1.060989172564435101e+01,-5.012829706870853413e-03,-1.365012487242273087e-01,9.906262063135008455e-01,1.096637862826583387e+03
-1.646998885859020934e-01,-1.470588035732887988e+00,-1.006728168282524294e+01,-3.784478561420137350e-03,-6.345204057627198968e-02,9.979767112857260702e-01,1.101377386765225083e+03
3.168433869908016676e-01,-2.378985440995524669e+00,-9.622080439814535424e+00,-2.535722363717315183e-03,9.939292518344073138e-03,9.999463888509855236e-01,1.106116910703866779e+03
6.551931695787108767e-01,-3.407924198683803585e+00,-9.248409786396571519e+00,-1.273293978636123088e-03,8.327704929197433936e-02,9.965246167472429084e-01,1.110856434642508475e+03
8.159162859626216679e-01,-4.507138582118778380e+00,-8.920387047600357278e+00,-3.999995304131439757e-06,1.561658166662475977e-01,9.877298404362626627e-01,1.115595958581150171e+03
7.877277804267284189e-01,-5.631486544888254286e+00,-8.621230216220828524e+00,-3.502422316965690592e-06,1.397076907694424774e-01,9.901917799679643695e-01,1.120335482519791867e+03
6.043737307078662635e-01,-6.747471456313836491e+00,-8.352362518437189465e+00,-3.003879503240916525e-06,1.232108788686506473e-01,9.923795036719034179e-01,1.125075006458433563e+03
3.697238675088310722e-01,-7.676360411347755708e+00,-8.152062216226754643e+00,-2.504504894711929159e-06,1.066799484464117931e-01,9.942924059762385802e-01,1.129121868167976345e+03
5.620929148291835958e-02,-8.712514487684416054e+00,-7.961515741469118446e+00,-2.004436753114909808e-06,9.011947642004634884e-02,9.959299573537451211e-01,1.133861392106618041e+03
-2.499246292926737556e-01,-9.667401207304463284e+00,-7.831287808469675760e+00,-1.503813531967476547e-06,7.353404787697578882e-02,9.972917044623560434e-01,1.138600916045259737e+03
-4.906400472996651496e-01,-1.051785757225618134e+01,-7.771894433966379800e+00,-1.002773838338385558e-06,5.692825480866876842e-02,9.983772702702270463e-01,1.143340439983901433e+03
-6.073657622784015553e-01,-1.124198783081585340e+01,-7.793847215031252773e+00,-5.014563945751669103e-07,4.030669484269473052e-02,9.991863541598587917e-01,1.148079963922543129e+03
-5.410077273299516154e-01,-1.181917233611277140e+01,-7.907652674381635549e+00,-0.000000000000000000e+00,2.367396997322678345e-02,9.997187320112477238e-01,1.152819487861184825e+03
-2.568383024378406709e-01,-1.224370910225772136e+01,-8.113730803195187136e+00,-1.297335474782814498e-06,6.843825302715125791e-02,9.976543517276280637e-01,1.157559011799826521e+03
2.302002767330182664e-01,-1.253772531236915100e+01,-8.392334232103710434e+00,-2.592065728932826702e-06,1.130651036438405088e-01,9.935865751566237414e-01,1.162298535738468217e+03
8.335125195993902114e-01,-1.272856266323204544e+01,-8.693221270992028238e+00,-3.881590832953052692e-06,1.574649072785034853e-01,9.875235708381242539e-01,1.166753985703076978e+03
1.590134517126766900e+00,-1.287378601659609245e+01,-9.025819297195225133e+00,-5.163321309517079182e-06,2.015485053055842413e-01,9.794775137707719681e-01,1.171493509641718674e+03
2.428818970741291050e+00,-1.298937746039690566e+01,-9.343226740277632558e+00,-6.434683332722032571e-06,2.452273740350603692e-01,9.694645609729961588e-01,1.176233033580360370e+03
3.307059570544948812e+00,-1.310786757604332387e+01,-9.615608410572493270e+00,-7.693123895931516063e-06,2.884138024543417833e-01,9.575048190451457275e-01,1.180972557519002066e+03
4.181634366211148368e+00,-1.326084574030195817e+01,-9.813131913959534103e+00,-8.936115937843508848e-06,3.310210683394158027e-01,9.436223038035528310e-01,1.185712081457643762e+03
5.008613642122904608e+00,-1.347894829064044764e+01,-9.905969509796706873e+00,-1.016116341650157614e-05,3.729636123819980997e-01,9.278448920673987299e-01,1.190451605396285458e+03
5.743367869117897762e+00,-1.379184679342988673e+01,-9.864299968635849680e+00,-1.136580632107140153e-05,4.141572099834055498e-01,9.102042656949579369e-01,1.195191129334927155e+03
6.340575732387889296e+00,-1.422823641597993571e+01,-9.658310429633440108e+00,-1.254762561132865195e-05,4.545191403705146627e-01,8.907358479813096697e-01,1.199930653273568851e+03
6.754232235075409818e+00,-1.481582440337430384e+01,-9.258198257570088074e+00,-1.370424807494821243e-05,4.939683526945071734e-01,8.694787325449020443e-01,1.204670177212210547e+03
6.937656877106616271e+00,-1.558131866106876728e+01,-8.634172899393158573e+00,-1.483335109284839431e-05,5.324256287791127029e-01,8.464756048454012971e-01,1.209409701150852243e+03
6.938451372786281546e+00,-1.612868335596317237e+01,-8.152419019146330825e+00,-1.593266730302704705e-05,5.698137421917369716e-01,8.217726564900198483e-01,1.212292251195785866e+03
6.719725921399685831e+00,-1.718395584958431854e+01,-7.168296498987228205e+00,-1.699998915352857377e-05,6.060576133181894143e-01,7.954194924999823391e-01,1.217031775134427562e+03
6.287153510510115062e+00,-1.835389150791879587e+01,-5.976235799436882878e+00,-4.540889644353970971e-06,7.071098581352692758e-01,7.071022899858621091e-01,1.221771299073069258e+03
6.017680119188160148e+00,-1.927900855900213628e+01,-4.827318160809921821e+00,7.999989140413108610e-06,7.954259202489223357e-01,6.060491773184206732e-01,1.226510823011710954e+03
6.150773163913966890e+00,-1.966531955880788018e+01,-4.044548841417348939e+00,6.003447275242286630e-06,8.086875497486893938e-01,5.882367268597092913e-01,1.230512537557586711e+03
6.731995188159746846e+00,-1.968813234282445990e+01,-3.317318216189927504e+00,4.003944591395868871e-06,8.215503719717091036e-01,5.701341826957058156e-01,1.235252061496228407e+03
7.627773802251280877e+00,-1.940161689408377654e+01,-2.681202051050152413e+00,2.002466653143350101e-06,8.340080464920200942e-01,5.517504674787980790e-01,1.239991585434870103e+03
8.629517275793281428e+00,-1.902598039565189225e+01,-1.975309453927267755e+00,0.000000000000000000e+00,8.460544322668346329e-01,5.330946422741880131e-01,1.244731109373511799e+03
9.577265739957320889e+00,-1.871911560456224777e+01,-1.087982316515738734e+00,-7.485117199941290766e-02,8.994901084321766938e-01,4.304797868465048416e-01,1.249470633312153495e+03
9.796230106355800160e+00,-1.865911884656572539e+01,-8.422218562773896577e-01,-1.482810603468766031e-01,9.358463359363484724e-01,3.196910425044504622e-01,1.250636107496832665e+03
1.062772903878303943e+01,-1.846645007392403670e+01,2.468226806178782373e-01,-2.188953843816090761e-01,9.544327972627357770e-01,2.028320640495047678e-01,1.255375631435474361e+03
1.134585641265243261e+01,-1.835838274947667514e+01,1.485575622323158207e+00,-2.853533283690548039e-01,9.548965881330802041e-01,8.212176302108813164e-02,1.260115155374116057e+03
1.194818357635675810e+01,-1.831575423241625344e+01,2.837975471181985565e+00,-3.463930005229988729e-01,9.372289161557754156e-01,-4.014782573907275248e-02,1.264854679312757753e+03
1.243268087674809408e+01,-1.831936017282999529e+01,4.267953649276109651e+00,-4.008553929132623317e-01,9.017652654092868092e-01,-1.616550651087414747e-01,1.269594203251399449e+03
1.279771794395141526e+01,-1.834996107729788761e+01,5.739436743754047221e+00,-4.477063874386528197e-01,8.491790242433989722e-01,-2.800927978964362075e-01,1.274333727190041145e+03
1.304206393408706077e+01,-1.838828887789286881e+01,7.216348752385662202e+00,-4.860563902112744472e-01,7.804686976410527555e-01,-3.932121533461937490e-01,1.279073251128682841e+03
