9.392886804726945371e-01,2.158061301410416277e+01,-1.094228636021279399e+01,-0.000000000000000000e+00,-3.205793411096133361e-02,9.994850118176640263e-01,1.931738151865574480e+02
9.145776274327686028e-01,2.102397659472913816e+01,-1.139148489554026256e+01,-0.000000000000000000e+00,-4.150430010015736942e-02,9.991373244258761055e-01,1.979133391251991441e+02
8.066962795471668279e-01,2.034936293895036741e+01,-1.184041693178195054e+01,-0.000000000000000000e+00,-5.094695678397787725e-02,9.987003592580795397e-01,2.026528630638408401e+02
6.338170837832299842e-01,1.956500193124563225e+01,-1.227759182099656421e+01,-0.000000000000000000e+00,-6.038506060774351952e-02,9.981741553672924816e-01,2.073923870024825362e+02
4.142712859745721343e-01,1.867870027792249488e+01,-1.269151963609599854e+01,-0.000000000000000000e+00,-6.981776842362756585e-02,9.975587597731652156e-01,2.121319109411242323e+02
1.665452975469756125e-01,1.769783890970781925e+01,-1.307071188610522938e+01,-0.000000000000000000e+00,-7.924423756577153588e-02,9.968542274577827378e-01,2.168714348797659284e+02
-9.072295431323394721e-02,1.662937043184278707e+01,-1.340368223135615899e+01,-0.000000000000000000e+00,-8.866362592535818876e-02,9.960606213607599013e-01,2.216109588184076244e+02
-3.387476928389287489e-01,1.547981662189213736e+01,-1.367894719858305486e+01,-0.000000000000000000e+00,-9.807509202563477468e-02,9.951780123736354566e-01,2.263504827570493205e+02
-5.585989739986707558e-01,1.425526597547662000e+01,-1.388502689588384875e+01,-0.000000000000000000e+00,-1.074777950968808377e-01,9.942064793335588790e-01,2.310900066956910166e+02
-6.459469822079199064e-01,1.366255019861146813e+01,-1.395082325446099247e+01,-0.000000000000000000e+00,-1.168708951513131450e-01,9.931461090162760907e-01,2.332890381136658107e+02
-7.842606371031791701e-01,1.237496143624038680e+01,-1.402891607762673232e+01,3.204669457962769537e-04,-5.880065388116560016e-02,9.982686914847954673e-01,2.380285620523075067e+02
-8.291086971367217506e-01,1.118067084515951137e+01,-1.404535849816783255e+01,6.398446498911922750e-04,-5.306028803975711703e-04,9.999986545262882220e-01,2.427680859909492028e+02
-7.401337162463986763e-01,1.023907063710187160e+01,-1.402448746565439031e+01,9.570477866497265193e-04,5.774124123053508278e-02,9.983301223121142653e-01,2.475076099295908989e+02
-4.734030137424424245e-01,9.708639840543998645e+00,-1.399064224023077507e+01,1.270998420251536658e-03,1.158168560489946514e-01,9.932687654470839789e-01,2.522471338682325950e+02
-3.948337578861111363e-01,9.658152506830262496e+00,-1.398392777283846833e+01,6.354994621832927041e-04,1.165624013544296761e-01,9.931821594800774866e-01,2.532220613187311642e+02
-2.067441422331046108e-01,9.633260808329612956e+00,-1.397357114481975948e+01,0.000000000000000000e+00,1.173078338390019654e-01,9.930945933284813787e-01,2.552519230788333289e+02
3.459771624987824645e-01,1.000389277782899633e+01,-1.396579422305170937e+01,-3.941649654515572143e-02,7.840627886641894639e-02,9.961409514856246483e-01,2.599914470174750249e+02
1.000360480210687797e+00,1.079176869797458593e+01,-1.396754781355728880e+01,-7.871172603177374605e-02,3.926353534432381470e-02,9.961229035463856629e-01,2.647309709561167210e+02
1.671777954096148155e+00,1.170660804427120993e+01,-1.395969243102574531e+01,-1.177648228227758248e-01,0.000000000000000000e+00,9.930405059701521431e-01,2.694704948947584171e+02
1.798930237378787433e+00,1.188084122962097489e+01,-1.395568958752910049e+01,-1.679883403598090019e-01,1.768020929829746540e-02,9.856294068784235973e-01,2.703921655938089543e+02
2.415141688958291066e+00,1.269170758992405545e+01,-1.391138931141880875e+01,-2.177263799542146216e-01,3.530932247110497163e-02,9.753699171185985506e-01,2.751316895324506504e+02
2.967621035480178193e+00,1.336118113987432210e+01,-1.381700374880323601e+01,-2.668352035013187851e-01,5.283639306061095609e-02,9.622916864143145066e-01,2.798712134710923465e+02
3.464325188863573768e+00,1.390611882347675277e+01,-1.365467266099607890e+01,-3.151728913456910419e-01,7.021076953483017247e-02,9.464325102211631480e-01,2.846107374097340426e+02
3.913565566789951600e+00,1.434318010325529080e+01,-1.340654002811196044e+01,-3.625997523844344816e-01,8.738224165515344477e-02,9.278382204972561720e-01,2.893502613483757386e+02
4.324006334398936779e+00,1.468882107077517318e+01,-1.305475516143805592e+01,-4.089787277289213541e-01,1.043011855681169053e-01,9.065625532503469586e-01,2.940897852870174347e+02
4.704662607968109533e+00,1.495928858038606357e+01,-1.258147381555686017e+01,-4.541757867598858467e-01,1.209187072024037607e-01,8.826669932488763193e-01,2.988293092256591308e+02
5.064898620681614894e+00,1.517061440667035654e+01,-1.196885930016703803e+01,-4.980603144322192088e-01,1.371867835569935135e-01,8.562205963456062108e-01,3.035688331643008269e+02
5.414425850592765599e+00,1.533860942607936551e+01,-1.119908359155046185e+01,-5.405054887110686268e-01,1.530584014724629405e-01,8.272997899270443378e-01,3.083083571029425229e+02
5.763301110885992173e+00,1.547885782323876214e+01,-1.025432844363474061e+01,-5.813886470493114800e-01,1.684876934847052699e-01,7.959881520649374487e-01,3.130478810415842190e+02
6.121924602547827554e+00,1.560671132240355341e+01,-9.116786498599273258e+00,-6.205916408480682822e-01,1.834300703687445910e-01,7.623761700075182279e-01,3.177874049802259151e+02
6.501037929559497108e+00,1.573728344454074879e+01,-7.768662396973935458e+00,-6.580011768765487989e-01,1.978423499898593896e-01,7.265609787077731418e-01,3.225269289188676112e+02
6.764574274897167783e+00,1.583101737028031586e+01,-6.756073213466139649e+00,-6.935091446651042713e-01,2.116828820898674079e-01,6.886460801435927426e-01,3.256133222141516512e+02
7.204208038098657063e+00,1.600045353657175440e+01,-4.979619497739185441e+00,-7.270129289257662997e-01,2.249116686481305305e-01,6.487410442400828314e-01,3.303528461527933473e+02
7.658540269780165666e+00,1.606336563065108081e+01,-3.163935510561053377e+00,-8.498265231567917466e-01,-5.222387069684532035e-01,-7.113096008795406766e-02,3.350923700914350434e+02
7.907144580858096461e+00,1.592900762391500535e+01,-2.259965977500567380e+00,-9.097764572098885338e-01,-4.109769391039692077e-01,-5.833312464285502624e-02,3.379201917663621089e+02
8.240570262067530294e+00,1.534464098846379443e+01,-1.168328077606181292e+00,-9.550453190685268545e-01,-2.930832919055429975e-01,-4.459397415261633774e-02,3.426597157050038049e+02
8.457005565707547134e+00,1.443789441009148078e+01,-4.095930808682473612e-01,-9.849026284388019414e-01,-1.704602042659174865e-01,-3.013521620656858108e-02,3.473992396436455010e+02
8.539135932853152866e+00,1.334299446309867321e+01,1.825557806360344482e-01,-9.988665941599867981e-01,-4.508642607873940278e-02,-1.519016967036251192e-02,3.521387635822871971e+02
8.472593160643480559e+00,1.219449942277753784e+01,7.744456515308965061e-01,-9.967118863751273095e-01,8.101490948214877530e-02,-0.000000000000000000e+00,3.568782875209288932e+02
8.252326621320296596e+00,1.109243832791138118e+01,1.482719749224431061e+00,-9.881071024184754359e-01,8.136618632167620657e-02,-1.304679955961468574e-01,3.616178114595705892e+02
7.947604773640517983e+00,1.021675620556253605e+01,2.197685188855873495e+00,-9.626095435414799839e-01,8.032641892100959857e-02,-2.587054949309475216e-01,3.656524552456843367e+02
7.467085777536727420e+00,9.257202724716750097e+00,3.139149204983588959e+00,-9.206551204992963200e-01,7.791338339109914191e-02,-3.825201351410187911e-01,3.703919791843260327e+02
6.872641778095261778e+00,8.365776654858391836e+00,4.154233830308028175e+00,-8.629610931471517477e-01,7.416833345428397450e-02,-4.997951680721581247e-01,3.751315031229677288e+02
6.180349702498124209e+00,7.537201807177920543e+00,5.210504438011255068e+00,-7.905138075906543715e-01,6.915529512814544422e-02,-6.085256487328443153e-01,3.798710270616094249e+02
5.406135767725774421e+00,6.765850432503420997e+00,6.275523831867046098e+00,-7.045518329220857856e-01,6.295997208294094871e-02,-7.068527121281976688e-01,3.846105510002511210e+02
4.565772582051675244e+00,6.045745831121231539e+00,7.316854265665966750e+00,-6.065447859311449141e-01,5.568828039410664982e-02,-7.930953524565079737e-01,3.893500749388928170e+02
3.674876264052895802e+00,5.370565000206995343e+00,8.302059462665635436e+00,-4.981682058965949400e-01,4.746453774744382320e-02,-8.657791613869482150e-01,3.940895988775345131e+02
2.748903579300913780e+00,4.733641318643101670e+00,9.198706634971523854e+00,-3.812749090793531859e-01,3.842933806123980528e-02,-9.236615341587349759e-01,3.988291228161762092e+02
1.803149094895103666e+00,4.127967268997622341e+00,9.974368502753272026e+00,-2.578633126949887444e-01,2.873714786581556963e-02,-9.657529126543267228e-01,4.035686467548179053e+02
8.527423520011511160e-01,3.546197196435420196e+00,1.059662531320299017e+01,-1.300432699198392217e-01,1.855366553521800924e-02,-9.913337023654570368e-01,4.083081706934596014e+02
-8.735494344354295670e-02,2.980650104329426675e+00,1.103306685914234642e+01,-0.000000000000000000e+00,8.052988517103476865e-03,-9.999665741302532496e-01,4.130476946321012974e+02
-1.005334991838151337e+00,2.427839087615229818e+00,1.126554161382965091e+01,7.179938475375804985e-02,9.900696027012587108e-03,-9.973689510751647669e-01,4.177872185707429935e+02
-1.895395956617647482e+00,1.893089366287623809e+00,1.130440497780346831e+01,1.432279009352980526e-01,1.169726319999376228e-02,-9.896195948084915983e-01,4.225267425093846896e+02
-2.754559508034546855e+00,1.386144748925839165e+00,1.117427151699535059e+01,2.139165983971364482e-01,1.343341021832884265e-02,-9.767585333242420065e-01,4.272662664480263857e+02
-3.579621338124456376e+00,9.166823058306686756e-01,1.089976631285673392e+01,2.835003483573944050e-01,1.510016935012634814e-02,-9.588521978743292928e-01,4.320057903866680817e+02
-4.367151718431687257e+00,4.943085588540396813e-01,1.050552342864051170e+01,3.516197293272951274e-01,1.668893126859932394e-02,-9.359930798475335489e-01,4.367453143253097778e+02
-5.113496082728559600e+00,1.285556786374383309e-01,1.001618437526322758e+01,4.179228835645096840e-01,1.819148952035789038e-02,-9.082992530568663181e-01,4.414848382639514739e+02
-5.814775634696435880e+00,-1.711223104222905911e-01,9.456396576819663835e+00,4.820673344667645854e-01,1.960008291310247688e-02,-8.759137639010728948e-01,4.462243622025931700e+02
-5.913478626513777314e+00,-2.092721187748718126e-01,9.370023441122279806e+00,5.437217555214434173e-01,2.090743560383445665e-02,-8.390038925478860987e-01,4.469163079477719407e+02
-6.562077287766249434e+00,-4.267569270635758194e-01,8.760698828179915409e+00,6.025676816765530575e-01,2.210679468055801525e-02,-7.977602889522359408e-01,4.516558318864136368e+02
-7.156589817246576501e+00,-5.581148114341142330e-01,8.133831493840903093e+00,6.583011542951283657e-01,2.319196504337184619e-02,-7.523959881686531626e-01,4.563953558250553328e+02
-7.692436106667088325e+00,-5.941616232486974791e-01,7.514077427506250295e+00,7.106342911974230514e-01,2.415734140477549322e-02,-7.031453100402740297e-01,4.611348797636970289e+02
-8.164814600836781011e+00,-5.258070063431731223e-01,6.926092167643364661e+00,7.592967736813335256e-01,2.499793724387228827e-02,-6.502626489439448099e-01,4.658744037023387250e+02
-8.568703033222547560e+00,-3.440581472866655055e-01,6.394529266644432219e+00,8.040372428394787496e-01,2.570941056486302986e-02,-5.940211598388590586e-01,4.706139276409804211e+02
-8.898859186239237218e+00,-4.002351596343513979e-02,5.944038755777092398e+00,8.446245979590508712e-01,2.628808632671160092e-02,-5.347113474020146473e-01,4.753534515796221172e+02
-9.149821676226096656e+00,3.950834038394776537e-01,5.599265610300544260e+00,8.808491902955615238e-01,2.673097542804184559e-02,-4.726395655347609970e-01,4.800929755182638132e+02
-9.317205271445841319e+00,9.643463844265203200e-01,5.375415965712470268e+00,8.623641991612768232e-01,-2.289093202982059663e-02,-5.057687151614920218e-01,4.848324994569055093e+02
-9.399162064376890058e+00,1.659588203392597272e+00,5.268823921819561384e+00,8.405146309177697894e-01,-7.242352207441928036e-02,-5.369245651523156804e-01,4.895720233955472054e+02
-9.395336145026879748e+00,2.467023476120538295e+00,5.266384020403163113e+00,8.153857344323164336e-01,-1.216735400390672878e-01,-5.659855596561249591e-01,4.943115473341889015e+02
-9.305651978663442847e+00,3.372876040379896079e+00,5.354984310740562137e+00,7.870755528903530251e-01,-1.704488339414362563e-01,-5.928383161124824996e-01,4.990510712728305975e+02
-9.229438623506121431e+00,3.851342565079648672e+00,5.431768490985402487e+00,7.556945412446107735e-01,-2.185591041480285102e-01,-6.173780675792907013e-01,5.013812089587234482e+02
-9.009488483844599216e+00,4.881750679232220946e+00,5.645742075253728842e+00,7.213651352484010681e-01,-2.658166458054332937e-01,-6.395090714459946701e-01,5.061207328973651443e+02
-8.704673109613802140e+00,5.976291286811209247e+00,5.918062119177878166e+00,6.842212737549727697e-01,-3.120370811430489000e-01,-6.591449829391323734e-01,5.108602568360068403e+02
-8.315894490878473988e+00,7.121256407272863242e+00,6.235599974053089412e+00,6.444078761470068972e-01,-3.570400787916310215e-01,-6.762091919644390714e-01,5.155997807746485933e+02
-7.844333995976589868e+00,8.302968118456526270e+00,6.585224168930188249e+00,6.020802769350003247e-01,-4.006500573128046194e-01,-6.906351219726528656e-01,5.203393047132902893e+02
-7.291452067489093913e+00,9.507783186004736820e+00,6.953801228235981569e+00,5.574036197300480389e-01,-4.426968701963346353e-01,-7.023664896841853578e-01,5.250788286519319854e+02
-6.658987888453226311e+00,1.072209768860005141e+01,7.328196489490060195e+00,5.105522129546844479e-01,-4.830164696542571523e-01,-7.113575246603375257e-01,5.298183525905736815e+02
-5.948959018837749468e+00,1.193235163864104997e+01,7.695274921079207076e+00,4.617088498044175093e-01,-5.214515466236417929e-01,-7.175731478651778961e-01,5.345578765292153776e+02
-5.163661002301114245e+00,1.312503359798115810e+01,8.041901940049667630e+00,4.110640951117814912e-01,-5.578521444824623421e-01,-7.209891085219359841e-01,5.392974004678570736e+02
-4.305666943255909374e+00,1.428668528835162377e+01,8.354944229877782291e+00,3.588155418936438967e-01,-5.920762440854447917e-01,-7.215920787302132489e-01,5.440369244064987697e+02
-3.380481260600941784e+00,1.540672223720424583e+01,8.625273325506617184e+00,3.299168848634580486e-01,-5.976925906129555432e-01,-7.306958438428275970e-01,5.487764483451404658e+02
-2.399110089583177619e+00,1.648033337873408399e+01,8.851768948960939909e+00,3.007049545485550035e-01,-6.027413942411222747e-01,-7.391057718480343874e-01,5.535159722837821619e+02
-1.375280744996276727e+00,1.750578637625533673e+01,9.037316311538862834e+00,2.712074892228979461e-01,-6.072178609437399732e-01,-7.468138771750415517e-01,5.582554962224238579e+02
-3.227435734031339210e-01,1.848165194349002860e+01,9.184803166551558817e+00,2.414524982765717809e-01,-6.111177401518803620e-01,-7.538128406631132705e-01,5.629950201610655540e+02
7.447305607998290222e-01,1.940680419060001327e+01,9.297119629269040786e+00,2.114682356206828151e-01,-6.144373287891711222e-01,-7.600960165103245458e-01,5.677345440997072501e+02
1.813352791358379124e+00,2.028042093748285168e+01,9.377157996755929759e+00,1.812831728602287418e-01,-6.171734747873457438e-01,-7.656574385830950957e-01,5.724740680383489462e+02
2.663293214017905530e+00,2.094379304937836395e+01,9.418636272144002675e+00,1.509259722603657483e-01,-6.193235800786781597e-01,-7.704918260804559660e-01,5.762830677374723791e+02
3.697376917002538566e+00,2.172081919796860205e+01,9.444432239413393049e+00,1.204254595317284376e-01,-6.208856030624648747e-01,-7.745945885476791526e-01,5.810225916761140752e+02
4.693846477113850391e+00,2.244564550786790136e+01,9.446069391929366788e+00,8.981059646063041524e-02,-6.218580605432213471e-01,-7.779618302345140401e-01,5.857621156147557713e+02
5.638867625899111502e+00,2.311860760891468658e+01,9.426446782052451567e+00,5.911045341011648274e-02,-6.222400291387503168e-01,-7.805903537939005155e-01,5.905016395533974674e+02
6.518600203750629873e+00,2.374034588798538437e+01,9.388464777214641899e+00,2.835418171796328518e-02,-6.220311461567522571e-01,-7.824776633176498963e-01,5.952411634920391634e+02
7.319200684890442510e+00,2.431180561185206912e+01,9.335024879279771426e+00,-2.429013982180004694e-03,-6.212316099391438362e-01,-7.836219667062135352e-01,5.999806874306808595e+02
8.026824703418036222e+00,2.483423701716855092e+01,9.269029543851452502e+00,-3.320990349024550287e-02,-6.198421796737618727e-01,-7.840221773702942265e-01,6.047202113693225556e+02
8.627629580277945465e+00,2.530919536757173915e+01,9.193381999536411442e+00,-6.395925879348104970e-02,-6.178641746736255325e-01,-7.836779152626793810e-01,6.094597353079642517e+02
9.107776851003372087e+00,2.573854097788659701e+01,9.110986067171756631e+00,-9.464788181812955337e-02,-6.152994731244474380e-01,-7.825895072393238561e-01,6.141992592466059477e+02
9.453434794091634785e+00,2.612443920542489550e+01,9.024745979025018627e+00,-1.252466321527189452e-01,-6.121505103015730809e-01,-7.807579867493299464e-01,6.189387831852476438e+02
9.650780959867393705e+00,2.646936040837002224e+01,8.937566197975341353e+00,-1.557264547166543056e-01,-6.084202762580439572e-01,-7.781850928541210743e-01,6.236783071238893399e+02
9.686004699689597430e+00,2.677607987124181932e+01,8.852351236684084412e+00,-1.860584073478547817e-01,-6.041123129859715668e-01,-7.748732685767344419e-01,6.284178310625310360e+02
9.545309695358030311e+00,2.704767769743695283e+01,8.772005476763270693e+00,-2.162136882832583207e-01,-5.992307110539161208e-01,-7.708256585827948371e-01,6.331573550011727320e+02
9.214916488575370934e+00,2.728753866884231627e+01,8.699432987950251217e+00,-2.461636635061097977e-01,-5.937801057234536328e-01,-7.660461061953649509e-01,6.378968789398144281e+02
8.681065010320550002e+00,2.749935207252059755e+01,8.637537347297028489e+00,-2.758798939340847411e-01,-5.877656725486144484e-01,-7.605391497464993877e-01,6.426364028784561242e+02
7.930017109989118573e+00,2.768711149446877684e+01,8.589221458382935381e+00,-3.053341624224403250e-01,-5.811931224623629877e-01,-7.543100182689584932e-01,6.473759268170978203e+02
6.948059084156449572e+00,2.785511458045223065e+01,8.557387370559098372e+00,-3.344985005565671021e-01,-5.740686963547761978e-01,-7.473646265321626236e-01,6.521154507557395164e+02
5.721504204819478190e+00,2.800796276391918838e+01,8.544936098232843946e+00,-3.633452152085111519e-01,-5.663991591480607157e-01,-7.397095694270903188e-01,6.568549746943812124e+02
5.565414129198884119e+00,2.802485846215876464e+01,8.544806541019289270e+00,-3.918469148322585305e-01,-5.581917933740256910e-01,-7.313521157054414523e-01,6.573997440653656668e+02
4.068429827404502319e+00,2.816824390937928158e+01,8.556619648166297054e+00,-4.199765354728211553e-01,-5.494543922600975128e-01,-7.223002010789976168e-01,6.621392680040073628e+02
2.330988619620564695e+00,2.829690729536713789e+01,8.586121435793904411e+00,-2.485924457744723148e-01,-5.857675069561850689e-01,-7.714118379303657180e-01,6.668787919426490589e+02
4.381079489016957429e-01,2.838513117961644738e+01,8.612732810945139761e+00,-6.897918907131329880e-02,-6.026898605379259477e-01,-7.949872976852214723e-01,6.716183158812907550e+02
-1.492944248187383582e+00,2.839495309605659301e+01,8.608049439968917582e+00,1.129174884084330061e-01,-5.996612779033404506e-01,-7.922461691897638714e-01,6.763578398199324511e+02
-3.345784951392968498e+00,2.828577928686548049e+01,8.543668930150879248e+00,2.910762554624261034e-01,-5.767820131696964614e-01,-7.632791905919688036e-01,6.810973637585741471e+02
-5.004938132814502616e+00,2.801439971058179879e+01,8.391192598844003925e+00,4.595995113955018141e-01,-5.348094314391391713e-01,-7.090452462074303686e-01,6.858368876972158432e+02
-6.391854041940143283e+00,2.755194724096242354e+01,8.133254635115168441e+00,5.307710748534825163e-01,-5.049178606502405797e-01,-6.806893712232388038e-01,6.905764116358575393e+02
-7.500427998440287958e+00,2.690193097316695159e+01,7.774550574262435454e+00,5.983530455168354356e-01,-4.716115502745361066e-01,-6.477300198149593680e-01,6.953159355744992354e+02
-8.360262901774582645e+00,2.608490886603237513e+01,7.330809612900610617e+00,6.618883700564149875e-01,-4.351157504761898887e-01,-6.103900959819028582e-01,7.000554595131409314e+02
-8.806788284753375606e+00,2.544842247692767145e+01,6.988626021804185129e+00,7.209473627297795506e-01,-3.956772815903600304e-01,-5.689221291244574985e-01,7.032395558749495876e+02
-9.300095573700955853e+00,2.438888999524271739e+01,6.426841589330524407e+00,7.751306112368488987e-01,-3.535628648587141876e-01,-5.236065661523174875e-01,7.079790798135912837e+02
-9.621205713290979844e+00,2.322020109047106118e+01,5.822069543665561397e+00,8.240716778276627741e-01,-3.090573185919011090e-01,-4.747498748061704243e-01,7.127186037522329798e+02
-9.797706634345567878e+00,2.196520324819287495e+01,5.190054039891522919e+00,8.674395774011461890e-01,-2.624616319590003521e-01,-4.226824710216552927e-01,7.174581276908746759e+02
-9.856625537475576238e+00,2.064734512730614924e+01,4.546540924387256766e+00,9.049410158421082873e-01,-2.140909294304653987e-01,-3.677564843530515826e-01,7.221976516295163719e+02
-9.824423946260539608e+00,1.929066701696111252e+01,3.907276754665142349e+00,9.363223734649943619e-01,-1.642723396395877333e-01,-3.103433765681098411e-01,7.269371755681580680e+02
-9.726992823469645444e+00,1.791979122950373693e+01,3.288007819174742163e+00,9.613714201561674999e-01,-1.133427830730024677e-01,-2.508314295172404673e-01,7.316766995067997641e+02
-9.589647750602159348e+00,1.655991243023563086e+01,2.704479157119014321e+00,9.799187506200723874e-01,-6.164669354894190129e-02,-1.896231192633141827e-01,7.364162234454414602e+02
-9.437124171022741592e+00,1.523678790480028944e+01,2.172433578329314496e+00,9.918389300263429353e-01,-9.533688889144572437e-03,-1.271323942266783247e-01,7.411557473840831562e+02
-9.293572696963638080e+00,1.397672776500865588e+01,1.707610683244946026e+00,9.970513423120177521e-01,4.264379346644272401e-02,-6.378187574851217068e-02,7.458952713227248523e+02
-9.182554480661110574e+00,1.280658509392177713e+01,1.325745883042209083e+00,9.955207354023959399e-01,9.453287991605881235e-02,-0.000000000000000000e+00,7.506347952613665484e+02
-9.119508062698377771e+00,1.174388904618496099e+01,1.035655542575252941e+00,9.960102193182741592e-01,8.922803927095318555e-02,-0.000000000000000000e+00,7.553743192000082445e+02
-9.104508021317702315e+00,1.078675417465136022e+01,8.323225542095357143e-01,9.964714354596680979e-01,8.392066665364023015e-02,-0.000000000000000000e+00,7.601138431386499406e+02
-9.130229094549875413e+00,9.923397658651827768e+00,7.038105279918071000e-01,9.969043707393585585e-01,7.861091259778460461e-02,-0.000000000000000000e+00,7.648533670772916366e+02
-9.189621180950920731e+00,9.141887297746233543e+00,6.381784127238450122e-01,9.973090128821424649e-01,7.329892770547022374e-02,-0.000000000000000000e+00,7.695928910159333327e+02
-9.275910511398222980e+00,8.430146155671467412e+00,6.234812398704374647e-01,9.976853504137986883e-01,6.798486264188015327e-02,-0.000000000000000000e+00,7.743324149545750288e+02
-9.382600790452478634e+00,7.775957219303793799e+00,6.477708676503655116e-01,9.980333726614097900e-01,6.266886813105539134e-02,-0.000000000000000000e+00,7.790719388932167249e+02
-9.503474307221162931e+00,7.166968072246898025e+00,6.990967252754720640e-01,9.983530697536626697e-01,5.735109495165192223e-02,-0.000000000000000000e+00,7.838114628318584209e+02
-9.632593015660665614e+00,6.590695582655898832e+00,7.655065573030639392e-01,9.986444326211258993e-01,5.203169393269635457e-02,-0.000000000000000000e+00,7.885509867705001170e+02
-9.666670745556549704e+00,6.446015328887646056e+00,7.838691536903047430e-01,9.989074529965058513e-01,4.671081594933999825e-02,-0.000000000000000000e+00,7.897730006978659958e+02
-9.798479016877431391e+00,5.892036620189176510e+00,8.523788552164516252e-01,9.991421234148802899e-01,4.138861191861191446e-02,-0.000000000000000000e+00,7.945125246365076919e+02
-9.926169839987272425e+00,5.342137137679470626e+00,9.089839926171393580e-01,9.993484372139095351e-01,3.606523279517055702e-02,-0.000000000000000000e+00,7.992520485751493879e+02
-1.004472338047422397e+01,4.783440696086299404e+00,9.417319823032361814e-01,9.995263885340258669e-01,3.074082956705449093e-02,-0.000000000000000000e+00,8.039915725137910840e+02
-1.014940372471188645e+01,4.202960504763749938e+00,9.386717258212902149e-01,9.996759723186003921e-01,2.541555325143207700e-02,-0.000000000000000000e+00,8.087310964524327801e+02
-1.023575979850947526e+01,3.587603923917409343e+00,8.878543542318939608e-01,9.997971843140878168e-01,2.008955489035035152e-02,-0.000000000000000000e+00,8.134706203910744762e+02
-1.029962625484640526e+01,2.924177232606910426e+00,7.773339723844978622e-01,9.998900210701483493e-01,1.476298554648316531e-02,-0.000000000000000000e+00,8.182101443297161723e+02
-1.034055588078038035e+01,2.206024918196066054e+00,6.018737819758848140e-01,9.954408720995909787e-01,1.369064388809173791e-02,-9.438239467255922499e-02,8.229496682683578683e+02
-1.036505553467343788e+01,1.439770652154690245e+00,3.696517867703659199e-01,9.821034339830420068e-01,1.249605859100398966e-02,-1.879220409613274467e-01,8.276891922069995644e+02
-1.038285965897370922e+01,6.388361581444423898e-01,9.555490445637804253e-02,9.599967982009538492e-01,1.118989609491377775e-02,-2.797837265996863110e-01,8.324287161456412605e+02
-1.040339905363827810e+01,-1.831463622526200707e-01,-2.055273393269270998e-01,9.293183552154924421e-01,9.783819092554352226e-03,-3.691472220459631193e-01,8.371682400842829566e+02
-1.041686727392756495e+01,-5.865110202118675176e-01,-3.579639671668184975e-01,8.903420319769225211e-01,8.290382397399443867e-03,-4.552146039568612523e-01,8.394713424112674147e+02
-1.045836587293017317e+01,-1.414313257693527559e+00,-6.732133800779768196e-01,8.434158461260568007e-01,6.722920846808234929e-03,-5.372173795023695853e-01,8.442108663499091108e+02
-1.052471914355153082e+01,-2.228394458676002721e+00,-9.784283881555465578e-01,7.889587987346612374e-01,5.095430241277384975e-03,-6.144233479372097628e-01,8.489503902885508069e+02
-1.062428614391272852e+01,-3.014428803251796296e+00,-1.258717575456518967e+00,7.274571333130616102e-01,3.422442382401314105e-03,-6.861431381865763512e-01,8.536899142271925029e+02
-1.076511481958077177e+01,-3.757903097363671563e+00,-1.499191077662170191e+00,6.594599944664810698e-01,1.718895324798247340e-03,-7.517363640914536127e-01,8.584294381658341990e+02
-1.095494043056999267e+01,-4.444121981290244605e+00,-1.684961509265451296e+00,5.855745249376080874e-01,0.000000000000000000e+00,-8.106173423658352695e-01,8.631689621044758951e+02
-1.118324463444539241e+01,-5.068844177348645452e+00,-1.813265212225500855e+00,6.716984073749158179e-01,6.853039913206955547e-02,-7.376468219446686847e-01,8.679084860431175912e+02
-1.140362878249595369e+01,-5.649453599419901551e+00,-1.905582749513339724e+00,7.461088886413781429e-01,1.358657248020785635e-01,-6.518128804455273206e-01,8.726480099817592873e+02
-1.155222875745434585e+01,-6.215129558313154057e+00,-1.995517245426033037e+00,8.075083719499481782e-01,2.008317567561892780e-01,-5.546123283063197906e-01,8.773875339204009833e+02
-1.157324966470562622e+01,-6.358260753770098361e+00,-2.021395752158421821e+00,8.548261497133414766e-01,2.622955916125967457e-01,-4.477401884879377847e-01,8.785825676994058995e+02
-1.155201880057170882e+01,-6.947316138348721637e+00,-2.157768485072445230e+00,8.872370739708885790e-01,3.191853979743718983e-01,-3.330601391517288290e-01,8.833220916380475956e+02
-1.131752640222387285e+01,-7.592247292888032462e+00,-2.367434475776372782e+00,9.041759452688615806e-01,3.705091067044621878e-01,-2.125720156707247843e-01,8.880616155766892916e+02
-1.080803738579720452e+01,-8.326821999203412261e+00,-2.683989596380272236e+00,9.053473691451656702e-01,4.153717105649604169e-01,-8.837693841809150797e-02,8.928011395153309877e+02
-1.000984446932281458e+01,-9.160002397436452171e+00,-3.119237451653678495e+00,8.256751390036153326e-01,5.568010462858553611e-01,-9.072573883210938162e-02,8.975406634539726838e+02
-9.848896067906643736e+00,-9.310437783975253012e+00,-3.204397672660943552e+00,7.242418442621053609e-01,6.835556076324961206e-01,-9.068341796790957421e-02,8.983496677306200127e+02
-8.835917208009774981e+00,-1.019811188523021706e+01,-3.735614991572072885e+00,6.037208067794280764e-01,7.922947256510604053e-01,-8.825109159356385458e-02,9.030891916692617087e+02
-7.763630269171191145e+00,-1.105641415369062663e+01,-4.291040347816090339e+00,4.672884103395901767e-01,8.801525339990988739e-01,-8.349286471043811109e-02,9.078287156079034048e+02
-6.757104199519529786e+00,-1.181022961319129116e+01,-4.817105622787955177e+00,3.185403877650193616e-01,9.448134982410637539e-01,-7.653414208168657362e-02,9.125682395465451009e+02
-5.939726794545151733e+00,-1.238164364998092282e+01,-5.260244522528136457e+00,1.613970565685947101e-01,9.845734421991763075e-01,-6.755832329994031216e-02,9.173077634851867970e+02
-5.433181239689715447e+00,-1.268997031188821190e+01,-5.566895913744057900e+00,0.000000000000000000e+00,9.983844631532042824e-01,-5.680196945670087927e-02,9.220472874238284930e+02
-5.301845386741067756e+00,-1.268671134124600108e+01,-5.707185935060382853e+00,1.577639154339468830e-01,9.840014346221007679e-01,8.276305727039484639e-02,9.267868113624701891e+02
-5.498223676887015188e+00,-1.239217221368413924e+01,-5.698608632971303045e+00,3.084955197447258879e-01,9.257567367076305898e-01,2.186389232001809957e-01,9.315263353011118852e+02
-5.920067921294239532e+00,-1.186302524794434454e+01,-5.582346096566680238e+00,4.454759805358990410e-01,8.262466318043163449e-01,3.447689867114031026e-01,9.362658592397535813e+02
-5.964003130901987859e+00,-1.180839904110328575e+01,-5.568457202127828687e+00,5.625994282523669732e-01,6.899067787189859802e-01,4.555310307852203922e-01,9.366738776834386044e+02
-6.508841369622140327e+00,-1.110139602793838165e+01,-5.384422233353681975e+00,6.546451220383042724e-01,5.228145074107120038e-01,5.459878707746189663e-01,9.414134016220803005e+02
-7.070342875067590072e+00,-1.028530326311540399e+01,-5.178630022940357236e+00,7.175101586005097065e-01,3.324179193009969557e-01,6.121074245860637086e-01,9.461529255607219966e+02
-7.550500981266853984e+00,-9.423655720016258286e+00,-4.992275006134399895e+00,7.483923528965686911e-01,1.272038900121394978e-01,6.509424371574175083e-01,9.508924494993636927e+02
-7.889053148270928517e+00,-8.568713826609970496e+00,-4.838198457625997762e+00,7.667191557192132301e-01,1.143681995938970186e-01,6.317116835716820589e-01,9.556319734380053887e+02
-7.959931472259764718e+00,-8.328805732537363227e+00,-4.796400733768865443e+00,7.843785636195371724e-01,1.014329603648742861e-01,6.119310610452609600e-01,9.569899367144379312e+02
-8.148303478237075126e+00,-7.517101760098507057e+00,-4.612259867180057427e+00,8.013552095783027518e-01,8.840942861104605921e-02,5.916177828636077773e-01,9.617294606530796273e+02
-8.273128373356666287e+00,-6.754217655709043200e+00,-4.323626551214921676e+00,8.176343202094412677e-01,7.530893738728505760e-02,5.707895254390370487e-01,9.664689845917213233e+02
-8.369428231366578430e+00,-6.078180879942825854e+00,-4.008839129245977517e+00,8.245257201375020273e-01,6.890913660598833868e-02,5.616109575822473277e-01,9.709448363749478403e+02
-8.468966778044000776e+00,-5.382610738013371865e+00,-3.962754120090970833e+00,8.312747262050808050e-01,6.249743761854684859e-02,5.523354051809308274e-01,9.756843603135895364e+02
-8.575852751568808330e+00,-4.667657138361192892e+00,-4.682261196766417832e+00,8.378801759189939968e-01,5.607494484856153510e-02,5.429644659776944327e-01,9.804238842522312325e+02
-8.589270009106035886e+00,-4.580017115676389139e+00,-4.834149536483812071e+00,7.759546851501885056e-01,4.763462436425527219e-02,6.289859053708034553e-01,9.809881345987362238e+02
-8.631803511782168314e+00,-3.873533978948104028e+00,-6.565400427279999285e+00,7.052564958801330608e-01,3.865576340313642278e-02,7.078961837549831992e-01,9.857276585373779199e+02
-8.409435081897319364e+00,-3.329738517674778908e+00,-8.744135377490898975e+00,6.265849024297791559e-01,2.923987400335185255e-02,7.788031778413609940e-01,9.904671824760196159e+02
-7.782833040651565781e+00,-3.104669720252730247e+00,-1.063750162281320932e+01,5.408293392902194796e-01,1.949340872907790595e-02,8.409052460174047949e-01,9.952067064146613120e+02
-6.866469974171539370e+00,-3.224680831826955973e+00,-1.181250601853290405e+01,4.489593261275549585e-01,9.526557261368766641e-03,8.935002899777892971e-01,9.999462303533030081e+02
-5.951154930046307356e+00,-3.593969837010587032e+00,-1.248249539405711772e+01,3.520135077921496269e-01,-5.479992337523450314e-04,9.359936912336245252e-01,1.004685754291944704e+03
-5.267327179128728609e+00,-4.096138531945714867e+00,-1.305170959845081136e+01,3.096979608957247110e-01,1.197591438928843378e-02,9.507585132356016766e-01,1.009425278230586400e+03
-4.859065308583192078e+00,-4.652682108319630139e+00,-1.364428547842653394e+01,2.667117791109648306e-01,2.447389377469652225e-02,9.634645065623386184e-01,1.014164802169228096e+03
-4.676963567165292268e+00,-5.205983431682225770e+00,-1.424430377924346658e+01,2.231480446353355795e-01,3.691887584833452446e-02,9.740841579555344909e-01,1.018904326107869792e+03
-4.669237868930713908e+00,-5.678457196526557560e+00,-1.480882264583100927e+01,1.791010901817740864e-01,4.928391228887925996e-02,9.825944715311299982e-01,1.023424978356343786e+03
-4.784571494563008898e+00,-6.061755406763337461e+00,-1.537695412810462159e+01,1.346662947809894317e-01,6.154222786177587085e-02,9.889770185590583962e-01,1.028164502294985596e+03
-4.973147880506551211e+00,-6.278209438482721616e+00,-1.590550642360129352e+01,8.993987732009491032e-02,7.366727837904697707e-02,9.932179773654231658e-01,1.032904026233627292e+03
-5.180877828326342360e+00,-6.274748156657163456e+00,-1.637856419465941471e+01,4.501868826271244323e-02,8.563280815986809569e-02,9.953081632697938774e-01,1.037643550172268988e+03
-5.352511662947957660e+00,-5.999498778188058878e+00,-1.678021554485584943e+01,0.000000000000000000e+00,9.741290686787916486e-02,9.952430484926604315e-01,1.042383074110910684e+03
-5.443305949103022456e+00,-5.437635432906164468e+00,-1.708557890986361016e+01,-0.000000000000000000e+00,5.859982350367876069e-02,9.982805520885316142e-01,1.047122598049552380e+03
-5.451887776458560708e+00,-5.168885928694871623e+00,-1.716266130338287965e+01,-0.000000000000000000e+00,1.969792880090950882e-02,9.998049767799289667e-01,1.048850609055448558e+03
-5.402396805640232280e+00,-4.320369757944837907e+00,-1.724479849932810893e+01,-0.000000000000000000e+00,-1.923382039023228268e-02,9.998140127774323149e-01,1.053590132994090254e+03
-5.239729203777022448e+00,-3.371107330468990249e+00,-1.711715604771524468e+01,-0.000000000000000000e+00,-5.813642200670532389e-02,9.983076461837654403e-01,1.058329656932731950e+03
-4.958360003865600163e+00,-2.415186540599028930e+00,-1.672796235906231388e+01,-0.000000000000000000e+00,-9.695091807975529663e-02,9.952881590151888558e-01,1.063069180871373646e+03
-4.615535588430784486e+00,-1.643833477524381470e+00,-1.615167064101923700e+01,-1.720590788458706451e-03,-1.485777001253249796e-01,9.888982286303623637e-01,1.067196175604796281e+03
-4.122816159722577645e+00,-8.850198728090366007e-01,-1.527195407131701188e+01,-3.436519488167587809e-03,-1.998019433129332445e-01,9.798292574617445405e-01,1.071935699543437977e+03
-3.546778989671807381e+00,-3.046951973794055357e-01,-1.426366535814833192e+01,-5.143137716398366727e-03,-2.504848835089227843e-01,9.681058161502986703e-01,1.076675223482079673e+03
-2.909755784968478753e+00,4.916597271333025820e-02,-1.322556691583000443e+01,-6.835822320768659109e-03,-3.004892230822736043e-01,9.537596648741072380e-01,1.081414747420721369e+03
-2.235120700895699475e+00,1.290736396065479130e-01,-1.225642300166000176e+01,-8.509987894250357898e-03,-3.496795025689147796e-01,9.368296673276681474e-01,1.086154271359363065e+03
-1.550556070133715103e+00,-8.866008822055247707e-02,-1.142452694737853491e+01,-7.381971179301680466e-03,-2.800018329884705337e-01,9.599700412119853699e-01,1.090893795298004761e+03
-8.906277174308393496e-01,-5.805089739832458573e-01,-1.073723028853392947e+01,-6.214152954399265044e-03,-2.088144755996626245e-01,9.779345065407578641e-01,1.095633319236646457e+03
-7.564399008548097214e-01,-7.147175576608789660e-01,-1.060864778559199451e+01,-5.012829706870853413e-03,-1.365012487242273087e-01,9.906262063135008455e-01,1.096637862826583387e+03
-1.717982056746676367e-01,-1.460297129980570041e+00,-1.006859895184319598e+01,-3.784478561420137350e-03,-6.345204057627198968e-02,9.979767112857260702e-01,1.101377386765225083e+03
3.076263190688821592e-01,-2.373721879149405467e+00,-9.621990018473537631e+00,-2.535722363717315183e-03,9.939292518344073138e-03,9.999463888509855236e-01,1.106116910703866779e+03
6.470211522271787086e-01,-3.405677200920140812e+00,-9.245681964627767258e+00,-1.273293978636123088e-03,8.327704929197433936e-02,9.965246167472429084e-01,1.110856434642508475e+03
8.126357948527420660e-01,-4.506094307088422291e+00,-8.916531381256223909e+00,-3.999995304131439757e-06,1.561658166662475977e-01,9.877298404362626627e-01,1.115595958581150171e+03
7.932991453028797046e-01,-5.630259340498902532e+00,-8.619261688007993527e+00,-3.502422316965690592e-06,1.397076907694424774e-01,9.901917799679643695e-01,1.120335482519791867e+03
6.217572741542594095e-01,-6.745564816146733200e+00,-8.354333860071426088e+00,-3.003879503240916525e-06,1.232108788686506473e-01,9.923795036719034179e-01,1.125075006458433563e+03
3.937566194273811049e-01,-7.671055841042403678e+00,-8.161595885312749488e+00,-2.504504894711929159e-06,1.066799484464117931e-01,9.942924059762385802e-01,1.129121868167976345e+03
8.256644580563037017e-02,-8.700877676935393268e+00,-7.982787160778823221e+00,-2.004436753114909808e-06,9.011947642004634884e-02,9.959299573537451211e-01,1.133861392106618041e+03
-2.227941038891489978e-01,-9.651971540914288994e+00,-7.860081982201826634e+00,-1.503813531967476547e-06,7.353404787697578882e-02,9.972917044623560434e-01,1.138600916045259737e+03
-4.659676052778529143e-01,-1.050226275990108959e+01,-7.801800324369408735e+00,-1.002773838338385558e-06,5.692825480866876842e-02,9.983772702702270463e-01,1.143340439983901433e+03
-5.900997168485254685e-01,-1.123093348121092028e+01,-7.816258141671096560e+00,-5.014563945751669103e-07,4.030669484269473052e-02,9.991863541598587917e-01,1.148079963922543129e+03
-5.378496750393032544e-01,-1.181843098492966426e+01,-7.911766850170931065e+00,-0.000000000000000000e+00,2.367396997322678345e-02,9.997187320112477238e-01,1.152819487861184825e+03
-2.752768133671729678e-01,-1.225932882423005310e+01,-8.088056161637167563e+00,-1.297335474782814498e-06,6.843825302715125791e-02,9.976543517276280637e-01,1.157559011799826521e+03
1.838908571476348952e-01,-1.257447228210790335e+01,-8.327697452029351410e+00,-2.592065728932826702e-06,1.130651036438405088e-01,9.935865751566237414e-01,1.162298535738468217e+03
7.627228271873469634e-01,-1.278449172588473104e+01,-8.588220599657745424e+00,-3.881590832953052692e-06,1.574649072785034853e-01,9.875235708381242539e-01,1.166753985703076978e+03
1.497433720058100048e+00,-1.294753694153748746e+01,-8.877615019223654258e+00,-5.163321309517079182e-06,2.015485053055842413e-01,9.794775137707719681e-01,1.171493509641718674e+03
2.314826612840782172e+00,-1.307994677735654676e+01,-9.153887397129805592e+00,-6.434683332722032571e-06,2.452273740350603692e-01,9.694645609729961588e-01,1.176233033580360370e+03
3.174830927572102723e+00,-1.321231096999905397e+01,-9.391026233019804437e+00,-7.693123895931516063e-06,2.884138024543417833e-01,9.575048190451457275e-01,1.180972557519002066e+03
4.036719603687608071e+00,-1.337431255750044024e+01,-9.563022455228734842e+00,-8.936115937843508848e-06,3.310210683394158027e-01,9.436223038035528310e-01,1.185712081457643762e+03
4.859116739659451234e+00,-1.359471695260530666e+01,-9.643871040602894240e+00,-1.016116341650157614e-05,3.729636123819980997e-01,9.278448920673987299e-01,1.190451605396285458e+03
5.600005305465188599e+00,-1.390136111609361080e+01,-9.607572634130731259e+00,-1.136580632107140153e-05,4.141572099834055498e-01,9.102042656949579369e-01,1.195191129334927155e+03
6.216734925447886972e+00,-1.432114283100323426e+01,-9.428135168309577097e+00,-1.254762561132865195e-05,4.545191403705146627e-01,8.907358479813096697e-01,1.199930653273568851e+03
6.666029731123131796e+00,-1.488001007864485459e+01,-9.079575482172108636e+00,-1.370424807494821243e-05,4.939683526945071734e-01,8.694787325449020443e-01,1.204670177212210547e+03
6.903996283484997498e+00,-1.560295051729951865e+01,-8.535920939896977089e+00,-1.483335109284839431e-05,5.324256287791127029e-01,8.464756048454012971e-01,1.209409701150852243e+03
6.922803780184323408e+00,-1.613634515333349739e+01,-8.086663112312368895e+00,-1.593266730302704705e-05,5.698137421917369716e-01,8.217726564900198483e-01,1.212292251195785866e+03
6.710648863985123391e+00,-1.718631542015553038e+01,-7.132099326466922129e+00,-1.699998915352857377e-05,6.060576133181894143e-01,7.954194924999823391e-01,1.217031775134427562e+03
6.298155800010131422e+00,-1.834264262373385534e+01,-5.992621175039008818e+00,-4.540889644353970971e-06,7.071098581352692758e-01,7.071022899858621091e-01,1.221771299073069258e+03
6.028183475982195283e+00,-1.927629402344027554e+01,-4.875881633258067893e+00,7.999989140413108610e-06,7.954259202489223357e-01,6.060491773184206732e-01,1.226510823011710954e+03
6.167081390472825220e+00,-1.965917324204345107e+01,-4.103022820684133265e+00,6.003447275242286630e-06,8.086875497486893938e-01,5.882367268597092913e-01,1.230512537557586711e+03
6.764850431023480049e+00,-1.966294023361480825e+01,-3.370427171961842383e+00,4.003944591395868871e-06,8.215503719717091036e-01,5.701341826957058156e-01,1.235252061496228407e+03
7.647639558876202948e+00,-1.938514924478488055e+01,-2.699117106350162665e+00,2.002466653143350101e-06,8.340080464920200942e-01,5.517504674787980790e-01,1.239991585434870103e+03
8.627536280981781047e+00,-1.902682070584184970e+01,-1.955179250190908880e+00,0.000000000000000000e+00,8.460544322668346329e-01,5.330946422741880131e-01,1.244731109373511799e+03
9.560033392802949948e+00,-1.873200136091758949e+01,-1.046622537546457066e+00,-7.485117199941290766e-02,8.994901084321766938e-01,4.304797868465048416e-01,1.249470633312153495e+03
9.775191798080316019e+00,-1.867507354772114780e+01,-7.937013374671433308e-01,-1.482810603468766031e-01,9.358463359363484724e-01,3.196910425044504622e-01,1.250636107496832665e+03
1.059002693496316461e+01,-1.849605546135456891e+01,3.337652870783554548e-01,-2.188953843816090761e-01,9.544327972627357770e-01,2.028320640495047678e-01,1.255375631435474361e+03
1.130047106656352618e+01,-1.839421177203102076e+01,1.591903472423308541e+00,-2.853533283690548039e-01,9.548965881330802041e-01,8.212176302108813164e-02,1.260115155374116057e+03
1.190264360603569571e+01,-1.835167734081013435e+01,2.946919174434173616e+00,-3.463930005229988729e-01,9.372289161557754156e-01,-4.014782573907275248e-02,1.264854679312757753e+03
1.239302811395731929e+01,-1.835051086523247577e+01,4.365012313138839417e+00,-4.008553929132623317e-01,9.017652654092868092e-01,-1.616550651087414747e-01,1.269594203251399449e+03
1.276847287998405633e+01,-1.837270091156191043e+01,5.812378876750678991e+00,-4.477063874386528197e-01,8.491790242433989722e-01,-2.800927978964362075e-01,1.274333727190041145e+03
1.302619146577665887e+01,-1.840017195432887576e+01,7.255213025876351196e+00,-4.860563902112744472e-01,7.804686976410527555e-01,-3.932121533461937490e-01,1.279073251128682841e+03
1.316376320916957887e+01,-1.841479042268136723e+01,8.659709197808311387e+00,-5.151772217625080197e-01,6.969389471894419374e-01,-4.988652464037193202e-01,1.283812775067324537e+03
1.318311064277719957e+01,-1.840179350012223125e+01,9.996922820402748044e+00,-4.941961760398053127e-01,6.703344778792252878e-01,-5.535520096212757091e-01,1.288552299005966233e+03
1.309437563573555430e+01,-1.835333635184967349e+01,1.124763072321440482e+01,-4.711698250525133691e-01,6.409557283566804653e-01,-6.059478114891631018e-01,1.293291822944607929e+03
1.291178971798827035e+01,-1.826525104365764918e+01,1.239747372397357950e+01,-4.461934667608718486e-01,6.089242869392574864e-01,-6.558358049063931494e-01,1.298031346883249626e+03
1.264964424414697852e+01,-1.813368456954902186e+01,1.343209891217822083e+01,-4.193704694032804325e-01,5.743727203469485287e-01,-7.030095216392946433e-01,1.302770870821891322e+03
1.232228777738841430e+01,-1.795509977075544228e+01,1.433716054199115320e+01,-3.908118437044273419e-01,5.374440250714823675e-01,-7.472737267809531625e-01,1.307510394760533018e+03
1.224371453137666244e+01,-1.790991400070370787e+01,1.451589964372878683e+01,-3.606357834583678867e-01,4.982910355864810792e-01,-7.884452267249042468e-01,1.308545226280693896e+03
1.186003133225262651e+01,-1.767286263033586025e+01,1.523935984573943081e+01,-3.289671763871760413e-01,4.570757918468369430e-01,-8.263536273104673535e-01,1.313284750219335592e+03
1.144312329318690402e+01,-1.738211876257192401e+01,1.580146293441005056e+01,-2.959370872987276413e-01,4.139688686939323459e-01,-8.608420390031479297e-01,1.318024274157977288e+03
1.100750515975213339e+01,-1.703516718790370277e+01,1.618789241527419165e+01,-2.616822156817034672e-01,3.691486699408310090e-01,-8.917677261924535914e-01,1.322763798096618984e+03
1.056773779333259888e+01,-1.662981204355391895e+01,1.638434272089424937e+01,-2.263443299816221832e-01,3.228006900576384508e-01,-9.190026979204383162e-01,1.327503322035260680e+03
1.013842552822692156e+01,-1.616417755389277033e+01,1.637652010155125382e+01,-1.900696808981804653e-01,2.751167465112561716e-01,-9.424342375963479235e-01,1.332242845973902376e+03
9.734213524082363733e+00,-1.563670873643012449e+01,1.615014351538309612e+01,-1.530083961310036433e-01,2.262941859352027851e-01,-9.619653695049218411e-01,1.336982369912544073e+03
9.369785113811557764e+00,-1.504617207332548112e+01,1.569094551792910153e+01,-1.153138590777289807e-01,1.765350674135289510e-01,-9.775152601771540661e-01,1.341721893851185769e+03
9.059859147142491409e+00,-1.439165614835869178e+01,1.498467315103946618e+01,-7.714207405483466951e-02,1.260453262576606281e-01,-9.890195529615819492e-01,1.346461417789827465e+03
8.881320382986414685e+00,-1.388325387479295259e+01,1.430665541031781807e+01,-3.865102066752100496e-02,7.503392173588663283e-02,-9.964306344103434077e-01,1.349845436408356136e+03
8.703776485273619912e+00,-1.311337002691104914e+01,1.310152599018842778e+01,-0.000000000000000000e+00,2.371197228180339442e-02,-9.997178313761895252e-01,1.354584960346997832e+03
8.579683071771624370e+00,-1.234566176347519928e+01,1.170024104409805155e+01,-3.946803592501856202e-03,1.185691204680147139e-02,-9.999209150237998722e-01,1.359324484285639528e+03
8.398259065885715913e+00,-1.178002353909108635e+01,1.035716358459686504e+01,-7.892990921127130202e-03,0.000000000000000000e+00,-9.999678497920404530e-01,1.364064008224281224e+03
8.224763324005499143e+00,-1.163049333374945782e+01,9.750031839571173364e+00,-2.187402034357797120e-01,2.278644140713642630e-02,-9.755160180589309560e-01,1.366700001627259780e+03
7.756835853580432705e+00,-1.163733944940419462e+01,8.925125380218910109e+00,-4.196186226802294250e-01,4.453442119114191938e-02,-9.066062523662512529e-01,1.371439525565901477e+03
7.117334270508621330e+00,-1.185429089433926464e+01,8.293959519999940966e+00,-6.013734984814596007e-01,6.425280592272622493e-02,-7.963789878288242141e-01,1.376179049504543173e+03
6.337443334645008086e+00,-1.211734995165069861e+01,7.722633057989376937e+00,-7.557215732820177223e-01,8.104295423911778151e-02,-6.498576330580629890e-01,1.380918573443184869e+03
5.934270900309145169e+00,-1.221843339397557315e+01,7.445434500468668837e+00,-5.577835607591041800e-01,1.007222572826969725e-01,-8.238510340063039949e-01,1.383125740893989814e+03
