-9.619203906328319675e+00,1.051278962315561571e+01,-6.174949609854205740e-02,9.223006708738216153e-01,-3.057237175163864396e-01,2.364159069399176805e-01,8.813919053225350808e+01
-9.036087480721421983e+00,1.173760342666473022e+01,-9.529997247747613587e-01,8.702706919094336246e-01,-4.080562458936659587e-01,2.758931369044920756e-01,9.287871447089520416e+01
-8.377587787849011036e+00,1.303189778994734205e+01,-1.932111287614642459e+00,8.054150426573124522e-01,-5.043750470542259778e-01,3.113043863656442811e-01,9.761823840953690024e+01
-7.782255482301994043e+00,1.424046410792149686e+01,-2.903252472446779642e+00,7.286895268592309405e-01,-5.932606147937178331e-01,3.421277778551852777e-01,1.023577623481785963e+02
-7.343612812431833170e+00,1.525926062969575980e+01,-3.795803687883415822e+00,7.368022896298359603e-01,-5.266899622211257403e-01,4.239316804528471261e-01,1.070972862868202924e+02
-7.060010432255264590e+00,1.608223504171542828e+01,-4.589573487326740420e+00,7.366707000906902447e-01,-4.542259951858458877e-01,5.009920407804142606e-01,1.118368102254619885e+02
-6.928096628056574779e+00,1.654660626497277676e+01,-5.067571932848483840e+00,7.282962348008733544e-01,-3.766795393964278982e-01,5.724466079688974585e-01,1.149588926796404991e+02
-6.768355517715010095e+00,1.716711052844203422e+01,-5.729242087247799375e+00,7.117726013725617085e-01,-2.949182883921979692e-01,6.374958565413267886e-01,1.196984166182821951e+02
-6.627141338092760847e+00,1.769997617389604727e+01,-6.305506358248930354e+00,6.872846896911994907e-01,-2.098570949495617011e-01,6.954119318904685709e-01,1.244379405569238912e+02
-6.451571709683777911e+00,1.818391819306305024e+01,-6.801405252983794725e+00,6.551065030530325295e-01,-1.224477349785096369e-01,7.455467938744434475e-01,1.291774644955656015e+02
-6.187867119080173950e+00,1.865650094355062194e+01,-7.221984278272595148e+00,6.155980923750413725e-01,-3.366825839130695858e-02,7.873394674733549259e-01,1.339169884342072976e+02
-5.781360504382208276e+00,1.915412337006067389e+01,-7.572293625868224964e+00,5.692015277677465734e-01,5.548795396498383548e-02,8.203223194279380959e-01,1.386565123728489937e+02
-5.202658217141065577e+00,1.969498670698946441e+01,-7.860432627250787618e+00,5.054469911244964253e-01,5.129307995167543821e-02,8.613305748152356722e-01,1.433960363114906897e+02
-4.474329968253077716e+00,2.026281352341484521e+01,-8.100594018566724230e+00,4.387791017184502484e-01,4.680255684199433747e-02,8.973741809120365787e-01,1.481355602501323858e+02
-4.184373270403214384e+00,2.047042449141484255e+01,-8.180065810659142400e+00,3.695821249644863915e-01,4.204226747196570385e-02,9.282453881662462436e-01,1.498583834276345783e+02
-3.351194928601560985e+00,2.102341100963025866e+01,-8.388917336680279391e+00,2.982549030237791055e-01,3.703964951800046285e-02,9.537662591983232518e-01,1.545979073662762744e+02
-2.485762250012720553e+00,2.152821111437672386e+01,-8.590541809520171768e+00,2.252085562090290205e-01,3.182353736880601941e-02,9.737896942763233366e-01,1.593374313049179705e+02
-1.638925121432022181e+00,2.195474205651553490e+01,-8.802182294494205195e+00,1.508641136442812891e-01,2.642399594976458516e-02,9.882002791192692204e-01,1.640769552435596665e+02
-8.622264652109372651e-01,2.227401222607695530e+01,-9.041081224723059862e+00,7.565008681836621340e-02,2.087214745631944812e-02,9.969149501455719653e-01,1.688164791822013626e+02
-2.078932371603231521e-01,2.245813255764042538e+01,-9.324479326931850665e+00,0.000000000000000000e+00,1.519999199371368896e-02,9.998834733317381041e-01,1.735560031208430587e+02
2.889091853873543281e-01,2.248895101775272209e+01,-9.662215943769215443e+00,-0.000000000000000000e+00,5.747741775449780564e-03,9.999824815723347138e-01,1.782955270594847548e+02
6.280909446794934459e-01,2.236617790784145399e+01,-1.004932981709995055e+01,-0.000000000000000000e+00,-3.705020382306417701e-03,9.999921363746883118e-01,1.830350509981264508e+02
6.647216762176171301e-01,2.233848914742467429e+01,-1.010626634813281655e+01,-0.000000000000000000e+00,-1.315745001848069029e-02,9.999124369145540037e-01,1.836947673092740558e+02
8.623258675044660482e-01,2.206760823049553366e+01,-1.053019696707659669e+01,-0.000000000000000000e+00,-2.260870270276962857e-02,9.997433903505502650e-01,1.884342912479157519e+02
9.404386288413894013e-01,2.165999038099158724e+01,-1.097705545691507645e+01,-0.000000000000000000e+00,-3.205793411096133361e-02,9.994850118176640263e-01,1.931738151865574480e+02
9.170122931276714073e-01,2.112297291549496592e+01,-1.143447499222884112e+01,-0.000000000000000000e+00,-4.150430010015736942e-02,9.991373244258761055e-01,1.979133391251991441e+02
8.101328942657661791e-01,2.046349136537853752e+01,-1.189008807914253829e+01,-0.000000000000000000e+00,-5.094695678397787725e-02,9.987003592580795397e-01,2.026528630638408401e+02
6.380167534793861339e-01,1.968807735161561823e+01,-1.233152732522816031e+01,-0.000000000000000000e+00,-6.038506060774351952e-02,9.981741553672924816e-01,2.073923870024825362e+02
4.190070523727540408e-01,1.880285650403527598e+01,-1.274642620940357673e+01,-0.000000000000000000e+00,-6.981776842362756585e-02,9.975587597731652156e-01,2.121319109411242323e+02
1.715703929266275685e-01,1.781354642519049136e+01,-1.312241985178984116e+01,-0.000000000000000000e+00,-7.924423756577153588e-02,9.968542274577827378e-01,2.168714348797659284e+02
-8.570665537312861793e-02,1.672545469900261494e+01,-1.344714578349371692e+01,-0.000000000000000000e+00,-8.866362592535818876e-02,9.960606213607599013e-01,2.216109588184076244e+02
-3.341210210772634914e-01,1.554347694434331295e+01,-1.370824471628175267e+01,-0.000000000000000000e+00,-9.807509202563477468e-02,9.951780123736354566e-01,2.263504827570493205e+02
-5.548566087860585805e-01,1.427209491371572092e+01,-1.389336131210504455e+01,-0.000000000000000000e+00,-1.074777950968808377e-01,9.942064793335588790e-01,2.310900066956910166e+02
-6.469993895298403741e-01,1.365785647250756973e+01,-1.395561093112291218e+01,-0.000000000000000000e+00,-1.168708951513131450e-01,9.931461090162760907e-01,2.332890381136658107e+02
-8.033267547350887439e-01,1.233032086292321416e+01,-1.403947226579114904e+01,3.204669457962769537e-04,-5.880065388116560016e-02,9.982686914847954673e-01,2.380285620523075067e+02
-8.596954240169819572e-01,1.110608628026574252e+01,-1.405566766993844396e+01,6.398446498911922750e-04,-5.306028803975711703e-04,9.999986545262882220e-01,2.427680859909492028e+02
-7.681557659667404003e-01,1.017097380766708525e+01,-1.403059713341033898e+01,9.570477866497265193e-04,5.774124123053508278e-02,9.983301223121142653e-01,2.475076099295908989e+02
-4.764021590921007632e-01,9.709761446585256195e+00,-1.399066320283048803e+01,1.270998420251536658e-03,1.158168560489946514e-01,9.932687654470839789e-01,2.522471338682325950e+02
-3.918200164746952208e-01,9.675954042367633789e+00,-1.398233523327196082e+01,6.354994621832927041e-04,1.165624013544296761e-01,9.931821594800774866e-01,2.532220613187311642e+02
-2.047884101103694399e-01,9.641315993879791435e+00,-1.396607922500571064e+01,0.000000000000000000e+00,1.173078338390019654e-01,9.930945933284813787e-01,2.552519230788333289e+02
3.341851737465096339e-01,9.954835818314922591e+00,-1.394426409064322314e+01,-3.941649654515572143e-02,7.840627886641894639e-02,9.961409514856246483e-01,2.599914470174750249e+02
9.921346059875021384e-01,1.075190622611613023e+01,-1.394596942932035866e+01,-7.871172603177374605e-02,3.926353534432381470e-02,9.961229035463856629e-01,2.647309709561167210e+02
1.673105460313734527e+00,1.170129980862002306e+01,-1.396267349613368935e+01,-1.177648228227758248e-01,0.000000000000000000e+00,9.930405059701521431e-01,2.694704948947584171e+02
1.802760263003178043e+00,1.188393826227903283e+01,-1.396697315958844499e+01,-1.679883403598090019e-01,1.768020929829746540e-02,9.856294068784235973e-01,2.703921655938089543e+02
2.432320108546812687e+00,1.273708774658040888e+01,-1.398273600240834647e+01,-2.177263799542146216e-01,3.530932247110497163e-02,9.753699171185985506e-01,2.751316895324506504e+02
2.992791791268098578e+00,1.343549707061075438e+01,-1.397187283240227806e+01,-2.668352035013187851e-01,5.283639306061095609e-02,9.622916864143145066e-01,2.798712134710923465e+02
3.492896194519610642e+00,1.399784415853233455e+01,-1.390667247473423984e+01,-3.151728913456910419e-01,7.021076953483017247e-02,9.464325102211631480e-01,2.846107374097340426e+02
3.941765858362944908e+00,1.444260010643741765e+01,-1.375942712560201286e+01,-3.625997523844344816e-01,8.738224165515344477e-02,9.278382204972561720e-01,2.893502613483757386e+02
4.348943159617411069e+00,1.478802243453887222e+01,-1.350243407816156704e+01,-4.089787277289213541e-01,1.043011855681169053e-01,9.065625532503469586e-01,2.940897852870174347e+02
4.724378448489618521e+00,1.505214836332231876e+01,-1.310799744821349400e+01,-4.541757867598858467e-01,1.209187072024037607e-01,8.826669932488763193e-01,2.988293092256591308e+02
5.078428141890887204e+00,1.525278811421103420e+01,-1.254842989957089650e+01,-4.980603144322192088e-01,1.371867835569935135e-01,8.562205963456062108e-01,3.035688331643008269e+02
5.421852773552632954e+00,1.540751823529381781e+01,-1.179605436902624227e+01,-5.405054887110686268e-01,1.530584014724629405e-01,8.272997899270443378e-01,3.083083571029425229e+02
5.765815001051108446e+00,1.553367495266435938e+01,-1.082320579083639700e+01,-5.813886470493114800e-01,1.684876934847052699e-01,7.959881520649374487e-01,3.130478810415842190e+02
6.121877569852878231e+00,1.564834754791925420e+01,-9.602232820647563116e+00,-6.205916408480682822e-01,1.834300703687445910e-01,7.623761700075182279e-01,3.177874049802259151e+02
6.502001234497317483e+00,1.576837176236062454e+01,-8.105499558779230895e+00,-6.580011768765487989e-01,1.978423499898593896e-01,7.265609787077731418e-01,3.225269289188676112e+02
6.765101252551328770e+00,1.585442250237822748e+01,-6.993385059342853260e+00,-6.935091446651042713e-01,2.116828820898674079e-01,6.886460801435927426e-01,3.256133222141516512e+02
7.203408611536224804e+00,1.601228721302354074e+01,-5.051754785358601119e+00,-7.270129289257662997e-01,2.249116686481305305e-01,6.487410442400828314e-01,3.303528461527933473e+02
7.657518519127489043e+00,1.604897008663657232e+01,-3.079390312238674987e+00,-8.498265231567917466e-01,-5.222387069684532035e-01,-7.113096008795406766e-02,3.350923700914350434e+02
7.911186398510714035e+00,1.592564930300276060e+01,-2.071734281323876825e+00,-9.097764572098885338e-01,-4.109769391039692077e-01,-5.833312464285502624e-02,3.379201917663621089e+02
8.258108563105123423e+00,1.539376993337204524e+01,-8.445365813721693593e-01,-9.550453190685268545e-01,-2.930832919055429975e-01,-4.459397415261633774e-02,3.426597157050038049e+02
8.477070805993754732e+00,1.449234695607792389e+01,-1.259467269584673976e-01,-9.849026284388019414e-01,-1.704602042659174865e-01,-3.013521620656858108e-02,3.473992396436455010e+02
8.553145814264000890e+00,1.337544746991260425e+01,3.269006037420916222e-01,-9.988665941599867981e-01,-4.508642607873940278e-02,-1.519016967036251192e-02,3.521387635822871971e+02
8.474945552676681260e+00,1.219739644747191676e+01,7.568872852278697438e-01,-9.967118863751273095e-01,8.101490948214877530e-02,-0.000000000000000000e+00,3.568782875209288932e+02
8.240073038419380325e+00,1.107267527851988298e+01,1.336636994336993567e+00,-9.881071024184754359e-01,8.136618632167620657e-02,-1.304679955961468574e-01,3.616178114595705892e+02
7.931103884125632497e+00,1.018032607960634550e+01,1.966775132607046839e+00,-9.626095435414799839e-01,8.032641892100959857e-02,-2.587054949309475216e-01,3.656524552456843367e+02
7.455430272180930018e+00,9.202902818693432963e+00,2.832145659190262066e+00,-9.206551204992963200e-01,7.791338339109914191e-02,-3.825201351410187911e-01,3.703919791843260327e+02
6.864537601930996047e+00,8.301773951771208360e+00,3.808694047491452572e+00,-8.629610931471517477e-01,7.416833345428397450e-02,-4.997951680721581247e-01,3.751315031229677288e+02
6.174780707820343828e+00,7.470374779707759316e+00,4.858230406851308913e+00,-7.905138075906543715e-01,6.915529512814544422e-02,-6.085256487328443153e-01,3.798710270616094249e+02
5.402326891741367376e+00,6.701798843329542343e+00,5.942560296668244924e+00,-7.045518329220857856e-01,6.295997208294094871e-02,-7.068527121281976688e-01,3.846105510002511210e+02
4.563153154259174116e+00,5.988801097672300067e+00,7.023487104440895301e+00,-6.065447859311449141e-01,5.568828039410664982e-02,-7.930953524565079737e-01,3.893500749388928170e+02
3.673043446911240295e+00,5.323801121973747996e+00,8.062814423911934369e+00,-4.981682058965949400e-01,4.746453774744382320e-02,-8.657791613869482150e-01,3.940895988775345131e+02
2.747585945737667235e+00,4.698886365140053201e+00,9.022348433200338746e+00,-3.812749090793531859e-01,3.842933806123980528e-02,-9.236615341587349759e-01,3.988291228161762092e+02
1.802170346195690387e+00,4.105815426417048997e+00,9.863900272809399183e+00,-2.578633126949887444e-01,2.873714786581556963e-02,-9.657529126543267228e-01,4.035686467548179053e+02
8.519851796118868004e-01,3.536021370992606272e+00,1.054928842340126671e+01,-1.300432699198392217e-01,1.855366553521800924e-02,-9.913337023654570368e-01,4.083081706934596014e+02
-8.798484867464818893e-02,2.980615080253988136e+00,1.104034108322889729e+01,-0.000000000000000000e+00,8.052988517103476865e-03,-9.999665741302532496e-01,4.130476946321012974e+02
-1.005934844770518755e+00,2.435315764930446658e+00,1.131494935726424345e+01,7.179938475375804985e-02,9.900696027012587108e-03,-9.973689510751647669e-01,4.177872185707429935e+02
-1.896063163751796177e+00,1.905465913928036992e+00,1.138311944598955172e+01,1.432279009352980526e-01,1.169726319999376228e-02,-9.896195948084915983e-01,4.225267425093846896e+02
-2.755370995863675176e+00,1.401231198903860387e+00,1.127092120971612843e+01,2.139165983971364482e-01,1.343341021832884265e-02,-9.767585333242420065e-01,4.272662664480263857e+02
-3.580613514122651164e+00,9.327123630834516232e-01,1.100443573253161667e+01,2.835003483573944050e-01,1.510016935012634814e-02,-9.588521978743292928e-01,4.320057903866680817e+02
-4.368300411529203231e+00,5.099411380990349629e-01,1.060975369787307265e+01,3.516197293272951274e-01,1.668893126859932394e-02,-9.359930798475335489e-01,4.367453143253097778e+02
-5.114696464925808428e+00,1.428761679514836958e-01,1.011297376365191525e+01,4.179228835645096840e-01,1.819148952035789038e-02,-9.082992530568663181e-01,4.414848382639514739e+02
-5.815822125469720660e+00,-1.586010595655523714e-01,9.540200937006867221e+00,4.820673344667645854e-01,1.960008291310247688e-02,-8.759137639010728948e-01,4.462243622025931700e+02
-5.914673587687344636e+00,-1.972876398613372939e-01,9.451907583858064399e+00,5.437217555214434173e-01,2.090743560383445665e-02,-8.390038925478860987e-01,4.469163079477719407e+02
-6.565404487344324025e+00,-4.200647885026137507e-01,8.830098082758125244e+00,6.025676816765530575e-01,2.210679468055801525e-02,-7.977602889522359408e-01,4.516558318864136368e+02
-7.161598288980717264e+00,-5.562527286959051409e-01,8.188330558361444744e+00,6.583011542951283657e-01,2.319196504337184619e-02,-7.523959881686531626e-01,4.563953558250553328e+02
-7.698510733026206587e+00,-5.962380884556859328e-01,7.552719205213707987e+00,7.106342911974230514e-01,2.415734140477549322e-02,-7.031453100402740297e-01,4.611348797636970289e+02
-8.171155962520023408e+00,-5.305014356755570759e-01,6.949377826517436851e+00,7.592967736813335256e-01,2.499793724387228827e-02,-6.502626489439448099e-01,4.658744037023387250e+02
-8.574307249988228463e+00,-3.496213029911975356e-01,6.404418208173691340e+00,8.040372428394787496e-01,2.570941056486302986e-02,-5.940211598388590586e-01,4.706139276409804211e+02
-8.902497750708478819e+00,-4.427820310768161571e-02,5.943948492916889315e+00,8.446245979590508712e-01,2.628808632671160092e-02,-5.347113474020146473e-01,4.753534515796221172e+02
-9.150021282321242566e+00,3.947413657454089675e-01,5.594071554619985065e+00,8.808491902955615238e-01,2.673097542804184559e-02,-4.726395655347609970e-01,4.800929755182638132e+02
-9.312283506216232354e+00,9.707616574914471608e-01,5.370948834562847551e+00,8.623641991612768232e-01,-2.289093202982059663e-02,-5.057687151614920218e-01,4.848324994569055093e+02
-9.387332317106872992e+00,1.675473938399662188e+00,5.270864796826280063e+00,8.405146309177697894e-01,-7.242352207441928036e-02,-5.369245651523156804e-01,4.895720233955472054e+02
-9.374776683687020551e+00,2.494774593881924130e+00,5.280161698228101663e+00,8.153857344323164336e-01,-1.216735400390672878e-01,-5.659855596561249591e-01,4.943115473341889015e+02
-9.274525846166678633e+00,3.414567994119556360e+00,5.385174977417123365e+00,7.870755528903530251e-01,-1.704488339414362563e-01,-5.928383161124824996e-01,4.990510712728305975e+02
-9.197848474879252834e+00,3.894539626761865936e+00,5.463318079881871014e+00,7.556945412446107735e-01,-2.185591041480285102e-01,-6.173780675792907013e-01,5.013812089587234482e+02
-8.986753608474190358e+00,4.917036354306756785e+00,5.665994687895145709e+00,7.213651352484010681e-01,-2.658166458054332937e-01,-6.395090714459946701e-01,5.061207328973651443e+02
-8.689278224507813064e+00,6.005190088557997186e+00,5.930317147963761748e+00,6.842212737549727697e-01,-3.120370811430489000e-01,-6.591449829391323734e-01,5.108602568360068403e+02
-8.306377932822332610e+00,7.144974179233651412e+00,6.242604381757758780e+00,6.444078761470068972e-01,-3.570400787916310215e-01,-6.762091919644390714e-01,5.155997807746485933e+02
-7.839307644239560169e+00,8.322391978591095807e+00,6.589172317608397833e+00,6.020802769350003247e-01,-4.006500573128046194e-01,-6.906351219726528656e-01,5.203393047132902893e+02
-7.289621269909154044e+00,9.523481735858215558e+00,6.956334742550231987e+00,5.574036197300480389e-01,-4.426968701963346353e-01,-7.023664896841853578e-01,5.250788286519319854e+02
-6.659171389290238885e+00,1.073432148753236071e+01,7.330404154468774358e+00,5.105522129546844479e-01,-4.830164696542571523e-01,-7.113575246603375257e-01,5.298183525905736815e+02
-5.950108886784345685e+00,1.194103394315031252e+01,7.697692614312756199e+00,4.617088498044175093e-01,-5.214515466236417929e-01,-7.175731478651778961e-01,5.345578765292153776e+02
-5.164882557040558098e+00,1.312979136613383879e+01,8.044512598327909103e+00,4.110640951117814912e-01,-5.578521444824623421e-01,-7.209891085219359841e-01,5.392974004678570736e+02
-4.306238678956366250e+00,1.428682044931280082e+01,8.357177850269874142e+00,3.588155418936438967e-01,-5.920762440854447917e-01,-7.215920787302132489e-01,5.440369244064987697e+02
-3.379856546011044571e+00,1.540134363963971431e+01,8.626166342895887240e+00,3.299168848634580486e-01,-5.976925906129555432e-01,-7.306958438428275970e-01,5.487764483451404658e+02
-2.396893112843972329e+00,1.646859549285548141e+01,8.850282980107687436e+00,3.007049545485550035e-01,-6.027413942411222747e-01,-7.391057718480343874e-01,5.535159722837821619e+02
-1.371209429971600446e+00,1.748700182908560663e+01,9.032497561790941987e+00,2.712074892228979461e-01,-6.072178609437399732e-01,-7.468138771750415517e-01,5.582554962224238579e+02
-3.166870538501461718e-01,1.845528166811936188e+01,9.175782489273739628e+00,2.414524982765717809e-01,-6.111177401518803620e-01,-7.538128406631132705e-01,5.629950201610655540e+02
7.527743484822678743e-01,1.937244753105497352e+01,9.283112580000796754e+00,2.114682356206828151e-01,-6.144373287891711222e-01,-7.600960165103245458e-01,5.677345440997072501e+02
1.823259396517419528e+00,2.023780571088709124e+01,9.357464882095365866e+00,1.812831728602287418e-01,-6.171734747873457438e-01,-7.656574385830950957e-01,5.724740680383489462e+02
2.676973086261018597e+00,2.089800431162377592e+01,9.397072142220928015e+00,1.509259722603657483e-01,-6.193235800786781597e-01,-7.704918260804559660e-01,5.762830677374723791e+02
3.718536830427616291e+00,2.167544658985521622e+01,9.423974368297788118e+00,1.204254595317284376e-01,-6.208856030624648747e-01,-7.745945885476791526e-01,5.810225916761140752e+02
4.722117912865734013e+00,2.240065445885712592e+01,9.426255573366004725e+00,8.981059646063041524e-02,-6.218580605432213471e-01,-7.779618302345140401e-01,5.857621156147557713e+02
5.673762969613652452e+00,2.307405275199489481e+01,9.406899454417487760e+00,5.911045341011648274e-02,-6.222400291387503168e-01,-7.805903537939005155e-01,5.905016395533974674e+02
6.559514456121224413e+00,2.369636094237651136e+01,9.368891047060179389e+00,2.835418171796328518e-02,-6.220311461567522571e-01,-7.824776633176498963e-01,5.952411634920391634e+02
7.365413051866368299e+00,2.426859323284682901e+01,9.315216539603479617e+00,-2.429013982180004694e-03,-6.212316099391438362e-01,-7.836219667062135352e-01,5.999806874306808595e+02
8.077500065800238715e+00,2.479205861481175432e+01,9.248863087090834156e+00,-3.320990349024550287e-02,-6.198421796737618727e-01,-7.840221773702942265e-01,6.047202113693225556e+02
8.681819842485690941e+00,2.526836089588211820e+01,9.172818625286952354e+00,-6.395925879348104970e-02,-6.178641746736255325e-01,-7.836779152626793810e-01,6.094597353079642517e+02
9.164422168792675905e+00,2.569939869632847262e+01,9.090071684628441062e+00,-9.464788181812955337e-02,-6.152994731244474380e-01,-7.825895072393238561e-01,6.141992592466059477e+02
9.511364681014102374e+00,2.608736541433987099e+01,9.003611204147428992e+00,-1.252466321527189452e-01,-6.121505103015730809e-01,-7.807579867493299464e-01,6.189387831852476438e+02
9.708715272265758145e+00,2.643474916008162623e+01,8.916426345376740059e+00,-1.557264547166543056e-01,-6.084202762580439572e-01,-7.781850928541210743e-01,6.236783071238893399e+02
9.742554500033939746e+00,2.674433265854852593e+01,8.831506306244897075e+00,-1.860584073478547817e-01,-6.041123129859715668e-01,-7.748732685767344419e-01,6.284178310625310360e+02
9.598977993734360226e+00,2.701919312121177441e+01,8.751840134969455676e+00,-2.162136882832583207e-01,-5.992307110539161208e-01,-7.708256585827948371e-01,6.331573550011727320e+02
9.264098862145893065e+00,2.726270208645942361e+01,8.680416543957413467e+00,-2.461636635061097977e-01,-5.937801057234536328e-01,-7.660461061953649509e-01,6.378968789398144281e+02
8.724050100582616096e+00,2.747852522883167126e+01,8.620223723721654352e+00,-2.758798939340847411e-01,-5.877656725486144484e-01,-7.605391497464993877e-01,6.426364028784561242e+02
7.964986997667577562e+00,2.767062213705419182e+01,8.574249156822308038e+00,-3.053341624224403250e-01,-5.811931224623629877e-01,-7.543100182689584932e-01,6.473759268170978203e+02
6.973089541571938277e+00,2.784324606087428577e+01,8.545479431841581430e+00,-3.344985005565671021e-01,-5.740686963547761978e-01,-7.473646265321626236e-01,6.521154507557395164e+02
5.734564825582831205e+00,2.800094362670661496e+01,8.536900057400268693e+00,-3.633452152085111519e-01,-5.663991591480607157e-01,-7.397095694270903188e-01,6.568549746943812124e+02
5.577449152629290197e+00,2.801845610356046379e+01,8.537176233718748009e+00,-3.918469148322585305e-01,-5.581917933740256910e-01,-7.313521157054414523e-01,6.573997440653656668e+02
4.074534552596737136e+00,2.816763181868671850e+01,8.552224342510404753e+00,-4.199765354728211553e-01,-5.494543922600975128e-01,-7.223002010789976168e-01,6.621392680040073628e+02
2.329553880722432968e+00,2.830175903368019164e+01,8.585688012551488058e+00,-2.485924457744723148e-01,-5.857675069561850689e-01,-7.714118379303657180e-01,6.668787919426490589e+02
4.293060877485920801e-01,2.839412470919744891e+01,8.616294828828603869e+00,-6.897918907131329880e-02,-6.026898605379259477e-01,-7.949872976852214723e-01,6.716183158812907550e+02
-1.506579652282094672e+00,2.840550916342270327e+01,8.614687897072549561e+00,1.129174884084330061e-01,-5.996612779033404506e-01,-7.922461691897638714e-01,6.763578398199324511e+02
-3.359427212819550146e+00,2.829412302472735163e+01,8.551512321196566901e+00,2.910762554624261034e-01,-5.767820131696964614e-01,-7.632791905919688036e-01,6.810973637585741471e+02
-5.011534756544659075e+00,2.801562313763204415e+01,8.397417031753663608e+00,4.595995113955018141e-01,-5.348094314391391713e-01,-7.090452462074303686e-01,6.858368876972158432e+02
-6.382955569166441911e+00,2.754045035835282462e+01,8.134393212887257363e+00,5.307710748534825163e-01,-5.049178606502405797e-01,-6.806893712232388038e-01,6.905764116358575393e+02
-7.467744079871845742e+00,2.687221750427328715e+01,7.767112022884401945e+00,5.983530455168354356e-01,-4.716115502745361066e-01,-6.477300198149593680e-01,6.953159355744992354e+02
-8.296404112577560497e+00,2.603196866908285401e+01,7.311587704801458365e+00,6.618883700564149875e-01,-4.351157504761898887e-01,-6.103900959819028582e-01,7.000554595131409314e+02
-8.740259257124913361e+00,2.539208630713276094e+01,6.968456129598906479e+00,7.209473627297795506e-01,-3.956772815903600304e-01,-5.689221291244574985e-01,7.032395558749495876e+02
-9.257182739047157938e+00,2.434651789612045647e+01,6.415871137465275709e+00,7.751306112368488987e-01,-3.535628648587141876e-01,-5.236065661523174875e-01,7.079790798135912837e+02
-9.596249613717089844e+00,2.318876862360390234e+01,5.817853758624099036e+00,8.240716778276627741e-01,-3.090573185919011090e-01,-4.747498748061704243e-01,7.127186037522329798e+02
-9.785809005828452811e+00,2.194213640497883233e+01,5.190433040277618204e+00,8.674395774011461890e-01,-2.624616319590003521e-01,-4.226824710216552927e-01,7.174581276908746759e+02
-9.853612164369158322e+00,2.063051098343934697e+01,4.549639855469153282e+00,9.049410158421082873e-01,-2.140909294304653987e-01,-3.677564843530515826e-01,7.221976516295163719e+02
-9.826807668671444063e+00,1.927836392058210535e+01,3.911505905161654528e+00,9.363223734649943619e-01,-1.642723396395877333e-01,-3.103433765681098411e-01,7.269371755681580680e+02
-9.731936700227370451e+00,1.791073852529188670e+01,3.292062720277431076e+00,9.613714201561674999e-01,-1.133427830730024677e-01,-2.508314295172404673e-01,7.316766995067997641e+02
-9.594928380537737667e+00,1.655323972174780423e+01,2.707340663745716913e+00,9.799187506200723874e-01,-6.164669354894190129e-02,-1.896231192633141827e-01,7.364162234454414602e+02
-9.441095175259379246e+00,1.523202385739195996e+01,2.173367932605644981e+00,9.918389300263429353e-01,-9.533688889144572437e-03,-1.271323942266783247e-01,7.411557473840831562e+02
-9.295128364912290664e+00,1.397378845170515405e+01,1.706169560211171499e+00,9.970513423120177521e-01,4.264379346644272401e-02,-6.378187574851217068e-02,7.458952713227248523e+02
-9.181093582402967357e+00,1.280576188663905057e+01,1.321766418582863922e+00,9.955207354023959399e-01,9.453287991605881235e-02,-0.000000000000000000e+00,7.506347952613665484e+02
-9.114804152809959703e+00,1.174569715497875499e+01,1.029207182986791924e+00,9.960102193182741592e-01,8.922803927095318555e-02,-0.000000000000000000e+00,7.553743192000082445e+02
-9.096503845644507535e+00,1.079164879804917732e+01,8.236007307169147529e-01,9.964714354596680979e-01,8.392066665364023015e-02,-0.000000000000000000e+00,7.601138431386499406e+02
-9.118951146583498257e+00,9.931639310008259613e+00,6.930834840029926891e-01,9.969043707393585585e-01,7.861091259778460461e-02,-0.000000000000000000e+00,7.648533670772916366e+02
-9.175196686880982000e+00,9.153549647725714777e+00,6.257871871343286818e-01,9.973090128821424649e-01,7.329892770547022374e-02,-0.000000000000000000e+00,7.695928910159333327e+02
-9.258584332663559735e+00,8.445124084973448575e+00,6.098396458355678229e-01,9.976853504137986883e-01,6.798486264188015327e-02,-0.000000000000000000e+00,7.743324149545750288e+02
-9.362752242568028294e+00,7.793975080489853546e+00,6.333654668261309295e-01,9.980333726614097900e-01,6.266886813105539134e-02,-0.000000000000000000e+00,7.790719388932167249e+02
-9.481633893662145596e+00,7.187588159515039266e+00,6.844867975287592943e-01,9.983530697536626697e-01,5.735109495165192223e-02,-0.000000000000000000e+00,7.838114628318584209e+02
-9.609459075590828903e+00,6.613326808393172662e+00,7.513240658933366678e-01,9.986444326211258993e-01,5.203169393269635457e-02,-0.000000000000000000e+00,7.885509867705001170e+02
-9.643403305986502971e+00,6.468774472255076624e+00,7.698364258680812089e-01,9.989074529965058513e-01,4.671081594933999825e-02,-0.000000000000000000e+00,7.897730006978659958e+02
-9.775603915116002796e+00,5.913691254738025371e+00,8.391260717659789758e-01,9.991421234148802899e-01,4.138861191861191446e-02,-0.000000000000000000e+00,7.945125246365076919e+02
-9.904849351215954556e+00,5.361789049766470860e+00,8.973070914352631045e-01,9.993484372139095351e-01,3.606523279517055702e-02,-0.000000000000000000e+00,7.992520485751493879e+02
-1.002634122123259885e+01,4.800068246943367534e+00,9.324994568543676365e-01,9.995263885340258669e-01,3.074082956705449093e-02,-0.000000000000000000e+00,8.039915725137910840e+02
-1.013558131957711161e+01,4.215428173862428629e+00,9.328245710577386385e-01,9.996759723186003921e-01,2.541555325143207700e-02,-0.000000000000000000e+00,8.087310964524327801e+02
-1.022837245432901554e+01,3.594672052725456091e+00,8.864060079970550454e-01,9.997971843140878168e-01,2.008955489035035152e-02,-0.000000000000000000e+00,8.134706203910744762e+02
-1.030081924134542781e+01,2.924511967480119434e+00,7.813702523022711954e-01,9.998900210701483493e-01,1.476298554648316531e-02,-0.000000000000000000e+00,8.182101443297161723e+02
-1.035233859911826571e+01,2.198478684182397114e+00,6.122809005102664015e-01,9.954408720995909787e-01,1.369064388809173791e-02,-9.438239467255922499e-02,8.229496682683578683e+02
-1.038845639644057783e+01,1.423916633309768365e+00,3.865724613949456656e-01,9.821034339830420068e-01,1.249605859100398966e-02,-1.879220409613274467e-01,8.276891922069995644e+02
-1.041747681273104398e+01,6.152075562012929710e-01,1.181164314471243038e-01,9.599967982009538492e-01,1.118989609491377775e-02,-2.797837265996863110e-01,8.324287161456412605e+02
-1.044736454151958860e+01,-2.130960991803193538e-01,-1.792130305388684453e-01,9.293183552154924421e-01,9.783819092554352226e-03,-3.691472220459631193e-01,8.371682400842829566e+02
-1.046426582237737257e+01,-6.186291713429644679e-01,-3.296919483567671838e-01,8.903420319769225211e-01,8.290382397399443867e-03,-4.552146039568612523e-01,8.394713424112674147e+02
-1.050941048344034101e+01,-1.448399261718366526e+00,-6.413908936283605478e-01,8.434158461260568007e-01,6.722920846808234929e-03,-5.372173795023695853e-01,8.442108663499091108e+02
-1.057373773296535724e+01,-2.260884470021184978e+00,-9.474671701024929282e-01,7.889587987346612374e-01,5.095430241277384975e-03,-6.144233479372097628e-01,8.489503902885508069e+02
-1.066401837694234978e+01,-3.040981433960159741e+00,-1.234044184257916843e+00,7.274571333130616102e-01,3.422442382401314105e-03,-6.861431381865763512e-01,8.536899142271925029e+02
-1.078667788354769819e+01,-3.773441458839462470e+00,-1.487246556212354243e+00,6.594599944664810698e-01,1.718895324798247340e-03,-7.517363640914536127e-01,8.584294381658341990e+02
-1.094779517942130376e+01,-4.442876218983911052e+00,-1.693200983716480534e+00,5.855745249376080874e-01,0.000000000000000000e+00,-8.106173423658352695e-01,8.631689621044758951e+02
-1.113819673271430943e+01,-5.046251719690044268e+00,-1.847939560083793786e+00,6.716984073749158179e-01,6.853039913206955547e-02,-7.376468219446686847e-01,8.679084860431175912e+02
-1.131893684195510552e+01,-5.605807158802419643e+00,-1.967302475179581123e+00,7.461088886413781429e-01,1.358657248020785635e-01,-6.518128804455273206e-01,8.726480099817592873e+02
-1.143678496128733357e+01,-6.157202097363028592e+00,-2.077034574585299609e+00,8.075083719499481782e-01,2.008317567561892780e-01,-5.546123283063197906e-01,8.773875339204009833e+02
-1.145444283792340023e+01,-6.297759868648228121e+00,-2.105264964147877116e+00,8.548261497133414766e-01,2.622955916125967457e-01,-4.477401884879377847e-01,8.785825676994058995e+02
-1.144407252289920329e+01,-6.884389830728907533e+00,-2.235576148761372117e+00,8.872370739708885790e-01,3.191853979743718983e-01,-3.330601391517288290e-01,8.833220916380475956e+02
-1.125387685172740326e+01,-7.547028391656308344e+00,-2.414237452475918477e+00,9.041759452688615806e-01,3.705091067044621878e-01,-2.125720156707247843e-01,8.880616155766892916e+02
-1.083332903611074904e+01,-8.324971932208669045e+00,-2.666989906613155270e+00,9.053473691451656702e-01,4.153717105649604169e-01,-8.837693841809150797e-02,8.928011395153309877e+02
-1.016644813426855798e+01,-9.231893440622865654e+00,-3.005776584310725141e+00,8.616506901685668796e-01,4.994493885523347276e-01,-9.003552858171118278e-02,8.975406634539726838e+02
-1.003205581402383118e+01,-9.397518483906148745e+00,-3.071036302326703549e+00,8.102153360888384448e-01,5.790413948761343743e-01,-9.088548941750063115e-02,8.983496677306200127e+02
-9.173592095179019523e+00,-1.039153267791127533e+01,-3.479659586402331417e+00,7.515032596030427614e-01,6.534328979884140853e-01,-9.091918737431292641e-02,9.030891916692617087e+02
-8.218214506092708760e+00,-1.139516941949412221e+01,-3.924195083133632522e+00,6.860417665837081902e-01,7.219557731195781480e-01,-9.013631988478600088e-02,9.078287156079034048e+02
-7.247943533399680227e+00,-1.233867102442074248e+01,-4.375193588354930441e+00,6.144187802950372701e-01,7.839946026554153180e-01,-8.854391807621109223e-02,9.125682395465451009e+02
-6.343151919602026290e+00,-1.315052845437364759e+01,-4.803205491598797394e+00,5.372775612450293448e-01,8.389922031672781833e-01,-8.615628362131701190e-02,9.173077634851867970e+02
-5.582550237980992591e+00,-1.375750864791842254e+01,-5.178782610006568810e+00,4.553109300856610364e-01,8.864546294702425611e-01,-8.299486029622467342e-02,9.220472874238284930e+02
-5.043172645101571483e+00,-1.408468203752288872e+01,-5.472480022172826253e+00,3.692550454327766518e-01,9.259556107775199774e-01,-7.908804139876998707e-02,9.267868113624701891e+02
-4.800362811721211820e+00,-1.405545025036827766e+01,-5.654857901839686285e+00,2.798827924722412375e-01,9.571403791155679297e-01,-7.447091475602508892e-02,9.315263353011118852e+02
-4.927760032902697596e+00,-1.359157399068063476e+01,-5.696483351356109281e+00,1.879968417133438263e-01,9.797288556177540242e-01,-6.918494761001402205e-02,9.362658592397535813e+02
-4.956305455117115066e+00,-1.353101621254333153e+01,-5.693319572803060780e+00,9.442244021316816005e-02,9.935181660765003420e-01,-6.327761421032113143e-02,9.366738776834386044e+02
-5.531803103798423216e+00,-1.254521166404627763e+01,-5.562217473493316078e+00,0.000000000000000000e+00,9.983844631532042824e-01,-5.680196945670087927e-02,9.414134016220803005e+02
-6.474202508941228729e+00,-1.111323080892179682e+01,-5.286345180127032251e+00,5.068698197220069535e-01,7.623362237635495919e-01,4.023983943722789780e-01,9.461529255607219966e+02
-7.401149583392439446e+00,-9.625612271655464625e+00,-5.008354651598717844e+00,7.483923528965686911e-01,1.272038900121394978e-01,6.509424371574175083e-01,9.508924494993636927e+02
-7.962306902467104486e+00,-8.458410366274495829e+00,-4.840411156970821693e+00,7.667191557192132301e-01,1.143681995938970186e-01,6.317116835716820589e-01,9.556319734380053887e+02
-8.054326653228660149e+00,-8.188079494019556037e+00,-4.810087628820125083e+00,7.843785636195371724e-01,1.014329603648742861e-01,6.119310610452609600e-01,9.569899367144379312e+02
-8.248855169558380496e+00,-7.365646764864944629e+00,-4.668997103426031359e+00,8.013552095783027518e-01,8.840942861104605921e-02,5.916177828636077773e-01,9.617294606530796273e+02
-8.306935974714441784e+00,-6.679216642726206743e+00,-4.379706714785634780e+00,8.176343202094412677e-01,7.530893738728505760e-02,5.707895254390370487e-01,9.664689845917213233e+02
-8.353939088855875994e+00,-6.049908859854080667e+00,-3.991120174646768604e+00,8.245257201375020273e-01,6.890913660598833868e-02,5.616109575822473277e-01,9.709448363749478403e+02
-8.441227456959893516e+00,-5.379238038396439769e+00,-3.842628350007700977e+00,8.312747262050808050e-01,6.249743761854684859e-02,5.523354051809308274e-01,9.756843603135895364e+02
-8.572876841785809887e+00,-4.726304580093575680e+00,-4.533458628253911549e+00,8.378801759189939968e-01,5.607494484856153510e-02,5.429644659776944327e-01,9.804238842522312325e+02
-8.591330652956086666e+00,-4.650339872996385182e+00,-4.684258201248882258e+00,7.759546851501885056e-01,4.763462436425527219e-02,6.289859053708034553e-01,9.809881345987362238e+02
-8.679641325516060490e+00,-4.060976851282917188e+00,-6.424950493290044307e+00,7.052564958801330608e-01,3.865576340313642278e-02,7.078961837549831992e-01,9.857276585373779199e+02
-8.488214375822829894e+00,-3.616130937570805948e+00,-8.693162252053262762e+00,6.265849024297791559e-01,2.923987400335185255e-02,7.788031778413609940e-01,9.904671824760196159e+02
-7.852768028740810813e+00,-3.389919546831392516e+00,-1.065708569028621788e+01,5.408293392902194796e-01,1.949340872907790595e-02,8.409052460174047949e-01,9.952067064146613120e+02
-6.898034156504147418e+00,-3.402527107513091398e+00,-1.181506528166376668e+01,4.489593261275549585e-01,9.526557261368766641e-03,8.935002899777892971e-01,9.999462303533030081e+02
-5.940127640602759662e+00,-3.629831245139679474e+00,-1.241509834312321026e+01,3.520135077921496269e-01,-5.479992337523450314e-04,9.359936912336245252e-01,1.004685754291944704e+03
-5.226872441086823251e+00,-4.026223538034475524e+00,-1.292960069549226709e+01,3.096979608957247110e-01,1.197591438928843378e-02,9.507585132356016766e-01,1.009425278230586400e+03
-4.806480424298692711e+00,-4.528821217519729103e+00,-1.350037967230245251e+01,2.667117791109648306e-01,2.447389377469652225e-02,9.634645065623386184e-01,1.014164802169228096e+03
-4.626476780375737619e+00,-5.068096724122764130e+00,-1.410393218783361924e+01,2.231480446353355795e-01,3.691887584833452446e-02,9.740841579555344909e-01,1.018904326107869792e+03
-4.626414607430766601e+00,-5.555718884619656350e+00,-1.468878580256892974e+01,1.791010901817740864e-01,4.928391228887925996e-02,9.825944715311299982e-01,1.023424978356343786e+03
-4.752118000261539521e+00,-5.973298278753140345e+00,-1.528861029495673129e+01,1.346662947809894317e-01,6.154222786177587085e-02,9.889770185590583962e-01,1.028164502294985596e+03
-4.954365546284083877e+00,-6.229052111950148074e+00,-1.585177800466346731e+01,8.993987732009491032e-02,7.366727837904697707e-02,9.932179773654231658e-01,1.032904026233627292e+03
-5.174705378590448213e+00,-6.258133371619723384e+00,-1.635478626716944817e+01,4.501868826271244323e-02,8.563280815986809569e-02,9.953081632697938774e-01,1.037643550172268988e+03
-5.353198369482134567e+00,-5.996940245573877171e+00,-1.677413614984359569e+01,0.000000000000000000e+00,9.741290686787916486e-02,9.952430484926604315e-01,1.042383074110910684e+03
-5.441609121390271753e+00,-5.424022139897937578e+00,-1.707896307622721466e+01,-0.000000000000000000e+00,5.859982350367876069e-02,9.982805520885316142e-01,1.047122598049552380e+03
-5.450995717668223328e+00,-5.154542998532931186e+00,-1.716160200563483329e+01,-0.000000000000000000e+00,1.969792880090950882e-02,9.998049767799289667e-01,1.048850609055448558e+03
-5.409375777651504791e+00,-4.318753922681674240e+00,-1.727395647368014053e+01,-0.000000000000000000e+00,-1.923382039023228268e-02,9.998140127774323149e-01,1.053590132994090254e+03
-5.246980488357527506e+00,-3.371999701415825168e+00,-1.715392146032623089e+01,-0.000000000000000000e+00,-5.813642200670532389e-02,9.983076461837654403e-01,1.058329656932731950e+03
-4.959826278603453709e+00,-2.416856184543469954e+00,-1.674855463501866026e+01,-0.000000000000000000e+00,-9.695091807975529663e-02,9.952881590151888558e-01,1.063069180871373646e+03
-4.615558107548714872e+00,-1.642103111418983463e+00,-1.616343707734908719e+01,-1.720590788458706451e-03,-1.485777001253249796e-01,9.888982286303623637e-01,1.067196175604796281e+03
-4.126258049870794586e+00,-8.761711644947868249e-01,-1.528464252851629546e+01,-3.436519488167587809e-03,-1.998019433129332445e-01,9.798292574617445405e-01,1.071935699543437977e+03
-3.550849933982552109e+00,-2.938484080619695460e-01,-1.426682712635212624e+01,-5.143137716398366727e-03,-2.504848835089227843e-01,9.681058161502986703e-01,1.076675223482079673e+03
-2.912602459513401687e+00,5.764681708777964764e-02,-1.321650547389922892e+01,-6.835822320768659109e-03,-3.004892230822736043e-01,9.537596648741072380e-01,1.081414747420721369e+03
-2.235856510996010460e+00,1.315813415079966631e-01,-1.224019418517111646e+01,-8.509987894250357898e-03,-3.496795025689147796e-01,9.368296673276681474e-01,1.086154271359363065e+03
-1.549262847884676164e+00,-9.509283120131128975e-02,-1.141131329029648356e+01,-7.381971179301680466e-03,-2.800018329884705337e-01,9.599700412119853699e-01,1.090893795298004761e+03
-8.883014242149336326e-01,-5.984491794639007489e-01,-1.073708970211158586e+01,-6.214152954399265044e-03,-2.088144755996626245e-01,9.779345065407578641e-01,1.095633319236646457e+03
-7.534608571219872930e-01,-7.331214565605909117e-01,-1.060980140877753186e+01,-5.012829706870853413e-03,-1.365012487242273087e-01,9.906262063135008455e-01,1.096637862826583387e+03
-1.640530082454403904e-01,-1.471450000922132739e+00,-1.006722516687657176e+01,-3.784478561420137350e-03,-6.345204057627198968e-02,9.979767112857260702e-01,1.101377386765225083e+03
3.175824057049176918e-01,-2.379681637851030818e+00,-9.622062797424185021e+00,-2.535722363717315183e-03,9.939292518344073138e-03,9.999463888509855236e-01,1.106116910703866779e+03
6.559050305498683731e-01,-3.408268088002075036e+00,-9.248424660581292756e+00,-1.273293978636123088e-03,8.327704929197433936e-02,9.965246167472429084e-01,1.110856434642508475e+03
8.164897291616054487e-01,-4.506923356260287505e+00,-8.920416652149910419e+00,-3.999995304131439757e-06,1.561658166662475977e-01,9.877298404362626627e-01,1.115595958581150171e+03
7.880761305756346369e-01,-5.630545845970409857e+00,-8.621250927281788989e+00,-3.502422316965690592e-06,1.397076907694424774e-01,9.901917799679643695e-01,1.120335482519791867e+03
6.044363600042338414e-01,-6.745770788649657845e+00,-8.352356056935908768e+00,-3.003879503240916525e-06,1.232108788686506473e-01,9.923795036719034179e-01,1.125075006458433563e+03
3.695205450794097346e-01,-7.674092822934451164e+00,-8.152020245236546003e+00,-2.504504894711929159e-06,1.066799484464117931e-01,9.942924059762385802e-01,1.129121868167976345e+03
5.570424309842524763e-02,-8.709802797154056364e+00,-7.961427906243122798e+00,-2.004436753114909808e-06,9.011947642004634884e-02,9.959299573537451211e-01,1.133861392106618041e+03
-2.506829610314226797e-01,-9.664592126252593118e+00,-7.831167042123203359e+00,-1.503813531967476547e-06,7.353404787697578882e-02,9.972917044623560434e-01,1.138600916045259737e+03
-4.915453267949353999e-01,-1.051538160931168697e+01,-7.771764605941703152e+00,-1.002773838338385558e-06,5.692825480866876842e-02,9.983772702702270463e-01,1.143340439983901433e+03
-6.082430450339810779e-01,-1.124033365041772292e+01,-7.793743129611392817e+00,-5.014563945751669103e-07,4.030669484269473052e-02,9.991863541598587917e-01,1.148079963922543129e+03
-5.416024543520919776e-01,-1.181886122699109620e+01,-7.907620068523031343e+00,-0.000000000000000000e+00,2.367396997322678345e-02,9.997187320112477238e-01,1.152819487861184825e+03
-2.568404624821829518e-01,-1.224521824693301042e+01,-8.113819829612717527e+00,-1.297335474782814498e-06,6.843825302715125791e-02,9.976543517276280637e-01,1.157559011799826521e+03
2.310886452052841045e-01,-1.254137448095848484e+01,-8.392586428013935063e+00,-2.592065728932826702e-06,1.130651036438405088e-01,9.935865751566237414e-01,1.162298535738468217e+03
8.354487288914819176e-01,-1.273434252393478339e+01,-8.693648653346603083e+00,-3.881590832953052692e-06,1.574649072785034853e-01,9.875235708381242539e-01,1.166753985703076978e+03
1.593342619699363416e+00,-1.288178453736449569e+01,-9.026441542252371164e+00,-5.163321309517079182e-06,2.015485053055842413e-01,9.794775137707719681e-01,1.171493509641718674e+03
2.433394068555247536e+00,-1.299938610612469603e+01,-9.344040892187662095e+00,-6.434683332722032571e-06,2.452273740350603692e-01,9.694645609729961588e-01,1.176233033580360370e+03
3.313001604309487202e+00,-1.311953425358473169e+01,-9.616596379364988678e+00,-7.693123895931516063e-06,2.884138024543417833e-01,9.575048190451457275e-01,1.180972557519002066e+03
4.188834481152937883e+00,-1.327369287200235703e+01,-9.814260476669636191e+00,-8.936115937843508848e-06,3.310210683394158027e-01,9.436223038035528310e-01,1.185712081457643762e+03
5.016840346171271392e+00,-1.349239074921143633e+01,-9.907190312533828092e+00,-1.016116341650157614e-05,3.729636123819980997e-01,9.278448920673987299e-01,1.190451605396285458e+03
5.752252984248002576e+00,-1.380520969525723807e+01,-9.865549529594714429e+00,-1.136580632107140153e-05,4.141572099834055498e-01,9.102042656949579369e-01,1.195191129334927155e+03
6.349600139876736549e+00,-1.424077276996076158e+01,-9.659510143047317143e+00,-1.254762561132865195e-05,4.545191403705146627e-01,8.907358479813096697e-01,1.199930653273568851e+03
6.762711415438494633e+00,-1.482673261238782381e+01,-9.259254398606007186e+00,-1.370424807494821243e-05,4.939683526945071734e-01,8.694787325449020443e-01,1.204670177212210547e+03
6.944726245495967731e+00,-1.558975987319335310e+01,-8.634976629988923236e+00,-1.483335109284839431e-05,5.324256287791127029e-01,8.464756048454012971e-01,1.209409701150852243e+03
6.944263562429006775e+00,-1.613525475291571709e+01,-8.153048481219386190e+00,-1.593266730302704705e-05,5.698137421917369716e-01,8.217726564900198483e-01,1.212292251195785866e+03
6.722645217043460519e+00,-1.718684388499107030e+01,-7.168593157948744299e+00,-1.699998915352857377e-05,6.060576133181894143e-01,7.954194924999823391e-01,1.217031775134427562e+03
6.286364130337794620e+00,-1.835277387334015842e+01,-5.976123088909001346e+00,-4.540889644353970971e-06,7.071098581352692758e-01,7.071022899858621091e-01,1.221771299073069258e+03
6.013979331440057585e+00,-1.927510447737428123e+01,-4.826919404055751706e+00,7.999989140413108610e-06,7.954259202489223357e-01,6.060491773184206732e-01,1.226510823011710954e+03
6.146220677452638448e+00,-1.966084434341689047e+01,-4.044077228691135950e+00,6.003447275242286630e-06,8.086875497486893938e-01,5.882367268597092913e-01,1.230512537557586711e+03
6.728306974951828501e+00,-1.968479642186504819e+01,-3.316941544991879987e+00,4.003944591395868871e-06,8.215503719717091036e-01,5.701341826957058156e-01,1.235252061496228407e+03
7.626294709819318562e+00,-1.940053890134373304e+01,-2.681078078434501410e+00,2.002466653143350101e-06,8.340080464920200942e-01,5.517504674787980790e-01,1.239991585434870103e+03
8.630495923197686992e+00,-1.902727614084531993e+01,-1.975467359719646598e+00,0.000000000000000000e+00,8.460544322668346329e-01,5.330946422741880131e-01,1.244731109373511799e+03
9.580103621335810615e+00,-1.872220865753737584e+01,-1.088356929103172721e+00,-7.485117199941290766e-02,8.994901084321766938e-01,4.304797868465048416e-01,1.249470633312153495e+03
9.799412039338321279e+00,-1.866255138128465774e+01,-8.426394583300379493e-01,-1.482810603468766031e-01,9.358463359363484724e-01,3.196910425044504622e-01,1.250636107496832665e+03
1.063191365476759032e+01,-1.847089669680698876e+01,2.462669475660549945e-01,-2.188953843816090761e-01,9.544327972627357770e-01,2.028320640495047678e-01,1.255375631435474361e+03
1.135035622167708880e+01,-1.836319504607993025e+01,1.484962430171614001e+00,-2.853533283690548039e-01,9.548965881330802041e-01,8.212176302108813164e-02,1.260115155374116057e+03
1.195242871071372015e+01,-1.832036596585360400e+01,2.837377145422654401e+00,-3.463930005229988729e-01,9.372289161557754156e-01,-4.014782573907275248e-02,1.264854679312757753e+03
1.243622644456646675e+01,-1.832329056156762093e+01,4.267434164489044335e+00,-4.008553929132623317e-01,9.017652654092868092e-01,-1.616550651087414747e-01,1.269594203251399449e+03
1.280025135374035372e+01,-1.835281814825528457e+01,5.739051719623226688e+00,-4.477063874386528197e-01,8.491790242433989722e-01,-2.800927978964362075e-01,1.274333727190041145e+03
1.304341218982552775e+01,-1.838977289446367891e+01,7.216145450235160297e+00,-4.860563902112744472e-01,7.804686976410527555e-01,-3.932121533461937490e-01,1.279073251128682841e+03
