-9.567452805875662492e+00,9.571774802696754847e+00,5.331310600693441870e-01,9.763732344861912882e-01,-1.364161951553972962e-01,1.675826025549962961e-01,8.339966659361181200e+01
-9.370608600583866021e+00,1.047711097443906603e+01,-9.884857666069440940e-02,9.404760038488881868e-01,-2.603971127327495694e-01,2.183946653778794378e-01,8.813919053225350808e+01
-8.911392845295258880e+00,1.167780357433395899e+01,-9.497818679242736595e-01,8.864823254789151452e-01,-3.793675481171457919e-01,2.650044340185639391e-01,9.287871447089520416e+01
-8.332912679619845164e+00,1.299142516529195035e+01,-1.914381953199332909e+00,8.154311203529217567e-01,-4.910382986428319940e-01,3.065150522015023804e-01,9.761823840953690024e+01
-7.782295799212144871e+00,1.423878618931535733e+01,-2.887354890974115129e+00,7.286895268592309405e-01,-5.932606147937178331e-01,3.421277778551852777e-01,1.023577623481785963e+02
-7.360871147298527539e+00,1.529830851491487564e+01,-3.790853746752514741e+00,7.368022896298359603e-01,-5.266899622211257403e-01,4.239316804528471261e-01,1.070972862868202924e+02
-7.072722259062000916e+00,1.615891639415855963e+01,-4.601930971438126683e+00,7.366707000906902447e-01,-4.542259951858458877e-01,5.009920407804142606e-01,1.118368102254619885e+02
-6.940064502900671783e+00,1.662838253841213998e+01,-5.081798683170465125e+00,7.282962348008733544e-01,-3.766795393964278982e-01,5.724466079688974585e-01,1.149588926796404991e+02
-6.786831759214490667e+00,1.722804906611014886e+01,-5.731405239062004497e+00,7.117726013725617085e-01,-2.949182883921979692e-01,6.374958565413267886e-01,1.196984166182821951e+02
-6.643294192017876298e+00,1.774079827290754352e+01,-6.300582393205038656e+00,6.872846896911994907e-01,-2.098570949495617011e-01,6.954119318904685709e-01,1.244379405569238912e+02
-6.461193254568136091e+00,1.820674615953434028e+01,-6.793850370333760935e+00,6.551065030530325295e-01,-1.224477349785096369e-01,7.455467938744434475e-01,1.291774644955656015e+02
-6.191370951265085409e+00,1.866492119202483124e+01,-7.215734117333325592e+00,6.155980923750413725e-01,-3.366825839130695858e-02,7.873394674733549259e-01,1.339169884342072976e+02
-5.783779006854225635e+00,1.915324930367611245e+01,-7.570763020910452390e+00,5.692015277677465734e-01,5.548795396498383548e-02,8.203223194279380959e-01,1.386565123728489937e+02
-5.212051906622083841e+00,1.969064229917661280e+01,-7.866425372976975083e+00,5.054469911244964253e-01,5.129307995167543821e-02,8.613305748152356722e-01,1.433960363114906897e+02
-4.498616586100546932e+00,2.025981636563176025e+01,-8.116122651797221366e+00,4.387791017184502484e-01,4.680255684199433747e-02,8.973741809120365787e-01,1.481355602501323858e+02
-4.209798668726890014e+00,2.046867142519989713e+01,-8.197281982990746840e+00,3.695821249644863915e-01,4.204226747196570385e-02,9.282453881662462436e-01,1.498583834276345783e+02
-3.366840884665411870e+00,2.102566206638200796e+01,-8.405281741137333285e+00,2.982549030237791055e-01,3.703964951800046285e-02,9.537662591983232518e-01,1.545979073662762744e+02
-2.495532091614975467e+00,2.153448337375458266e+01,-8.605984108443825775e+00,2.252085562090290205e-01,3.182353736880601941e-02,9.737896942763233366e-01,1.593374313049179705e+02
-1.645052958010385424e+00,2.196317524245779040e+01,-8.815751031873141130e+00,1.508641136442812891e-01,2.642399594976458516e-02,9.882002791192692204e-01,1.640769552435596665e+02
-8.652959469630102651e-01,2.228086890197921477e+01,-9.050943885471356865e+00,7.565008681836621340e-02,2.087214745631944812e-02,9.969149501455719653e-01,1.688164791822013626e+02
-2.068562076260955784e-01,2.245779877097479726e+01,-9.327922451047321317e+00,0.000000000000000000e+00,1.519999199371368896e-02,9.998834733317381041e-01,1.735560031208430587e+02
2.961872302238816035e-01,2.247507671196897050e+01,-9.656119430946418447e+00,-0.000000000000000000e+00,5.747741775449780564e-03,9.999824815723347138e-01,1.782955270594847548e+02
6.437832121303802557e-01,2.233395511831431790e+01,-1.003111539225695914e+01,-0.000000000000000000e+00,-3.705020382306417701e-03,9.999921363746883118e-01,1.830350509981264508e+02
6.807234839518749858e-01,2.230246874829004611e+01,-1.008652624749226412e+01,-0.000000000000000000e+00,-1.315745001848069029e-02,9.999124369145540037e-01,1.836947673092740558e+02
8.740464548636343034e-01,2.199698295309229579e+01,-1.050123202826983970e+01,-0.000000000000000000e+00,-2.260870270276962857e-02,9.997433903505502650e-01,1.884342912479157519e+02
9.490092951245694408e-01,2.155583851878196455e+01,-1.093846104882375592e+01,-0.000000000000000000e+00,-3.205793411096133361e-02,9.994850118176640263e-01,1.931738151865574480e+02
9.232380816645576749e-01,2.098903997358145190e+01,-1.138686259331116268e+01,-0.000000000000000000e+00,-4.150430010015736942e-02,9.991373244258761055e-01,1.979133391251991441e+02
8.145477807368471934e-01,2.030618275631080039e+01,-1.183508523941710422e+01,-0.000000000000000000e+00,-5.094695678397787725e-02,9.987003592580795397e-01,2.026528630638408401e+02
6.409387323230146816e-01,1.951645014845523818e+01,-1.227177756498071659e+01,-0.000000000000000000e+00,-6.038506060774351952e-02,9.981741553672924816e-01,2.073923870024825362e+02
4.205931151218637032e-01,1.862861025219338984e+01,-1.268558885462113217e+01,-0.000000000000000000e+00,-6.981776842362756585e-02,9.975587597731652156e-01,2.121319109411242323e+02
1.718713923239565677e-01,1.765101301463355554e+01,-1.306516980632837566e+01,-0.000000000000000000e+00,-7.924423756577153588e-02,9.968542274577827378e-01,2.168714348797659284e+02
-8.669126162888624032e-02,1.659158729849387370e+01,-1.339917323799359572e+01,-0.000000000000000000e+00,-8.866362592535818876e-02,9.960606213607599013e-01,2.216109588184076244e+02
-3.363885530944246693e-01,1.545783799945977677e+01,-1.367625479385253762e+01,-0.000000000000000000e+00,-9.807509202563477468e-02,9.951780123736354566e-01,2.263504827570493205e+02
-5.583466798774943118e-01,1.425684321047068615e+01,-1.388507365079428624e+01,-0.000000000000000000e+00,-1.074777950968808377e-01,9.942064793335588790e-01,2.310900066956910166e+02
-6.441533832353132372e-01,1.367574900727924181e+01,-1.395142546221418201e+01,-0.000000000000000000e+00,-1.168708951513131450e-01,9.931461090162760907e-01,2.332890381136658107e+02
-7.746250559077058062e-01,1.241083543775174824e+01,-1.402909167520190081e+01,3.204669457962769537e-04,-5.880065388116560016e-02,9.982686914847954673e-01,2.380285620523075067e+02
-8.156277672587227690e-01,1.123124713599425739e+01,-1.404563848837653062e+01,6.398446498911922750e-04,-5.306028803975711703e-04,9.999986545262882220e-01,2.427680859909492028e+02
-7.305085940245581444e-01,1.027939392692352527e+01,-1.402480772921462915e+01,9.570477866497265193e-04,5.774124123053508278e-02,9.983301223121142653e-01,2.475076099295908989e+02
-4.793881695245291175e-01,9.696863762852286683e+00,-1.399034353986685275e+01,1.270998420251536658e-03,1.158168560489946514e-01,9.932687654470839789e-01,2.522471338682325950e+02
-4.033968189444173125e-01,9.635079597989749445e+00,-1.398344463835946883e+01,6.354994621832927041e-04,1.165624013544296761e-01,9.931821594800774866e-01,2.532220613187311642e+02
-2.111787615144637975e-01,9.613624517702675121e+00,-1.397295966923187471e+01,0.000000000000000000e+00,1.173078338390019654e-01,9.930945933284813787e-01,2.552519230788333289e+02
3.554962269229538507e-01,1.001786001847363394e+01,-1.396509235088979572e+01,-3.941649654515572143e-02,7.840627886641894639e-02,9.961409514856246483e-01,2.599914470174750249e+02
1.011637575067255490e+00,1.081481075647782575e+01,-1.396686074167975278e+01,-7.871172603177374605e-02,3.926353534432381470e-02,9.961229035463856629e-01,2.647309709561167210e+02
1.679803393671648326e+00,1.172518393035298701e+01,-1.396008346654910959e+01,-1.177648228227758248e-01,0.000000000000000000e+00,9.930405059701521431e-01,2.694704948947584171e+02
1.805423060030266313e+00,1.189638329953164053e+01,-1.395635164139834750e+01,-1.679883403598090019e-01,1.768020929829746540e-02,9.856294068784235973e-01,2.703921655938089543e+02
2.410822078096275689e+00,1.268369619408421123e+01,-1.391384890287285891e+01,-2.177263799542146216e-01,3.530932247110497163e-02,9.753699171185985506e-01,2.751316895324506504e+02
2.954420341040675968e+00,1.332850270348391675e+01,-1.382276210275897910e+01,-2.668352035013187851e-01,5.283639306061095609e-02,9.622916864143145066e-01,2.798712134710923465e+02
3.444000964521298336e+00,1.384891966922150708e+01,-1.366479545423797326e+01,-3.151728913456910419e-01,7.021076953483017247e-02,9.464325102211631480e-01,2.846107374097340426e+02
3.887733854631189701e+00,1.426287194572938333e+01,-1.342165732299949887e+01,-3.625997523844344816e-01,8.738224165515344477e-02,9.278382204972561720e-01,2.893502613483757386e+02
4.294173999433803957e+00,1.458808598714467131e+01,-1.307506136674204278e+01,-4.089787277289213541e-01,1.043011855681169053e-01,9.065625532503469586e-01,2.940897852870174347e+02
4.672259719092319408e+00,1.484208345664577777e+01,-1.260672767442618536e+01,-4.541757867598858467e-01,1.209187072024037607e-01,8.826669932488763193e-01,2.988293092256591308e+02
5.031310874695124724e+00,1.504217485888763406e+01,-1.199838390522968190e+01,-4.980603144322192088e-01,1.371867835569935135e-01,8.562205963456062108e-01,3.035688331643008269e+02
5.381027035886335241e+00,1.520545319606425849e+01,-1.123176642714243023e+01,-5.405054887110686268e-01,1.530584014724629405e-01,8.272997899270443378e-01,3.083083571029425229e+02
5.731485607406966665e+00,1.534878764812799723e+01,-1.028862145513802240e+01,-5.813886470493114800e-01,1.684876934847052699e-01,7.959881520649374487e-01,3.130478810415842190e+02
6.093139914638838306e+00,1.548881727768247707e+01,-9.150706188886212900e+00,-6.205916408480682822e-01,1.834300703687445910e-01,7.623761700075182279e-01,3.177874049802259151e+02
6.476817248259849613e+00,1.564194476006230161e+01,-7.799789949968147340e+00,-6.580011768765487989e-01,1.978423499898593896e-01,7.265609787077731418e-01,3.225269289188676112e+02
6.745613631492576978e+00,1.575820897644578977e+01,-6.781057191731134637e+00,-6.935091446651042713e-01,2.116828820898674079e-01,6.886460801435927426e-01,3.256133222141516512e+02
7.196980355405268703e+00,1.597532389535437325e+01,-4.988168160261016837e+00,-7.270129289257662997e-01,2.249116686481305305e-01,6.487410442400828314e-01,3.303528461527933473e+02
7.664199712656118990e+00,1.609438780771430544e+01,-3.153685027920814399e+00,-8.498265231567917466e-01,-5.222387069684532035e-01,-7.113096008795406766e-02,3.350923700914350434e+02
7.916526094523574031e+00,1.597467577682181528e+01,-2.245073383046487958e+00,-9.097764572098885338e-01,-4.109769391039692077e-01,-5.833312464285502624e-02,3.379201917663621089e+02
8.248644374992881723e+00,1.537946465286245790e+01,-1.157589804229055330e+00,-9.550453190685268545e-01,-2.930832919055429975e-01,-4.459397415261633774e-02,3.426597157050038049e+02
8.462882502548186636e+00,1.445909068215446247e+01,-4.033003265665380255e-01,-9.849026284388019414e-01,-1.704602042659174865e-01,-3.013521620656858108e-02,3.473992396436455010e+02
8.542659087363222881e+00,1.334972639656398208e+01,1.844466612157776297e-01,-9.988665941599867981e-01,-4.508642607873940278e-02,-1.519016967036251192e-02,3.521387635822871971e+02
8.474410338508123530e+00,1.218785596840244345e+01,7.723131443746770186e-01,-9.967118863751273095e-01,8.101490948214877530e-02,-0.000000000000000000e+00,3.568782875209288932e+02
8.253702368915217136e+00,1.107485213171022309e+01,1.477176606784492252e+00,-9.881071024184754359e-01,8.136618632167620657e-02,-1.304679955961468574e-01,3.616178114595705892e+02
7.947171052395239244e+00,1.019339018732324931e+01,2.190401283749083383e+00,-9.626095435414799839e-01,8.032641892100959857e-02,-2.587054949309475216e-01,3.656524552456843367e+02
7.462763348690852006e+00,9.230918574940199406e+00,3.131123693928926865e+00,-9.206551204992963200e-01,7.791338339109914191e-02,-3.825201351410187911e-01,3.703919791843260327e+02
6.865664936674344077e+00,8.338637589810842243e+00,4.145987602620668788e+00,-8.629610931471517477e-01,7.416833345428397450e-02,-4.997951680721581247e-01,3.751315031229677288e+02
6.171826316130353263e+00,7.510931117731743711e+00,5.202490808470694006e+00,-7.905138075906543715e-01,6.915529512814544422e-02,-6.085256487328443153e-01,3.798710270616094249e+02
5.397038696616385245e+00,6.741837812303909772e+00,6.268128512542073594e+00,-7.045518329220857856e-01,6.295997208294094871e-02,-7.068527121281976688e-01,3.846105510002511210e+02
4.556931162450235107e+00,6.025053837616494157e+00,7.310395341972545147e+00,-6.065447859311449141e-01,5.568828039410664982e-02,-7.930953524565079737e-01,3.893500749388928170e+02
3.666967856049041519e+00,5.353935647664704867e+00,8.296787373655789111e+00,-4.981682058965949400e-01,4.746453774744382320e-02,-8.657791613869482150e-01,3.940895988775345131e+02
2.742445179780523823e+00,4.721502802274063271e+00,9.194804157849342019e+00,-3.812749090793531859e-01,3.842933806123980528e-02,-9.236615341587349759e-01,3.988291228161762092e+02
1.798489016480450564e+00,4.120440819308584857e+00,9.971950741610244862e+00,-2.578633126949887444e-01,2.873714786581556963e-02,-9.657529126543267228e-01,4.035686467548179053e+02
8.500519687946466174e-01,3.543104062920764630e+00,1.059573969196900123e+01,-1.300432699198392217e-01,1.855366553521800924e-02,-9.913337023654570368e-01,4.083081706934596014e+02
-8.808938249152423183e-02,2.981518667594474259e+00,1.103369311875395731e+01,-0.000000000000000000e+00,8.052988517103476865e-03,-9.999665741302532496e-01,4.130476946321012974e+02
-1.004288685539100889e+00,2.431977707797738475e+00,1.126760700362273582e+01,7.179938475375804985e-02,9.900696027012587108e-03,-9.973689510751647669e-01,4.177872185707429935e+02
-1.892846787078861226e+00,1.899723174359952305e+00,1.130781464018279259e+01,1.432279009352980526e-01,1.169726319999376228e-02,-9.896195948084915983e-01,4.225267425093846896e+02
-2.750856190962493120e+00,1.394484208258066849e+00,1.117892368347455978e+01,2.139165983971364482e-01,1.343341021832884265e-02,-9.767585333242420065e-01,4.272662664480263857e+02
-3.575181733390872196e+00,9.259252698475414212e-01,1.090555231052271346e+01,2.835003483573944050e-01,1.510016935012634814e-02,-9.588521978743292928e-01,4.320057903866680817e+02
-4.362461122347212950e+00,5.036423130034424211e-01,1.051232768704834797e+01,3.516197293272951274e-01,1.668893126859932394e-02,-9.359930798475335489e-01,4.367453143253097778e+02
-5.109105502098210572e+00,1.371589664282712451e-01,1.002388443376176497e+01,4.179228835645096840e-01,1.819148952035789038e-02,-9.082992530568663181e-01,4.414848382639514739e+02
-5.811300042738519522e+00,-1.640772775568576647e-01,9.464863092308116066e+00,4.820673344667645854e-01,1.960008291310247688e-02,-8.759137639010728948e-01,4.462243622025931700e+02
-5.909934940928603275e+00,-2.022337235206577710e-01,9.378487465344418794e+00,5.437217555214434173e-01,2.090743560383445665e-02,-8.390038925478860987e-01,4.469163079477719407e+02
-6.556696055160266212e+00,-4.182750302129554232e-01,8.768358343658189114e+00,6.025676816765530575e-01,2.210679468055801525e-02,-7.977602889522359408e-01,4.516558318864136368e+02
-7.150073024640795971e+00,-5.490641995666323272e-01,8.140542463350348257e+00,6.583011542951283657e-01,2.319196504337184619e-02,-7.523959881686531626e-01,4.563953558250553328e+02
-7.685544214693694975e+00,-5.854178938493804774e-01,7.519689002737933059e+00,7.106342911974230514e-01,2.415734140477549322e-02,-7.031453100402740297e-01,4.611348797636970289e+02
-8.158364726675365830e+00,-5.182446263145835674e-01,6.930446698732282584e+00,7.592967736813335256e-01,2.499793724387228827e-02,-6.502626489439448099e-01,4.658744037023387250e+02
-8.563567115799946450e+00,-3.385485288565460715e-01,6.397462312120691941e+00,8.040372428394787496e-01,2.570941056486302986e-02,-5.940211598388590586e-01,4.706139276409804211e+02
-8.895962133774613534e+00,-3.743311022938898558e-02,5.945379092936745380e+00,8.446245979590508712e-01,2.628808632671160092e-02,-5.347113474020146473e-01,4.753534515796221172e+02
-9.150139496207513545e+00,3.938949954927421504e-01,5.598835245996056642e+00,8.808491902955615238e-01,2.673097542804184559e-02,-4.726395655347609970e-01,4.800929755182638132e+02
-9.321739079960794427e+00,9.585422000020590305e-01,5.373034658245040340e+00,8.623641991612768232e-01,-2.289093202982059663e-02,-5.057687151614920218e-01,4.848324994569055093e+02
-9.408889122500619706e+00,1.648382545507861563e+00,5.264318213656236090e+00,8.405146309177697894e-01,-7.242352207441928036e-02,-5.369245651523156804e-01,4.895720233955472054e+02
-9.411186715248071266e+00,2.449695016497915212e+00,5.259591759799928212e+00,8.153857344323164336e-01,-1.216735400390672878e-01,-5.659855596561249591e-01,4.943115473341889015e+02
-9.328510867245155325e+00,3.348766482120157928e+00,5.345754661984535083e+00,7.870755528903530251e-01,-1.704488339414362563e-01,-5.928383161124824996e-01,4.990510712728305975e+02
-9.252883565982477521e+00,3.826778334787071856e+00,5.422296300041460348e+00,7.556945412446107735e-01,-2.185591041480285102e-01,-6.173780675792907013e-01,5.013812089587234482e+02
-9.028194377433630180e+00,4.862077900436989175e+00,5.637729008168458122e+00,7.213651352484010681e-01,-2.658166458054332937e-01,-6.395090714459946701e-01,5.061207328973651443e+02
-8.719277624246730696e+00,5.960857252898737357e+00,5.911385416661708803e+00,6.842212737549727697e-01,-3.120370811430489000e-01,-6.591449829391323734e-01,5.108602568360068403e+02
-8.326995730353788261e+00,7.109465308047923315e+00,6.230148095433500011e+00,6.444078761470068972e-01,-3.570400787916310215e-01,-6.762091919644390714e-01,5.155997807746485933e+02
-7.852492099309728246e+00,8.294279767042594287e+00,6.580896799205259384e+00,6.020802769350003247e-01,-4.006500573128046194e-01,-6.906351219726528656e-01,5.203393047132902893e+02
-7.297190822213671879e+00,9.501711759612664565e+00,6.950509284408468602e+00,5.574036197300480389e-01,-4.426968701963346353e-01,-7.023664896841853578e-01,5.250788286519319854e+02
-6.662796355804885273e+00,1.071821048330918558e+01,7.325862126195619162e+00,5.105522129546844479e-01,-4.830164696542571523e-01,-7.113575246603375257e-01,5.298183525905736815e+02
-5.951293170743774397e+00,1.193026783834451088e+01,7.693831535520177844e+00,4.617088498044175093e-01,-5.214515466236417929e-01,-7.175731478651778961e-01,5.345578765292153776e+02
-5.164945370099420785e+00,1.312442305766209572e+01,8.041294176236737812e+00,4.110640951117814912e-01,-5.578521444824623421e-01,-7.209891085219359841e-01,5.392974004678570736e+02
-4.306296278071905625e+00,1.428726733185594888e+01,8.355127982174932910e+00,3.588155418936438967e-01,-5.920762440854447917e-01,-7.215920787302132489e-01,5.440369244064987697e+02
-3.380814281097078933e+00,1.540826694292999299e+01,8.626212792948518171e+00,3.299168848634580486e-01,-5.976925906129555432e-01,-7.306958438428275970e-01,5.487764483451404658e+02
-2.399454461574972441e+00,1.648266437204707557e+01,8.853430740524364850e+00,3.007049545485550035e-01,-6.027413942411222747e-01,-7.391057718480343874e-01,5.535159722837821619e+02
-1.375884727144554232e+00,1.750877967852903083e+01,9.039666499789159815e+00,2.712074892228979461e-01,-6.072178609437399732e-01,-7.468138771750415517e-01,5.582554962224238579e+02
-3.237951982531742101e-01,1.848523184610026249e+01,9.187807289843240355e+00,2.414524982765717809e-01,-6.111177401518803620e-01,-7.538128406631132705e-01,5.629950201610655540e+02
7.431042633806898001e-01,1.941093911500991354e+01,9.300742693967862351e+00,2.114682356206828151e-01,-6.144373287891711222e-01,-7.600960165103245458e-01,5.677345440997072501e+02
1.811086528250757333e+00,2.028511928199913683e+01,9.381364479483425001e+00,1.812831728602287418e-01,-6.171734747873457438e-01,-7.656574385830950957e-01,5.724740680383489462e+02
2.659773037223418513e+00,2.094801786679814626e+01,9.423094446012090231e+00,1.509259722603657483e-01,-6.193235800786781597e-01,-7.704918260804559660e-01,5.762830677374723791e+02
3.691416172263707995e+00,2.172334407477488583e+01,9.448932885350361133e+00,1.204254595317284376e-01,-6.208856030624648747e-01,-7.745945885476791526e-01,5.810225916761140752e+02
4.685529974949127485e+00,2.244658936962565576e+01,9.450575534284302748e+00,8.981059646063041524e-02,-6.218580605432213471e-01,-7.779618302345140401e-01,5.857621156147557713e+02
5.628344374183373411e+00,2.311811374489096238e+01,9.430920939020749572e+00,5.911045341011648274e-02,-6.222400291387503168e-01,-7.805903537939005155e-01,5.905016395533974674e+02
6.506083937322570065e+00,2.373857774136427068e+01,9.392868963206879585e+00,2.835418171796328518e-02,-6.220311461567522571e-01,-7.824776633176498963e-01,5.952411634920391634e+02
7.304970352199485539e+00,2.430894256000838993e+01,9.339320607317727507e+00,-2.429013982180004694e-03,-6.212316099391438362e-01,-7.836219667062135352e-01,5.999806874306808595e+02
8.011224910135805288e+00,2.483047014259114604e+01,9.273177827993293931e+00,-3.320990349024550287e-02,-6.198421796737618727e-01,-7.840221773702942265e-01,6.047202113693225556e+02
8.611070989806510312e+00,2.530472322002784225e+01,9.197343357330016289e+00,-6.395925879348104970e-02,-6.178641746736255325e-01,-7.836779152626793810e-01,6.094597353079642517e+02
9.090736541815926941e+00,2.573356532841782496e+01,9.114720522135497660e+00,-9.464788181812955337e-02,-6.152994731244474380e-01,-7.825895072393238561e-01,6.141992592466059477e+02
9.436456573842789908e+00,2.611916079276553404e+01,9.028213063157430440e+00,-1.252466321527189452e-01,-6.121505103015730809e-01,-7.807579867493299464e-01,6.189387831852476438e+02
9.634475636212844307e+00,2.646397467837973139e+01,8.940724954294880789e+00,-1.557264547166543056e-01,-6.084202762580439572e-01,-7.781850928541210743e-01,6.236783071238893399e+02
9.671050307758090270e+00,2.677077270994598734e+01,8.855160221799025067e+00,-1.860584073478547817e-01,-6.041123129859715668e-01,-7.748732685767344419e-01,6.284178310625310360e+02
9.532451681821193290e+00,2.704262115826857737e+01,8.774422763471799058e+00,-2.162136882832583207e-01,-5.992307110539161208e-01,-7.708256585827948371e-01,6.331573550011727320e+02
9.204967852263777672e+00,2.728288669468027550e+01,8.701416167870448248e+00,-2.461636635061097977e-01,-5.937801057234536328e-01,-7.660461061953649509e-01,6.378968789398144281e+02
8.674906399337114493e+00,2.749523621311969990e+01,8.639043533526415075e+00,-2.758798939340847411e-01,-5.877656725486144484e-01,-7.605391497464993877e-01,6.426364028784561242e+02
7.928596875272791777e+00,2.768363661987720548e+01,8.590207288188466350e+00,-3.053341624224403250e-01,-5.811931224623629877e-01,-7.543100182689584932e-01,6.473759268170978203e+02
6.952393289451786806e+00,2.785235459101254918e+01,8.557809008098542947e+00,-3.344985005565671021e-01,-5.740686963547761978e-01,-7.473646265321626236e-01,6.521154507557395164e+02
5.732676593009796484e+00,2.800595629745189541e+01,8.544749237306891843e+00,-3.633452152085111519e-01,-5.663991591480607157e-01,-7.397095694270903188e-01,6.568549746943812124e+02
5.576779335596115494e+00,2.802288390614607039e+01,8.544575941585934586e+00,-3.918469148322585305e-01,-5.581917933740256910e-01,-7.313521157054414523e-01,6.573997440653656668e+02
4.076343878468455806e+00,2.816611688306431205e+01,8.556236226165312431e+00,-4.199765354728211553e-01,-5.494543922600975128e-01,-7.223002010789976168e-01,6.621392680040073628e+02
2.336445273333879857e+00,2.829477054548787507e+01,8.585568014791864044e+00,-2.485924457744723148e-01,-5.857675069561850689e-01,-7.714118379303657180e-01,6.668787919426490589e+02
4.415007942272832775e-01,2.838328539191503097e+01,8.612076131348798569e+00,-6.897918907131329880e-02,-6.026898605379259477e-01,-7.949872976852214723e-01,6.716183158812907550e+02
-1.492046270297995747e+00,2.839395563815797985e+01,8.607468286865371354e+00,1.129174884084330061e-01,-5.996612779033404506e-01,-7.922461691897638714e-01,6.763578398199324511e+02
-3.348639759757466638e+00,2.828648728327870643e+01,8.543454122204009238e+00,2.910762554624261034e-01,-5.767820131696964614e-01,-7.632791905919688036e-01,6.810973637585741471e+02
-5.013632288335513998e+00,2.801801310509718235e+01,8.391746970213739942e+00,4.595995113955018141e-01,-5.348094314391391713e-01,-7.090452462074303686e-01,6.858368876972158432e+02
-6.409022873927374242e+00,2.755993618597886297e+01,8.135040362953590787e+00,5.307710748534825163e-01,-5.049178606502405797e-01,-6.806893712232388038e-01,6.905764116358575393e+02
-7.528692862837687017e+00,2.691582914973117724e+01,7.777983855066500141e+00,5.983530455168354356e-01,-4.716115502745361066e-01,-6.477300198149593680e-01,6.953159355744992354e+02
-8.401947656523260477e+00,2.610619484320050887e+01,7.336207989172400801e+00,6.618883700564149875e-01,-4.351157504761898887e-01,-6.103900959819028582e-01,7.000554595131409314e+02
-8.850214569705837420e+00,2.547043962622740665e+01,6.994806724369019513e+00,7.209473627297795506e-01,-3.956772815903600304e-01,-5.689221291244574985e-01,7.032395558749495876e+02
-9.335136994419857004e+00,2.440545814177509243e+01,6.433303716936555894e+00,7.751306112368488987e-01,-3.535628648587141876e-01,-5.236065661523174875e-01,7.079790798135912837e+02
-9.649545165210755115e+00,2.323231338713545924e+01,5.828867056116726175e+00,8.240716778276627741e-01,-3.090573185919011090e-01,-4.747498748061704243e-01,7.127186037522329798e+02
-9.820720403323003111e+00,2.197375476205495559e+01,5.197142262724424810e+00,8.674395774011461890e-01,-2.624616319590003521e-01,-4.226824710216552927e-01,7.174581276908746759e+02
-9.875380875667174152e+00,2.065312061107938035e+01,4.553776551675943196e+00,9.049410158421082873e-01,-2.140909294304653987e-01,-3.677564843530515826e-01,7.221976516295163719e+02
-9.839676764973265932e+00,1.929432867360192461e+01,3.914417857968317094e+00,9.363223734649943619e-01,-1.642723396395877333e-01,-3.103433765681098411e-01,7.269371755681580680e+02
-9.739185502954930129e+00,1.792186647149790701e+01,3.294713862624424117e+00,9.613714201561674999e-01,-1.133427830730024677e-01,-2.508314295172404673e-01,7.316766995067997641e+02
-9.598907066755669959e+00,1.656078163515462620e+01,2.710311018649481873e+00,9.799187506200723874e-01,-6.164669354894190129e-02,-1.896231192633141827e-01,7.364162234454414602e+02
-9.443259338946974779e+00,1.523667216870352981e+01,2.176853577047324517e+00,9.918389300263429353e-01,-9.533688889144572437e-03,-1.271323942266783247e-01,7.411557473840831562e+02
-9.296073531345296459e+00,1.397567665526267078e+01,1.709982612941766122e+00,9.970513423120177521e-01,4.264379346644272401e-02,-6.378187574851217068e-02,7.458952713227248523e+02
-9.180589672901959375e+00,1.280446440301130195e+01,1.325335051843428813e+00,9.955207354023959399e-01,9.453287991605881235e-02,-0.000000000000000000e+00,7.506347952613665484e+02
-9.112104930514338008e+00,1.174043292697266772e+01,1.031720326392558285e+00,9.960102193182741592e-01,8.922803927095318555e-02,-0.000000000000000000e+00,7.553743192000082445e+02
-9.090914551535176358e+00,1.078168914154209013e+01,8.242974582929926131e-01,9.964714354596680979e-01,8.392066665364023015e-02,-0.000000000000000000e+00,7.601138431386499406e+02
-9.110095889695047688e+00,9.916513442063592976e+00,6.913977298462069543e-01,9.969043707393585585e-01,7.861091259778460461e-02,-0.000000000000000000e+00,7.648533670772916366e+02
-9.163002395003834621e+00,9.133047063439224900e+00,6.213477806888597632e-01,9.973090128821424649e-01,7.329892770547022374e-02,-0.000000000000000000e+00,7.695928910159333327e+02
-9.243264696661331215e+00,8.419296723979053709e+00,6.024703350318876272e-01,9.976853504137986883e-01,6.798486264188015327e-02,-0.000000000000000000e+00,7.743324149545750288e+02
-9.344791655565051869e+00,7.763139283097706844e+00,6.230849290814070018e-01,9.980333726614097900e-01,6.266886813105539134e-02,-0.000000000000000000e+00,7.790719388932167249e+02
-9.461771386357501257e+00,7.152326412470835670e+00,6.715086386075143077e-01,9.983530697536626697e-01,5.735109495165192223e-02,-0.000000000000000000e+00,7.838114628318584209e+02
-9.588672248955530719e+00,6.574489280262830526e+00,7.360568066291947043e-01,9.986444326211258993e-01,5.203169393269635457e-02,-0.000000000000000000e+00,7.885509867705001170e+02
-9.622416112498031637e+00,6.429739217420485708e+00,7.541692021369333920e-01,9.989074529965058513e-01,4.671081594933999825e-02,-0.000000000000000000e+00,7.897730006978659958e+02
-9.754096137447277215e+00,5.876858696207463595e+00,8.227680023041823443e-01,9.991421234148802899e-01,4.138861191861191446e-02,-0.000000000000000000e+00,7.945125246365076919e+02
-9.884229801196958931e+00,5.328605293538823950e+00,8.811066426438234345e-01,9.993484372139095351e-01,3.606523279517055702e-02,-0.000000000000000000e+00,7.992520485751493879e+02
-1.000820497057476821e+01,4.772250084735168763e+00,9.174998576340691603e-01,9.995263885340258669e-01,3.074082956705449093e-02,-0.000000000000000000e+00,8.039915725137910840e+02
-1.012169363700902558e+01,4.194963723506326403e+00,9.202637478667992088e-01,9.996759723186003921e-01,2.541555325143207700e-02,-0.000000000000000000e+00,8.087310964524327801e+02
-1.022065274673885504e+01,3.583821188442022354e+00,8.777165077850086483e-01,9.997971843140878168e-01,2.008955489035035152e-02,-0.000000000000000000e+00,8.134706203910744762e+02
-1.030132500020116915e+01,2.925806540096240305e+00,7.781791533261216420e-01,9.998900210701483493e-01,1.476298554648316531e-02,-0.000000000000000000e+00,8.182101443297161723e+02
-1.036286833304990829e+01,2.214225818431121429e+00,6.161797316567325655e-01,9.954408720995909787e-01,1.369064388809173791e-02,-9.438239467255922499e-02,8.229496682683578683e+02
-1.040979381338718568e+01,1.455196908853339632e+00,3.986571443361535128e-01,9.821034339830420068e-01,1.249605859100398966e-02,-1.879220409613274467e-01,8.276891922069995644e+02
-1.044904949781015446e+01,6.613578087426947860e-01,1.387572330388771868e-01,9.599967982009538492e-01,1.118989609491377775e-02,-2.797837265996863110e-01,8.324287161456412605e+02
-1.048729495143991741e+01,-1.545066932138612903e-01,-1.503715212914847055e-01,9.293183552154924421e-01,9.783819092554352226e-03,-3.691472220459631193e-01,8.371682400842829566e+02
-1.050708068260843930e+01,-5.557568861326462883e-01,-2.986499718891575395e-01,8.903420319769225211e-01,8.290382397399443867e-03,-4.552146039568612523e-01,8.394713424112674147e+02
-1.055484013445039615e+01,-1.381681066578859918e+00,-6.100320198719979548e-01,8.434158461260568007e-01,6.722920846808234929e-03,-5.372173795023695853e-01,8.442108663499091108e+02
-1.061690086013513223e+01,-2.197251173338111485e+00,-9.179503731287671497e-01,7.889587987346612374e-01,5.095430241277384975e-03,-6.144233479372097628e-01,8.489503902885508069e+02
-1.069890770952468806e+01,-2.989208497668683240e+00,-1.209253655612121392e+00,7.274571333130616102e-01,3.422442382401314105e-03,-6.861431381865763512e-01,8.536899142271925029e+02
-1.080621196503242665e+01,-3.744169367122957226e+00,-1.470791525271584188e+00,6.594599944664810698e-01,1.718895324798247340e-03,-7.517363640914536127e-01,8.584294381658341990e+02
-1.094387029725036520e+01,-4.448630050577806472e+00,-1.689415492888621140e+00,5.855745249376080874e-01,0.000000000000000000e+00,-8.106173423658352695e-01,8.631689621044758951e+02
-1.110490598764432590e+01,-5.097490143081003566e+00,-1.860486610187249257e+00,6.716984073749158179e-01,6.853039913206955547e-02,-7.376468219446686847e-01,8.679084860431175912e+02
-1.125882441006281809e+01,-5.702922404666232126e+00,-1.996382627943496191e+00,7.461088886413781429e-01,1.358657248020785635e-01,-6.518128804455273206e-01,8.726480099817592873e+02
-1.136373484007912005e+01,-6.286373811093294961e+00,-2.117990355472034292e+00,8.075083719499481782e-01,2.008317567561892780e-01,-5.546123283063197906e-01,8.773875339204009833e+02
-1.137731908162296257e+01,-6.432247703175478115e+00,-2.148598807111333997e+00,8.548261497133414766e-01,2.622955916125967457e-01,-4.477401884879377847e-01,8.785825676994058995e+02
-1.135441408037723043e+01,-7.020119826905010463e+00,-2.282856126042932310e+00,8.872370739708885790e-01,3.191853979743718983e-01,-3.330601391517288290e-01,8.833220916380475956e+02
-1.118991326670545128e+01,-7.637769912260001348e+00,-2.449866456429411254e+00,9.041759452688615806e-01,3.705091067044621878e-01,-2.125720156707247843e-01,8.880616155766892916e+02
-1.084350054498648142e+01,-8.309616145715967406e+00,-2.670514696727406712e+00,9.053473691451656702e-01,4.153717105649604169e-01,-8.837693841809150797e-02,8.928011395153309877e+02
-1.030073949168147784e+01,-9.045488088042581865e+00,-2.955449662244619358e+00,8.616506901685668796e-01,4.994493885523347276e-01,-9.003552858171118278e-02,8.975406634539726838e+02
-1.018944773412781757e+01,-9.176946959698820905e+00,-3.010516126365184508e+00,8.102153360888384448e-01,5.790413948761343743e-01,-9.088548941750063115e-02,8.983496677306200127e+02
-9.464127150120704712e+00,-9.959493565564450535e+00,-3.359053238496277682e+00,7.515032596030427614e-01,6.534328979884140853e-01,-9.091918737431292641e-02,9.030891916692617087e+02
-8.650267591182426941e+00,-1.074107690652438407e+01,-3.738575719049191282e+00,6.860417665837081902e-01,7.219557731195781480e-01,-9.013631988478600088e-02,9.078287156079034048e+02
-7.807928926224263932e+00,-1.148264947486316068e+01,-4.129024316415931928e+00,6.144187802950372701e-01,7.839946026554153180e-01,-8.854391807621109223e-02,9.125682395465451009e+02
-6.996270261040280047e+00,-1.214383389979755989e+01,-4.510339095009485710e+00,5.372775612450293448e-01,8.389922031672781833e-01,-8.615628362131701190e-02,9.173077634851867970e+02
-6.273538841127798804e+00,-1.268293809977437903e+01,-4.862460684372964081e+00,4.553109300856610364e-01,8.864546294702425611e-01,-8.299486029622467342e-02,9.220472874238284930e+02
-5.697059053457776301e+00,-1.305697057860300170e+01,-5.165331528251591919e+00,3.692550454327766518e-01,9.259556107775199774e-01,-7.908804139876998707e-02,9.267868113624701891e+02
-5.323221527830297894e+00,-1.322165586415846583e+01,-5.398897133582199359e+00,2.798827924722412375e-01,9.571403791155679297e-01,-7.447091475602508892e-02,9.315263353011118852e+02
-5.207472338439424142e+00,-1.313145008838571925e+01,-5.543107319343804740e+00,1.879968417133438263e-01,9.797288556177540242e-01,-6.918494761001402205e-02,9.362658592397535813e+02
-5.210471884502196005e+00,-1.311105783477735187e+01,-5.550957164278662148e+00,9.442244021316816005e-02,9.935181660765003420e-01,-6.327761421032113143e-02,9.366738776834386044e+02
-5.425838641560572384e+00,-1.270237764250789070e+01,-5.578231044092709645e+00,0.000000000000000000e+00,9.983844631532042824e-01,-5.680196945670087927e-02,9.414134016220803005e+02
-5.951322196559919675e+00,-1.197023631067007798e+01,-5.488526077849542162e+00,2.718475813968589949e-01,9.443205849998940193e-01,1.853524351994536579e-01,9.461529255607219966e+02
-6.658261209030561290e+00,-1.095806094778549600e+01,-5.304363592947095363e+00,5.068698197220069535e-01,7.623362237635495919e-01,4.023983943722789780e-01,9.508924494993636927e+02
-7.358609643014355939e+00,-9.742870642013143012e+00,-5.062454562052725926e+00,6.732299333349860415e-01,4.770836016566368243e-01,5.649342385559369406e-01,9.556319734380053887e+02
-7.532697778057740656e+00,-9.365402436363252647e+00,-4.986519817825340262e+00,7.483923528965686911e-01,1.272038900121394978e-01,6.509424371574175083e-01,9.569899367144379312e+02
-7.988983707083051833e+00,-8.035356602684359473e+00,-4.697782716607312281e+00,7.843785636195371724e-01,1.014329603648742861e-01,6.119310610452609600e-01,9.617294606530796273e+02
-8.257985291921684734e+00,-6.836163693041923395e+00,-4.338401724775820867e+00,8.176343202094412677e-01,7.530893738728505760e-02,5.707895254390370487e-01,9.664689845917213233e+02
-8.395983314955261179e+00,-5.958415475351337420e+00,-3.992873026270875592e+00,8.245257201375020273e-01,6.890913660598833868e-02,5.616109575822473277e-01,9.709448363749478403e+02
-8.486492949710934042e+00,-5.263814221333830368e+00,-3.941478042585619512e+00,8.312747262050808050e-01,6.249743761854684859e-02,5.523354051809308274e-01,9.756843603135895364e+02
-8.588405291339316960e+00,-4.680194248230121978e+00,-4.663983403880335388e+00,8.378801759189939968e-01,5.607494484856153510e-02,5.429644659776944327e-01,9.804238842522312325e+02
-8.603553938876117968e+00,-4.613404706667533439e+00,-4.817767448863500057e+00,7.759546851501885056e-01,4.763462436425527219e-02,6.289859053708034553e-01,9.809881345987362238e+02
-8.680106869185383545e+00,-4.076097826952052472e+00,-6.572449396471382599e+00,7.052564958801330608e-01,3.865576340313642278e-02,7.078961837549831992e-01,9.857276585373779199e+02
-8.501307251450430869e+00,-3.643767960578558451e+00,-8.761477444558503080e+00,6.265849024297791559e-01,2.923987400335185255e-02,7.788031778413609940e-01,9.904671824760196159e+02
-7.883924957256033927e+00,-3.409994638084618668e+00,-1.065274135694152235e+01,5.408293392902194796e-01,1.949340872907790595e-02,8.409052460174047949e-01,9.952067064146613120e+02
-6.925506396302365530e+00,-3.411154714165551827e+00,-1.181836148850984891e+01,4.489593261275549585e-01,9.526557261368766641e-03,8.935002899777892971e-01,9.999462303533030081e+02
-5.944876983316720320e+00,-3.627578756213804212e+00,-1.247769471640310002e+01,3.520135077921496269e-01,-5.479992337523450314e-04,9.359936912336245252e-01,1.004685754291944704e+03
-5.208698554726493235e+00,-4.012241525714517643e+00,-1.303872859634986270e+01,3.096979608957247110e-01,1.197591438928843378e-02,9.507585132356016766e-01,1.009425278230586400e+03
-4.770961169346690234e+00,-4.503129414534934760e+00,-1.362654136038366559e+01,2.667117791109648306e-01,2.447389377469652225e-02,9.634645065623386184e-01,1.014164802169228096e+03
-4.578513589037218168e+00,-5.032900049238739904e+00,-1.422475184276612836e+01,2.231480446353355795e-01,3.691887584833452446e-02,9.740841579555344909e-01,1.018904326107869792e+03
-4.576327308651006120e+00,-5.513292905018055912e+00,-1.478989172623531267e+01,1.791010901817740864e-01,4.928391228887925996e-02,9.825944715311299982e-01,1.023424978356343786e+03
-4.709527259967239310e+00,-5.927368696567504536e+00,-1.536068162118693792e+01,1.346662947809894317e-01,6.154222786177587085e-02,9.889770185590583962e-01,1.028164502294985596e+03
-4.922735882843454647e+00,-6.188454234234084694e+00,-1.589348225939495407e+01,8.993987732009491032e-02,7.366727837904697707e-02,9.932179773654231658e-01,1.032904026233627292e+03
-5.157242020911805724e+00,-6.234092289822161348e+00,-1.637191583243874504e+01,4.501868826271244323e-02,8.563280815986809569e-02,9.953081632697938774e-01,1.037643550172268988e+03
-5.352954191162054620e+00,-6.003118741468596475e+00,-1.677960790306616445e+01,0.000000000000000000e+00,9.741290686787916486e-02,9.952430484926604315e-01,1.042383074110910684e+03
-5.462082776200372969e+00,-5.474980899014152413e+00,-1.709140189654631214e+01,-0.000000000000000000e+00,5.859982350367876069e-02,9.982805520885316142e-01,1.047122598049552380e+03
-5.472607005664058555e+00,-5.209499130586747739e+00,-1.716916329315811396e+01,-0.000000000000000000e+00,1.969792880090950882e-02,9.998049767799289667e-01,1.048850609055448558e+03
-5.417225255431354469e+00,-4.348496053397274075e+00,-1.724879093267321295e+01,-0.000000000000000000e+00,-1.923382039023228268e-02,9.998140127774323149e-01,1.053590132994090254e+03
-5.247483289568869225e+00,-3.384019368682480433e+00,-1.711952181340993207e+01,-0.000000000000000000e+00,-5.813642200670532389e-02,9.983076461837654403e-01,1.058329656932731950e+03
-4.960984345025641673e+00,-2.414744346076360682e+00,-1.672987222718314726e+01,-0.000000000000000000e+00,-9.695091807975529663e-02,9.952881590151888558e-01,1.063069180871373646e+03
-4.615232763948293737e+00,-1.637505877195665427e+00,-1.615305709362364084e+01,-1.720590788458706451e-03,-1.485777001253249796e-01,9.888982286303623637e-01,1.067196175604796281e+03
-4.120722121744851307e+00,-8.780689234312394342e-01,-1.527232377135617014e+01,-3.436519488167587809e-03,-1.998019433129332445e-01,9.798292574617445405e-01,1.071935699543437977e+03
-3.545242293206260609e+00,-2.991638550862225077e-01,-1.426354230336388262e+01,-5.143137716398366727e-03,-2.504848835089227843e-01,9.681058161502986703e-01,1.076675223482079673e+03
-2.909532519249750315e+00,5.352838196967978773e-02,-1.322497549155774621e+01,-6.835822320768659109e-03,-3.004892230822736043e-01,9.537596648741072380e-01,1.081414747420721369e+03
-2.235333571891236382e+00,1.347713580331415528e-01,-1.225488797946965036e+01,-8.509987894250357898e-03,-3.496795025689147796e-01,9.368296673276681474e-01,1.086154271359363065e+03
-1.549186511101610320e+00,-7.764563436911764427e-02,-1.142122211241238894e+01,-7.381971179301680466e-03,-2.800018329884705337e-01,9.599700412119853699e-01,1.090893795298004761e+03
-8.855565607993484134e-01,-5.602169579450863024e-01,-1.073127568629395689e+01,-6.214152954399265044e-03,-2.088144755996626245e-01,9.779345065407578641e-01,1.095633319236646457e+03
-7.510482413195925799e-01,-6.942743737811382099e-01,-1.060267084294558693e+01,-5.012829706870853413e-03,-1.365012487242273087e-01,9.906262063135008455e-01,1.096637862826583387e+03
-1.674806222422635937e-01,-1.448121970586829343e+00,-1.006511844432177760e+01,-3.784478561420137350e-03,-6.345204057627198968e-02,9.979767112857260702e-01,1.101377386765225083e+03
3.117887212026939081e-01,-2.367456024974458284e+00,-9.620335790024007849e+00,-2.535722363717315183e-03,9.939292518344073138e-03,9.999463888509855236e-01,1.106116910703866779e+03
6.515019808096081944e-01,-3.403713444029415669e+00,-9.245278683338506553e+00,-1.273293978636123088e-03,8.327704929197433936e-02,9.965246167472429084e-01,1.110856434642508475e+03
8.174567831845983568e-01,-4.507573693123208436e+00,-8.916898575371298818e+00,-3.999995304131439757e-06,1.561658166662475977e-01,9.877298404362626627e-01,1.115595958581150171e+03
7.981885354519456799e-01,-5.634854418292678524e+00,-8.620002502498410379e+00,-3.502422316965690592e-06,1.397076907694424774e-01,9.901917799679643695e-01,1.120335482519791867e+03
6.264779045926526235e-01,-6.753048296307198051e+00,-8.355112534471860641e+00,-3.003879503240916525e-06,1.232108788686506473e-01,9.923795036719034179e-01,1.125075006458433563e+03
3.970438631046635525e-01,-7.679944616148812742e+00,-8.162392636355308539e+00,-2.504504894711929159e-06,1.066799484464117931e-01,9.942924059762385802e-01,1.129121868167976345e+03
8.287466434264434412e-02,-8.710031986651902258e+00,-7.983634601704690859e+00,-2.004436753114909808e-06,9.011947642004634884e-02,9.959299573537451211e-01,1.133861392106618041e+03
-2.250760228079560221e-01,-9.660772346531395272e+00,-7.860786617846626356e+00,-1.503813531967476547e-06,7.353404787697578882e-02,9.972917044623560434e-01,1.138600916045259737e+03
-4.702234241571136564e-01,-1.050995237173214747e+01,-7.802218529261333302e+00,-1.002773838338385558e-06,5.692825480866876842e-02,9.983772702702270463e-01,1.143340439983901433e+03
-5.954778332632590931e-01,-1.123660899175211014e+01,-7.816296169146948358e+00,-5.014563945751669103e-07,4.030669484269473052e-02,9.991863541598587917e-01,1.148079963922543129e+03
-5.432550188936006164e-01,-1.182103780987370456e+01,-7.911380838383327507e+00,-0.000000000000000000e+00,2.367396997322678345e-02,9.997187320112477238e-01,1.152819487861184825e+03
-2.794666600125997324e-01,-1.225776237295964854e+01,-8.087251323432255390e+00,-1.297335474782814498e-06,6.843825302715125791e-02,9.976543517276280637e-01,1.157559011799826521e+03
1.821002813715536239e-01,-1.256779129780860771e+01,-8.326526448742955111e+00,-2.592065728932826702e-06,1.130651036438405088e-01,9.935865751566237414e-01,1.162298535738468217e+03
7.653843686107580924e-01,-1.277171855722566107e+01,-8.586850874146268353e+00,-3.881590832953052692e-06,1.574649072785034853e-01,9.875235708381242539e-01,1.166753985703076978e+03
1.506999933754633592e+00,-1.292720643813811954e+01,-8.876233901078879995e+00,-5.163321309517079182e-06,2.015485053055842413e-01,9.794775137707719681e-01,1.171493509641718674e+03
2.331956534131337744e+00,-1.305196536869245882e+01,-9.152684624434407112e+00,-6.434683332722032571e-06,2.452273740350603692e-01,9.694645609729961588e-01,1.176233033580360370e+03
3.199975113335127741e+00,-1.317687115591276381e+01,-9.390238146427469346e+00,-7.693123895931516063e-06,2.884138024543417833e-01,9.575048190451457275e-01,1.180972557519002066e+03
4.070107591048650164e+00,-1.333189662394485531e+01,-9.562931983367324307e+00,-8.936115937843508848e-06,3.310210683394158027e-01,9.436223038035528310e-01,1.185712081457643762e+03
4.900744450330162927e+00,-1.354610051127760428e+01,-9.644807682569350504e+00,-1.016116341650157614e-05,3.729636123819980997e-01,9.278448920673987299e-01,1.190451605396285458e+03
5.649622396815312086e+00,-1.384761646717033479e+01,-9.609912439079753455e+00,-1.136580632107140153e-05,4.141572099834055498e-01,9.102042656949579369e-01,1.195191129334927155e+03
6.273832089401252254e+00,-1.426364214819972176e+01,-9.432300712139150889e+00,-1.254762561132865195e-05,4.545191403705146627e-01,8.907358479813096697e-01,1.199930653273568851e+03
6.729825941969179937e+00,-1.482042841583752413e+01,-9.086035841307309013e+00,-1.370424807494821243e-05,4.939683526945071734e-01,8.694787325449020443e-01,1.204670177212210547e+03
6.973425995698858237e+00,-1.554326863596421227e+01,-8.545191662173632352e+00,-1.483335109284839431e-05,5.324256287791127029e-01,8.464756048454012971e-01,1.209409701150852243e+03
6.983950109441265930e+00,-1.608516284756087344e+01,-8.095169119006786929e+00,-1.593266730302704705e-05,5.698137421917369716e-01,8.217726564900198483e-01,1.212292251195785866e+03
6.738512648822591267e+00,-1.716318973832703065e+01,-7.135317689074160086e+00,-1.699998915352857377e-05,6.060576133181894143e-01,7.954194924999823391e-01,1.217031775134427562e+03
6.292191400861739226e+00,-1.834835885775552811e+01,-5.991460613738694541e+00,-4.540889644353970971e-06,7.071098581352692758e-01,7.071022899858621091e-01,1.221771299073069258e+03
5.992385036933846720e+00,-1.930717548888632251e+01,-4.872112746478791223e+00,7.999989140413108610e-06,7.954259202489223357e-01,6.060491773184206732e-01,1.226510823011710954e+03
6.124597575935160521e+00,-1.969414448783543392e+01,-4.100162657767045360e+00,6.003447275242286630e-06,8.086875497486893938e-01,5.882367268597092913e-01,1.230512537557586711e+03
6.736096597723070012e+00,-1.968381084947580106e+01,-3.370983872555409988e+00,4.003944591395868871e-06,8.215503719717091036e-01,5.701341826957058156e-01,1.235252061496228407e+03
7.637502913264300197e+00,-1.938986859450449174e+01,-2.701529505579013613e+00,2.002466653143350101e-06,8.340080464920200942e-01,5.517504674787980790e-01,1.239991585434870103e+03
8.637642171732466068e+00,-1.901727300024206002e+01,-1.955465145477948363e+00,0.000000000000000000e+00,8.460544322668346329e-01,5.330946422741880131e-01,1.244731109373511799e+03
9.589438484066327817e+00,-1.871258617305003114e+01,-1.039863263588781894e+00,-7.485117199941290766e-02,8.994901084321766938e-01,4.304797868465048416e-01,1.249470633312153495e+03
9.807313883442121849e+00,-1.865526692690356469e+01,-7.833169637170762645e-01,-1.482810603468766031e-01,9.358463359363484724e-01,3.196910425044504622e-01,1.250636107496832665e+03
1.062477920552029786e+01,-1.848180783343227773e+01,3.643972519750270922e-01,-2.188953843816090761e-01,9.544327972627357770e-01,2.028320640495047678e-01,1.255375631435474361e+03
1.133559824606067323e+01,-1.838739608603401265e+01,1.641286982692033769e+00,-2.853533283690548039e-01,9.548965881330802041e-01,8.212176302108813164e-02,1.260115155374116057e+03
1.193577848005679876e+01,-1.835248807645584179e+01,3.010040946649604088e+00,-3.463930005229988729e-01,9.372289161557754156e-01,-4.014782573907275248e-02,1.264854679312757753e+03
1.242173196846490768e+01,-1.835746266880843791e+01,4.433342138465230065e+00,-4.008553929132623317e-01,9.017652654092868092e-01,-1.616550651087414747e-01,1.269594203251399449e+03
1.279027594717874372e+01,-1.838262788889515065e+01,5.873870152240404430e+00,-4.477063874386528197e-01,8.491790242433989722e-01,-2.800927978964362075e-01,1.274333727190041145e+03
