-9.385461057575641419e+00,2.428119103577829119e+00,5.254361419439287140e+00,8.153857344323164336e-01,-1.216735400390672878e-01,-5.659855596561249591e-01,4.943115473341889015e+02
-9.289830618107368210e+00,3.329254466693793102e+00,5.353176529480511370e+00,7.870755528903530251e-01,-1.704488339414362563e-01,-5.928383161124824996e-01,4.990510712728305975e+02
-9.213284671023945549e+00,3.805690883033918226e+00,5.430546968506150485e+00,7.556945412446107735e-01,-2.185591041480285102e-01,-6.173780675792907013e-01,5.013812089587234482e+02
-8.998042693463579766e+00,4.832505523949161663e+00,5.636211831920501680e+00,7.213651352484010681e-01,-2.658166458054332937e-01,-6.395090714459946701e-01,5.061207328973651443e+02
-8.697316533688464801e+00,5.926043761907558327e+00,5.903930734130453217e+00,6.842212737549727697e-01,-3.120370811430489000e-01,-6.591449829391323734e-01,5.108602568360068403e+02
-8.312059253964390493e+00,7.072441725739571083e+00,6.219932992038810227e+00,6.444078761470068972e-01,-3.570400787916310215e-01,-6.762091919644390714e-01,5.155997807746485933e+02
-7.843461986200501279e+00,8.257875225844097500e+00,6.570444909897761754e+00,6.020802769350003247e-01,-4.006500573128046194e-01,-6.906351219726528656e-01,5.203393047132902893e+02
-7.292953522956199919e+00,9.468563904716150503e+00,6.941690636834789707e+00,5.574036197300480389e-01,-4.426968701963346353e-01,-7.023664896841853578e-01,5.250788286519319854e+02
-6.662199881535912915e+00,1.069077538169905317e+01,7.319893024555595318e+00,5.105522129546844479e-01,-4.830164696542571523e-01,-7.113575246603375257e-01,5.298183525905736815e+02
-5.953103841158402965e+00,1.191082939170283694e+01,7.691274485167150843e+00,4.617088498044175093e-01,-5.214515466236417929e-01,-7.175731478651778961e-01,5.345578765292153776e+02
-5.167804453229762451e+00,1.311510191768593003e+01,8.042057849035591843e+00,4.110640951117814912e-01,-5.578521444824623421e-01,-7.209891085219359841e-01,5.392974004678570736e+02
-4.308676524780662653e+00,1.429002931654775743e+01,8.358467222602595115e+00,3.588155418936438967e-01,-5.920762440854447917e-01,-7.215920787302132489e-01,5.440369244064987697e+02
-3.381091736702807715e+00,1.542476059983541425e+01,8.630919046624196511e+00,3.299168848634580486e-01,-5.976925906129555432e-01,-7.306958438428275970e-01,5.487764483451404658e+02
-2.396113451421536311e+00,1.651391079033340858e+01,8.858212893300366986e+00,3.007049545485550035e-01,-6.027413942411222747e-01,-7.391057718480343874e-01,5.535159722837821619e+02
-1.367633877832562517e+00,1.755506709615464089e+01,9.043341340274643869e+00,2.712074892228979461e-01,-6.072178609437399732e-01,-7.468138771750415517e-01,5.582554962224238579e+02
-3.095762687545190461e-01,1.854619225449928521e+01,9.189299583479476397e+00,2.414524982765717809e-01,-6.111177401518803620e-01,-7.538128406631132705e-01,5.629950201610655540e+02
7.641083920907724147e-01,1.948562502424582021e+01,9.299085250331327046e+00,2.114682356206828151e-01,-6.144373287891711222e-01,-7.600960165103245458e-01,5.677345440997072501e+02
1.839444706031253762e+00,2.037208063467829433e+01,9.375698212818113220e+00,1.812831728602287418e-01,-6.171734747873457438e-01,-7.656574385830950957e-01,5.724740680383489462e+02
2.696042507721120085e+00,2.104471228474428557e+01,9.415756056526557671e+00,1.509259722603657483e-01,-6.193235800786781597e-01,-7.704918260804559660e-01,5.762830677374723791e+02
3.739807983831366034e+00,2.183163283200129356e+01,9.441539589055066628e+00,1.204254595317284376e-01,-6.208856030624648747e-01,-7.745945885476791526e-01,5.810225916761140752e+02
4.745919323873931006e+00,2.256397543445215348e+01,9.442571371745936304e+00,8.981059646063041524e-02,-6.218580605432213471e-01,-7.779618302345140401e-01,5.857621156147557713e+02
5.700338577242371585e+00,2.324189085392740850e+01,9.421858061114512850e+00,5.911045341011648274e-02,-6.222400291387503168e-01,-7.805903537939005155e-01,5.905016395533974674e+02
6.589019342939025137e+00,2.386590786596584834e+01,9.382407659183854776e+00,2.835418171796328518e-02,-6.220311461567522571e-01,-7.824776633176498963e-01,5.952411634920391634e+02
7.397910098907936494e+00,2.443693345332681233e+01,9.327229326119136132e+00,-2.429013982180004694e-03,-6.212316099391438362e-01,-7.836219667062135352e-01,5.999806874306808595e+02
8.112957532994807153e+00,2.495625295545672273e+01,9.259333192820109915e+00,-3.320990349024550287e-02,-6.198421796737618727e-01,-7.840221773702942265e-01,6.047202113693225556e+02
8.720109875366979679e+00,2.542553017388760495e+01,9.181730173463318323e+00,-6.395925879348104970e-02,-6.178641746736255325e-01,-7.836779152626793810e-01,6.094597353079642517e+02
9.205320232201826158e+00,2.584680743353184340e+01,9.097431778004651193e+00,-9.464788181812955337e-02,-6.152994731244474380e-01,-7.825895072393238561e-01,6.141992592466059477e+02
9.554549920445493782e+00,2.622250559985069174e+01,9.009449924662781939e+00,-1.252466321527189452e-01,-6.121505103015730809e-01,-7.807579867493299464e-01,6.189387831852476438e+02
9.753771803449197364e+00,2.655542405188934296e+01,8.920796752390719675e+00,-1.557264547166543056e-01,-6.084202762580439572e-01,-7.781850928541210743e-01,6.236783071238893399e+02
9.788973627290415536e+00,2.684874061116967781e+01,8.834484433338223752e+00,-1.860584073478547817e-01,-6.041123129859715668e-01,-7.748732685767344419e-01,6.284178310625310360e+02
9.646161357586054308e+00,2.710601142643336914e+01,8.753524985311608830e+00,-2.162136882832583207e-01,-5.992307110539161208e-01,-7.708256585827948371e-01,6.331573550011727320e+02
9.311362516603475470e+00,2.733117081422877348e+01,8.680930084239870226e+00,-2.461636635061097977e-01,-5.937801057234536328e-01,-7.660461061953649509e-01,6.378968789398144281e+02
8.770629520472235541e+00,2.752853105533386113e+01,8.619710876660075627e+00,-2.758798939340847411e-01,-5.877656725486144484e-01,-7.605391497464993877e-01,6.426364028784561242e+02
8.010043016300480545e+00,2.770278214701211894e+01,8.572877792233136063e+00,-3.053341624224403250e-01,-5.811931224623629877e-01,-7.543100182689584932e-01,6.473759268170978203e+02
7.015715219003381797e+00,2.785899151110341876e+01,8.543440356296851945e+00,-3.344985005565671021e-01,-5.740686963547761978e-01,-7.473646265321626236e-01,6.521154507557395164e+02
5.773793247644100290e+00,2.800260365797187134e+01,8.534407002458582525e+00,-3.633452152085111519e-01,-5.663991591480607157e-01,-7.397095694270903188e-01,6.568549746943812124e+02
5.616060903170623675e+00,2.801862754561151192e+01,8.534656238122721561e+00,-3.918469148322585305e-01,-5.581917933740256910e-01,-7.313521157054414523e-01,6.573997440653656668e+02
4.105776324880381800e+00,2.815657475726743897e+01,8.549702321438797270e+00,-4.199765354728211553e-01,-5.494543922600975128e-01,-7.223002010789976168e-01,6.621392680040073628e+02
2.352166304255892459e+00,2.828411653353190047e+01,8.583445919715542161e+00,-2.485924457744723148e-01,-5.857675069561850689e-01,-7.714118379303657180e-01,6.668787919426490589e+02
4.415070173634706996e-01,2.837575685756571886e+01,8.614696855281540167e+00,-6.897918907131329880e-02,-6.026898605379259477e-01,-7.949872976852214723e-01,6.716183158812907550e+02
-1.507115561122775560e+00,2.839302151541057739e+01,8.614200237025690043e+00,1.129174884084330061e-01,-5.996612779033404506e-01,-7.922461691897638714e-01,6.763578398199324511e+02
-3.375379122523396891e+00,2.829415292523450631e+01,8.552703143145015119e+00,2.910762554624261034e-01,-5.767820131696964614e-01,-7.632791905919688036e-01,6.810973637585741471e+02
-5.045754263073477297e+00,2.803412396423407671e+01,8.400956443255209294e+00,4.595995113955018141e-01,-5.348094314391391713e-01,-7.090452462074303686e-01,6.858368876972158432e+02
-6.438089309934546201e+00,2.758216746499195793e+01,8.141012979531549121e+00,5.307710748534825163e-01,-5.049178606502405797e-01,-6.806893712232388038e-01,6.905764116358575393e+02
-7.545756737126530389e+00,2.694064578754405304e+01,7.777525043957324691e+00,5.983530455168354356e-01,-4.716115502745361066e-01,-6.477300198149593680e-01,6.953159355744992354e+02
-8.398453712057282416e+00,2.612955082409078855e+01,7.326447729575375156e+00,6.618883700564149875e-01,-4.351157504761898887e-01,-6.103900959819028582e-01,7.000554595131409314e+02
-8.847091816571808209e+00,2.549675322733317628e+01,6.983728888636914434e+00,7.209473627297795506e-01,-3.956772815903600304e-01,-5.689221291244574985e-01,7.032395558749495876e+02
-9.354010738063161412e+00,2.444223784407360611e+01,6.427876212389926458e+00,7.751306112368488987e-01,-3.535628648587141876e-01,-5.236065661523174875e-01,7.079790798135912837e+02
-9.683140464114146084e+00,2.327553239852872125e+01,5.827087032650183573e+00,8.240716778276627741e-01,-3.090573185919011090e-01,-4.747498748061704243e-01,7.127186037522329798e+02
-9.862481855994422730e+00,2.201944707284337710e+01,5.197331385907691725e+00,8.674395774011461890e-01,-2.624616319590003521e-01,-4.226824710216552927e-01,7.174581276908746759e+02
-9.919558364236818804e+00,2.069753937942375188e+01,4.554581107417914332e+00,9.049410158421082873e-01,-2.140909294304653987e-01,-3.677564843530515826e-01,7.221976516295163719e+02
-9.881409477864718127e+00,1.933410544140050646e+01,3.914808836953643567e+00,9.363223734649943619e-01,-1.642723396395877333e-01,-3.103433765681098411e-01,7.269371755681580680e+02
-9.774584232618096280e+00,1.795417118677608670e+01,3.293987024516241924e+00,9.613714201561674999e-01,-1.133427830730024677e-01,-2.508314295172404673e-01,7.316766995067997641e+02
-9.625134778551824866e+00,1.658348345704021654e+01,2.708086936057506833e+00,9.799187506200723874e-01,-6.164669354894190129e-02,-1.896231192633141827e-01,7.364162234454414602e+02
-9.458610007392714181e+00,1.524850103100922283e+01,2.173077659267704131e+00,9.918389300263429353e-01,-9.533688889144572437e-03,-1.271323942266783247e-01,7.411557473840831562e+02
-9.300049240039784948e+00,1.397638556462884374e+01,1.704925109473377942e+00,9.970513423120177521e-01,4.264379346644272401e-02,-6.378187574851217068e-02,7.458952713227248523e+02
-9.173975974536620726e+00,1.279499244756833143e+01,1.319591035669982482e+00,9.955207354023959399e-01,9.453287991605881235e-02,-0.000000000000000000e+00,7.506347952613665484e+02
-9.096687666366859659e+00,1.172269077982091900e+01,1.026090554060907989e+00,9.960102193182741592e-01,8.922803927095318555e-02,-0.000000000000000000e+00,7.553743192000082445e+02
-9.068800160554859602e+00,1.075790154573634538e+01,8.195501142102064041e-01,9.964714354596680979e-01,8.392066665364023015e-02,-0.000000000000000000e+00,7.601138431386499406e+02
-9.083330743988453193e+00,9.888841787914858017e+00,6.881492755647941051e-01,9.969043707393585585e-01,7.861091259778460461e-02,-0.000000000000000000e+00,7.648533670772916366e+02
-9.133530068070385255e+00,9.103557080402021384e+00,6.200629166062366915e-01,9.973090128821424649e-01,7.329892770547022374e-02,-0.000000000000000000e+00,7.695928910159333327e+02
-9.212883587561599086e+00,8.389925728416901762e+00,6.034619715445883603e-01,9.976853504137986883e-01,6.798486264188015327e-02,-0.000000000000000000e+00,7.743324149545750288e+02
-9.315112971346582782e+00,7.735662986905101235e+00,6.265141671913129207e-01,9.980333726614097900e-01,6.266886813105539134e-02,-0.000000000000000000e+00,7.790719388932167249e+02
-9.434177485048039102e+00,7.128325297565842433e+00,6.773847599772105932e-01,9.983530697536626697e-01,5.735109495165192223e-02,-0.000000000000000000e+00,7.838114628318584209e+02
-9.564275345412793783e+00,6.555314543990179210e+00,7.442372730911034351e-01,9.986444326211258993e-01,5.203169393269635457e-02,-0.000000000000000000e+00,7.885509867705001170e+02
-9.599071271418408102e+00,6.411660896047223446e+00,7.628071654025690984e-01,9.989074529965058513e-01,4.671081594933999825e-02,-0.000000000000000000e+00,7.897730006978659958e+02
-9.735521158198562119e+00,5.862281544505737685e+00,8.325549259752097475e-01,9.991421234148802899e-01,4.138861191861191446e-02,-0.000000000000000000e+00,7.945125246365076919e+02
-9.870806557212537413e+00,5.318242461920332786e+00,8.915572787650872799e-01,9.993484372139095351e-01,3.606523279517055702e-02,-0.000000000000000000e+00,7.992520485751493879e+02
-9.999913186900776907e+00,4.766471910274551860e+00,9.279772261896436225e-01,9.995263885340258669e-01,3.074082956705449093e-02,-0.000000000000000000e+00,8.039915725137910840e+02
-1.011807116537647211e+01,4.193761904566017051e+00,9.299791765839650060e-01,9.996759723186003921e-01,2.541555325143207700e-02,-0.000000000000000000e+00,8.087310964524327801e+02
-1.022075621525919686e+01,3.586772556777472865e+00,8.857296814292214826e-01,9.997971843140878168e-01,2.008955489035035152e-02,-0.000000000000000000e+00,8.134706203910744762e+02
-1.030369083993001134e+01,2.932036435445857236e+00,7.833981724631534638e-01,9.998900210701483493e-01,1.476298554648316531e-02,-0.000000000000000000e+00,8.182101443297161723e+02
-1.036570194625732100e+01,2.222502740759659368e+00,6.174861921629585249e-01,9.954408720995909787e-01,1.369064388809173791e-02,-9.438239467255922499e-02,8.229496682683578683e+02
-1.041141472654992484e+01,1.464185687298563465e+00,3.951562298721658095e-01,9.821034339830420068e-01,1.249605859100398966e-02,-1.879220409613274467e-01,8.276891922069995644e+02
-1.044815052003279021e+01,6.697819624578406073e-01,1.299027823102113788e-01,9.599967982009538492e-01,1.118989609491377775e-02,-2.797837265996863110e-01,8.324287161456412605e+02
-1.048298711361796443e+01,-1.478202599646460669e-01,-1.647769802937643080e-01,9.293183552154924421e-01,9.783819092554352226e-03,-3.691472220459631193e-01,8.371682400842829566e+02
-1.050118808313659713e+01,-5.500042874521691161e-01,-3.145337507097457630e-01,8.903420319769225211e-01,8.290382397399443867e-03,-4.552146039568612523e-01,8.394713424112674147e+02
-1.054619268301539137e+01,-1.377891041653938276e+00,-6.261902172114588438e-01,8.434158461260568007e-01,6.722920846808234929e-03,-5.372173795023695853e-01,8.442108663499091108e+02
-1.060582722073756301e+01,-2.196130800631379554e+00,-9.337138246745010361e-01,7.889587987346612374e-01,5.095430241277384975e-03,-6.144233479372097628e-01,8.489503902885508069e+02
-1.068630765873954758e+01,-2.991202141126291014e+00,-1.223604711713887516e+00,7.274571333130616102e-01,3.422442382401314105e-03,-6.861431381865763512e-01,8.536899142271925029e+02
-1.079359918093773985e+01,-3.749411898442454483e+00,-1.482364114231128127e+00,6.594599944664810698e-01,1.718895324798247340e-03,-7.517363640914536127e-01,8.584294381658341990e+02
-1.093341466211899338e+01,-4.456899625374370011e+00,-1.696495205960265151e+00,5.855745249376080874e-01,0.000000000000000000e+00,-8.106173423658352695e-01,8.631689621044758951e+02
-1.109860892365268015e+01,-5.108017634551522690e+00,-1.861510203280678510e+00,6.716984073749158179e-01,6.853039913206955547e-02,-7.376468219446686847e-01,8.679084860431175912e+02
-1.125678264012268315e+01,-5.714172757999945951e+00,-1.990936908913342185e+00,7.461088886413781429e-01,1.358657248020785635e-01,-6.518128804455273206e-01,8.726480099817592873e+02
-1.136320482977644986e+01,-6.296143439041436807e+00,-2.107311604810110151e+00,8.075083719499481782e-01,2.008317567561892780e-01,-5.546123283063197906e-01,8.773875339204009833e+02
-1.137940245486530522e+01,-6.441205635833683552e+00,-2.136587883718046310e+00,8.548261497133414766e-01,2.622955916125967457e-01,-4.477401884879377847e-01,8.785825676994058995e+02
-1.137384998399883784e+01,-7.023853904466416331e+00,-2.266543981656623963e+00,8.872370739708885790e-01,3.191853979743718983e-01,-3.330601391517288290e-01,8.833220916380475956e+02
-1.121723717790867703e+01,-7.633405684838824534e+00,-2.434203883590899675e+00,9.041759452688615806e-01,3.705091067044621878e-01,-2.125720156707247843e-01,8.880616155766892916e+02
-1.086613026891296485e+01,-8.294586467444689859e+00,-2.662101425665464038e+00,9.053473691451656702e-01,4.153717105649604169e-01,-8.837693841809150797e-02,8.928011395153309877e+02
-1.030456339250795139e+01,-9.018273705640933002e+00,-2.961496391480552326e+00,8.616506901685668796e-01,4.994493885523347276e-01,-9.003552858171118278e-02,8.975406634539726838e+02
-1.019057761720481103e+01,-9.147361073220722005e+00,-3.018940826754326068e+00,8.102153360888384448e-01,5.790413948761343743e-01,-9.088548941750063115e-02,8.983496677306200127e+02
-9.454553941599272093e+00,-9.915498914228692229e+00,-3.379415843898975425e+00,7.515032596030427614e-01,6.534328979884140853e-01,-9.091918737431292641e-02,9.030891916692617087e+02
-8.621915077920807136e+00,-1.068533746104389515e+01,-3.773692933600806487e+00,6.860417665837081902e-01,7.219557731195781480e-01,-9.013631988478600088e-02,9.078287156079034048e+02
-7.756545705856403572e+00,-1.141945706278957218e+01,-4.179210390506689521e+00,6.144187802950372701e-01,7.839946026554153180e-01,-8.854391807621109223e-02,9.125682395465451009e+02
-6.921601606637989512e+00,-1.207868211911005396e+01,-4.573405806390810291e+00,5.372775612450293448e-01,8.389922031672781833e-01,-8.615628362131701190e-02,9.173077634851867970e+02
-6.179494049252569177e+00,-1.262209420031187967e+01,-4.933717475123616580e+00,4.553109300856610364e-01,8.864546294702425611e-01,-8.299486029622467342e-02,9.220472874238284930e+02
-5.591874264027151042e+00,-1.300704537365052715e+01,-5.237585797561116863e+00,3.692550454327766518e-01,9.259556107775199774e-01,-7.908804139876998707e-02,9.267868113624701891e+02
-5.219618004521583643e+00,-1.318917173460222791e+01,-5.462454686342982590e+00,2.798827924722412375e-01,9.571403791155679297e-01,-7.447091475602508892e-02,9.315263353011118852e+02
-5.122810198645041169e+00,-1.312240714203587899e+01,-5.585772970542307370e+00,1.879968417133438263e-01,9.797288556177540242e-01,-6.918494761001402205e-02,9.362658592397535813e+02
-5.127786520647261703e+00,-1.310461837494917070e+01,-5.591465366179767749e+00,9.442244021316816005e-02,9.935181660765003420e-01,-6.327761421032113143e-02,9.366738776834386044e+02
-5.372813205325897457e+00,-1.273245120821798793e+01,-5.588151810122006680e+00,0.000000000000000000e+00,9.983844631532042824e-01,-5.680196945670087927e-02,9.414134016220803005e+02
-5.946564098940820386e+00,-1.203464548189803018e+01,-5.459287950358666208e+00,2.718475813968589949e-01,9.443205849998940193e-01,1.853524351994536579e-01,9.461529255607219966e+02
-6.698202738328921768e+00,-1.103601229989078725e+01,-5.251412000386622481e+00,5.068698197220069535e-01,7.623362237635495919e-01,4.023983943722789780e-01,9.508924494993636927e+02
-7.407935235010548070e+00,-9.790587441383992839e+00,-5.034089450040666769e+00,6.732299333349860415e-01,4.770836016566368243e-01,5.649342385559369406e-01,9.556319734380053887e+02
-7.583271353589331021e+00,-9.396930240508616805e+00,-4.976763352183385614e+00,7.483923528965686911e-01,1.272038900121394978e-01,6.509424371574175083e-01,9.569899367144379312e+02
-8.035477711176708837e+00,-7.999335602877915008e+00,-4.768863129797863643e+00,7.843785636195371724e-01,1.014329603648742861e-01,6.119310610452609600e-01,9.617294606530796273e+02
-8.260678276173621271e+00,-6.755666972144605431e+00,-4.431322037023248228e+00,8.176343202094412677e-01,7.530893738728505760e-02,5.707895254390370487e-01,9.664689845917213233e+02
-8.351952664469992627e+00,-5.903381390766484493e+00,-3.982442421239181130e+00,8.245257201375020273e-01,6.890913660598833868e-02,5.616109575822473277e-01,9.709448363749478403e+02
-8.409267608374053182e+00,-5.276796252184990266e+00,-3.768553032322678131e+00,8.312747262050808050e-01,6.249743761854684859e-02,5.523354051809308274e-01,9.756843603135895364e+02
-8.509040162655409745e+00,-4.732966312208506388e+00,-4.431279156717165435e+00,8.378801759189939968e-01,5.607494484856153510e-02,5.429644659776944327e-01,9.804238842522312325e+02
-8.526054619559102932e+00,-4.666762791921513553e+00,-4.583012123477521627e+00,7.759546851501885056e-01,4.763462436425527219e-02,6.289859053708034553e-01,9.809881345987362238e+02
-8.629203049580212337e+00,-4.100675491348323654e+00,-6.358948101650047313e+00,7.052564958801330608e-01,3.865576340313642278e-02,7.078961837549831992e-01,9.857276585373779199e+02
-8.484526835679494283e+00,-3.609083320599683287e+00,-8.672629707456840364e+00,6.265849024297791559e-01,2.923987400335185255e-02,7.788031778413609940e-01,9.904671824760196159e+02
-7.873999543425276748e+00,-3.342669882549821558e+00,-1.065134276990747608e+01,5.408293392902194796e-01,1.949340872907790595e-02,8.409052460174047949e-01,9.952067064146613120e+02
-6.881236485884263843e+00,-3.359829078895089527e+00,-1.179219626143251354e+01,4.489593261275549585e-01,9.526557261368766641e-03,8.935002899777892971e-01,9.999462303533030081e+02
-5.852437627795387343e+00,-3.620617696159421861e+00,-1.236519287720911464e+01,3.520135077921496269e-01,-5.479992337523450314e-04,9.359936912336245252e-01,1.004685754291944704e+03
-5.088274092515241875e+00,-4.049473340857184134e+00,-1.286036267651438436e+01,3.096979608957247110e-01,1.197591438928843378e-02,9.507585132356016766e-01,1.009425278230586400e+03
-4.649089977335489010e+00,-4.573753752423546537e+00,-1.342380402918449178e+01,2.667117791109648306e-01,2.447389377469652225e-02,9.634645065623386184e-01,1.014164802169228096e+03
-4.474505297579413288e+00,-5.125311025000006460e+00,-1.402964277802263204e+01,2.231480446353355795e-01,3.691887584833452446e-02,9.740841579555344909e-01,1.018904326107869792e+03
-4.498142636368338110e+00,-5.615762215386640221e+00,-1.462343349020173022e+01,1.791010901817740864e-01,4.928391228887925996e-02,9.825944715311299982e-01,1.023424978356343786e+03
-4.661020071518384711e+00,-6.029328078630381782e+00,-1.523739400536581101e+01,1.346662947809894317e-01,6.154222786177587085e-02,9.889770185590583962e-01,1.028164502294985596e+03
-4.903227268861803267e+00,-6.278787396327938808e+00,-1.581731494896439827e+01,8.993987732009491032e-02,7.366727837904697707e-02,9.932179773654231658e-01,1.032904026233627292e+03
-5.159757688419484900e+00,-6.302766101445920199e+00,-1.633732108478332989e+01,4.501868826271244323e-02,8.563280815986809569e-02,9.953081632697938774e-01,1.037643550172268988e+03
-5.364472595866919491e+00,-6.041653952110984882e+00,-1.677154089403630977e+01,0.000000000000000000e+00,9.741290686787916486e-02,9.952430484926604315e-01,1.042383074110910684e+03
-5.466319501811795156e+00,-5.476809826004077841e+00,-1.708801319618211423e+01,-0.000000000000000000e+00,5.859982350367876069e-02,9.982805520885316142e-01,1.047122598049552380e+03
-5.476258007809607697e+00,-5.204330941144609035e+00,-1.717204867125935408e+01,-0.000000000000000000e+00,1.969792880090950882e-02,9.998049767799289667e-01,1.048850609055448558e+03
-5.428128921482859859e+00,-4.342707983181918863e+00,-1.728228222469944697e+01,-0.000000000000000000e+00,-1.923382039023228268e-02,9.998140127774323149e-01,1.053590132994090254e+03
-5.257292351826102994e+00,-3.375143826105010625e+00,-1.716208453994959982e+01,-0.000000000000000000e+00,-5.813642200670532389e-02,9.983076461837654403e-01,1.058329656932731950e+03
-4.965073591105405804e+00,-2.402031009585866794e+00,-1.676124479307460646e+01,-0.000000000000000000e+00,-9.695091807975529663e-02,9.952881590151888558e-01,1.063069180871373646e+03
-4.617236480070653570e+00,-1.619698897701514761e+00,-1.617461909564306310e+01,-1.720590788458706451e-03,-1.485777001253249796e-01,9.888982286303623637e-01,1.067196175604796281e+03
-4.124588388206615441e+00,-8.535818661800287366e-01,-1.528710412438099020e+01,-3.436519488167587809e-03,-1.998019433129332445e-01,9.798292574617445405e-01,1.071935699543437977e+03
-3.550026760103169643e+00,-2.710460197170789232e-01,-1.426413471251556686e+01,-5.143137716398366727e-03,-2.504848835089227843e-01,9.681058161502986703e-01,1.076675223482079673e+03
-2.914252810838524610e+00,8.114253553431892418e-02,-1.321016484936889590e+01,-6.835822320768659109e-03,-3.004892230822736043e-01,9.537596648741072380e-01,1.081414747420721369e+03
-2.238824655972864175e+00,1.567580654760118986e-01,-1.222965044224855014e+01,-8.509987894250357898e-03,-3.496795025689147796e-01,9.368296673276681474e-01,1.086154271359363065e+03
-1.550399090620717679e+00,-6.692725364744940564e-02,-1.139496973258507140e+01,-7.381971179301680466e-03,-2.800018329884705337e-01,9.599700412119853699e-01,1.090893795298004761e+03
-8.843989191571195452e-01,-5.660322225848896105e-01,-1.071434571008574466e+01,-6.214152954399265044e-03,-2.088144755996626245e-01,9.779345065407578641e-01,1.095633319236646457e+03
-7.484124186985682270e-01,-7.015483119321751504e-01,-1.058613807000259932e+01,-5.012829706870853413e-03,-1.365012487242273087e-01,9.906262063135008455e-01,1.096637862826583387e+03
-1.540767324563387108e-01,-1.452028063796337198e+00,-1.004250811776676322e+01,-3.784478561420137350e-03,-6.345204057627198968e-02,9.979767112857260702e-01,1.101377386765225083e+03
3.328025530259006159e-01,-2.370956847765639086e+00,-9.600148250133647920e+00,-2.535722363717315183e-03,9.939292518344073138e-03,9.999463888509855236e-01,1.106116910703866779e+03
6.751331766093271458e-01,-3.408315190811966655e+00,-9.235183359424253169e+00,-1.273293978636123088e-03,8.327704929197433936e-02,9.965246167472429084e-01,1.110856434642508475e+03
8.367331152741467326e-01,-4.513096325009763099e+00,-8.923733508820157923e+00,-3.999995304131439757e-06,1.561658166662475977e-01,9.877298404362626627e-01,1.115595958581150171e+03
8.054329839403238100e-01,-5.639737190639404041e+00,-8.648982098128895402e+00,-3.502422316965690592e-06,1.397076907694424774e-01,9.901917799679643695e-01,1.120335482519791867e+03
6.160178473061661553e-01,-6.755396333516413776e+00,-8.408243589576521515e+00,-3.003879503240916525e-06,1.232108788686506473e-01,9.923795036719034179e-01,1.125075006458433563e+03
3.725308575380201770e-01,-7.679976576290476586e+00,-8.232222153011678145e+00,-2.504504894711929159e-06,1.066799484464117931e-01,9.942924059762385802e-01,1.129121868167976345e+03
4.612007443995651962e-02,-8.708001753397095257e+00,-8.064718722714809829e+00,-2.004436753114909808e-06,9.011947642004634884e-02,9.959299573537451211e-01,1.133861392106618041e+03
-2.705759635293214505e-01,-9.657252145401027832e+00,-7.943718778243876955e+00,-1.503813531967476547e-06,7.353404787697578882e-02,9.972917044623560434e-01,1.138600916045259737e+03
-5.179553006552459760e-01,-1.050708229442980723e+01,-7.873593812540747194e+00,-1.002773838338385558e-06,5.692825480866876842e-02,9.983772702702270463e-01,1.143340439983901433e+03
-6.360238054369915517e-01,-1.123847471429443878e+01,-7.858712142868813366e+00,-5.014563945751669103e-07,4.030669484269473052e-02,9.991863541598587917e-01,1.148079963922543129e+03
-5.644096061680032861e-01,-1.183404686068002221e+01,-7.903438638791157267e+00,-0.000000000000000000e+00,2.367396997322678345e-02,9.997187320112477238e-01,1.152819487861184825e+03
-2.680883396360266291e-01,-1.228982334818062760e+01,-8.006469861390087317e+00,-1.297335474782814498e-06,6.843825302715125791e-02,9.976543517276280637e-01,1.157559011799826521e+03
2.365968720767281930e-01,-1.262606343966722555e+01,-8.155169555455456631e+00,-2.592065728932826702e-06,1.130651036438405088e-01,9.935865751566237414e-01,1.162298535738468217e+03
8.630802755394914039e-01,-1.286015644259840229e+01,-8.320298554383606771e+00,-3.881590832953052692e-06,1.574649072785034853e-01,9.875235708381242539e-01,1.166753985703076978e+03
1.649569824681815566e+00,-1.305116678942251340e+01,-8.505157009663081524e+00,-5.163321309517079182e-06,2.015485053055842413e-01,9.794775137707719681e-01,1.171493509641718674e+03
2.518141879899402191e+00,-1.321128065682191810e+01,-8.681866065631341556e+00,-6.434683332722032571e-06,2.452273740350603692e-01,9.694645609729961588e-01,1.176233033580360370e+03
3.424819172994022942e+00,-1.336827814738220965e+01,-8.832120253154647216e+00,-7.693123895931516063e-06,2.884138024543417833e-01,9.575048190451457275e-01,1.180972557519002066e+03
4.325124738983481265e+00,-1.354872027097415099e+01,-8.937615743200238327e+00,-8.936115937843508848e-06,3.310210683394158027e-01,9.436223038035528310e-01,1.185712081457643762e+03
5.174092800728102404e+00,-1.377794016795418486e+01,-8.980051486763702684e+00,-1.016116341650157614e-05,3.729636123819980997e-01,9.278448920673987299e-01,1.190451605396285458e+03
5.926279711216508872e+00,-1.408003447689632104e+01,-8.941130354662917057e+00,-1.136580632107140153e-05,4.141572099834055498e-01,9.102042656949579369e-01,1.195191129334927155e+03
6.535774952888573353e+00,-1.447785484757321761e+01,-8.802560277166078251e+00,-1.254762561132865195e-05,4.545191403705146627e-01,8.907358479813096697e-01,1.199930653273568851e+03
6.956212193355436391e+00,-1.499299959990673159e+01,-8.546055383400606331e+00,-1.370424807494821243e-05,4.939683526945071734e-01,8.694787325449020443e-01,1.204670177212210547e+03
7.140780396845007871e+00,-1.564580552969924554e+01,-8.153337140422026508e+00,-1.483335109284839431e-05,5.324256287791127029e-01,8.464756048454012971e-01,1.209409701150852243e+03
7.126701206567868319e+00,-1.611946411953978853e+01,-7.846082646014042261e+00,-1.593266730302704705e-05,5.698137421917369716e-01,8.217726564900198483e-01,1.212292251195785866e+03
6.857721868756227579e+00,-1.703927228858018950e+01,-7.213731024979604278e+00,-1.699998915352857377e-05,6.060576133181894143e-01,7.954194924999823391e-01,1.217031775134427562e+03
6.344692887228439382e+00,-1.806632972302008255e+01,-6.423335488574135610e+00,-8.714160024713584786e-06,6.747554542646525544e-01,7.380400238874712526e-01,1.221771299073069258e+03
5.889209586346032310e+00,-1.898739960410446415e+01,-5.534055410056499369e+00,-3.585205410199641569e-07,7.380472384462178903e-01,6.747475630322210538e-01,1.226510823011710954e+03
5.845974553891492675e+00,-1.947134770126850256e+01,-4.766877645506519379e+00,7.999989140413108610e-06,7.954259202489223357e-01,6.060491773184206732e-01,1.230512537557586711e+03
6.400782826662674729e+00,-1.957758666177300455e+01,-3.878581659730646614e+00,5.337226716009543779e-06,8.130197862525434527e-01,5.822343403772590742e-01,1.235252061496228407e+03
7.456975388124146953e+00,-1.932507633275098158e+01,-2.978357907941650673e+00,2.669784555868305996e-06,8.299008879425801011e-01,5.579090572536804515e-01,1.239991585434870103e+03
8.672681971229595277e+00,-1.896558972803665455e+01,-1.996456088783247651e+00,0.000000000000000000e+00,8.460544322668346329e-01,5.330946422741880131e-01,1.244731109373511799e+03
9.790604157389989126e+00,-1.867674151660121495e+01,-8.883795043395216195e-01,-7.485117199941290766e-02,8.994901084321766938e-01,4.304797868465048416e-01,1.249470633312153495e+03
1.004069558066098899e+01,-1.862335808701890727e+01,-5.978023750508913992e-01,-1.482810603468766031e-01,9.358463359363484724e-01,3.196910425044504622e-01,1.250636107496832665e+03
1.096124633975407647e+01,-1.846343013264072042e+01,6.379775450872960940e-01,-2.188953843816090761e-01,9.544327972627357770e-01,2.028320640495047678e-01,1.255375631435474361e+03
1.171090116314045915e+01,-1.838641515683064398e+01,1.954971461624596785e+00,-2.853533283690548039e-01,9.548965881330802041e-01,8.212176302108813164e-02,1.260115155374116057e+03
1.229705976360753006e+01,-1.836847471747124061e+01,3.321909110032099210e+00,-3.463930005229988729e-01,9.372289161557754156e-01,-4.014782573907275248e-02,1.264854679312757753e+03
1.272752282738406215e+01,-1.838598930314662283e+01,4.707517113121516772e+00,-4.008553929132623317e-01,9.017652654092868092e-01,-1.616550651087414747e-01,1.269594203251399449e+03
1.301049000296798752e+01,-1.841556527171939805e+01,6.080520927718091606e+00,-4.477063874386528197e-01,8.491790242433989722e-01,-2.800927978964362075e-01,1.274333727190041145e+03
1.315455784522741034e+01,-1.843404176195176092e+01,7.409646791388240672e+00,-4.860563902112744472e-01,7.804686976410527555e-01,-3.932121533461937490e-01,1.279073251128682841e+03
1.316871771488925091e+01,-1.841849757761676543e+01,8.663623669115946058e+00,-5.151772217625080197e-01,6.969389471894419374e-01,-4.988652464037193202e-01,1.283812775067324537e+03
1.306429399021581972e+01,-1.835193935508899443e+01,9.817809128199224133e+00,-4.927237079551093912e-01,6.684609208655101220e-01,-5.571187888559649970e-01,1.288552299005966233e+03
1.285674001042970183e+01,-1.822906036069882063e+01,1.086081480035903901e+01,-4.679501352130086556e-01,6.368353521228012903e-01,-6.127490556847257075e-01,1.293291822944607929e+03
1.256348134638952274e+01,-1.805066898120306362e+01,1.178788316166580863e+01,-4.409731533033981465e-01,6.022111543105989062e-01,-6.654941049260625352e-01,1.298031346883249626e+03
1.220190041381224511e+01,-1.781804282324857525e+01,1.259426389951985037e+01,-4.119197869016154034e-01,5.647513600378687437e-01,-7.151055799643126765e-01,1.302770870821891322e+03
1.178933234198265545e+01,-1.753292781982946735e+01,1.327521420763632243e+01,-3.809268374968131643e-01,5.246323535355498224e-01,-7.613498788994490507e-01,1.307510394760533018e+03
1.169441119734800161e+01,-1.746427001917484034e+01,1.340882535274453069e+01,-3.481402392685768454e-01,4.820430401596220715e-01,-8.040092544476338254e-01,1.308545226280693896e+03
1.124790593415264972e+01,-1.712208697145505099e+01,1.394887338036081381e+01,-3.137143719662507935e-01,4.371839569439309736e-01,-8.428828391979396040e-01,1.313284750219335592e+03
1.078863653058105498e+01,-1.673300877857452207e+01,1.435299745622120504e+01,-2.778113340250172314e-01,3.902663283890887569e-01,-8.777875913993072876e-01,1.318024274157977288e+03
1.033375781943077953e+01,-1.630028142020747950e+01,1.461648036008683071e+01,-2.406001793398417354e-01,3.415110719314042864e-01,-9.085591568255139139e-01,1.322763798096618984e+03
9.900359996773026694e+00,-1.582761483132547653e+01,1.473461361843841466e+01,-2.022561212894118943e-01,2.911477577725803956e-01,-9.350526426605469954e-01,1.327503322035260680e+03
9.505464527786632090e+00,-1.531918172458286520e+01,1.470269779752416106e+01,-1.629597077563735563e-01,2.394135279657561843e-01,-9.571432997604746307e-01,1.332242845973902376e+03
9.166020060459036500e+00,-1.477961635856124722e+01,1.451604279599099101e+01,-1.228959710267722022e-01,1.865519798453561806e-01,-9.747271100787595621e-01,1.336982369912544073e+03
8.898898347392201202e+00,-1.421401325201235899e+01,1.416996813707051039e+01,-8.225355656999566722e-02,1.328120190562258329e-01,-9.877212764879662599e-01,1.341721893851185769e+03
8.720890175944237654e+00,-1.362792584419318231e+01,1.365980326030999770e+01,-4.122383480012981050e-02,7.844668758089154426e-02,-9.960646126898957675e-01,1.346461417789827465e+03
8.655038063929742620e+00,-1.319988113102771976e+01,1.319739309420578088e+01,-0.000000000000000000e+00,2.371197228180339442e-02,-9.997178313761895252e-01,1.349845436408356136e+03
8.634600180521635693e+00,-1.261212888148981826e+01,1.242942388085754857e+01,-1.973440555886360730e-03,1.778478861608025902e-02,-9.998388903968752350e-01,1.354584960346997832e+03
8.634990303541513867e+00,-1.209944736950041211e+01,1.156922339121977927e+01,-3.946803592501856202e-03,1.185691204680147139e-02,-9.999209150237998722e-01,1.359324484285639528e+03
8.558012212291568943e+00,-1.174472246780099915e+01,1.069663788712048458e+01,-5.920012561684618625e-03,5.928572519935175651e-03,-9.999639020499327957e-01,1.364064008224281224e+03
8.454043262373847512e+00,-1.164469458134645841e+01,1.022969942808242472e+01,-7.892990921127130202e-03,0.000000000000000000e+00,-9.999678497920404530e-01,1.366700001627259780e+03
8.106954557804773032e+00,-1.165369062946345302e+01,9.455249095718214036e+00,-2.187402034357797120e-01,2.278644140713642630e-02,-9.755160180589309560e-01,1.371439525565901477e+03
7.537813706373031053e+00,-1.183274257648558603e+01,8.752326892532229508e+00,-4.196186226802294250e-01,4.453442119114191938e-02,-9.066062523662512529e-01,1.376179049504543173e+03
6.759348428435939304e+00,-1.206994284987626287e+01,8.080587074942410908e+00,-6.013734984814596007e-01,6.425280592272622493e-02,-7.963789878288242141e-01,1.380918573443184869e+03
6.334528294004519999e+00,-1.217235195596303221e+01,7.768942747708933894e+00,-7.557215732820177223e-01,8.104295423911778151e-02,-6.498576330580629890e-01,1.383125740893989814e+03
5.313875475444051588e+00,-1.232462943473147554e+01,7.092860354652066768e+00,-5.299846502123876091e-01,1.027107153919776250e-01,-8.417628998009492047e-01,1.387865264832631510e+03
4.177345489797647637e+00,-1.238456148511100707e+01,6.429106342338246627e+00,-2.574739619737981822e-01,1.153138048074176941e-01,-9.593789060240146549e-01,1.392604788771273206e+03
2.996149958520051282e+00,-1.236639244454489273e+01,5.817963319143119705e+00,3.776022978086548965e-02,1.177399165858050989e-01,-9.923252879404484972e-01,1.397344312709914902e+03
1.841202624692743761e+00,-1.228630986746569675e+01,5.299710611240693758e+00,3.296620231152499469e-01,1.097749153141582001e-01,-9.376942030747426049e-01,1.402083836648556598e+03
7.831021322664536433e-01,-1.216243906033297151e+01,4.914621754240140028e+00,5.924695299255268166e-01,9.212174943467364707e-02,-8.003070906770211046e-01,1.406823360587198295e+03
-1.078851578180248932e-01,-1.201483738887489849e+01,4.702961985199541672e+00,8.029886460050812413e-01,6.633841231103834724e-02,-5.922891603235169722e-01,1.411562884525839991e+03
-7.618423137985266269e-01,-1.186548835806516244e+01,4.704985735149127990e+00,9.426401424273090912e-01,3.470042660298720133e-02,-3.319991600544570098e-01,1.416302408464481687e+03
-1.109218940673171838e+00,-1.173829546530742185e+01,4.960934122110664646e+00,9.990993339585199084e-01,0.000000000000000000e+00,-4.240897172840243229e-02,1.421041932403123383e+03
-1.180950440816201930e+00,-1.169372422896204178e+01,5.173031963845136083e+00,9.990993332537561056e-01,-0.000000000000000000e+00,-4.240897169848718840e-02,1.423200303365853415e+03
-1.227040433899883043e+00,-1.167071982997833679e+01,5.342790011626041391e+00,9.990993332535061944e-01,-0.000000000000000000e+00,-4.240897169847657883e-02,1.424565034103077778e+03
-1.604329941874311993e+00,-1.162675557957879313e+01,6.315703846690771783e+00,9.112920298020296128e-01,-0.000000000000000000e+00,-4.117582256856600620e-01,1.429304558041719474e+03
-2.295923000813694603e+00,-1.164198829597275697e+01,7.730571585689413716e+00,6.921409340576635261e-01,-0.000000000000000000e+00,-7.217609904965988088e-01,1.434044081980361170e+03
-3.148624456288757312e+00,-1.171995502116479138e+01,9.141960166492598461e+00,3.732322378479120961e-01,-0.000000000000000000e+00,-9.277368682078998008e-01,1.438783605919002866e+03
-4.009388987756966394e+00,-1.186841943198305316e+01,1.010443673714685708e+01,5.299993955616641179e-04,-0.000000000000000000e+00,-9.999988595503095379e-01,1.443523129857644562e+03
-4.771178697864186802e+00,-1.207621836089553291e+01,1.035105280278502882e+01,1.715589422806140518e-01,1.860141236169066473e-02,-9.849972166370436488e-01,1.448262653796286259e+03
-5.398422114189505905e+00,-1.228244850104081110e+01,9.991673105107892638e+00,3.374715986759647124e-01,3.664808734485522357e-02,-9.406209851913485132e-01,1.452845841268543381e+03
-5.962323230873003865e+00,-1.242442162547848206e+01,9.265855450660771098e+00,4.933201442829532879e-01,5.360183950199373659e-02,-8.681935717615585357e-01,1.457585365207185077e+03
-6.466844719967266286e+00,-1.241654264024643339e+01,8.442359152162188352e+00,6.344568909979168003e-01,6.895707699689174186e-02,-7.698749086694273158e-01,1.462324889145826774e+03
-6.937899374909355821e+00,-1.217924731389759607e+01,7.789716235536962685e+00,7.566728811008494038e-01,8.225587836747591530e-02,-6.485970409135887182e-01,1.467064413084468470e+03
-7.343651393193295185e+00,-1.169351472874290465e+01,7.468463131538056743e+00,7.565048660577287087e-01,6.809732918432416515e-02,-6.504315039712499358e-01,1.471714136304197154e+03
-7.574967378337919222e+00,-1.101293716963138536e+01,7.403283936415503419e+00,7.561826312730529631e-01,5.392490214792167169e-02,-6.521333706066914093e-01,1.476453660242838851e+03
-7.448820064409087394e+00,-1.027304028867913743e+01,7.429601306079292478e+00,7.557062424287377400e-01,3.974148289102960585e-02,-6.537022943675031561e-01,1.481193184181480547e+03
-7.301639850298686341e+00,-1.001383759679277574e+01,7.435560010129505848e+00,7.550757964904738495e-01,2.554995927611568990e-02,-6.551379557806323861e-01,1.482896858624605102e+03
-6.590966322952179546e+00,-9.358180273298444263e+00,7.376234697761015369e+00,6.049639977889966769e-01,1.481783273090158393e-01,-7.823424727679112456e-01,1.487636382563246798e+03
-5.512184699350826556e+00,-8.781789355928422580e+00,7.206890673356698862e+00,4.223338967758962226e-01,2.628417910506486432e-01,-8.674942492676822603e-01,1.492375906501888494e+03
-4.288493086018977607e+00,-8.237754062192736981e+00,6.964762848476183876e+00,2.170022226365545259e-01,3.633769277550212840e-01,-9.060161387892701201e-01,1.497115430440530190e+03
-3.142112345404097784e+00,-7.673038604025654408e+00,6.687090662243393879e+00,5.999996079955432846e-06,4.443797096684325432e-01,-8.958374147125192088e-01,1.501854954379171886e+03
-2.215858505834802372e+00,-7.048071392370887089e+00,6.411401991723390204e+00,-3.457850963328471666e-02,3.751178121805130439e-01,-9.263309093703721020e-01,1.506594478317813582e+03
-2.113963679452337097e+00,-6.963474707634182082e+00,6.377591350815214000e+00,-6.892361564629416459e-02,3.032589350963585395e-01,-9.504112549255870901e-01,1.507199925270739413e+03
-1.392677174677268814e+00,-6.273434661077280872e+00,6.145574370744113502e+00,-1.027915449474380294e-01,2.293005639519623273e-01,-9.679117468331320806e-01,1.511939449209381110e+03
-7.724457387236791650e-01,-5.539116466663557503e+00,5.996928229864036730e+00,-1.359478282856954878e-01,1.537547175801981247e-01,-9.787112315720272182e-01,1.516678973148022806e+03
-1.609112778166207625e-01,-4.780415048102001130e+00,5.970031308691439165e+00,-1.681629231905345523e-01,7.714440394903140930e-02,-9.827349450397684372e-01,1.521418497086664502e+03
5.338838229254673218e-01,-4.019756197768051820e+00,6.103254399633579297e+00,-1.992138028046138709e-01,0.000000000000000000e+00,-9.799550299737879167e-01,1.526158021025306198e+03
1.361060773297453341e+00,-3.286382889248357753e+00,6.388590463852706236e+00,-2.153716596713729781e-01,-2.002182468751991197e-06,-9.765311301671198985e-01,1.530897544963947894e+03
1.803277697146070224e+00,-2.949804437103123789e+00,6.558991670878251412e+00,-2.314707588939864946e-01,-4.003818211357638265e-06,-9.728408337134496486e-01,1.533202039012903697e+03
2.736312592767641050e+00,-2.329970468121247862e+00,6.865236211385911780e+00,-2.475067112427223326e-01,-6.004361501903186632e-06,-9.688851468740005135e-01,1.537941562951545393e+03
3.647199528769185850e+00,-1.837303915927295916e+00,7.004184142853711492e+00,-2.634751446801240626e-01,-8.003266912316206219e-06,-9.646651481477370726e-01,1.542681086890187089e+03
4.455426709575039723e+00,-1.510261436813306712e+00,6.828724421899899255e+00,-2.793717055426080398e-01,-9.999989460024915751e-06,-9.601819879695102644e-01,1.547420610828828785e+03
5.107422995107014252e+00,-1.358650043850904821e+00,6.253500315581381308e+00,-4.174208601670152397e-01,-4.870812129515212502e-02,-9.074058322593331338e-01,1.552160134767470481e+03
5.600732129145610472e+00,-1.338233607007577763e+00,5.327289662244006685e+00,-5.453623943448625555e-01,-9.622680042936179734e-02,-8.326573495229006028e-01,1.556853654352434432e+03
5.975218168909618655e+00,-1.378547848244137564e+00,4.131345508849980419e+00,-6.600982835175851493e-01,-1.414154021128204430e-01,-7.377465283844331090e-01,1.561593178291076129e+03
6.256850845862850008e+00,-1.410722951736559816e+00,2.772610781960182624e+00,-7.588502663756157007e-01,-1.831797117357061577e-01,-6.249715724981701470e-01,1.566332702229717825e+03
6.478516402099608662e+00,-1.366091712673821013e+00,1.351006648919439224e+00,-8.392271171940380858e-01,-2.205084303710583560e-01,-4.970632534215943532e-01,1.571072226168359521e+03
6.674365602169652689e+00,-1.176894974720514186e+00,-3.354180927535298923e-02,-8.992825476681939323e-01,-2.524976624067060693e-01,-3.571187896749914437e-01,1.575811750107001217e+03
6.879805639334821699e+00,-7.763040126710721855e-01,-1.281111820820385550e+00,-9.375623362859477616e-01,-2.783728029358326639e-01,-2.085268523807997931e-01,1.580551274045642913e+03
7.118888259148381081e+00,-1.362667549399608491e-01,-2.320779380641873946e+00,-9.574006846745104493e-01,-2.525155344598475349e-01,-1.400636778073610367e-01,1.585290797984284609e+03
7.390750735342349387e+00,6.951121700138868098e-01,-3.139613901777332128e+00,-9.717345744423043774e-01,-2.252064638826337395e-01,-7.079523613038077312e-02,1.590030321922926305e+03
7.680795790140072299e+00,1.632092265449736734e+00,-3.753688785112659687e+00,-9.804815976418608248e-01,-1.966026011715734934e-01,-1.119775961600134092e-03,1.594769845861568001e+03
7.967533305014598888e+00,2.572050640156371415e+00,-4.173058312358142175e+00,-9.835914667530744060e-01,-1.668684001871975631e-01,6.856211453539215461e-02,1.599420980298763425e+03
8.244245713411086030e+00,3.466673642324052729e+00,-4.429609525888023036e+00,-9.810463036760613820e-01,-1.361748132172932446e-01,1.378498106233596865e-01,1.604160504237405121e+03
8.486129099416029220e+00,4.214018580013852322e+00,-4.529393261963212680e+00,-9.728607424294133388e-01,-1.046983081659189074e-01,2.063449541593737058e-01,1.608900028176046817e+03
8.672233714518460701e+00,4.730279377591540602e+00,-4.488527715697583353e+00,-9.590818449677206425e-01,-7.261985404470237826e-02,2.736537437200114997e-01,1.613639552114688513e+03
8.780025453118803114e+00,4.932206449136047333e+00,-4.323139838711030691e+00,-9.397888306047268436e-01,-4.012388059542765922e-02,3.393891985267892819e-01,1.618379076053330209e+03
8.785390723462933593e+00,4.737134931116641745e+00,-4.049364334647218122e+00,-9.150926205977336636e-01,-7.397218021133236329e-03,4.031733831655207601e-01,1.623118599991971905e+03
8.662641505884524307e+00,4.063012849571139284e+00,-3.683342654328333410e+00,-8.851352005091986941e-01,2.537197708297864521e-02,4.646395803182720718e-01,1.627858123930613601e+03
8.659678656861256485e+00,4.048750400072879785e+00,-3.677111315751579568e+00,-9.326402006502990671e-01,1.780777216001360949e-02,3.603652860383348977e-01,1.627930488279329211e+03
8.405832523410360579e+00,2.884770354188914698e+00,-3.237081442519097685e+00,-9.678463806872210640e-01,1.000873530664363187e-02,2.513388322724821600e-01,1.632670012217970907e+03
8.066383873707085428e+00,1.359601475071806176e+00,-2.745228540687782992e+00,-9.902894792570465787e-01,2.077712412221741772e-03,1.389979510057136325e-01,1.637409536156612603e+03
7.712784665484607949e+00,-3.320296187034172397e-01,-2.225466743258800673e+00,-9.996735378510012149e-01,-5.880710185495411496e-03,2.482408040359950288e-02,1.642149060095254299e+03
7.420121911815359184e+00,-1.997443670965459495e+00,-1.701711919084754498e+00,-9.958748034407524097e-01,-1.376158475326136853e-02,-8.967716909222922528e-02,1.646888584033895995e+03
7.267099120755561970e+00,-3.446073355049509512e+00,-1.197880183675892107e+00,-9.789433609085624877e-01,-2.146098598945257035e-02,-2.029958674765814375e-01,1.651628107972537691e+03
7.303122676181476258e+00,-4.555529275605856299e+00,-7.328103461446497935e-01,-9.829594758899673490e-01,-1.786788015852389805e-02,-1.829464610469840047e-01,1.656367631911179387e+03
7.513735249029037888e+00,-5.336452424742488709e+00,-3.151866723990758290e-01,-9.865519157338412670e-01,-1.426707376476082229e-02,-1.628182058651461706e-01,1.661107155849821083e+03
7.851025617749607832e+00,-5.864721761738279859e+00,5.138559145512957421e-02,-9.897191324372377474e-01,-1.066011868853566739e-02,-1.426197768560437673e-01,1.665846679788462779e+03
8.049328744095552324e+00,-6.053196508919056029e+00,2.148820784744493451e-01,-9.924597612158307935e-01,-7.048569456833180848e-03,-1.223598791655275270e-01,1.668192500195069670e+03
8.475518248132898336e+00,-6.341275128202816802e+00,5.062810001245230396e-01,-9.947726210873992780e-01,-3.433982573930053142e-03,-1.020472444118730726e-01,1.672932024133711366e+03
8.902885002257166391e+00,-6.559836275526200744e+00,7.376476507783990000e-01,-9.966567153795802270e-01,1.820841486960082247e-04,-8.169062692667462822e-02,1.677671548072353062e+03
9.278761503278621703e+00,-6.779816380055432745e+00,9.053886301021305538e-01,-9.981112321584693081e-01,3.798072263012315913e-03,-6.129879998601993341e-02,1.682411072010994758e+03
