1.554319844722664934e+00,7.014461053131864077e+00,-8.419696223703254656e-01,5.914274684802296733e-02,-9.918606829312208717e-01,-1.127498166343988556e-01,9.474523597705196920e+00
1.536565705075412458e+00,7.761334909050934705e+00,-1.100064181787966167e+00,9.966157859612588543e-02,-9.934736464593049154e-01,-5.545884549059783286e-02,1.105361086398939641e+01
1.494998581330697407e+00,8.491398076183198640e+00,-1.339403890396113850e+00,1.396894148830705173e-01,-9.901921201745024215e-01,2.105353766136343081e-03,1.263269813027359589e+01
1.425916726549912639e+00,9.201956102099847712e+00,-1.558326347942577739e+00,1.790290527682666943e-01,-9.820322704292872018e-01,5.965918287146149829e-02,1.421178539655779538e+01
1.330345343123019886e+00,9.866658539253602811e+00,-1.748947496561244153e+00,2.174866797548291042e-01,-9.690342973590386766e-01,1.169190945549642285e-01,1.573468103808561125e+01
1.203928298408821762e+00,1.050916013791972858e+01,-1.918732166476140755e+00,2.548728286412904609e-01,-9.512622368537400064e-01,1.736029894812607943e-01,1.725757667961342534e+01
1.046241662896637337e+00,1.112745551447592085e+01,-2.070304842350887853e+00,2.910033109681257057e-01,-9.288036450972543268e-01,2.294316060616655162e-01,1.878047232114123943e+01
8.607814351282251364e-01,1.172018703056454392e+01,-2.212353975365159542e+00,3.257001244599182499e-01,-9.017691672274030790e-01,2.841298962889257096e-01,2.030336796266905353e+01
6.528228612997902802e-01,1.228630916491946401e+01,-2.356393868570879846e+00,3.587923299920197651e-01,-8.702919922411032072e-01,3.374283808162134579e-01,2.182626360419686762e+01
4.257215365830366860e-01,1.282441897564105027e+01,-2.512798292770174413e+00,3.901168937606270259e-01,-8.345271968294237785e-01,3.890644766036953639e-01,2.334915924572468171e+01
1.808852258146421421e-01,1.333317994501860504e+01,-2.687935960922811951e+00,4.195194905065810498e-01,-7.946509813748239281e-01,4.387837905910350056e-01,2.487205488725249580e+01
-7.843094187647579874e-02,1.381239557387107197e+01,-2.883587067158909445e+00,4.468552638350547501e-01,-7.508598018743336544e-01,4.863413730215024877e-01,2.639495052878030990e+01
-3.727533473928294483e-01,1.430140073871064388e+01,-3.122126002603224038e+00,4.719895398846724044e-01,-7.033694020654027712e-01,5.315029242421057676e-01,2.805963386483880839e+01
-6.721142862911984039e-01,1.475309645135614289e+01,-3.387594662575644566e+00,4.947984908294763562e-01,-6.524137505230371836e-01,5.740459490333810200e-01,2.972431720089730689e+01
-9.691649198865229797e-01,1.516813879178702784e+01,-3.680072797818100927e+00,5.151697449443770616e-01,-5.982438879652297592e-01,6.137608527810293202e-01,3.138900053695580539e+01
-1.256549157921216242e+00,1.554713936044088385e+01,-3.999639951476647415e+00,5.330029402280686002e-01,-5.411266904462633809e-01,6.504519740881913314e-01,3.305368387301430033e+01
-1.526903777046122235e+00,1.589066524015235693e+01,-4.346375458485873366e+00,5.482102188555738609e-01,-4.813435545320181586e-01,6.839385487404116004e-01,3.471836720907279528e+01
-1.772858539385506305e+00,1.619923895861695229e+01,-4.720358444954514177e+00,5.607166600242153853e-01,-4.191890109359158179e-01,7.140556002736854202e-01,3.638305054513129022e+01
-1.979043210122349405e+00,1.646047242963267720e+01,-5.098674262733888796e+00,5.704606490604534619e-01,-3.549692734466661226e-01,7.406547527577570511e-01,3.796094368375838002e+01
-2.157799058308911722e+00,1.669180021181015050e+01,-5.497304861772441598e+00,5.773941809691841565e-01,-2.890007302978197523e-01,7.636049617902332942e-01,3.953883682238546982e+01
-2.308820501151177762e+00,1.689262815220408243e+01,-5.913284921298300745e+00,5.814830969302080543e-01,-2.216083854126935371e-01,7.827931601002129369e-01,4.111672996101255961e+01
-2.431807035056876565e+00,1.706236014461015671e+01,-6.343649000696342632e+00,5.827072525770398137e-01,-1.531242572051277617e-01,7.981248145810122541e-01,4.269462309963964941e+01
-2.526463241172669072e+00,1.720039815469259636e+01,-6.785431559976144555e+00,5.810606172294330296e-01,-8.388574282553397377e-02,8.095243920080945621e-01,4.427251623826673921e+01
-2.592498790869680381e+00,1.730614224513501398e+01,-7.235666980240448964e+00,5.765513035912456230e-01,-1.423395591180482735e-02,8.169357311483508299e-01,4.585040937689382901e+01
-2.629628451177346449e+00,1.737899060081437597e+01,-7.691389584154048720e+00,5.692015277679184360e-01,5.548795396500057903e-02,8.203223194281856756e-01,4.742830251552091880e+01
-2.638847257004012903e+00,1.741832446831564951e+01,-8.135621155083265776e+00,3.929044487389432572e-01,4.365734123405916323e-02,9.185413059394110791e-01,4.895812993759756182e+01
-2.623875257056564880e+00,1.742738564404520929e+01,-8.579354994963651393e+00,2.005502775541377347e-01,3.004255441678143138e-02,9.792216455410993614e-01,5.048795735967419773e+01
-2.587126974690515446e+00,1.740644202740000779e+01,-9.019795641684808629e+00,0.000000000000000000e+00,1.519999199371368896e-02,9.998834733317381041e-01,5.201778478175083364e+01
-2.531013132046471270e+00,1.735577463057568082e+01,-9.454147654417681679e+00,-0.000000000000000000e+00,6.377917058116652424e-03,9.999786608528554721e-01,5.354761220382746956e+01
-2.457447829288528673e+00,1.727624689743172937e+01,-9.879566012952960108e+00,-0.000000000000000000e+00,-2.444652874761686981e-03,9.999960118218210736e-01,5.507743962590410547e+01
-2.367347846089451924e+00,1.716987038212155881e+01,-1.029310651736126658e+01,-0.000000000000000000e+00,-1.126703122667802731e-02,9.999355249188323080e-01,5.660726704798074138e+01
-2.261113594265571791e+00,1.703922988545039274e+01,-1.069177542589383378e+01,-0.000000000000000000e+00,-2.008853143510555203e-02,9.997972048832026726e-01,5.813709447005737729e+01
-2.135521021939140063e+00,1.688242658475919100e+01,-1.108193663226537495e+01,-0.000000000000000000e+00,-2.890846700660624005e-02,9.995810625071457345e-01,5.970669106181776442e+01
-1.993274803467142364e+00,1.670509197748050312e+01,-1.144949067603342918e+01,-0.000000000000000000e+00,-3.772615157010862641e-02,9.992871146349184830e-01,6.127628765357815155e+01
-1.834725891533884656e+00,1.651009626755595150e+01,-1.179112118702716749e+01,-0.000000000000000000e+00,-4.654089893017572532e-02,9.989153841614963891e-01,6.284588424533853868e+01
-1.660193934734930599e+00,1.630031143276884364e+01,-1.210351197203700302e+01,-0.000000000000000000e+00,-5.535202312025905291e-02,9.984659000307835042e-01,6.441548083709892580e+01
-1.469967273691871190e+00,1.607861106863164480e+01,-1.238334703746494903e+01,-0.000000000000000000e+00,-6.415883845593449430e-02,9.979386972333547101e-01,6.598507742885931293e+01
-1.264302937493459345e+00,1.584787023225806024e+01,-1.262731061197393245e+01,-0.000000000000000000e+00,-7.296065958811630281e-02,9.973338168037325646e-01,6.755467402061970006e+01
-1.043426640463128718e+00,1.561096528622097601e+01,-1.283208716913599190e+01,-0.000000000000000000e+00,-8.175680155624505396e-02,9.966513058171966311e-01,6.912427061238008719e+01
-8.075327792529140014e-01,1.537077374239767202e+01,-1.299436145007921084e+01,-0.000000000000000000e+00,-9.054657984144540150e-02,9.958912173861287354e-01,7.069386720414047431e+01
-5.567844302637965370e-01,1.513017410580360789e+01,-1.311081848613327949e+01,-0.000000000000000000e+00,-9.932931041964995766e-02,9.950536106558915961e-01,7.226346379590086144e+01
-2.913133473924836570e-01,1.489204571841614744e+01,-1.317814362147356277e+01,-0.000000000000000000e+00,-1.081043098146848153e-01,9.941385508002410498e-01,7.383306038766124857e+01
-9.801760358810557294e-03,1.465818901578755984e+01,-1.319282921430178668e+01,-0.000000000000000000e+00,-1.168708951513131450e-01,9.931461090162760907e-01,7.541019847128949039e+01
2.863278777844499579e-01,1.443258354858977555e+01,-1.315125491620319487e+01,3.204669457962769537e-04,-5.880065388116560016e-02,9.982686914847954673e-01,7.698733655491773220e+01
5.965865858576542280e-01,1.421781120152270894e+01,-1.305100875989810127e+01,6.398446498911922750e-04,-5.306028803975711703e-04,9.999986545262882220e-01,7.856447463854597402e+01
9.203635694278927692e-01,1.401633830065036790e+01,-1.289000106266222012e+01,9.570477866497265193e-04,5.774124123053508278e-02,9.983301223121142653e-01,8.014161272217421583e+01
1.055333564893821352e+00,1.393770477309262468e+01,-1.280969458932717586e+01,1.270998420251536658e-03,1.158168560489946514e-01,9.932687654470839789e-01,8.078403856062790567e+01
1.397664163687411421e+00,1.375174142397067101e+01,-1.257197250758682650e+01,0.000000000000000000e+00,1.173078338390019654e-01,9.930945933284813787e-01,8.238127097373336483e+01
1.750178395015688171e+00,1.358209088960153821e+01,-1.226922770690801912e+01,-1.177648228227758248e-01,0.000000000000000000e+00,9.930405059701521431e-01,8.397850338683882399e+01
2.109631232023876812e+00,1.342716867133968250e+01,-1.190378726797965214e+01,-1.816074833447078318e-01,2.249536404289151706e-02,9.831127507010541944e-01,8.557573579994428314e+01
2.470413793106685851e+00,1.328507003823347432e+01,-1.148260190986855989e+01,-2.446001233135345621e-01,4.488543598003069679e-02,9.685835417315357132e-01,8.716453624033491110e+01
2.830737851353117840e+00,1.315214176578962579e+01,-1.100913430562168394e+01,-3.064479078803077350e-01,6.706541980010792547e-02,9.495208840379535387e-01,8.875333668072553905e+01
3.186920934189076071e+00,1.302564764417209986e+01,-1.048845254291568452e+01,-3.668613608084618227e-01,8.893150287289935951e-02,9.260140008358307417e-01,9.034213712111616701e+01
3.535251027297025672e+00,1.290287271819865644e+01,-9.925625039773382952e+00,-4.255577192520839658e-01,1.103813418047569217e-01,8.981729159620766012e-01,9.193093756150679496e+01
3.871986628516925766e+00,1.278112343620953339e+01,-9.325720509093152089e+00,-4.822622571119882240e-01,1.313145414164163249e-01,8.661279389208698110e-01,9.351973800189742292e+01
4.193356802061638078e+00,1.265772779870779452e+01,-8.693807923176752439e+00,-5.367095707810943805e-01,1.516331246029972435e-01,8.300290550074360674e-01,9.510853844228805087e+01
4.495561233046460714e+00,1.253003550676997513e+01,-8.034956478255798729e+00,-5.886448212658882406e-01,1.712419908787092826e-01,7.900452233626342746e-01,9.669733888267867883e+01
4.774770282332456262e+00,1.239541811022575679e+01,-7.354235559017087809e+00,-6.378249268744961009e-01,1.900493614616348692e-01,7.463635862412140165e-01,9.828613932306930678e+01
5.027125041683246032e+00,1.225126915560532481e+01,-6.656714703126925592e+00,-6.840197008926774958e-01,2.079672088167840993e-01,6.991885931912854568e-01,9.987493976345993474e+01
5.248737389234924500e+00,1.209500433385314189e+01,-5.947463565754674164e+00,-7.270129289257662997e-01,2.249116686481305305e-01,6.487410442400828314e-01,1.014637402038505627e+02
5.436156845985680164e+00,1.192454183150606184e+01,-5.231240382171818304e+00,-9.246034767262547582e-01,-1.743419773614379165e-01,3.386905457147098009e-01,1.030525406442411906e+02
5.609157982401515419e+00,1.169207543419032014e+01,-4.349962949949619073e+00,-8.498265231567917466e-01,-5.222387069684532035e-01,-7.113096008795406766e-02,1.050000257257920424e+02
5.710083191216932086e+00,1.143029133951220366e+01,-3.472091988632112880e+00,-9.097764572098885338e-01,-4.109769391039692077e-01,-5.833312464285502624e-02,1.069475108073428942e+02
5.739264012810988191e+00,1.117029949504100550e+01,-2.689737615125192161e+00,-9.550453190685268545e-01,-2.930832919055429975e-01,-4.459397415261633774e-02,1.087028936583431147e+02
5.711856997605345043e+00,1.089071541306874380e+01,-1.920355028116268681e+00,-9.849026284388019414e-01,-1.704602042659174865e-01,-3.013521620656858108e-02,1.104582765093433352e+02
5.627665961294438191e+00,1.059443205094067508e+01,-1.168104783777180522e+00,-9.988665941599867981e-01,-4.508642607873940278e-02,-1.519016967036251192e-02,1.122136593603435557e+02
5.486525876851700900e+00,1.028434335666277377e+01,-4.371472918600013413e-01,-9.967118863751273095e-01,8.101490948214877530e-02,-0.000000000000000000e+00,1.139690422113437762e+02
5.289391141438279043e+00,9.963702039797759369e+00,2.690997969640537280e-01,-9.932567570293234782e-01,8.139880434615835714e-02,-8.254240890503737604e-02,1.157244250623439967e+02
5.079407393991449027e+00,9.682124283569583767e+00,8.578539131468100321e-01,-9.830223045673989191e-01,8.122712403018601812e-02,-1.645214364331784862e-01,1.172373069545191839e+02
4.837824490930020538e+00,9.398792780477707609e+00,1.428874919148628519e+00,-9.660783830276251649e-01,8.050104033451617458e-02,-2.453775465544107415e-01,1.187501888466943711e+02
4.567038399387348235e+00,9.116066803848651645e+00,1.981505620297098202e+00,-9.425406411065262446e-01,7.922550907238744278e-02,-3.245588676588880839e-01,1.202630707388695583e+02
4.269467969461699930e+00,8.836292482909621882e+00,2.515088938622512149e+00,-9.125697327805535330e-01,7.740923624233604639e-02,-4.015249593220102109e-01,1.217759526310447455e+02
3.947554902555309830e+00,8.561802693292170474e+00,3.028967917022565626e+00,-8.763702207390996479e-01,7.506461860316120116e-02,-4.757505010370863263e-01,1.232888345232199327e+02
3.603763719494232465e+00,8.294916947663610429e+00,3.522485723426479254e+00,-8.341891801169368792e-01,7.220765905738532608e-02,-5.467288777362185881e-01,1.248017164153951200e+02
3.240581728429149599e+00,8.037941286487097159e+00,3.994985654958526755e+00,-7.863145120595614879e-01,6.885785742101434292e-02,-6.139756376252964998e-01,1.263145983075703072e+02
2.860518992517325110e+00,7.793168168911197569e+00,4.445811142100950519e+00,-7.330729786357232936e-01,6.503807732543331888e-02,-6.770317987314022901e-01,1.278274801997454944e+02
2.466108297385881887e+00,7.562876363789858836e+00,4.874305752856237461e+00,-6.748279725133988771e-01,6.077439016019298840e-02,-7.354669815944707700e-01,1.293403620919206674e+02
2.059905118376584188e+00,7.349330840833608214e+00,5.279813196908740736e+00,-6.119770366256332972e-01,5.609589712214067131e-02,-7.888823467226213637e-01,1.308532439840958546e+02
1.644487587572307952e+00,7.154782661892875595e+00,5.661677329785628210e+00,-5.449491507587007622e-01,5.103453058575693757e-02,-8.369133167640062654e-01,1.323661258762710418e+02
1.222456460605377604e+00,6.981468872374294143e+00,6.019242157017128392e+00,-4.742018035852761937e-01,4.562483615065762027e-02,-8.792320648181624065e-01,1.338790077684462290e+02
7.964350832479623055e-01,6.831612392790847643e+00,6.351851838296069808e+00,-4.002178701289689777e-01,3.990373685404841747e-02,-9.155497519066165824e-01,1.353918896606214162e+02
3.690693577847147244e-01,6.707421910446724311e+00,6.658850691636681418e+00,-3.235023159736916676e-01,3.391028115758249611e-02,-9.456184983349567030e-01,1.369047715527966034e+02
-5.697229083215707424e-02,6.611091771257746608e+00,6.939583197532646075e+00,-2.445787507129186800e-01,2.768537642874062746e-02,-9.692330754950132521e-01,1.384176534449717906e+02
-4.789989490452061793e-01,6.544801871708236796e+00,7.193394003114387480e+00,-1.639858541619299004e-01,2.127150973578075324e-02,-9.862323065638125552e-01,1.399305353371469778e+02
-8.942972489712576190e-01,6.510717550945185117e+00,7.419627926305546239e+00,-8.227369972366822826e-02,1.471245786181720958e-02,-9.965001665425308186e-01,1.414434172293221650e+02
-1.314224004927331269e+00,6.512328450757960852e+00,7.623638104638684965e+00,-0.000000000000000000e+00,8.052988517103476865e-03,-9.999665741302532496e-01,1.430104589938938489e+02
-1.720176533416251319e+00,6.554084594047123069e+00,7.796928676015452808e+00,1.984795552643255426e-02,-2.502312411574146231e-02,-9.994888203086398359e-01,1.445775007584655327e+02
-2.108118187068095395e+00,6.637124031768155241e+00,7.942943857734290347e+00,3.966637210066471797e-02,-5.806199530753911042e-02,-9.975236255981020372e-01,1.461445425230372166e+02
-2.473720625647353177e+00,6.762128320939613246e+00,8.066527235592447553e+00,5.942575608357240219e-02,-9.101445682225073330e-02,-9.940739148395347780e-01,1.477115842876089005e+02
-2.812647374416915369e+00,6.929754814639755622e+00,8.172522548038049450e+00,7.909670170042037984e-02,-1.238314690392284950e-01,-9.891448220846599249e-01,1.492786260521805843e+02
-3.120553883486542279e+00,7.140636621430399344e+00,8.265773653186652581e+00,9.864993479936944032e-02,-1.564641939287245986e-01,-9.827436829527518292e-01,1.508456678167522682e+02
-3.394481174690698655e+00,7.394556096393947620e+00,8.350030984407737833e+00,1.180563564139884697e-01,-1.888640677271934687e-01,-9.748800237121687529e-01,1.524127095813239521e+02
-3.634261211392662005e+00,7.689628859711578279e+00,8.426858013356708810e+00,1.372870860649880176e-01,-2.209828732043121191e-01,-9.655655471025326175e-01,1.539797513458956360e+02
-3.841140922610641883e+00,8.023146087828827433e+00,8.496724750757353561e+00,1.563135047367802954e-01,-2.527728114142484550e-01,-9.548141149186625265e-01,1.555467931104673198e+02
-4.016394467157333281e+00,8.392406360111500874e+00,8.560101254629989498e+00,1.751072974649543479e-01,-2.841865728244751810e-01,-9.426417273821817711e-01,1.571138348750390037e+02
-4.161323214288863426e+00,8.794715793840447660e+00,8.617457627089910588e+00,1.936404954713352999e-01,-3.151774077163534971e-01,-9.290664993314886599e-01,1.586808766396106876e+02
-4.278007758778575642e+00,9.231309295671859871e+00,8.669660079849025536e+00,2.118855177839669979e-01,-3.456991957527928983e-01,-9.141086332655016244e-01,1.602612433546739510e+02
-4.366366607913072073e+00,9.696271679465120030e+00,8.716656707469923049e+00,2.298152122801234709e-01,-3.757065146095286412e-01,-8.977903892812639786e-01,1.618416100697372144e+02
-4.427830593616581822e+00,1.018684069652159963e+01,8.758933896083759052e+00,2.474028960913110531e-01,-4.051547075679520216e-01,-8.801360519501076896e-01,1.634219767848004778e+02
-4.463858850087667030e+00,1.070026252666315791e+01,8.796978064401764996e+00,2.646223953101696225e-01,-4.339999499689659035e-01,-8.611718941816207673e-01,1.650023434998637413e+02
-4.475938791962556174e+00,1.123379191981617886e+01,8.831275660346033618e+00,2.814480839402158652e-01,-4.621993144290285072e-01,-8.409261381291346371e-01,1.665827102149270047e+02
-4.465586092182078026e+00,1.178469233750310075e+01,8.862313157680180353e+00,2.978549220304967937e-01,-4.897108347213858237e-01,-8.194289131948488958e-01,1.681630769299902681e+02
-4.434344659562365898e+00,1.235023609424021451e+01,8.890577052639850208e+00,3.138184929384293942e-01,-5.164935682274721662e-01,-7.967122111970159626e-01,1.697434436450535316e+02
-4.383786616069422770e+00,1.292770449884049100e+01,8.916553860563112721e+00,3.293150396653934386e-01,-5.425076568655753384e-01,-7.728098387658244306e-01,1.713238103601167950e+02
-4.315512273797725840e+00,1.351438799562021487e+01,8.940730112520769879e+00,3.443215002110234235e-01,-5.677143864061273693e-01,-7.477573670387459570e-01,1.729041770751800584e+02
-4.231150111652979717e+00,1.410758630550819248e+01,8.963592351946561010e+00,3.588155418935968788e-01,-5.920762440853672981e-01,-7.215920787301187689e-01,1.744845437902433218e+02
-4.132375297807940662e+00,1.470463181995158131e+01,8.985371876843913697e+00,3.261238091665379923e-01,-5.983834238621090762e-01,-7.318323162737410126e-01,1.760649105053065853e+02
-4.020927880021644363e+00,1.530291313520405794e+01,9.005789483760411329e+00,2.930363611846212857e-01,-6.039645280424834617e-01,-7.411845518431734448e-01,1.776452772203698487e+02
-3.898593717172154971e+00,1.589985214892294429e+01,9.024310724144553930e+00,2.595933459443491298e-01,-6.088127846805938548e-01,-7.496374376668961670e-01,1.792256439354331121e+02
-3.767185741843328106e+00,1.649288101381729987e+01,9.040401162470239171e+00,2.258353428610545555e-01,-6.129223110491396342e-01,-7.571807172227503768e-01,1.808060106504963755e+02
-3.628543934491179623e+00,1.707944227325201325e+01,9.053526379937771651e+00,1.918033135327638639e-01,-6.162881207760494418e-01,-7.638052376811473865e-01,1.823863773655596390e+02
-3.491056730497573479e+00,1.763176550304131140e+01,9.062884677329750005e+00,1.575385520405528095e-01,-6.189061298936551214e-01,-7.695029610092630756e-01,1.838965192883133568e+02
-3.350378442460176576e+00,1.817408570321399708e+01,9.068741548038861566e+00,1.230826348456841302e-01,-6.207731617931020462e-01,-7.742669737227949600e-01,1.854066612110670746e+02
-3.208109493464461615e+00,1.870429613106199440e+01,9.070651333034801311e+00,8.847737034428532210e-02,-6.218869510779986287e-01,-7.780914952734651058e-01,1.869168031338207925e+02
-3.065871776673492644e+00,1.922029874526571902e+01,9.068168398156831955e+00,5.376474814073870651e-02,-6.222461463126371939e-01,-7.809718850621093500e-01,1.884269450565745103e+02
-2.925308634600196633e+00,1.972000430873056587e+01,9.060847136931803547e+00,1.898688810129652016e-02,-6.218503116614556570e-01,-7.829046480688471865e-01,1.899370869793282282e+02
-2.788084838173241931e+00,2.020133249133978381e+01,9.048241973392071813e+00,-1.581401075030107808e-02,-6.206999274177608106e-01,-7.838874390935167691e-01,1.914472289020819460e+02
-2.655886565596652371e+00,2.066221197262302312e+01,9.029907364893238864e+00,-5.059572143323603360e-02,-6.187963894210655180e-01,-7.839190656012282599e-01,1.929573708248356638e+02
-2.530421381003259640e+00,2.110058054433966390e+01,9.005397804931764227e+00,-8.531604024396619024e-02,-6.161420073637511319e-01,-7.829994891695866155e-01,1.944675127475893817e+02
-2.413418212902121773e+00,2.151438521297613704e+01,8.974267825962394696e+00,-1.199328379623955249e-01,-6.127400019891026117e-01,-7.811298255358239961e-01,1.959776546703430995e+02
-2.306627332420020604e+00,2.190158230215640955e+01,8.936072002215407650e+00,-1.544041109677668500e-01,-6.085945011841122909e-01,-7.783123432437816236e-01,1.974877965930968173e+02
-2.211820331337162049e+00,2.226013755496482815e+01,8.890364952513657215e+00,-1.886880322022950474e-01,-6.037105349717799552e-01,-7.745504608923696743e-01,1.989979385158505352e+02
-2.130790099917199587e+00,2.258802623618051797e+01,8.836701343089412575e+00,-2.227430019207359002e-01,-5.980940294089788223e-01,-7.698487429888369871e-01,2.005080804386042530e+02
-2.065350804531707052e+00,2.288323323442247315e+01,8.774635890400970695e+00,-2.565276981643504484e-01,-5.917517993972735146e-01,-7.642128944118629086e-01,2.020182223613579708e+02
-2.017337865079215309e+00,2.314375316420460749e+01,8.703723363949023906e+00,-2.900011268980501322e-01,-5.846915404154006124e-01,-7.576497534911739162e-01,2.035283642841116887e+02
-1.988607932198946715e+00,2.336759046789984851e+01,8.623518589092787678e+00,-3.231226717499197654e-01,-5.769218191834223353e-01,-7.501672837120598736e-01,2.050385062068654065e+02
-1.981038864279370149e+00,2.355275951761255016e+01,8.533576449865851288e+00,-3.558521432927905237e-01,-5.684520632698635279e-01,-7.417745640548345509e-01,2.065486481296191243e+02
-1.996529704261700511e+00,2.369728471695837868e+01,8.433451891791767352e+00,-3.881498278080903752e-01,-5.592925496544206565e-01,-7.324817779809349449e-01,2.080587900523728422e+02
-2.041708946600993002e+00,2.380278774068128556e+01,8.314419684014076495e+00,-4.199765354728211553e-01,-5.494543922600975128e-01,-7.223002010789976168e-01,2.096707596792464301e+02
-2.118224378179329737e+00,2.385452559287287144e+01,8.181999410135404105e+00,-1.294010743361807547e-01,-5.992516874889408651e-01,-7.900321366902033349e-01,2.112827293061200180e+02
-2.223844196346636881e+00,2.385174841640627363e+01,8.035933947902387686e+00,1.730147582869359657e-01,-5.942164588185467888e-01,-7.854748204016575031e-01,2.128946989329936059e+02
-2.354753122019762834e+00,2.379428509710083617e+01,7.876072992302989739e+00,4.595995113955018141e-01,-5.348094314391391713e-01,-7.090452462074303686e-01,2.145066685598671938e+02
-2.507139098679490807e+00,2.368194191272142390e+01,7.702266337620910619e+00,4.898930715208476006e-01,-5.554896580358100744e-01,-6.718883972000754268e-01,2.161186381867407817e+02
-2.677848498312736858e+00,2.351510241846991534e+01,7.514684580541081793e+00,5.188511784169956842e-01,-5.746556147585337726e-01,-6.328999755749415979e-01,2.177306078136143697e+02
-2.865032598296875843e+00,2.329533239968447234e+01,7.314139820943874604e+00,5.463948923180587114e-01,-5.922550552637985133e-01,-5.921862639104329418e-01,2.193425774404879576e+02
-3.067479384066641224e+00,2.302478756637600910e+01,7.101764954035005850e+00,5.724491290741240412e-01,-6.082400035056096943e-01,-5.498582478773602622e-01,2.209545470673615455e+02
-3.283954062611059488e+00,2.270561611759270804e+01,6.878692960164214831e+00,5.969428648232683043e-01,-6.225668845130326590e-01,-5.060313137003565886e-01,2.225665166942351334e+02
-3.499757999833486899e+00,2.236281680562020924e+01,6.659563056764253197e+00,6.198093295961850657e-01,-6.351966431714870520e-01,-4.608249336246611483e-01,2.240880029226550221e+02
-3.725353791802405112e+00,2.198265932277752199e+01,6.433286125505010666e+00,6.409861893259185539e-01,-6.460948506841963646e-01,-4.143623402455346438e-01,2.256094891510749108e+02
-3.959708495817104268e+00,2.156683119336056009e+01,6.200761958382785544e+00,6.604157157666824540e-01,-6.552317984236558646e-01,-3.667701905877965296e-01,2.271309753794947994e+02
-4.201772162498253138e+00,2.111701397535377822e+01,5.962890387429043315e+00,6.780449438586830802e-01,-6.625825789173264146e-01,-3.181782208508845966e-01,2.286524616079146881e+02
-4.450477850980398387e+00,2.063488317843586017e+01,5.720571278936745330e+00,6.938258161100365751e-01,-6.681271537467924349e-01,-2.687188927602726651e-01,2.301739478363345768e+02
-4.704741644270010070e+00,2.012210818204738771e+01,5.474704527686498956e+00,7.077153136022346080e-01,-6.718504081752655344e-01,-2.185270324889586613e-01,2.316954340647544655e+02
-4.963462664768979238e+00,1.958035215352114022e+01,5.226190051172571849e+00,7.196755732620272461e-01,-6.737421923544560931e-01,-1.677394631329913177e-01,2.332169202931743541e+02
-5.225523089963486356e+00,1.901127196627567173e+01,4.975927783828803186e+00,7.296739910799986406e-01,-6.737973489983849484e-01,-1.164946317425855221e-01,2.347384065215942428e+02
-5.489788168278137981e+00,1.841651811807287586e+01,4.724817671254425200e+00,7.376833109943747857e-01,-6.720157274485697441e-01,-6.493223192523900344e-02,2.362598927500141315e+02
-5.755106235095299283e+00,1.779773464934013916e+01,4.473759664439842965e+00,7.436816991976447078e-01,-6.684021840920901791e-01,-1.319282304935810723e-02,2.377813789784340202e+02
-6.020308728939515852e+00,1.715655906155775412e+01,4.223653713992371550e+00,7.476528036632843488e-01,-6.629665691312067732e-01,3.858255291379712737e-02,2.393028652068539088e+02
-6.284210207826954608e+00,1.649462223571229913e+01,3.975399764361986499e+00,7.495857987301239866e-01,-6.557236997404047862e-01,9.025275586556300023e-02,2.408243514352737975e+02
-6.545608365779739479e+00,1.581354835081657129e+01,3.729897748067094287e+00,7.494754146226160207e-01,-6.466933196838168252e-01,1.416769323247953627e-01,2.423458376636936862e+02
-6.803284049505121445e+00,1.511495480249678991e+01,3.488047579920374730e+00,7.473219518262993466e-01,-6.359000455028863685e-01,1.927148993935589305e-01,2.438673238921135749e+02
-7.056001275239355053e+00,1.440045212164769950e+01,3.250749151254698877e+00,7.431312802790274175e-01,-6.233732994207302758e-01,2.432275268969542326e-01,2.453888101205334635e+02
-7.302507245756215681e+00,1.367164389315622941e+01,3.018902324149161043e+00,7.369148233799113212e-01,-6.091472291458790433e-01,2.930771166553703955e-01,2.469102963489533522e+02
-7.541532367540050075e+00,1.293012667469437815e+01,2.793406925655259609e+00,7.286895268593145403e-01,-5.932606147937857788e-01,3.421277778552244686e-01,2.484317825773732409e+02
-7.771790268123252687e+00,1.217748991558196359e+01,2.575162742023240359e+00,9.955207354021456956e-01,9.453287991603503970e-02,0.000000000000000000e+00,2.499532688057931296e+02
-7.999301450927061907e+00,1.138933290986407876e+01,2.357763109870743001e+00,9.913008634114531814e-01,1.316077436555698199e-01,0.000000000000000000e+00,2.515261591115538238e+02
-8.215389025802725342e+00,1.059272073485372978e+01,2.148309463585778456e+00,9.857007492619630495e-01,1.684993557698928335e-01,0.000000000000000000e+00,2.530990494173145180e+02
-8.419831911530355484e+00,9.789761174589024506e+00,1.945744190634034032e+00,9.787281891584446170e-01,2.051563592407236736e-01,0.000000000000000000e+00,2.546719397230752122e+02
-8.612385992264137258e+00,8.982560642165164921e+00,1.749009631200836523e+00,9.703928888839234990e-01,2.415277234467198553e-01,0.000000000000000000e+00,2.562448300288359064e+02
-8.792784121223428784e+00,8.173224064619672546e+00,1.557048085449213470e+00,9.769128538952149832e-01,2.136335083477470254e-01,0.000000000000000000e+00,2.578177203345965722e+02
-8.960736124625066523e+00,7.363854767833577952e+00,1.368801820778161149e+00,9.826311646046371751e-01,1.855639898862600778e-01,0.000000000000000000e+00,2.593906106403572380e+02
-9.115928805856844619e+00,6.556554361449596691e+00,1.183213079081085528e+00,9.875431292009232420e-01,1.573422001971287454e-01,0.000000000000000000e+00,2.609635009461179038e+02
-9.258025949892145334e+00,5.753422623808241099e+00,9.992240840043676853e-01,9.916447173610906107e-01,1.289912963135745883e-01,0.000000000000000000e+00,2.625363912518785696e+02
-9.386668327945686841e+00,4.956557386902898266e+00,8.157770482060296979e-01,9.949325635558181613e-01,1.005345411835595754e-01,0.000000000000000000e+00,2.641092815576392354e+02
-9.501473702370365260e+00,4.168054421354858263e+00,6.318141806144597084e-01,9.974039698086810679e-01,7.199528459899393051e-02,0.000000000000000000e+00,2.656821718633999012e+02
-9.600653446185932083e+00,3.402489681905014329e+00,4.493364302236022012e-01,9.990569079092538329e-01,4.339694405382944764e-02,0.000000000000000000e+00,2.672294485174402894e+02
-9.685920915192944847e+00,2.648843543060988903e+00,2.643698379688156908e-01,9.998900210782709630e-01,1.476298554660309542e-02,0.000000000000000000e+00,2.687767251714806775e+02
-9.756989472229642857e+00,1.909105826383857174e+00,7.612587942711160349e-02,8.808491902946983254e-01,2.673097542801564433e-02,-4.726395655342977564e-01,2.703240018255210657e+02
-9.813821677224664697e+00,1.185331857600980365e+00,-1.157797381385300417e-01,8.586017000741579253e-01,2.421703666549421610e-02,-5.120689951201196077e-01,2.718712784795614539e+02
-9.856493172026681293e+00,4.796104628755281096e-01,-3.115291781919377612e-01,8.345889668483753576e-01,2.165330910737599257e-02,-5.504456291208008611e-01,2.734185551336018420e+02
-9.885057027335404811e+00,-2.059690456196572317e-01,-5.113045786783223523e-01,8.088603593861364294e-01,1.904506358068168773e-02,-5.876905687226433583e-01,2.749658317876422302e+02
-9.899543741255653728e+00,-8.693169806969498481e-01,-7.152880508129924042e-01,7.814687739147881951e-01,1.639766242822902897e-02,-6.237272417184045459e-01,2.765131084416826184e+02
-9.899961238080274839e+00,-1.508343391154419288e+00,-9.236616778702032571e-01,7.524705253870281885e-01,1.371654848636694700e-02,-6.584815598936918368e-01,2.780603850957230065e+02
-9.885979495866399347e+00,-2.127275854005175937e+00,-1.138962049934545639e+00,7.219252317248031625e-01,1.100723389739487364e-02,-6.918820713095650277e-01,2.796243950274525218e+02
-9.857387333238325056e+00,-2.716748947911173939e+00,-1.359174277472562808e+00,6.898956912776850192e-01,8.275288779613358681e-03,-7.238601071689310107e-01,2.811884049591820371e+02
-9.814368290715719922e+00,-3.274792529249352935e+00,-1.584625927659377709e+00,6.564477537470857493e-01,5.526329778247112551e-03,-7.543499229654547777e-01,2.827524148909115524e+02
-9.757577788934625573e+00,-3.799858142107636283e+00,-1.815919693720443817e+00,6.216501848410274089e-01,2.766008520725274887e-03,-7.832888336253912565e-01,2.843164248226410677e+02
-9.690418026705343024e+00,-4.276619088017754144e+00,-2.046307637964981385e+00,5.855745249369939120e-01,0.000000000000000000e+00,-8.106173423649849497e-01,2.858325664139024411e+02
-9.612343863010638145e+00,-4.720932209514579370e+00,-2.283346737791893233e+00,8.010230466218279943e-01,1.680977087608944570e-02,-5.983957807208056812e-01,2.873487080051638145e+02
-9.524111667013322347e+00,-5.131603977801102445e+00,-2.527690717868233072e+00,9.429866597446359133e-01,3.207743219650309452e-02,-3.312781276935125585e-01,2.888648495964251879e+02
-9.426465067128722453e+00,-5.507436530691198762e+00,-2.779993256276231062e+00,9.984418138771008477e-01,4.440234749862993768e-02,-3.376945127337916547e-02,2.903809911876865613e+02
-9.320428031663752222e+00,-5.847526845765076864e+00,-3.040864825229652624e+00,9.623011475947070847e-01,5.265384537069009441e-02,2.668371674009193950e-01,2.918971327789479346e+02
-9.207602051738270177e+00,-6.151563768884499517e+00,-3.310829532065473479e+00,8.378801759393996740e-01,5.607494484992718575e-02,5.429644659909178550e-01,2.934132743702093080e+02
-9.089879185731424727e+00,-6.419525722775686560e+00,-3.590368271015115909e+00,9.053473691449666072e-01,4.153717105648690455e-01,-8.837693841807206518e-02,2.949294159614706814e+02
-8.969150994327456772e+00,-6.651380532367872966e+00,-3.879961875251114023e+00,9.360722153546453539e-01,3.202522752089287938e-01,1.456203552547300495e-01,2.964455575527320548e+02
-8.839967483364842948e+00,-6.856478730543760669e+00,-4.198880220135945862e+00,9.061895982315796294e-01,2.043976334009164064e-01,3.701891672065157901e-01,2.980530021474328919e+02
-8.711787122060874466e+00,-7.018403046976807502e+00,-4.530957326193434831e+00,8.176343202152047684e-01,7.530893738781591074e-02,5.707895254430604970e-01,2.996604467421337290e+02
-8.586143965532407663e+00,-7.137850496079147788e+00,-4.877280764129200641e+00,7.843785636195371724e-01,1.014329603648742861e-01,6.119310610452609600e-01,3.012678913368345661e+02
-8.462876103991989751e+00,-7.217068095799793248e+00,-5.239898947110776639e+00,7.483923528909645073e-01,1.272038900111869819e-01,6.509424371525430741e-01,3.028753359315354032e+02
-8.294894458281699912e+00,-7.254719177134369090e+00,-5.776241020553955607e+00,0.000000000000000000e+00,9.983844631533018710e-01,-5.680196945670642344e-02,3.050836114631876512e+02
-8.123828656058567077e+00,-7.210739777047024290e+00,-6.368420403258536311e+00,4.081438505715209025e-02,9.978246683405279649e-01,5.175052872767943457e-02,3.072918869948398992e+02
-7.996300652675112808e+00,-7.141031011870986767e+00,-6.827445750717918038e+00,8.107982391399500000e-02,9.838443326184724835e-01,1.596069902250729367e-01,3.088811760806968891e+02
-7.863745510604128519e+00,-7.050442368369907342e+00,-7.308706876827400833e+00,1.202547528576992514e-01,9.566314911224695905e-01,2.653167627726186195e-01,3.104704651665538790e+02
-7.716608610376690436e+00,-6.935484873804969475e+00,-7.838786594968865096e+00,1.578122758224531907e-01,9.165521556103991552e-01,3.674580678744239770e-01,3.121493063977750353e+02
-7.560838473900636458e+00,-6.803679106916379560e+00,-8.385464681715209423e+00,1.932472512690127098e-01,8.641453910704877117e-01,4.646571240916265721e-01,3.138281476289961915e+02
-7.395461873691354882e+00,-6.658313284187175718e+00,-8.940706438347495677e+00,2.260830863773561072e-01,8.001160645898474089e-01,5.556066245465611786e-01,3.155069888602173478e+02
-7.219542526161593976e+00,-6.502681290101860689e+00,-9.496477099089894125e+00,2.558781471538286167e-01,7.253253641091970128e-01,6.390833200685656079e-01,3.171858300914385040e+02
-7.032181106132552095e+00,-6.340082480429477307e+00,-1.004474189389670258e+01,2.822316982334162616e-01,6.407792146972540737e-01,7.139644714727254593e-01,3.188646713226596603e+02
-6.832674599529208415e+00,-6.174036688604526368e+00,-1.057760715286214293e+01,3.047892924972596673e-01,5.476147482561699587e-01,7.792429497099214730e-01,3.205435125538808165e+02
-6.620688943039293228e+00,-6.008518590895518763e+00,-1.108779914765511343e+01,3.232475380382590080e-01,4.470850087367330139e-01,8.340407808473885298e-01,3.222223537851019728e+02
-6.396114928890199280e+00,-5.847760915862290965e+00,-1.156886084486360922e+01,3.373581783923914057e-01,3.405420986485929169e-01,8.776209537843587816e-01,3.239011950163231290e+02
-6.169196136859292245e+00,-5.701842753519748896e+00,-1.199776489508389510e+01,3.469314311961577135e-01,2.294189935806829062e-01,9.093973319920788390e-01,3.255105737869507720e+02
-5.931114878316680716e+00,-5.567494118078824883e+00,-1.239043532845282058e+01,3.518385404063183453e-01,1.152102693228961444e-01,9.289425360747919358e-01,3.271199525575784151e+02
-5.681878245349389900e+00,-5.448042254851594102e+00,-1.274167350769811158e+01,3.520135077923879363e-01,-5.479992337527160454e-04,9.359936912342581294e-01,3.287293313282060581e+02
-5.421473126347060578e+00,-5.346282867914960768e+00,-1.304622139352728105e+01,2.667117791109648306e-01,2.447389377469652225e-02,9.634645065623386184e-01,3.303387100988337011e+02
-5.149887904431912133e+00,-5.264746055341893438e+00,-1.329879143210267323e+01,1.791010901817740864e-01,4.928391228887925996e-02,9.825944715311299982e-01,3.319480888694613441e+02
-4.806910169790632459e+00,-5.200553384042410521e+00,-1.351721625384977798e+01,8.993987732009491032e-02,7.366727837904697707e-02,9.932179773654231658e-01,3.338834695940711299e+02
-4.444995781365874699e+00,-5.181133015352427762e+00,-1.362828044461217836e+01,0.000000000000000000e+00,9.741290686787916486e-02,9.952430484926604315e-01,3.358188503186809157e+02
-4.065491834729593634e+00,-5.211698811581968904e+00,-1.363318502993500481e+01,-0.000000000000000000e+00,-9.695091807975529663e-02,9.952881590151888558e-01,3.377542310432907016e+02
-3.750637678957057908e+00,-5.271562841610101025e+00,-1.357253098700511984e+01,-4.291282096655081070e-03,-2.252196961352708748e-01,9.742975281538440724e-01,3.393072186219453101e+02
-3.428968650887264324e+00,-5.360749142914735366e+00,-1.346771432994686180e+01,-8.509987894250357898e-03,-3.496795025689147796e-01,9.368296673276681474e-01,3.408602062005999187e+02
-3.101569660789285532e+00,-5.480515408278535894e+00,-1.332423104767339517e+01,-7.525276839494735026e-03,-2.888018937096377692e-01,9.573582591684978160e-01,3.424131937792545273e+02
-2.769538563441506618e+00,-5.632113425313171717e+00,-1.314757738753502103e+01,-6.509497914867861529e-03,-2.267319778936881802e-01,9.739344108497848262e-01,3.439661813579091358e+02
-2.433865891532585923e+00,-5.816103271282247356e+00,-1.294288515342503842e+01,-5.466844694432428445e-03,-1.637260063597008319e-01,9.864896899869861624e-01,3.455191689365637444e+02
-2.095304963143583610e+00,-6.031668422261139639e+00,-1.271455700632324692e+01,-4.401621693856015705e-03,-1.000440944872977578e-01,9.949722633745504696e-01,3.470721565152183530e+02
-1.718987699025468441e+00,-6.306065106840710754e+00,-1.243905590049928023e+01,-3.318226602569682160e-03,-3.594914811486257106e-02,9.993471109288953880e-01,3.487856200276899585e+02
-1.340414742194145470e+00,-6.618447737868506486e+00,-1.214323745408852062e+01,-2.221132131458964602e-03,2.829422165749335971e-02,9.995961702570690388e-01,3.504990835401615641e+02
-9.604561620718597981e-01,-6.966575279333672377e+00,-1.183308162263714003e+01,-1.114867550911389929e-03,9.242079070677156061e-02,9.957184112564252398e-01,3.522125470526331696e+02
-5.799558826585252680e-01,-7.348201695533058242e+00,-1.151456847821295781e+01,-3.999995304131439757e-06,1.561658166662475977e-01,9.877298404362626627e-01,3.539260105651047752e+02
-1.992613851037852435e-01,-7.760579750609243099e+00,-1.119216742598726277e+01,-3.431258075468773590e-06,1.373532654656963448e-01,9.905211155965775172e-01,3.556394740775763808e+02
1.822542818054433134e-01,-8.199968699633092939e+00,-1.086732643311530744e+01,-2.861279878233495316e-06,1.184910373819077628e-01,9.929541147710270188e-01,3.573529375900479863e+02
5.630171751982563366e-01,-8.658763436619514309e+00,-1.054229684069136397e+01,-2.290266830177746974e-06,9.958595345257659215e-02,9.950279583300892794e-01,3.590543796104893772e+02
9.468488742711066442e-01,-9.135764808760370670e+00,-1.021475543672649344e+01,-1.718425422772605465e-06,8.064485019431115453e-02,9.967418964421337346e-01,3.607558216309307682e+02
1.334955516084523230e+00,-9.626872909640784570e+00,-9.884641260761807047e+00,-1.145962446714471925e-06,6.167457713616028570e-02,9.980953093380336982e-01,3.624572636513721591e+02
1.728590724601429818e+00,-1.012799549574111069e+01,-9.551893372826535611e+00,-5.730849173465950719e-07,4.268199434934798892e-02,9.990877075345891978e-01,3.641587056718135500e+02
2.129055589357583766e+00,-1.063504824285632111e+01,-9.216450853932501630e+00,-0.000000000000000000e+00,2.367396997322678345e-02,9.997187320112477238e-01,3.658601476922549409e+02
2.536833307744965182e+00,-1.114415806597519776e+01,-8.877507162348381442e+00,-1.815685972366613410e-06,8.631051170094888869e-02,9.962672811885360247e-01,3.675615897126963318e+02
2.950720691007608920e+00,-1.165185934856430983e+01,-8.532764495859328946e+00,-3.624226711587903945e-06,1.486073979362688424e-01,9.888952630413665457e-01,3.692630317331377228e+02
3.343912558679142499e+00,-1.212571645921578600e+01,-8.200568079167753766e+00,-5.418505219052842428e-06,2.103194769713875589e-01,9.776316881000031156e-01,3.708643974005989890e+02
3.738839942308997077e+00,-1.259318062482505773e+01,-7.858605158545210578e+00,-7.191460618315129887e-06,2.712038983333718289e-01,9.625208805408472790e-01,3.724657630680602551e+02
4.133967356238096968e+00,-1.305166545432055081e+01,-7.504486676906954479e+00,-8.936115937843508848e-06,3.310210683394158027e-01,9.436223038035528310e-01,3.740671287355215213e+02
4.527787462536071672e+00,-1.349857568768781313e+01,-7.135823663504394787e+00,-1.064560556384511033e-05,3.895355928452018390e-01,9.210103266485138995e-01,3.756684944029827875e+02
4.918821093611993156e+00,-1.393130733906438756e+01,-6.750227250916966071e+00,-1.231320225525063741e-05,4.465172034807274315e-01,8.947739305789715880e-01,3.772698600704440537e+02
5.305617274520415094e+00,-1.434724783993037711e+01,-6.345308692043447607e+00,-1.393234361465973069e-05,5.017416637323274253e-01,8.650163597761567624e-01,3.788712257379053199e+02
5.686753244962583942e+00,-1.474377618239341103e+01,-5.918679377092665561e+00,-1.549665791116819078e-05,5.549916513083045233e-01,8.318547149214672309e-01,3.804725914053665861e+02
6.060834480982677519e+00,-1.511826306256676311e+01,-5.467950850573445543e+00,-1.699998915352857377e-05,6.060576133181894143e-01,7.954194924999823391e-01,3.820739570728278522e+02
6.426700176172336576e+00,-1.546832712024857770e+01,-4.991515056147387774e+00,-8.714160024713584786e-06,6.747554542646525544e-01,7.380400238874712526e-01,3.836753227402891184e+02
6.852824146383933446e+00,-1.584945797156066227e+01,-4.382107113172033053e+00,-3.585205410199641569e-07,7.380472384462178903e-01,6.747475630322210538e-01,3.855974869278406914e+02
7.262813059820905082e+00,-1.618137011848955353e+01,-3.729755285059951131e+00,7.999989140413108610e-06,7.954259202489223357e-01,6.060491773184206732e-01,3.875196511153922643e+02
7.654911718758937944e+00,-1.646160591287426556e+01,-3.036927436433421779e+00,6.003447275242286630e-06,8.086875497486893938e-01,5.882367268597092913e-01,3.894418153029438372e+02
7.965236723650837902e+00,-1.665727166652575164e+01,-2.437317369354884633e+00,4.003944591395868871e-06,8.215503719717091036e-01,5.701341826957058156e-01,3.910340298006260582e+02
8.261518453084455871e+00,-1.682351384927896731e+01,-1.819653992546425902e+00,2.002466653143350101e-06,8.340080464920200942e-01,5.517504674787980790e-01,3.926262442983082792e+02
8.541862546346770557e+00,-1.696044220731520014e+01,-1.186444484823638179e+00,0.000000000000000000e+00,8.460544322668346329e-01,5.330946422741880131e-01,3.942184587959905002e+02
8.804408493850282014e+00,-1.706841660364721847e+01,-5.405513167640263461e-01,-4.820826492293019128e-02,8.823206484469500177e-01,4.681711615612655364e-01,3.958106732936727212e+02
9.038250420311682021e+00,-1.714611124100634143e+01,8.750752969172344298e-02,-9.603787901766490387e-02,9.116568066446733010e-01,3.995705102891313198e-01,3.973379658955657874e+02
9.253288751660768696e+00,-1.720000415430965646e+01,7.202832317581587818e-01,-1.431131713361313007e-01,9.338324929755451587e-01,3.278315043644232096e-01,3.988652584974588535e+02
9.448014187838023048e+00,-1.723103718621099389e+01,1.354449074050058099e+00,-1.890643961725632649e-01,9.486735350473675110e-01,2.535176088587287602e-01,4.003925510993519197e+02
9.620906835583832972e+00,-1.724014367015321625e+01,1.986678332183047901e+00,-2.335306372001663133e-01,9.560633697694566058e-01,1.772125121850524065e-01,4.019198437012449858e+02
9.770436229571977549e+00,-1.722824837886017235e+01,2.613644294284726222e+00,-2.761626422186226892e-01,9.559439586337196149e-01,9.951554147806541961e-02,4.034471363031380520e+02
9.895061353648337388e+00,-1.719626747291473734e+01,3.232020282505712494e+00,-3.166255662481883837e-01,9.483162433044955986e-01,2.103695520210341341e-02,4.049744289050311181e+02
9.993230662174731549e+00,-1.714510844942345358e+01,3.838479674530539398e+00,-3.546016014287784457e-01,9.332401379573836975e-01,-5.760685003445976254e-02,4.065017215069241843e+02
1.006338210147771584e+01,-1.707567009076816689e+01,4.429695925088273256e+00,-3.897924730740328636e-01,9.108340584458703981e-01,-1.357981808105405142e-01,4.080290141088172504e+02
1.010394313140227140e+01,-1.698884241344502755e+01,5.002342587462754508e+00,-4.219217822837038057e-01,8.812739920112185876e-01,-2.129228983478907711e-01,4.095563067107103166e+02
1.011333074697021672e+01,-1.688550661699137123e+01,5.553093335002369457e+00,-4.507371767244026106e-01,8.447921148573285244e-01,-2.883752419941771894e-01,4.110835993126033827e+02
1.008995150014325404e+01,-1.676653503300082448e+01,6.078621982629229592e+00,-4.760123325391987792e-01,8.016749684599806525e-01,-3.615625868603486448e-01,4.126108919144964489e+02
1.003220152169050117e+01,-1.663279107422707526e+01,6.575602508347666131e+00,-4.975487318301110573e-01,7.522612089413860392e-01,-4.319100982591105309e-01,4.141381845163895150e+02
9.929028954988888600e+00,-1.647381469865467807e+01,7.070515503122073220e+00,-5.151772217625080197e-01,6.969389471894419374e-01,-4.988652464037193202e-01,4.157720594580900979e+02
9.780517597249520634e+00,-1.629921289746876312e+01,7.522841962038610220e+00,-4.711698250525133691e-01,6.409557283566804653e-01,-6.059478114891631018e-01,4.174059343997906808e+02
9.587166306948343930e+00,-1.611093840696129220e+01,7.930537425809684571e+00,-4.193704694032804325e-01,5.743727203469485287e-01,-7.030095216392946433e-01,4.190398093414912637e+02
9.350330769487879223e+00,-1.591123245496414818e+01,8.292327323028858999e+00,-3.606357834583678867e-01,4.982910355864810792e-01,-7.884452267249042468e-01,4.206736842831918466e+02
9.071339624075593022e+00,-1.570234409823550692e+01,8.606937421992876480e+00,-2.959370872987276413e-01,4.139688686939323459e-01,-8.608420390031479297e-01,4.223075592248924295e+02
8.751494443843593984e+00,-1.548653008162585998e+01,8.873093840129078202e+00,-2.263443299816221832e-01,3.228006900576384508e-01,-9.190026979204383162e-01,4.239414341665930124e+02
8.392069716276235880e+00,-1.526605469715841501e+01,9.089523053420910159e+00,-1.530083961310036433e-01,2.262941859352027851e-01,-9.619653695049218411e-01,4.255753091082935953e+02
7.994312823945719515e+00,-1.504318964302518502e+01,9.254951905831415360e+00,-7.714207405483466951e-02,1.260453262576606281e-01,-9.890195529615819492e-01,4.272091840499941782e+02
7.517393482901248980e+00,-1.480078877495690115e+01,9.372778703323943361e+00,-0.000000000000000000e+00,2.371197228180339442e-02,-9.997178313761895252e-01,4.289872703554020745e+02
6.994666659614396487e+00,-1.456129429867225866e+01,9.424092020949156989e+00,-7.892990921127130202e-03,0.000000000000000000e+00,-9.999678497920404530e-01,4.307653566608099709e+02
6.429630145974376099e+00,-1.432636025203137287e+01,9.415420124886388464e+00,-2.872728885472881633e-01,3.020151847007489232e-02,-9.573714826484192031e-01,4.325434429662178673e+02
5.843466522749873882e+00,-1.410187227322561654e+01,9.359468487445042229e+00,-5.434469747315679999e-01,5.796336819077416852e-02,-8.374387342386809818e-01,4.342762899229354048e+02
5.227873258892470787e+00,-1.388134668773671621e+01,9.267113662357333581e+00,-7.557215732820177223e-01,8.104295423911778151e-02,-6.498576330580629890e-01,4.360091368796529423e+02
