8.608258326269763172e-01,1.171869086255681403e+01,-2.209592834501586722e+00,3.257001244599182499e-01,-9.017691672274030790e-01,2.841298962889257096e-01,2.030336796266905353e+01
6.528706765618007557e-01,1.228359494941681795e+01,-2.352295062585221697e+00,3.587923299920197651e-01,-8.702919922411032072e-01,3.374283808162134579e-01,2.182626360419686762e+01
4.257759436167660172e-01,1.282054207157882786e+01,-2.507354728947571942e+00,3.901168937606270259e-01,-8.345271968294237785e-01,3.890644766036953639e-01,2.334915924572468171e+01
1.809463882373938404e-01,1.332820183674997416e+01,-2.681198216187584027e+00,4.195194905065810498e-01,-7.946509813748239281e-01,4.387837905910350056e-01,2.487205488725249580e+01
-7.836505618826826447e-02,1.380637617951173368e+01,-2.875624155714444630e+00,4.468552638350547501e-01,-7.508598018743336544e-01,4.863413730215024877e-01,2.639495052878030990e+01
-3.726839412129799300e-01,1.429430899144277944e+01,-3.112904987258995781e+00,4.719895398846724044e-01,-7.033694020654027712e-01,5.315029242421057676e-01,2.805963386483880839e+01
-6.720434543176466713e-01,1.474499758497180757e+01,-3.377202899586694507e+00,4.947984908294763562e-01,-6.524137505230371836e-01,5.740459490333810200e-01,2.972431720089730689e+01
-9.690974397698103315e-01,1.515908881835170163e+01,-3.668602340636403447e+00,5.151697449443770616e-01,-5.982438879652297592e-01,6.137608527810293202e-01,3.138900053695580539e+01
-1.256492557837491253e+00,1.553718520658863333e+01,-3.987187550044018369e+00,5.330029402280686002e-01,-5.411266904462633809e-01,6.504519740881913314e-01,3.305368387301430033e+01
-1.526868402755418019e+00,1.587984488378574710e+01,-4.333042558490786789e+00,5.482102188555738609e-01,-4.813435545320181586e-01,6.839385487404116004e-01,3.471836720907279528e+01
-1.772857620774350274e+00,1.618758156600920728e+01,-4.706251187052833629e+00,5.607166600242153853e-01,-4.191890109359158179e-01,7.140556002736854202e-01,3.638305054513129022e+01
-1.979089050285360862e+00,1.644804221770787578e+01,-5.083934905575136831e+00,5.704606490604534619e-01,-3.549692734466661226e-01,7.406547527577570511e-01,3.796094368375838002e+01
-2.157910207309620798e+00,1.667861741759856287e+01,-5.482034508187485500e+00,5.773941809691841565e-01,-2.890007302978197523e-01,7.636049617902332942e-01,3.953883682238546982e+01
-2.309024035910543393e+00,1.687871821781449100e+01,-5.897584996704243743e+00,5.814830969302080543e-01,-2.216083854126935371e-01,7.827931601002129369e-01,4.111672996101255961e+01
-2.432138531025092920e+00,1.704775377213477228e+01,-6.327621252396514073e+00,5.827072525770398137e-01,-1.531242572051277617e-01,7.981248145810122541e-01,4.269462309963964941e+01
-2.526966743855588060e+00,1.718513136094027161e+01,-6.769178056457872295e+00,5.810606172294330296e-01,-8.388574282553397377e-02,8.095243920080945621e-01,4.427251623826673921e+01
-2.593226787210225037e+00,1.729025641619216103e+01,-7.219290110470616639e+00,5.765513035912456230e-01,-1.423395591180482735e-02,8.169357311483508299e-01,4.585040937689382901e+01
-2.630641840792292463e+00,1.736253254643296629e+01,-7.674992056872433466e+00,5.692015277679184360e-01,5.548795396500057903e-02,8.203223194281856756e-01,4.742830251552091880e+01
-2.640201966259018818e+00,1.740136061774026643e+01,-8.119306316773716503e+00,3.929044487389432572e-01,4.365734123405916323e-02,9.185413059394110791e-01,4.895812993759756182e+01
-2.625642404107538130e+00,1.740996952615940785e+01,-8.563239977431194916e+00,2.005502775541377347e-01,3.004255441678143138e-02,9.792216455410993614e-01,5.048795735967419773e+01
-2.589387613635532936e+00,1.738863430898453188e+01,-9.004020440812666948e+00,0.000000000000000000e+00,1.519999199371368896e-02,9.998834733317381041e-01,5.201778478175083364e+01
-2.533858163338337910e+00,1.733764313693226811e+01,-9.438875129258944341e+00,-0.000000000000000000e+00,6.377917058116652424e-03,9.999786608528554721e-01,5.354761220382746956e+01
-2.460976655837591398e+00,1.725786497788969243e+01,-9.864987148168681941e+00,-0.000000000000000000e+00,-2.444652874761686981e-03,9.999960118218210736e-01,5.507743962590410547e+01
-2.371665757883159475e+00,1.715131362095636902e+01,-1.027945094897085632e+01,-0.000000000000000000e+00,-1.126703122667802731e-02,9.999355249188323080e-01,5.660726704798074138e+01
-2.266330381497875912e+00,1.702057446784304418e+01,-1.067931670327979177e+01,-0.000000000000000000e+00,-2.008853143510555203e-02,9.997972048832026726e-01,5.813709447005737729e+01
-2.141780901384852331e+00,1.686375115444657524e+01,-1.107104224979754115e+01,-0.000000000000000000e+00,-2.890846700660624005e-02,9.995810625071457345e-01,5.970669106181776442e+01
-2.000706838262209075e+00,1.668648079100438153e+01,-1.144055472646309113e+01,-0.000000000000000000e+00,-3.772615157010862641e-02,9.992871146349184830e-01,6.127628765357815155e+01
-1.843463634257930917e+00,1.649163421764135862e+01,-1.178458679704326073e+01,-0.000000000000000000e+00,-4.654089893017572532e-02,9.989153841614963891e-01,6.284588424533853868e+01
-1.670375268471631758e+00,1.628208406970193423e+01,-1.209987129923905513e+01,-0.000000000000000000e+00,-5.535202312025905291e-02,9.984659000307835042e-01,6.441548083709892580e+01
-1.481734253039938443e+00,1.606070462105322250e+01,-1.238314126700105433e+01,-0.000000000000000000e+00,-6.415883845593449430e-02,9.979386972333547101e-01,6.598507742885931293e+01
-1.277801629529307981e+00,1.583037162737251791e+01,-1.263112995284375728e+01,-0.000000000000000000e+00,-7.296065958811630281e-02,9.973338168037325646e-01,6.755467402061970006e+01
-1.058806965656301058e+00,1.559396216942048952e+01,-1.284057085015884425e+01,-0.000000000000000000e+00,-8.175680155624505396e-02,9.966513058171966311e-01,6.912427061238008719e+01
-8.249483523353290382e-01,1.535435449630145754e+01,-1.300819771552718507e+01,-0.000000000000000000e+00,-9.054657984144540150e-02,9.958912173861287354e-01,7.069386720414047431e+01
-5.763924010538954423e-01,1.511442786871203126e+01,-1.313074459102950087e+01,-0.000000000000000000e+00,-9.932931041964995766e-02,9.950536106558915961e-01,7.226346379590086144e+01
-3.132742415753462795e-01,1.487706240217953457e+01,-1.320494582655556215e+01,-0.000000000000000000e+00,-1.081043098146848153e-01,9.941385508002410498e-01,7.383306038766124857e+01
-3.429231952783055176e-02,1.464406381695501302e+01,-1.322738465551370624e+01,-0.000000000000000000e+00,-1.168708951513131450e-01,9.931461090162760907e-01,7.541019847128949039e+01
2.591438389992704039e-01,1.441941172530206039e+01,-1.319445043901012937e+01,3.204669457962769537e-04,-5.880065388116560016e-02,9.982686914847954673e-01,7.698733655491773220e+01
5.665591921853899704e-01,1.420569636292776039e+01,-1.310374612048224030e+01,6.398446498911922750e-04,-5.306028803975711703e-04,9.999986545262882220e-01,7.856447463854597402e+01
8.873627381426280047e-01,1.400539483386040374e+01,-1.295318522142090423e+01,9.570477866497265193e-04,5.774124123053508278e-02,9.983301223121142653e-01,8.014161272217421583e+01
1.021094411053207862e+00,1.392726817707268694e+01,-1.287734469037358487e+01,1.270998420251536658e-03,1.158168560489946514e-01,9.932687654470839789e-01,8.078403856062790567e+01
1.360305742281145092e+00,1.374265709466778240e+01,-1.265122290587642340e+01,0.000000000000000000e+00,1.173078338390019654e-01,9.930945933284813787e-01,8.238127097373336483e+01
1.709668411774051711e+00,1.357453693688978191e+01,-1.236086758733305757e+01,-1.177648228227758248e-01,0.000000000000000000e+00,9.930405059701521431e-01,8.397850338683882399e+01
2.066027051430933348e+00,1.342137117262687518e+01,-1.200839103620640991e+01,-1.763156287943793976e-01,2.062332165748461885e-02,9.841165975878357619e-01,8.557573579994428314e+01
2.423905892806091700e+00,1.328129988775472015e+01,-1.160036077646621422e+01,-2.341729504548448471e-01,4.116552618769131477e-02,9.713220005385787559e-01,8.716453624033491110e+01
2.781626929139646709e+00,1.315073567725900894e+01,-1.113996508185237921e+01,-2.911092270767062229e-01,6.154581825240908188e-02,9.547070389223207831e-01,8.875333668072553905e+01
3.135635087222265138e+00,1.302699925924624047e+01,-1.063193269534739827e+01,-3.469005206505925698e-01,8.168403939141852255e-02,9.343370625649425332e-01,9.034213712111616701e+01
3.482346234779656768e+00,1.290743182229376629e+01,-1.008099269323593639e+01,-4.013273965962690371e-01,1.015009832736075285e-01,9.102921899792500993e-01,9.193093756150679496e+01
3.818147232335097563e+00,1.278939517169367512e+01,-9.491874452009328778e+00,-4.541757867598858467e-01,1.209187072024037607e-01,8.826669932488763193e-01,9.351973800189742292e+01
4.139395985380747156e+00,1.267027187547706113e+01,-8.869307615268480660e+00,-5.052378313063671245e-01,1.398608386512625312e-01,8.515701260789159122e-01,9.510853844228805087e+01
4.442421496857406282e+00,1.254746541021732575e+01,-8.218022060625362002e+00,-5.543126961982601797e-01,1.582528756244896972e-01,8.171238964755642709e-01,9.669733888267867883e+01
4.723523919942407723e+00,1.241840030661125738e+01,-7.542747866603325413e+00,-6.012073630482207554e-01,1.760224796629284438e-01,7.794637857343128529e-01,9.828613932306930678e+01
4.978974611145317475e+00,1.228052229483659552e+01,-6.848215279536344013e+00,-6.457373882407045906e-01,1.930997603428957488e-01,7.387379156269492375e-01,9.987493976345993474e+01
5.205016183711117961e+00,1.213129844968481486e+01,-6.139154680467401981e+00,-6.877276283389794909e-01,2.094175501501162051e-01,6.951064658809584795e-01,1.014637402038505627e+02
5.397862561330560638e+00,1.196821733546781630e+01,-5.420296552046151461e+00,-7.270129289257662997e-01,2.249116686481305305e-01,6.487410442400828314e-01,1.030525406442411906e+02
5.577630323118198064e+00,1.174383597215738284e+01,-4.532417321061204873e+00,-9.246034767262547582e-01,-1.743419773614379165e-01,3.386905457147098009e-01,1.050000257257920424e+02
5.684786362753444067e+00,1.148847996243310199e+01,-3.645123732070948641e+00,-8.498265231567917466e-01,-5.222387069684532035e-01,-7.113096008795406766e-02,1.069475108073428942e+02
5.719096731313600301e+00,1.123310125915179469e+01,-2.852818836567498018e+00,-9.225027107052581332e-01,-3.820525499434559435e-01,-5.497815768559451838e-02,1.087028936583431147e+02
5.696357911078238523e+00,1.095719641377690401e+01,-2.072732629038000152e+00,-9.719364694593536358e-01,-2.322406754257876627e-01,-3.744019247301075964e-02,1.104582765093433352e+02
5.616372639656146859e+00,1.066375767465452640e+01,-1.309406127208690984e+00,-9.968823582192178900e-01,-7.657756097871246115e-02,-1.895892997445768405e-02,1.122136593603435557e+02
5.478976129130366246e+00,1.035577827418329377e+01,-5.673802055672139133e-01,-9.967118863751273095e-01,8.101490948214877530e-02,-0.000000000000000000e+00,1.139690422113437762e+02
5.285128034078146797e+00,1.003659408785388329e+01,1.496377025925784698e-01,-9.932567570293234782e-01,8.139880434615835714e-02,-8.254240890503737604e-02,1.157244250623439967e+02
5.077635939774411078e+00,9.755816824928112752e+00,7.473642404134938078e-01,-9.830223045673989191e-01,8.122712403018601812e-02,-1.645214364331784862e-01,1.172373069545191839e+02
4.838258179106343704e+00,9.472918092207327945e+00,1.327073928990442520e+00,-9.660783830276251649e-01,8.050104033451617458e-02,-2.453775465544107415e-01,1.187501888466943711e+02
4.569402060916351260e+00,9.190276883328989399e+00,1.888099268840207845e+00,-9.425406411065262446e-01,7.922550907238744278e-02,-3.245588676588880839e-01,1.202630707388695583e+02
4.273498085925384160e+00,8.910259018375016993e+00,2.429772879049510337e+00,-9.125697327805535330e-01,7.740923624233604639e-02,-4.015249593220102109e-01,1.217759526310447455e+02
3.952999915034859590e+00,8.635217033038198764e+00,2.951427501505010653e+00,-8.763702207390996479e-01,7.506461860316120116e-02,-4.757505010370863263e-01,1.232888345232199327e+02
3.610384337406759236e+00,8.367490067916483198e+00,3.452396005122731815e+00,-8.341891801169368792e-01,7.220765905738532608e-02,-5.467288777362185881e-01,1.248017164153951200e+02
3.248151238322115830e+00,8.109403757936021861e+00,3.932011390076877166e+00,-7.863145120595614879e-01,6.885785742101434292e-02,-6.139756376252964998e-01,1.263145983075703072e+02
2.868823566818046178e+00,7.863270121903839893e+00,4.389606792028027726e+00,-7.330729786357232936e-01,6.503807732543331888e-02,-6.770317987314022901e-01,1.278274801997454944e+02
2.474947303103520291e+00,7.631387452191026100e+00,4.824515486350689386e+00,-6.748279725133988771e-01,6.077439016019298840e-02,-7.354669815944707700e-01,1.293403620919206674e+02
2.069091425754049585e+00,7.416040204547302395e+00,5.236070892360170426e+00,-6.119770366256332972e-01,5.609589712214067131e-02,-7.888823467226213637e-01,1.308532439840958546e+02
1.653847878685473116e+00,7.219498888047863439e+00,5.623606577538782680e+00,-5.449491507587007622e-01,5.103453058575693757e-02,-8.369133167640062654e-01,1.323661258762710418e+02
1.231831537907017493e+00,7.044019955173356884e+00,5.986456261761321507e+00,-4.742018035852761937e-01,4.562483615065762027e-02,-8.792320648181624065e-01,1.338790077684462290e+02
8.056801780538301871e-01,6.891845692023879089e+00,6.323953821519830321e+00,-4.002178701289689777e-01,3.990373685404841747e-02,-9.155497519066165824e-01,1.353918896606214162e+02
3.780544386991668837e-01,6.765204108667861149e+00,6.635433294147608407e+00,-3.235023159736916676e-01,3.391028115758249611e-02,-9.456184983349567030e-01,1.369047715527966034e+02
-4.836220955357385665e-02,6.666308829626721000e+00,6.920228882042459340e+00,-2.445787507129186800e-01,2.768537642874062746e-02,-9.692330754950132521e-01,1.384176534449717906e+02
-4.708634991987903362e-01,6.597358984496154655e+00,7.177674956889174673e+00,-1.639858541619299004e-01,2.127150973578075324e-02,-9.862323065638125552e-01,1.399305353371469778e+02
-8.867204001763990817e-01,6.560539098704929017e+00,7.407106063881197855e+00,-8.227369972366822826e-02,1.471245786181720958e-02,-9.965001665425308186e-01,1.414434172293221650e+02
-1.307298632497983393e+00,6.559255498836544795e+00,7.613948912786997703e+00,-0.000000000000000000e+00,8.052988517103476865e-03,-9.999665741302532496e-01,1.430104589938938489e+02
-1.713961550298167325e+00,6.598071529618804831e+00,7.789584153383467324e+00,1.984795552643255426e-02,-2.502312411574146231e-02,-9.994888203086398359e-01,1.445775007584655327e+02
-2.102657528801490372e+00,6.678138276707616505e+00,7.937494399640049991e+00,3.966637210066471797e-02,-5.806199530753911042e-02,-9.975236255981020372e-01,1.461445425230372166e+02
-2.469044326377312970e+00,6.800147384047606991e+00,8.062578332108749635e+00,5.942575608357240219e-02,-9.101445682225073330e-02,-9.940739148395347780e-01,1.477115842876089005e+02
-2.808771420044892775e+00,6.964766276048067972e+00,8.169734786678862548e+00,7.909670170042037984e-02,-1.238314690392284950e-01,-9.891448220846599249e-01,1.492786260521805843e+02
-3.117480064785233207e+00,7.172638116332790581e+00,8.263862721218345087e+00,9.864993479936944032e-02,-1.564641939287245986e-01,-9.827436829527518292e-01,1.508456678167522682e+02
-3.392199424953320275e+00,7.423556745811533908e+00,8.348758531809055583e+00,1.180563564139884697e-01,-1.888640677271934687e-01,-9.748800237121687529e-01,1.524127095813239521e+02
-3.632754467598927395e+00,7.715652138862795439e+00,8.426013376489709827e+00,1.372870860649880176e-01,-2.209828732043121191e-01,-9.655655471025326175e-01,1.539797513458956360e+02
-3.840387560543103262e+00,8.046231232139382072e+00,8.496115814825873969e+00,1.563135047367802954e-01,-2.527728114142484550e-01,-9.548141149186625265e-01,1.555467931104673198e+02
-4.016368271560908809e+00,8.412608318442279298e+00,8.559554454987848615e+00,1.751072974649543479e-01,-2.841865728244751810e-01,-9.426417273821817711e-01,1.571138348750390037e+02
-4.161993349171740242e+00,8.812105181394487730e+00,8.616817950422797523e+00,1.936404954713352999e-01,-3.151774077163534971e-01,-9.290664993314886599e-01,1.586808766396106876e+02
-4.279344286870268022e+00,9.245949824452486254e+00,8.668788176539834467e+00,2.118855177839669979e-01,-3.456991957527928983e-01,-9.141086332655016244e-01,1.602612433546739510e+02
-4.368328802618484552e+00,9.708267559205864927e+00,8.715432020045529526e+00,2.298152122801234709e-01,-3.757065146095286412e-01,-8.977903892812639786e-01,1.618416100697372144e+02
-4.430372823905877944e+00,1.019631222670066784e+01,8.757255038726967200e+00,2.474028960913110531e-01,-4.051547075679520216e-01,-8.801360519501076896e-01,1.634219767848004778e+02
-4.466930549585738319e+00,1.070734604587755534e+01,8.794762823653508477e+00,2.646223953101696225e-01,-4.339999499689659035e-01,-8.611718941816207673e-01,1.650023434998637413e+02
-4.479484428191714329e+00,1.123863975481913258e+01,8.828460995674809908e+00,2.814480839402158652e-01,-4.621993144290285072e-01,-8.409261381291346371e-01,1.665827102149270047e+02
-4.469545135958817639e+00,1.178747275190547583e+01,8.858855201918691691e+00,2.978549220304967937e-01,-4.897108347213858237e-01,-8.194289131948488958e-01,1.681630769299902681e+02
-4.438651554549007727e+00,1.235113323687660447e+01,8.886451112288884957e+00,3.138184929384293942e-01,-5.164935682274721662e-01,-7.967122111970159626e-01,1.697434436450535316e+02
-4.388370748481479566e+00,1.292691835180068338e+01,8.911754415962635179e+00,3.293150396653934386e-01,-5.425076568655753384e-01,-7.728098387658244306e-01,1.713238103601167950e+02
-4.320297942267810498e+00,1.351213432194670716e+01,8.935270817888234518e+00,3.443215002110234235e-01,-5.677143864061273693e-01,-7.477573670387459570e-01,1.729041770751800584e+02
-4.236056497252082664e+00,1.410409659656048831e+01,8.957506035282442269e+00,3.588155418935968788e-01,-5.920762440853672981e-01,-7.215920787301187689e-01,1.744845437902433218e+02
-4.137315284254550640e+00,1.470015353030297689e+01,8.978710827762144575e+00,3.261238091665379923e-01,-5.983834238621090762e-01,-7.318323162737410126e-01,1.760649105053065853e+02
-4.025805718250792253e+00,1.529771019596300974e+01,8.998626029241728830e+00,2.930363611846212857e-01,-6.039645280424834617e-01,-7.411845518431734448e-01,1.776452772203698487e+02
-3.903303831320365180e+00,1.589420517916160058e+01,9.016737516093400018e+00,2.595933459443491298e-01,-6.088127846805938548e-01,-7.496374376668961670e-01,1.792256439354331121e+02
-3.771612682511930714e+00,1.648708723917886587e+01,9.032531177073218842e+00,2.258353428610545555e-01,-6.129223110491396342e-01,-7.571807172227503768e-01,1.808060106504963755e+02
-3.632562332241199510e+00,1.707381544414784358e+01,9.045492916881359591e+00,1.918033135327638639e-01,-6.162881207760494418e-01,-7.638052376811473865e-01,1.823863773655596390e+02
-3.494561167485560116e+00,1.762659923979896703e+01,9.054834497346769595e+00,1.575385520405528095e-01,-6.189061298936551214e-01,-7.695029610092630756e-01,1.838965192883133568e+02
-3.353242257177759811e+00,1.816968115034757503e+01,9.060824986816200521e+00,1.230826348456841302e-01,-6.207731617931020462e-01,-7.742669737227949600e-01,1.854066612110670746e+02
-3.210197822144472024e+00,1.870096788334356575e+01,9.063035584053467986e+00,8.847737034428532210e-02,-6.218869510779986287e-01,-7.780914952734651058e-01,1.869168031338207925e+02
-3.067041519040750952e+00,1.921837478210419903e+01,9.061037511634769004e+00,5.376474814073870651e-02,-6.222461463126371939e-01,-7.809718850621093500e-01,1.884269450565745103e+02
-2.925408419800484161e+00,1.971982592825100511e+01,9.054402018660113072e+00,1.898688810129652016e-02,-6.218503116614556570e-01,-7.829046480688471865e-01,1.899370869793282282e+02
-2.786954990881148397e+00,2.020325424416384408e+01,9.042700383464630676e+00,-1.581401075030107808e-02,-6.206999274177608106e-01,-7.838874390935167691e-01,1.914472289020819460e+02
-2.653359072302988952e+00,2.066660159535137709e+01,9.025503916329739695e+00,-5.059572143323603360e-02,-6.187963894210655180e-01,-7.839190656012282599e-01,1.929573708248356638e+02
-2.526319856482733162e+00,2.110781889273707534e+01,9.002383962194160816e+00,-8.531604024396619024e-02,-6.161420073637511319e-01,-7.829994891695866155e-01,1.944675127475893817e+02
-2.407557866861961937e+00,2.152486619486000308e+01,8.972911903364785502e+00,-1.199328379623955249e-01,-6.127400019891026117e-01,-7.811298255358239961e-01,1.959776546703430995e+02
-2.298814936330247249e+00,2.191571280998948268e+01,8.936659162227339692e+00,-1.544041109677668500e-01,-6.085945011841122909e-01,-7.783123432437816236e-01,1.974877965930968173e+02
-2.201854185443184786e+00,2.227833739815294223e+01,8.893197203956878738e+00,-1.886880322022950474e-01,-6.037105349717799552e-01,-7.745504608923696743e-01,1.989979385158505352e+02
-2.118460000435432811e+00,2.261072807307604293e+01,8.842097539228072733e+00,-2.227430019207359002e-01,-5.980940294089788223e-01,-7.698487429888369871e-01,2.005080804386042530e+02
-2.050438011028891783e+00,2.291088250403428361e+01,8.782931726925280458e+00,-2.565276981643504484e-01,-5.917517993972735146e-01,-7.642128944118629086e-01,2.020182223613579708e+02
-1.999615068036130205e+00,2.317680801761533260e+01,8.715271376852374630e+00,-2.900011268980501322e-01,-5.846915404154006124e-01,-7.576497534911739162e-01,2.035283642841116887e+02
-1.967839220759198149e+00,2.340652169939120952e+01,8.638688152442361101e+00,-3.231226717499197654e-01,-5.769218191834223353e-01,-7.501672837120598736e-01,2.050385062068654065e+02
-1.956979694183935470e+00,2.359805049549953893e+01,8.552753773466708509e+00,-3.558521432927905237e-01,-5.684520632698635279e-01,-7.417745640548345509e-01,2.065486481296191243e+02
-1.968926865969915285e+00,2.374943131413304087e+01,8.457040018744441667e+00,-3.881498278080903752e-01,-5.592925496544206565e-01,-7.324817779809349449e-01,2.080587900523728422e+02
-2.010022291726514698e+00,2.386283614899068439e+01,8.343198252153559480e+00,-4.199765354728211553e-01,-5.494543922600975128e-01,-7.223002010789976168e-01,2.096707596792464301e+02
-2.082126791505213070e+00,2.392310369749860754e+01,8.216492337316413597e+00,-1.294010743361807547e-01,-5.992516874889408651e-01,-7.900321366902033349e-01,2.112827293061200180e+02
-2.183015890168964912e+00,2.392946415161728879e+01,8.076650187295520311e+00,1.730147582869359657e-01,-5.942164588185467888e-01,-7.854748204016575031e-01,2.128946989329936059e+02
-2.308888248433264234e+00,2.388171448519959483e+01,7.923494205580838390e+00,4.595995113955018141e-01,-5.348094314391391713e-01,-7.090452462074303686e-01,2.145066685598671938e+02
-2.455946099975656161e+00,2.377962921288005660e+01,7.756846891487063189e+00,4.886031448440830149e-01,-5.546216120546998418e-01,-6.735427486739613556e-01,2.161186381867407817e+02
-2.621064524776564042e+00,2.362354307099775141e+01,7.576829229213477568e+00,5.163881206062458373e-01,-5.730504741844442140e-01,-6.363603247647567906e-01,2.177306078136143697e+02
-2.802452201456097303e+00,2.341493886134573188e+01,7.384159074753308794e+00,5.428851385968223031e-01,-5.900500533862655939e-01,-5.975907134406943655e-01,2.193425774404879576e+02
-2.998969453399096263e+00,2.315587249858139884e+01,7.179852762944817002e+00,5.680281110850071702e-01,-6.055779500541840221e-01,-5.573306123176429150e-01,2.209545470673615455e+02
-3.209454797318750607e+00,2.284839283344469152e+01,6.964926712371934947e+00,5.917543275216134990e-01,-6.195954351654459069e-01,-5.156804364939292507e-01,2.225665166942351334e+02
-3.419615259525425444e+00,2.251673272036440920e+01,6.753453848987979846e+00,6.140046109438028754e-01,-6.320675468734066049e-01,-4.727440681067912043e-01,2.240880029226550221e+02
-3.639638500986611902e+00,2.214772834882202091e+01,6.534706450874719685e+00,6.347234655674028891e-01,-6.429631777054481967e-01,-4.286285972423875545e-01,2.256094891510749108e+02
-3.868551865041565119e+00,2.174298956144205164e+01,6.309491979248457838e+00,6.538592151988021905e-01,-6.522551521485164816e-01,-3.834440548453685316e-01,2.271309753794947994e+02
-4.105366410931907240e+00,2.130412058362986372e+01,6.078617936770793762e+00,6.713641321212908686e-01,-6.599202944287987371e-01,-3.373031382939402634e-01,2.286524616079146881e+02
-4.349076928129509412e+00,2.083271994516780978e+01,5.842891862367535438e+00,6.871945561344431352e-01,-6.659394863165046807e-01,-2.903209303246466200e-01,2.301739478363345768e+02
-4.598661950822584998e+00,2.033038040186982087e+01,5.603121326047443063e+00,7.013110034496757850e-01,-6.702977148115681905e-01,-2.426146120076677903e-01,2.316954340647544655e+02
-4.853083772559916298e+00,1.979868885729505834e+01,5.360113923720816409e+00,7.136782651703841296e-01,-6.729841095912906246e-01,-1.943031704882758337e-01,2.332169202931743541e+02
-5.111288461053127286e+00,1.923922628452124428e+01,5.114677272017952525e+00,7.242654951110107930e-01,-6.739919701264712737e-01,-1.455071022231477496e-01,2.347384065215942428e+02
-5.372205873136915777e+00,1.865356764797835254e+01,4.867619003107505726e+00,7.330462867359625045e-01,-6.733187823983054487e-01,-9.634811245148323933e-02,2.362598927500141315e+02
-5.634749669887153090e+00,1.804328182534324299e+01,4.619746759514779200e+00,7.399987390264024523e-01,-6.709662251742529726e-01,-4.694881165028084308e-02,2.377813789784340202e+02
-5.897817331896774817e+00,1.740993152949586431e+01,4.371868188939962430e+00,7.451055111105355788e-01,-6.669401658271010280e-01,2.567590269329712849e-03,2.393028652068539088e+02
-6.160290174709384559e+00,1.675507323053770747e+01,4.124790939076338425e+00,7.483538655210080215e-01,-6.612506457075105759e-01,5.207759126214162038e-02,2.408243514352737975e+02
-6.421033364410463129e+00,1.608025707787306402e+01,3.879322652428498053e+00,7.497356999713864489e-01,-6.539118551063769491e-01,1.014577051789949114e-01,2.423458376636936862e+02
-6.678895933376108651e+00,1.538702682235381936e+01,3.636270961130572132e+00,7.492475675723040407e-01,-6.449420978692937956e-01,1.505847697587968381e-01,2.438673238921135749e+02
-6.932710796179211599e+00,1.467691973848827836e+01,3.396443481764520378e+00,7.468906854366754722e-01,-6.343637457512095734e-01,1.993362538143297891e-01,2.453888101205334635e+02
-7.181294765652973311e+00,1.395146654671477293e+01,3.160647810178491834e+00,7.426709316523423254e-01,-6.222031826249545539e-01,2.475905628457103214e-01,2.469102963489533522e+02
-7.423448569111687156e+00,1.321219133574061111e+01,2.929691516305291898e+00,7.365988306295064847e-01,-6.084907386826270415e-01,2.952273423192458002e-01,2.484317825773732409e+02
-7.657956864728681978e+00,1.246061148494700888e+01,2.704382138980973682e+00,7.286895268593145403e-01,-5.932606147937857788e-01,3.421277778552244686e-01,2.499532688057931296e+02
-7.890813136611961376e+00,1.167212387125048423e+01,2.478382868947068385e+00,9.955207354021456956e-01,9.453287991603503970e-02,0.000000000000000000e+00,2.515261591115538238e+02
-8.112639072943032659e+00,1.087353854956776011e+01,2.259948533282362337e+00,9.895871733591945496e-01,1.439278510692431623e-01,0.000000000000000000e+00,2.530990494173145180e+02
-8.322888525352704292e+00,1.006698460138669304e+01,2.048544577168510461e+00,9.812043098871008340e-01,1.929665832452480967e-01,0.000000000000000000e+00,2.546719397230752122e+02
-8.521291302536955214e+00,9.254727866310028972e+00,1.843150944469939878e+00,9.703928888839234990e-01,2.415277234467198553e-01,0.000000000000000000e+00,2.562448300288359064e+02
-8.707552360436627836e+00,8.439032538553924212e+00,1.642747537795440360e+00,9.769128538952149832e-01,2.136335083477470254e-01,0.000000000000000000e+00,2.578177203345965722e+02
-8.881351806602834742e+00,7.622161042920580165e+00,1.446314225498572359e+00,9.826311646046371751e-01,1.855639898862600778e-01,0.000000000000000000e+00,2.593906106403572380e+02
-9.042344904822076757e+00,6.806373910789708326e+00,1.252830848678258224e+00,9.875431292009232420e-01,1.573422001971287454e-01,0.000000000000000000e+00,2.609635009461179038e+02
-9.190162080001062606e+00,5.993929656129870942e+00,1.061277228179511312e+00,9.916447173610906107e-01,1.289912963135745883e-01,0.000000000000000000e+00,2.625363912518785696e+02
-9.324408923311203523e+00,5.187084651530779134e+00,8.706331715942680072e-01,9.949325635558181613e-01,1.005345411835595754e-01,0.000000000000000000e+00,2.641092815576392354e+02
-9.444666197592736623e+00,4.388093004257622276e+00,6.798784802622964696e-01,9.974039698086810679e-01,7.199528459899393051e-02,0.000000000000000000e+00,2.656821718633999012e+02
-9.549024253613076496e+00,3.611869277868797301e+00,4.911475682229124451e-01,9.990569079092538329e-01,4.339694405382944764e-02,0.000000000000000000e+00,2.672294485174402894e+02
-9.639249688598452437e+00,2.847378648918991395e+00,3.003844114089069262e-01,9.998900210782709630e-01,1.476298554660309542e-02,0.000000000000000000e+00,2.687767251714806775e+02
-9.715026629513140222e+00,2.096735431769472857e+00,1.068233458638312150e-01,8.808491902946983254e-01,2.673097542801564433e-02,-4.726395655342977564e-01,2.703240018255210657e+02
-9.776308050189468801e+00,1.362072871233102722e+00,-8.992159315004986941e-02,8.586017000741579253e-01,2.421703666549421610e-02,-5.120689951201196077e-01,2.718712784795614539e+02
-9.823169642189519379e+00,6.455344608604464129e-01,-2.900465089113857253e-01,8.345889668483753576e-01,2.165330910737599257e-02,-5.504456291208008611e-01,2.734185551336018420e+02
-9.855663823478618468e+00,-5.073582299281434449e-02,-4.937474822597275881e-01,8.088603593861364294e-01,1.904506358068168773e-02,-5.876905687226433583e-01,2.749658317876422302e+02
-9.873819736991704232e+00,-7.245936354618475184e-01,-7.012205702916344263e-01,7.814687739147881951e-01,1.639766242822902897e-02,-6.237272417184045459e-01,2.765131084416826184e+02
-9.877643249435243078e+00,-1.373894377474157658e+00,-9.126618050568982010e-01,7.524705253870281885e-01,1.371654848636694700e-02,-6.584815598936918368e-01,2.780603850957230065e+02
-9.866832634921900436e+00,-2.002915599969209648e+00,-1.130646025962014356e+00,7.219252317248031625e-01,1.100723389739487364e-02,-6.918820713095650277e-01,2.796243950274525218e+02
-9.841133402190907375e+00,-2.602121309966770824e+00,-1.353135034756539179e+00,6.898956912776850192e-01,8.275288779613358681e-03,-7.238601071689310107e-01,2.811884049591820371e+02
-9.800728817730997022e+00,-3.169496898386203743e+00,-1.580474678114037523e+00,6.564477537470857493e-01,5.526329778247112551e-03,-7.543499229654547777e-01,2.827524148909115524e+02
-9.746281650476028346e+00,-3.703474440130522627e+00,-1.813293371890251526e+00,6.216501848410274089e-01,2.766008520725274887e-03,-7.832888336253912565e-01,2.843164248226410677e+02
-9.681148770838161610e+00,-4.188472378811602503e+00,-2.044845672656665059e+00,5.855745249369939120e-01,0.000000000000000000e+00,-8.106173423649849497e-01,2.858325664139024411e+02
-9.604874280238998807e+00,-4.640625580503344061e+00,-2.282772066898750563e+00,8.010230466218279943e-01,1.680977087608944570e-02,-5.983957807208056812e-01,2.873487080051638145e+02
-9.518224202271582612e+00,-5.058734190151920274e+00,-2.527752388015109819e+00,9.429866597446359133e-01,3.207743219650309452e-02,-3.312781276935125585e-01,2.888648495964251879e+02
-9.421951679964593040e+00,-5.441593977171155672e+00,-2.780466424419103522e+00,9.984418138771008477e-01,4.440234749862993768e-02,-3.376945127337916547e-02,2.903809911876865613e+02
-9.317091387733478669e+00,-5.788300624962072760e+00,-3.041550190778202101e+00,9.623011475947070847e-01,5.265384537069009441e-02,2.668371674009193950e-01,2.918971327789479346e+02
-9.205258137024893372e+00,-6.098551871724009921e+00,-3.311552199532267426e+00,8.378801759393996740e-01,5.607494484992718575e-02,5.429644659909178550e-01,2.934132743702093080e+02
-9.088358726379498265e+00,-6.372340097242298995e+00,-3.590977181819800190e+00,9.053473691449666072e-01,4.153717105648690455e-01,-8.837693841807206518e-02,2.949294159614706814e+02
-8.968299590678022071e+00,-6.609647029920409977e+00,-3.880329808683263604e+00,9.360722153546453539e-01,3.202522752089287938e-01,1.456203552547300495e-01,2.964455575527320548e+02
-8.839668743716110555e+00,-6.820122532038518592e+00,-4.198875734834086160e+00,9.061895982315796294e-01,2.043976334009164064e-01,3.701891672065157901e-01,2.980530021474328919e+02
-8.711892838979371945e+00,-6.987015893514327836e+00,-4.530483775057804863e+00,8.176343202152047684e-01,7.530893738781591074e-02,5.707895254430604970e-01,2.996604467421337290e+02
-8.586523821161019754e+00,-7.111040679945569210e+00,-4.876275951777894413e+00,7.843785636195371724e-01,1.014329603648742861e-01,6.119310610452609600e-01,3.012678913368345661e+02
-8.463415807206366992e+00,-7.194458758107134422e+00,-5.238344165586385159e+00,7.483923528909645073e-01,1.272038900111869819e-01,6.509424371525430741e-01,3.028753359315354032e+02
-8.295460013045190095e+00,-7.237201753098682744e+00,-5.773955614181287110e+00,0.000000000000000000e+00,9.983844631533018710e-01,-5.680196945670642344e-02,3.050836114631876512e+02
-8.124208097600739364e+00,-7.197492892180526347e+00,-6.365521045221623986e+00,4.081438505715209025e-02,9.978246683405279649e-01,5.175052872767943457e-02,3.072918869948398992e+02
-7.996454619324533830e+00,-7.130427228186356992e+00,-6.824254522302072523e+00,8.107982391399500000e-02,9.838443326184724835e-01,1.596069902250729367e-01,3.088811760806968891e+02
-7.863629946096274637e+00,-7.042204942574858073e+00,-7.305396453459014339e+00,1.202547528576992514e-01,9.566314911224695905e-01,2.653167627726186195e-01,3.104704651665538790e+02
-7.716176992854816064e+00,-6.929472199191993198e+00,-7.835550993699118116e+00,1.578122758224531907e-01,9.165521556103991552e-01,3.674580678744239770e-01,3.121493063977750353e+02
-7.560077287640712740e+00,-6.799643255707693790e+00,-8.382500845609074602e+00,1.932472512690127098e-01,8.641453910704877117e-01,4.646571240916265721e-01,3.138281476289961915e+02
-7.394378627389992076e+00,-6.656052604653601712e+00,-8.938188227960839782e+00,2.260830863773561072e-01,8.001160645898474089e-01,5.556066245465611786e-01,3.155069888602173478e+02
-7.218166467159540467e+00,-6.502040261246394337e+00,-9.494555291110788886e+00,2.558781471538286167e-01,7.253253641091970128e-01,6.390833200685656079e-01,3.171858300914385040e+02
-7.030563934223812872e+00,-6.340951563123681467e+00,-1.004354417996717075e+01,2.822316982334162616e-01,6.407792146972540737e-01,7.139644714727254593e-01,3.188646713226596603e+02
-6.830882885182759878e+00,-6.176339415482124728e+00,-1.057723181939692125e+01,3.047892924972596673e-01,5.476147482561699587e-01,7.792429497099214730e-01,3.205435125538808165e+02
-6.618788068679635650e+00,-6.012185802096213116e+00,-1.108830491937754736e+01,3.232475380382590080e-01,4.470850087367330139e-01,8.340407808473885298e-01,3.222223537851019728e+02
-6.394161053751804324e+00,-5.852717692727902765e+00,-1.157026553050489071e+01,3.373581783923914057e-01,3.405420986485929169e-01,8.776209537843587816e-01,3.239011950163231290e+02
-6.167234482688709107e+00,-5.707961877928233285e+00,-1.200000971681395434e+01,3.469314311961577135e-01,2.294189935806829062e-01,9.093973319920788390e-01,3.255105737869507720e+02
-5.929178338659990111e+00,-5.574700183777184570e+00,-1.239346165953958945e+01,3.518385404063183453e-01,1.152102693228961444e-01,9.289425360747919358e-01,3.271199525575784151e+02
-5.679992820466719827e+00,-5.456255961738530225e+00,-1.274538745449622290e+01,3.520135077923879363e-01,-5.479992337527160454e-04,9.359936912342581294e-01,3.287293313282060581e+02
-5.419658987661205352e+00,-5.355422554655127065e+00,-1.305049048747560470e+01,2.667117791109648306e-01,2.447389377469652225e-02,9.634645065623386184e-01,3.303387100988337011e+02
-5.148159982757464448e+00,-5.274728477727772535e+00,-1.330344297633731365e+01,1.791010901817740864e-01,4.928391228887925996e-02,9.825944715311299982e-01,3.319480888694613441e+02
-4.805304691873770295e+00,-5.211417798613422470e+00,-1.352206447517065335e+01,8.993987732009491032e-02,7.366727837904697707e-02,9.932179773654231658e-01,3.338834695940711299e+02
-4.443531253065662767e+00,-5.192710389965310647e+00,-1.363301442334127245e+01,0.000000000000000000e+00,9.741290686787916486e-02,9.952430484926604315e-01,3.358188503186809157e+02
-4.064180549606359882e+00,-5.223803213389620836e+00,-1.363749955719647211e+01,-0.000000000000000000e+00,-9.695091807975529663e-02,9.952881590151888558e-01,3.377542310432907016e+02
-3.749452949923668843e+00,-5.283962585390145072e+00,-1.357631086225620010e+01,-4.291282096655081070e-03,-2.252196961352708748e-01,9.742975281538440724e-01,3.393072186219453101e+02
-3.427909429221145388e+00,-5.373343235023488873e+00,-1.347081115113009808e+01,-8.509987894250357898e-03,-3.496795025689147796e-01,9.368296673276681474e-01,3.408602062005999187e+02
-3.100634682373996753e+00,-5.493197067812847223e+00,-1.332653742423486420e+01,-7.525276839494735026e-03,-2.888018937096377692e-01,9.573582591684978160e-01,3.424131937792545273e+02
-2.768726353559827658e+00,-5.644770099337985236e+00,-1.314902694114254444e+01,-6.509497914867861529e-03,-2.267319778936881802e-01,9.739344108497848262e-01,3.439661813579091358e+02
-2.433174796368744008e+00,-5.828619581297656005e+00,-1.294344861612176523e+01,-5.466844694432428445e-03,-1.637260063597008319e-01,9.864896899869861624e-01,3.455191689365637444e+02
-2.094733200417698171e+00,-6.043932039306373127e+00,-1.271423441614267702e+01,-4.401621693856015705e-03,-1.000440944872977578e-01,9.949722633745504696e-01,3.470721565152183530e+02
-1.718545881574481182e+00,-6.317917713465539542e+00,-1.243779506764115794e+01,-3.318226602569682160e-03,-3.594914811486257106e-02,9.993471109288953880e-01,3.487856200276899585e+02
-1.340101210327028003e+00,-6.629750163767068827e+00,-1.214112034886374580e+01,-2.221132131458964602e-03,2.829422165749335971e-02,9.995961702570690388e-01,3.504990835401615641e+02
-9.602688037729735226e-01,-6.977197575940619956e+00,-1.183022479082623946e+01,-1.114867550911389929e-03,9.242079070677156061e-02,9.957184112564252398e-01,3.522125470526331696e+02
-5.798921107731677127e-01,-7.358023149477380009e+00,-1.151112304011739695e+01,-3.999995304131439757e-06,1.561658166662475977e-01,9.877298404362626627e-01,3.539260105651047752e+02
-1.993176578854381764e-01,-7.769490460963030642e+00,-1.118830809484563638e+01,-3.431258075468773590e-06,1.373532654656963448e-01,9.905211155965775172e-01,3.556394740775763808e+02
1.820834108991689626e-01,-8.207872712499147738e+00,-1.086322955297383963e+01,-2.861279878233495316e-06,1.184910373819077628e-01,9.929541147710270188e-01,3.573529375900479863e+02
5.627403160679556038e-01,-8.665588516245033901e+00,-1.053812874856006587e+01,-2.290266830177746974e-06,9.958595345257659215e-02,9.950279583300892794e-01,3.590543796104893772e+02
9.464762807714438564e-01,-9.141447448647614493e+00,-1.021067046057795658e+01,-1.718425422772605465e-06,8.064485019431115453e-02,9.967418964421337346e-01,3.607558216309307682e+02
1.334499947509541151e+00,-9.631364622980717272e+00,-9.880784631342756086e+00,-1.145962446714471925e-06,6.167457713616028570e-02,9.980953093380336982e-01,3.624572636513721591e+02
1.728067509480571529e+00,-1.013126280974300464e+01,-9.548401222492168827e+00,-5.730849173465950719e-07,4.268199434934798892e-02,9.990877075345891978e-01,3.641587056718135500e+02
2.128482689295689401e+00,-1.063707269309184689e+01,-9.213450215553853795e+00,-0.000000000000000000e+00,2.367396997322678345e-02,9.997187320112477238e-01,3.658601476922549409e+02
2.536230673328939034e+00,-1.114493450328000890e+01,-8.875111235280037647e+00,-1.815685972366613410e-06,8.631051170094888869e-02,9.962672811885360247e-01,3.675615897126963318e+02
2.950108920116091493e+00,-1.165139257145971463e+01,-8.531063179005508701e+00,-3.624226711587903945e-06,1.486073979362688424e-01,9.888952630413665457e-01,3.692630317331377228e+02
3.343310998512321941e+00,-1.212409057946520718e+01,-8.199575170075851460e+00,-5.418505219052842428e-06,2.103194769713875589e-01,9.776316881000031156e-01,3.708643974005989890e+02
3.738266763566359785e+00,-1.259041236165028721e+01,-7.858347156524541965e+00,-7.191460618315129887e-06,2.712038983333718289e-01,9.625208805408472790e-01,3.724657630680602551e+02
4.133440620855756364e+00,-1.304777784582001487e+01,-7.504967303067755502e+00,-8.936115937843508848e-06,3.310210683394158027e-01,9.436223038035528310e-01,3.740671287355215213e+02
4.527325197681137503e+00,-1.349359811467378201e+01,-7.137023860731419589e+00,-1.064560556384511033e-05,3.895355928452018390e-01,9.210103266485138995e-01,3.756684944029827875e+02
4.918441365586089908e+00,-1.392527554908991760e+01,-6.752105184005025684e+00,-1.231320225525063741e-05,4.465172034807274315e-01,8.947739305789715880e-01,3.772698600704440537e+02
5.305338262572078634e+00,-1.434020397150557535e+01,-6.347799747994916864e+00,-1.393234361465973069e-05,5.017416637323274253e-01,8.650163597761567624e-01,3.788712257379053199e+02
5.686593315008265037e+00,-1.473576878939058510e+01,-5.921696165576942228e+00,-1.549665791116819078e-05,5.549916513083045233e-01,8.318547149214672309e-01,3.804725914053665861e+02
6.060812259236078248e+00,-1.510934713881403013e+01,-5.471383204548373236e+00,-1.699998915352857377e-05,6.060576133181894143e-01,7.954194924999823391e-01,3.820739570728278522e+02
6.426834875274787251e+00,-1.545856365086299888e+01,-4.995235490319173799e+00,-8.714160024713584786e-06,6.747554542646525544e-01,7.380400238874712526e-01,3.836753227402891184e+02
6.853181110984467139e+00,-1.583878258876889689e+01,-4.386001077947137894e+00,-3.585205410199641569e-07,7.380472384462178903e-01,6.747475630322210538e-01,3.855974869278406914e+02
7.263438341265292308e+00,-1.616992249105778257e+01,-3.733636602278820771e+00,7.999989140413108610e-06,7.954259202489223357e-01,6.060491773184206732e-01,3.875196511153922643e+02
7.655854346650929010e+00,-1.644953331414582820e+01,-3.040610190010714753e+00,6.003447275242286630e-06,8.086875497486893938e-01,5.882367268597092913e-01,3.894418153029438372e+02
7.966473714567417375e+00,-1.664478057721390769e+01,-2.440699408119393787e+00,4.003944591395868871e-06,8.215503719717091036e-01,5.701341826957058156e-01,3.910340298006260582e+02
8.263070854157589906e+00,-1.681067843920794047e+01,-1.822619336185061334e+00,2.002466653143350101e-06,8.340080464920200942e-01,5.517504674787980790e-01,3.926262442983082792e+02
8.543750510098726991e+00,-1.694733597735466546e+01,-1.188885546636607282e+00,0.000000000000000000e+00,8.460544322668346329e-01,5.330946422741880131e-01,3.942184587959905002e+02
8.806650852953797681e+00,-1.705511242267894900e+01,-5.423710290104032383e-01,-4.820826492293019128e-02,8.823206484469500177e-01,4.681711615612655364e-01,3.958106732936727212e+02
9.040847171965230800e+00,-1.713268308027891251e+01,8.636073717734579769e-02,-9.603787901766490387e-02,9.116568066446733010e-01,3.995705102891313198e-01,3.973379658955657874e+02
9.256250346519987460e+00,-1.718651399541325375e+01,7.198686442260453511e-01,-1.431131713361313007e-01,9.338324929755451587e-01,3.278315043644232096e-01,3.988652584974588535e+02
9.451348607720770900e+00,-1.721754659620666672e+01,1.354811016588508110e+00,-1.890643961725632649e-01,9.486735350473675110e-01,2.535176088587287602e-01,4.003925510993519197e+02
9.624619544766582990e+00,-1.722671381200364138e+01,1.987846169431702670e+00,-2.335306372001663133e-01,9.560633697694566058e-01,1.772125121850524065e-01,4.019198437012449858e+02
9.774530126032001220e+00,-1.721494002169384885e+01,2.615632430244639206e+00,-2.761626422186226892e-01,9.559439586337196149e-01,9.951554147806541961e-02,4.034471363031380520e+02
9.899536720251983724e+00,-1.718314100212334594e+01,3.234828160446181489e+00,-3.166255662481883837e-01,9.483162433044955986e-01,2.103695520210341341e-02,4.049744289050311181e+02
9.998085117812069100e+00,-1.713222387659212131e+01,3.842091776992698993e+00,-3.546016014287784457e-01,9.332401379573836975e-01,-5.760685003445976254e-02,4.065017215069241843e+02
1.006861055214385559e+01,-1.706308706343838821e+01,4.434081773985448116e+00,-3.897924730740328636e-01,9.108340584458703981e-01,-1.357981808105405142e-01,4.080290141088172504e+02
1.010953772122562633e+01,-1.697662022470999688e+01,5.007456744277578586e+00,-4.219217822837038057e-01,8.812739920112185876e-01,-2.129228983478907711e-01,4.095563067107103166e+02
1.011928080918802841e+01,-1.687370421492345685e+01,5.558875401080657142e+00,-4.507371767244026106e-01,8.447921148573285244e-01,-2.883752419941771894e-01,4.110835993126033827e+02
1.009624350802463333e+01,-1.675521102991091738e+01,6.084996599570611231e+00,-4.760123325391987792e-01,8.016749684599806525e-01,-3.615625868603486448e-01,4.126108919144964489e+02
1.003881903940730602e+01,-1.662200375575562461e+01,6.582479358492973276e+00,-4.975487318301110573e-01,7.522612089413860392e-01,-4.319100982591105309e-01,4.141381845163895150e+02
9.935976488917200200e+00,-1.646366869829611446e+01,7.077814728524637111e+00,-5.151772217625080197e-01,6.969389471894419374e-01,-4.988652464037193202e-01,4.157720594580900979e+02
9.787775199736246989e+00,-1.628977977286679035e+01,7.530432563853321604e+00,-4.711698250525133691e-01,6.409557283566804653e-01,-6.059478114891631018e-01,4.174059343997906808e+02
9.594707758672692322e+00,-1.610228806239942756e+01,7.938280061497818174e+00,-4.193704694032804325e-01,5.743727203469485287e-01,-7.030095216392946433e-01,4.190398093414912637e+02
9.358122594833183427e+00,-1.590343270828175015e+01,8.300077579231317060e+00,-3.606357834583678867e-01,4.982910355864810792e-01,-7.884452267249042468e-01,4.206736842831918466e+02
9.079340978444701449e+00,-1.569546061792937230e+01,8.614545815599122136e+00,-2.959370872987276413e-01,4.139688686939323459e-01,-8.608420390031479297e-01,4.223075592248924295e+02
8.759657001161560430e+00,-1.548062632355516755e+01,8.880405819383611288e+00,-2.263443299816221832e-01,3.228006900576384508e-01,-9.190026979204383162e-01,4.239414341665930124e+02
8.400337556681007456e+00,-1.526119184085385250e+01,9.096378999067255222e+00,-1.530083961310036433e-01,2.262941859352027851e-01,-9.619653695049218411e-01,4.255753091082935953e+02
8.002622321667564265e+00,-1.503942652760311027e+01,9.261187132293631663e+00,-7.714207405483466951e-02,1.260453262576606281e-01,-9.890195529615819492e-01,4.272091840499941782e+02
7.525669365394890065e+00,-1.479828910352372873e+01,9.378152558241128034e+00,-0.000000000000000000e+00,2.371197228180339442e-02,-9.997178313761895252e-01,4.289872703554020745e+02
7.002815877922657251e+00,-1.456012929221428820e+01,9.428429697109999452e+00,-7.892990921127130202e-03,0.000000000000000000e+00,-9.999678497920404530e-01,4.307653566608099709e+02
6.437536940630925741e+00,-1.432660928034925085e+01,9.418596352186128229e+00,-2.872728885472881633e-01,3.020151847007489232e-02,-9.573714826484192031e-01,4.325434429662178673e+02
5.850996791296481092e+00,-1.410359248807639609e+01,9.361456557252335386e+00,-5.434469747315679999e-01,5.796336819077416852e-02,-8.374387342386809818e-01,4.342762899229354048e+02
5.234857915748627910e+00,-1.388464996547071806e+01,9.267922804964678463e+00,-7.557215732820177223e-01,8.104295423911778151e-02,-6.498576330580629890e-01,4.360091368796529423e+02
4.594523052421933151e+00,-1.366916850082274060e+01,9.146832586703894208e+00,-6.115149142376264946e-01,9.641599621263295672e-02,-7.853352566502768140e-01,4.377419838363704798e+02
3.993209883904329516e+00,-1.347390818667659929e+01,9.018435544087001432e+00,-4.432229302732431653e-01,1.079915881966053010e-01,-8.898815937847283086e-01,4.393273710104307952e+02
3.382755401554066399e+00,-1.327915868442148373e+01,8.878537599988112206e+00,-2.574739619737981822e-01,1.153138048074176941e-01,-9.593789060240146549e-01,4.409127581844911106e+02
2.767775065155913428e+00,-1.308391423176364654e+01,8.731403028782272813e+00,-6.158395249877657296e-02,1.180942434069155444e-01,-9.910898881866269106e-01,4.424981453585514259e+02
2.152894832202631115e+00,-1.288719544184514554e+01,8.581296155173093965e+00,1.367316977029822134e-01,1.162233860325112417e-01,-9.837655042636471725e-01,4.440835325326117413e+02
1.542751091555010001e+00,-1.268804935578864779e+01,8.432481324474014883e+00,3.296620231152499469e-01,1.097749153141582001e-01,-9.376942030747426049e-01,4.456689197066720567e+02
9.419905969915360888e-01,-1.248554949496251432e+01,8.289222872889489224e+00,5.096081590780147108e-01,9.900281355549056528e-02,-8.546905680455579857e-01,4.472543068807323721e+02
