-2.158702614276648557e+00,1.667804902757517027e+01,-5.484423903511569165e+00,5.773941809691841565e-01,-2.890007302978197523e-01,7.636049617902332942e-01,3.953883682238546982e+01
-2.309895704419577367e+00,1.687815623286783762e+01,-5.899851115855525130e+00,5.814830969302080543e-01,-2.216083854126935371e-01,7.827931601002129369e-01,4.111672996101255961e+01
-2.433073888140858010e+00,1.704720237216588075e+01,-6.329730810174874378e+00,5.827072525770398137e-01,-1.531242572051277617e-01,7.981248145810122541e-01,4.269462309963964941e+01
-2.527951108361663035e+00,1.718459500147034902e+01,-6.771102528277697097e+00,5.810606172294330296e-01,-8.388574282553397377e-02,8.095243920080945621e-01,4.427251623826673921e+01
-2.594246371184908195e+00,1.728973983467061970e+01,-7.221005732557740586e+00,5.765513035912456230e-01,-1.423395591180482735e-02,8.169357311483508299e-01,4.585040937689382901e+01
-2.631683751167130048e+00,1.736204076854724221e+01,-7.676479826428222353e+00,5.692015277679184360e-01,5.548795396500057903e-02,8.203223194281856756e-01,4.742830251552091880e+01
-2.641253033410142947e+00,1.740089678921486183e+01,-8.120559359188924020e+00,3.929044487389432572e-01,4.365734123405916323e-02,9.185413059394110791e-01,4.895812993759756182e+01
-2.626691218282009910e+00,1.740953649306869622e+01,-8.564247687634784612e+00,2.005502775541377347e-01,3.004255441678143138e-02,9.792216455410993614e-01,5.048795735967419773e+01
-2.590425765447757378e+00,1.738823503975092777e+01,-9.004774033560076774e+00,0.000000000000000000e+00,1.519999199371368896e-02,9.998834733317381041e-01,5.201778478175083364e+01
-2.534880238162769306e+00,1.733728073182870943e+01,-9.439367639189118364e+00,-0.000000000000000000e+00,6.377917058116652424e-03,9.999786608528554721e-01,5.354761220382746956e+01
-2.461979435109042935e+00,1.725754247836997735e+01,-9.865213375493166126e+00,-0.000000000000000000e+00,-2.444652874761686981e-03,9.999960118218210736e-01,5.507743962590410547e+01
-2.372646621838133019e+00,1.715103361498185564e+01,-1.027940735079532608e+01,-0.000000000000000000e+00,-1.126703122667802731e-02,9.999355249188323080e-01,5.660726704798074138e+01
-2.267286496786655281e+00,1.702033888956751895e+01,-1.067900133927093265e+01,-0.000000000000000000e+00,-2.008853143510555203e-02,9.997972048832026726e-01,5.813709447005737729e+01
-2.142709330579527727e+00,1.686356310636505995e+01,-1.107044970447349819e+01,-0.000000000000000000e+00,-2.890846700660624005e-02,9.995810625071457345e-01,5.970669106181776442e+01
-2.001605847197574839e+00,1.668634207512388201e+01,-1.143969066813004076e+01,-0.000000000000000000e+00,-3.772615157010862641e-02,9.992871146349184830e-01,6.127628765357815155e+01
-1.844331142903766763e+00,1.649154574328156286e+01,-1.178345929605078091e+01,-0.000000000000000000e+00,-4.654089893017572532e-02,9.989153841614963891e-01,6.284588424533853868e+01
-1.671208828766268528e+00,1.628204585065587295e+01,-1.209849082792507602e+01,-0.000000000000000000e+00,-5.535202312025905291e-02,9.984659000307835042e-01,6.441548083709892580e+01
-1.482531026731928492e+00,1.606071577267859141e+01,-1.238152069962036705e+01,-0.000000000000000000e+00,-6.415883845593449430e-02,9.979386972333547101e-01,6.598507742885931293e+01
-1.278558366027312765e+00,1.583043036361372202e+01,-1.262928456548013756e+01,-0.000000000000000000e+00,-7.296065958811630281e-02,9.973338168037325646e-01,6.755467402061970006e+01
-1.059519979887312058e+00,1.559406579976144513e+01,-1.283851832062076781e+01,-0.000000000000000000e+00,-8.175680155624505396e-02,9.966513058171966311e-01,6.912427061238008719e+01
-8.256135026113365916e-01,1.535449942264914469e+01,-1.300595812322715084e+01,-0.000000000000000000e+00,-9.054657984144540150e-02,9.958912173861287354e-01,7.069386720414047431e+01
-5.770050669471255000e-01,1.511460958221089967e+01,-1.312834041684692998e+01,-0.000000000000000000e+00,-9.932931041964995766e-02,9.950536106558915961e-01,7.226346379590086144e+01
-3.138293018021758862e-01,1.487727547995674549e+01,-1.320240195268330297e+01,-0.000000000000000000e+00,-1.081043098146848153e-01,9.941385508002410498e-01,7.383306038766124857e+01
-3.478395918704162149e-02,1.464430196165128351e+01,-1.322472896180842916e+01,-0.000000000000000000e+00,-1.168708951513131450e-01,9.931461090162760907e-01,7.541019847128949039e+01
2.587215436655684320e-01,1.441966749095093725e+01,-1.319171524724196232e+01,3.204669457962769537e-04,-5.880065388116560016e-02,9.982686914847954673e-01,7.698733655491773220e+01
5.662126425080659109e-01,1.420596141057042061e+01,-1.310096675051076254e+01,6.398446498911922750e-04,-5.306028803975711703e-04,9.999986545262882220e-01,7.856447463854597402e+01
8.870987983122994303e-01,1.400565995417790788e+01,-1.295040013366369536e+01,9.570477866497265193e-04,5.774124123053508278e-02,9.983301223121142653e-01,8.014161272217421583e+01
1.020866628046459113e+00,1.392753156551922267e+01,-1.287456000525853206e+01,1.270998420251536658e-03,1.158168560489946514e-01,9.932687654470839789e-01,8.078403856062790567e+01
1.360173672803562939e+00,1.374291119553965324e+01,-1.264845164438418124e+01,0.000000000000000000e+00,1.173078338390019654e-01,9.930945933284813787e-01,8.238127097373336483e+01
1.709637772205510720e+00,1.357477104294129511e+01,-1.235816211862253233e+01,-1.177648228227758248e-01,0.000000000000000000e+00,9.930405059701521431e-01,8.397850338683882399e+01
2.066101943027600640e+00,1.342157546898370413e+01,-1.200580308930756779e+01,-1.763156287943793976e-01,2.062332165748461885e-02,9.841165975878357619e-01,8.557573579994428314e+01
2.424087905161798950e+00,1.328146620635624409e+01,-1.159793630537747156e+01,-2.341729504548448471e-01,4.116552618769131477e-02,9.713220005385787559e-01,8.716453624033491110e+01
2.781916242869988398e+00,1.315085719211134752e+01,-1.113774480914166531e+01,-2.911092270767062229e-01,6.154581825240908188e-02,9.547070389223207831e-01,8.875333668072553905e+01
3.136029854693533014e+00,1.302707050288145929e+01,-1.062995300171838942e+01,-3.469005206505925698e-01,8.168403939141852255e-02,9.343370625649425332e-01,9.034213712111616701e+01
3.482842565915416078e+00,1.290744868658521227e+01,-1.007928561727349681e+01,-4.013273965962690371e-01,1.015009832736075285e-01,9.102921899792500993e-01,9.193093756150679496e+01
3.818739180411530931e+00,1.278935490870546943e+01,-9.490467689955348618e+00,-4.541757867598858467e-01,1.209187072024037607e-01,8.826669932488763193e-01,9.351973800189742292e+01
4.140075532810810088e+00,1.267017309834779049e+01,-8.868224520828086099e+00,-5.052378313063671245e-01,1.398608386512625312e-01,8.515701260789159122e-01,9.510853844228805087e+01
4.443178540963841350e+00,1.254730809407801040e+01,-8.217281644803509977e+00,-5.543126961982601797e-01,1.582528756244896972e-01,8.171238964755642709e-01,9.669733888267867883e+01
4.724346258719656966e+00,1.241818578953766661e+01,-7.542364797571766921e+00,-6.012073630482207554e-01,1.760224796629284438e-01,7.794637857343128529e-01,9.828613932306930678e+01
4.979847929010374763e+00,1.228025327883597306e+01,-6.848199882531007532e+00,-6.457373882407045906e-01,1.930997603428957488e-01,7.387379156269492375e-01,9.987493976345993474e+01
5.205924037243377711e+00,1.213097900171705668e+01,-6.139512937716152585e+00,-6.877276283389794909e-01,2.094175501501162051e-01,6.951064658809584795e-01,1.014637402038505627e+02
5.398786365000705523e+00,1.196785288850120388e+01,-5.421030102726955846e+00,-7.270129289257662997e-01,2.249116686481305305e-01,6.487410442400828314e-01,1.030525406442411906e+02
5.578580492391512102e+00,1.174343531507922300e+01,-4.533609797012501552e+00,-9.246034767262547582e-01,-1.743419773614379165e-01,3.386905457147098009e-01,1.050000257257920424e+02
5.685801769104773307e+00,1.148807431434018334e+01,-3.646758807854835194e+00,-8.498265231567917466e-01,-5.222387069684532035e-01,-7.113096008795406766e-02,1.069475108073428942e+02
5.720186485373990770e+00,1.123271339138060299e+01,-2.854824086954231621e+00,-9.225027107052581332e-01,-3.820525499434559435e-01,-5.497815768559451838e-02,1.087028936583431147e+02
5.697516838671899286e+00,1.095684122192044718e+01,-2.075074319512387522e+00,-9.719364694593536358e-01,-2.322406754257876627e-01,-3.744019247301075964e-02,1.104582765093433352e+02
5.617595167497991149e+00,1.066344850485743123e+01,-1.312042027794385612e+00,-9.968823582192178900e-01,-7.657756097871246115e-02,-1.895892997445768405e-02,1.122136593603435557e+02
5.480256293671133427e+00,1.035552692545444309e+01,-5.702595911875124601e-01,-9.967118863751273095e-01,8.101490948214877530e-02,-0.000000000000000000e+00,1.139690422113437762e+02
5.286459591941784275e+00,1.003641060033545251e+01,1.465725195973498485e-01,-9.932567570293234782e-01,8.139880434615835714e-02,-8.254240890503737604e-02,1.157244250623439967e+02
5.078995839729019579e+00,9.755697171589199357e+00,7.441741562593725545e-01,-9.830223045673989191e-01,8.122712403018601812e-02,-1.645214364331784862e-01,1.172373069545191839e+02
4.839620823644821712e+00,9.472864976351566213e+00,1.323777587132611178e+00,-9.660783830276251649e-01,8.050104033451617458e-02,-2.453775465544107415e-01,1.187501888466943711e+02
4.570743566993348495e+00,9.190292604667922305e+00,1.884715800853441925e+00,-9.425406411065262446e-01,7.922550907238744278e-02,-3.245588676588880839e-01,1.202630707388695583e+02
4.274796304461350616e+00,8.910345471010032270e+00,2.426321904506806959e+00,-9.125697327805535330e-01,7.740923624233604639e-02,-4.015249593220102109e-01,1.217759526310447455e+02
3.954234450423804059e+00,8.635375703378798562e+00,2.947929127853125664e+00,-8.763702207390996479e-01,7.506461860316120116e-02,-4.757505010370863263e-01,1.232888345232199327e+02
3.611536567027636480e+00,8.367722032534841148e+00,3.448870827554623819e+00,-8.341891801169368792e-01,7.220765905738532608e-02,-5.467288777362185881e-01,1.248017164153951200e+02
3.249204332053716726e+00,8.109709681357815114e+00,3.928480491401066921e+00,-7.863145120595614879e-01,6.885785742101434292e-02,-6.139756376252964998e-01,1.263145983075703072e+02
2.869762506557282489e+00,7.863650254335321499e+00,4.386091742534867777e+00,-7.330729786357232936e-01,6.503807732543331888e-02,-6.770317987314022901e-01,1.278274801997454944e+02
2.475758902287002350e+00,7.631841627182311072e+00,4.821038343675547289e+00,-6.748279725133988771e-01,6.077439016019298840e-02,-7.354669815944707700e-01,1.293403620919206674e+02
2.069764348882842331e+00,7.416567836591856810e+00,5.232654201343524214e+00,-6.119770366256332972e-01,5.609589712214067131e-02,-7.888823467226213637e-01,1.308532439840958546e+02
1.654372660852923005e+00,7.220098970118158377e+00,5.620273370083221920e+00,-5.449491507587007622e-01,5.103453058575693757e-02,-8.369133167640062654e-01,1.323661258762710418e+02
1.232200604329542815e+00,7.044691056192665890e+00,5.983230056685468590e+00,-4.742018035852761937e-01,4.562483615065762027e-02,-8.792320648181624065e-01,1.338790077684462290e+02
8.058878636045595512e-01,6.892585954274202287e+00,6.320858624409170901e+00,-4.002178701289689777e-01,3.990373685404841747e-02,-9.155497519066165824e-01,1.353918896606214162e+02
3.780970074443266160e-01,6.766011245133944918e+00,6.632493597202229196e+00,-3.235023159736916676e-01,3.391028115758249611e-02,-9.456184983349567030e-01,1.369047715527966034e+02
-4.848654481563819535e-02,6.667180121276154559e+00,6.917469663921702150e+00,-2.445787507129186800e-01,2.768537642874062746e-02,-9.692330754950132521e-01,1.384176534449717906e+02
-4.711545573960630451e-01,6.598291277495515139e+00,7.175121682553212032e+00,-1.639858541619299004e-01,2.127150973578075324e-02,-9.862323065638125552e-01,1.399305353371469778e+02
-8.871760124192250574e-01,6.561528801571967939e+00,7.404784684429523089e+00,-8.227369972366822826e-02,1.471245786181720958e-02,-9.965001665425308186e-01,1.414434172293221650e+02
-1.307921040729669748e+00,6.560298855058541712e+00,7.611900301539560765e+00,-0.000000000000000000e+00,8.052988517103476865e-03,-9.999665741302532496e-01,1.430104589938938489e+02
-1.714745355133627580e+00,6.599160592807235659e+00,7.787843153506103455e+00,1.984795552643255426e-02,-2.502312411574146231e-02,-9.994888203086398359e-01,1.445775007584655327e+02
-2.103594113550063760e+00,6.679264634406581358e+00,7.936085970487540386e+00,3.966637210066471797e-02,-5.806199530753911042e-02,-9.975236255981020372e-01,1.461445425230372166e+02
-2.470121406697108668e+00,6.801302229699276225e+00,8.061514002018119740e+00,5.942575608357240219e-02,-9.101445682225073330e-02,-9.940739148395347780e-01,1.477115842876089005e+02
-2.809973039402869688e+00,6.965940400866875493e+00,8.169012652890991433e+00,7.909670170042037984e-02,-1.238314690392284950e-01,-9.891448220846599249e-01,1.492786260521805843e+02
-3.118786589922400321e+00,7.173821901168118131e+00,8.263467449891011896e+00,9.864993479936944032e-02,-1.564641939287245986e-01,-9.827436829527518292e-01,1.508456678167522682e+02
-3.393588733533593693e+00,7.424740402131174477e+00,8.348664938423242532e+00,1.180563564139884697e-01,-1.888640677271934687e-01,-9.748800237121687529e-01,1.524127095813239521e+02
-3.634204336419486925e+00,7.716826202227927034e+00,8.426193586624776799e+00,1.372870860649880176e-01,-2.209828732043121191e-01,-9.655655471025326175e-01,1.539797513458956360e+02
-3.841876874138248077e+00,8.047386811628905789e+00,8.496542844651228776e+00,1.563135047367802954e-01,-2.527728114142484550e-01,-9.548141149186625265e-01,1.555467931104673198e+02
-4.017877042817566746e+00,8.413737098689528793e+00,8.560202211446762632e+00,1.751072974649543479e-01,-2.841865728244751810e-01,-9.426417273821817711e-01,1.571138348750390037e+02
-4.163502739945127651e+00,8.813199424691706696e+00,8.617661231410139067e+00,1.936404954713352999e-01,-3.151774077163534971e-01,-9.290664993314886599e-01,1.586808766396106876e+02
-4.280836848013157336e+00,9.247001675421442357e+00,8.669804106612959416e+00,2.118855177839669979e-01,-3.456991957527928983e-01,-9.141086332655016244e-01,1.602612433546739510e+02
-4.369788633489393170e+00,9.709269735708039306e+00,8.716596934677522057e+00,2.298152122801234709e-01,-3.757065146095286412e-01,-8.977903892812639786e-01,1.618416100697372144e+02
-4.431785222060733886e+00,1.019725810612902883e+01,8.758546162374504007e+00,2.474028960913110531e-01,-4.051547075679520216e-01,-8.801360519501076896e-01,1.634219767848004778e+02
-4.468282031409444244e+00,1.070822966737256721e+01,8.796158269914629457e+00,2.646223953101696225e-01,-4.339999499689659035e-01,-8.611718941816207673e-01,1.650023434998637413e+02
-4.480762749529874078e+00,1.123945582155215384e+01,8.829939767440537324e+00,2.814480839402158652e-01,-4.621993144290285072e-01,-8.409261381291346371e-01,1.665827102149270047e+02
-4.470739312749488548e+00,1.178821663342950643e+01,8.860397191518494253e+00,2.978549220304967937e-01,-4.897108347213858237e-01,-8.194289131948488958e-01,1.681630769299902681e+02
-4.439751883454372994e+00,1.235180097154442969e+01,8.888037101629970849e+00,3.138184929384293942e-01,-5.164935682274721662e-01,-7.967122111970159626e-01,1.697434436450535316e+02
-4.389368827519321670e+00,1.292750664925038961e+01,8.913366076663089999e+00,3.293150396653934386e-01,-5.425076568655753384e-01,-7.728098387658244306e-01,1.713238103601167950e+02
-4.321186691442655103e+00,1.351264056565462290e+01,8.936890711403989940e+00,3.443215002110234235e-01,-5.677143864061273693e-01,-7.477573670387459570e-01,1.729041770751800584e+02
-4.236830179185908207e+00,1.410451884646149168e+01,8.959117613028089622e+00,3.588155418935968788e-01,-5.920762440853672981e-01,-7.215920787301187689e-01,1.744845437902433218e+02
-4.137969358079516269e+00,1.470049046028263007e+01,8.980298553259082439e+00,3.261238091665379923e-01,-5.983834238621090762e-01,-7.318323162737410126e-01,1.760649105053065853e+02
-4.026336527360773410e+00,1.529796096488902535e+01,9.000175622292799105e+00,2.930363611846212857e-01,-6.039645280424834617e-01,-7.411845518431734448e-01,1.776452772203698487e+02
-3.903708458758703870e+00,1.589436936518366217e+01,9.018236074915332523e+00,2.595933459443491298e-01,-6.088127846805938548e-01,-7.496374376668961670e-01,1.792256439354331121e+02
-3.771888973403191514e+00,1.648716483863431037e+01,9.033967178386006935e+00,2.258353428610545555e-01,-6.129223110491396342e-01,-7.571807172227503768e-01,1.808060106504963755e+02
-3.632708916232123997e+00,1.707380687054507362e+01,9.046856215988103855e+00,1.918033135327638639e-01,-6.162881207760494418e-01,-7.638052376811473865e-01,1.823863773655596390e+02
-3.494583066792603443e+00,1.762650864710504450e+01,9.056119741540307189e+00,1.575385520405528095e-01,-6.189061298936551214e-01,-7.695029610092630756e-01,1.838965192883133568e+02
-3.353139418828567031e+00,1.816950866122027364e+01,9.062024547513317430e+00,1.230826348456841302e-01,-6.207731617931020462e-01,-7.742669737227949600e-01,1.854066612110670746e+02
-3.209971203954141927e+00,1.870071375593514418e+01,9.064142838214944931e+00,8.847737034428532210e-02,-6.218869510779986287e-01,-7.780914952734651058e-01,1.869168031338207925e+02
-3.066693110957578572e+00,1.921803941086830037e+01,9.062046841807289255e+00,5.376474814073870651e-02,-6.222461463126371939e-01,-7.809718850621093500e-01,1.884269450565745103e+02
-2.924941265255216472e+00,1.971940984482378312e+01,9.055308813011800240e+00,1.898688810129652016e-02,-6.218503116614556570e-01,-7.829046480688471865e-01,1.899370869793282282e+02
-2.786373208139628854e+00,2.020275811831938384e+01,9.043501035814232480e+00,-1.581401075030107808e-02,-6.206999274177608106e-01,-7.838874390935167691e-01,1.914472289020819460e+02
-2.652667875822058097e+00,2.066602623603142774e+01,9.026195826169452374e+00,-5.059572143323603360e-02,-6.187963894210655180e-01,-7.839190656012282599e-01,1.929573708248356638e+02
-2.525525578269255167e+00,2.110716524915507009e+01,9.002965534706094175e+00,-8.531604024396619024e-02,-6.161420073637511319e-01,-7.829994891695866155e-01,1.944675127475893817e+02
-2.406667977834845207e+00,2.152413535767941966e+01,8.973382549431065058e+00,-1.199328379623955249e-01,-6.127400019891026117e-01,-7.811298255358239961e-01,1.959776546703430995e+02
-2.297838067685330721e+00,2.191490601257658355e+01,8.937019298433856562e+00,-1.544041109677668500e-01,-6.085945011841122909e-01,-7.783123432437816236e-01,1.974877965930968173e+02
-2.200800150020857604e+00,2.227745601790387298e+01,8.893448252590681946e+00,-1.886880322022950474e-01,-6.037105349717799552e-01,-7.745504608923696743e-01,1.989979385158505352e+02
-2.117339814090857253e+00,2.260977363281831032e+01,8.842241928268395057e+00,-2.227430019207359002e-01,-5.980940294089788223e-01,-7.698487429888369871e-01,2.005080804386042530e+02
-2.049263914004695764e+00,2.290985667350268074e+01,8.782972890028203139e+00,-2.565276981643504484e-01,-5.917517993972735146e-01,-7.642128944118629086e-01,2.020182223613579708e+02
-1.998400546337445238e+00,2.317571261500225788e+01,8.715213753329148716e+00,-2.900011268980501322e-01,-5.846915404154006124e-01,-7.576497534911739162e-01,2.035283642841116887e+02
-1.966599027530903765e+00,2.340535869297145766e+01,8.638537187231355219e+00,-3.231226717499197654e-01,-5.769218191834223353e-01,-7.501672837120598736e-01,2.050385062068654065e+02
-1.955729871089987748e+00,2.359682200532953189e+01,8.552515917099007936e+00,-3.558521432927905237e-01,-5.684520632698635279e-01,-7.417745640548345509e-01,2.065486481296191243e+02
-1.967684764574620937e+00,2.374813961382455574e+01,8.456722727303075615e+00,-3.881498278080903752e-01,-5.592925496544206565e-01,-7.324817779809349449e-01,2.080587900523728422e+02
-2.008805373612441159e+00,2.386148363006888573e+01,8.342809013553885933e+00,-4.199765354728211553e-01,-5.494543922600975128e-01,-7.223002010789976168e-01,2.096707596792464301e+02
-2.080949069989328049e+00,2.392170130193741784e+01,8.216048999199141889e+00,-1.294010743361807547e-01,-5.992516874889408651e-01,-7.900321366902033349e-01,2.112827293061200180e+02
-2.181888927281849799e+00,2.392802297878789730e+01,8.076171772334470589e+00,1.730147582869359657e-01,-5.942164588185467888e-01,-7.854748204016575031e-01,2.128946989329936059e+02
-2.307819979433263669e+00,2.388024565125859766e+01,7.923000776806301992e+00,4.595995113955018141e-01,-5.348094314391391713e-01,-7.090452462074303686e-01,2.145066685598671938e+02
-2.454940836901804868e+00,2.377814384175814766e+01,7.756359552141277369e+00,4.886031448440830149e-01,-5.546216120546998418e-01,-6.735427486739613556e-01,2.161186381867407817e+02
-2.620123852830800182e+00,2.362205217491282383e+01,7.576369355644190229e+00,5.163881206062458373e-01,-5.730504741844442140e-01,-6.363603247647567906e-01,2.177306078136143697e+02
-2.801576761565925278e+00,2.341345311507661719e+01,7.383746782350947946e+00,5.428851385968223031e-01,-5.900500533862655939e-01,-5.975907134406943655e-01,2.193425774404879576e+02
-2.998159821985328044e+00,2.315440213056614382e+01,7.179506139043175139e+00,5.680281110850071702e-01,-6.055779500541840221e-01,-5.573306123176429150e-01,2.209545470673615455e+02
-3.208711469905753955e+00,2.284694762943700397e+01,6.964661816117881266e+00,5.917543275216134990e-01,-6.195954351654459069e-01,-5.156804364939292507e-01,2.225665166942351334e+02
-3.418936014098982845e+00,2.251531707465371923e+01,6.753277005227351637e+00,6.140046109438028754e-01,-6.320675468734066049e-01,-4.727440681067912043e-01,2.240880029226550221e+02
-3.639025738788140618e+00,2.214634478336162005e+01,6.534624656174859325e+00,6.347234655674028891e-01,-6.429631777054481967e-01,-4.286285972423875545e-01,2.256094891510749108e+02
-3.868007626186528380e+00,2.174164046957428198e+01,6.309510974711494136e+00,6.538592151988021905e-01,-6.522551521485164816e-01,-3.834440548453685316e-01,2.271309753794947994e+02
-4.104892358680093167e+00,2.130280823145158919e+01,6.078742207996818969e+00,6.713641321212908686e-01,-6.599202944287987371e-01,-3.373031382939402634e-01,2.286524616079146881e+02
-4.348674333148073501e+00,2.083144647284105488e+01,5.843124639425847811e+00,6.871945561344431352e-01,-6.659394863165046807e-01,-2.903209303246466200e-01,2.301739478363345768e+02
-4.598331675441949429e+00,2.032914782487756966e+01,5.603464583455843417e+00,7.013110034496757850e-01,-6.702977148115681905e-01,-2.426146120076677903e-01,2.316954340647544655e+02
-4.852826255022631763e+00,1.979749906764214629e+01,5.360568380432964020e+00,7.136782651703841296e-01,-6.729841095912906246e-01,-1.943031704882758337e-01,2.332169202931743541e+02
-5.111103699755787488e+00,1.923808105188035000e+01,5.115242391418780343e+00,7.242654951110107930e-01,-6.739919701264712737e-01,-1.455071022231477496e-01,2.347384065215942428e+02
-5.372093410865228513e+00,1.865246862078101842e+01,4.868292993016691383e+00,7.330462867359625045e-01,-6.733187823983054487e-01,-9.634811245148323933e-02,2.362598927500141315e+02
-5.634708578044254956e+00,1.804223053181591396e+01,4.620526572198273563e+00,7.399987390264024523e-01,-6.709662251742529726e-01,-4.694881165028084308e-02,2.377813789784340202e+02
-5.897846194724894353e+00,1.740892937864090229e+01,4.372749521129572159e+00,7.451055111105355788e-01,-6.669401658271010280e-01,2.567590269329712849e-03,2.393028652068539088e+02
-6.160387073504947075e+00,1.675412151305935993e+01,4.125768231997374969e+00,7.483538655210080215e-01,-6.612506457075105759e-01,5.207759126214162038e-02,2.408243514352737975e+02
-6.421195861732740262e+00,1.607935696704834783e+01,3.880389091835474868e+00,7.497356999713864489e-01,-6.539118551063769491e-01,1.014577051789949114e-01,2.423458376636936862e+02
-6.679121057249505888e+00,1.538617937484827181e+01,3.637418477350959467e+00,7.492475675723040407e-01,-6.449420978692937956e-01,1.505847697587968381e-01,2.438673238921135749e+02
-6.932995024289291486e+00,1.467612589511658250e+01,3.397662749750559374e+00,7.468906854366754722e-01,-6.343637457512095734e-01,1.993362538143297891e-01,2.453888101205334635e+02
-7.181634009536307595e+00,1.395072713314618795e+01,3.161928249567061755e+00,7.426709316523423254e-01,-6.222031826249545539e-01,2.475905628457103214e-01,2.469102963489533522e+02
-7.423838158339647109e+00,1.321150706314920065e+01,2.931021291485838010e+00,7.365988306295064847e-01,-6.084907386826270415e-01,2.952273423192458002e-01,2.484317825773732409e+02
-7.658391531085255721e+00,1.245998295060661576e+01,2.705748159171490919e+00,7.286895268593145403e-01,-5.932606147937857788e-01,3.421277778552244686e-01,2.499532688057931296e+02
-7.891289055677314757e+00,1.167155391257323771e+01,2.479770048535255622e+00,9.955207354021456956e-01,9.453287991603503970e-02,0.000000000000000000e+00,2.515261591115538238e+02
-8.113151251010091158e+00,1.087302839534812371e+01,2.261338543540924562e+00,9.895871733591945496e-01,1.439278510692431623e-01,0.000000000000000000e+00,2.530990494173145180e+02
-8.323432047757441055e+00,1.006653524152304513e+01,2.049920249088565960e+00,9.812043098871008340e-01,1.929665832452480967e-01,0.000000000000000000e+00,2.546719397230752122e+02
-8.521861516678910675e+00,9.254340057625249472e+00,1.844497208980057534e+00,9.703928888839234990e-01,2.415277234467198553e-01,0.000000000000000000e+00,2.562448300288359064e+02
-8.708144853148297670e+00,8.438706807138485644e+00,1.644051425865018290e+00,9.769128538952149832e-01,2.136335083477470254e-01,0.000000000000000000e+00,2.578177203345965722e+02
-8.881962381512149562e+00,7.621897686395112892e+00,1.447564868226811852e+00,9.826311646046371751e-01,1.855639898862600778e-01,0.000000000000000000e+00,2.593906106403572380e+02
-9.042969559708138760e+00,6.806173000487016900e+00,1.254019477368727209e+00,9.875431292009232420e-01,1.573422001971287454e-01,0.000000000000000000e+00,2.609635009461179038e+02
-9.190796984143286608e+00,5.993791039196365134e+00,1.062397174400301347e+00,9.916447173610906107e-01,1.289912963135745883e-01,0.000000000000000000e+00,2.625363912518785696e+02
-9.325050394831986722e+00,5.187007952947299216e+00,8.716798672237429102e-01,9.949325635558181613e-01,1.005345411835595754e-01,0.000000000000000000e+00,2.641092815576392354e+02
-9.445310680793827629e+00,4.388077628779617712e+00,6.808494575204339094e-01,9.974039698086810679e-01,7.199528459899393051e-02,0.000000000000000000e+00,2.656821718633999012e+02
-9.549667762011605276e+00,3.611913632229148075e+00,4.920435831525763470e-01,9.990569079092538329e-01,4.339694405382944764e-02,0.000000000000000000e+00,2.672294485174402894e+02
-9.639887805945333454e+00,2.847482173371842507e+00,3.012068287739332328e-01,9.998900210782709630e-01,1.476298554660309542e-02,0.000000000000000000e+00,2.687767251714806775e+02
-9.715654987610630400e+00,2.096897424282678113e+00,1.075744872938507596e-01,8.808491902946983254e-01,2.673097542801564433e-02,-4.726395655342977564e-01,2.703240018255210657e+02
-9.776922354867117804e+00,1.362292455377420719e+00,-8.924023232860538168e-02,8.586017000741579253e-01,2.421703666549421610e-02,-5.120689951201196077e-01,2.718712784795614539e+02
-9.823765675341956438e+00,6.458105695309633854e-01,-2.894351512619935396e-01,8.345889668483753576e-01,2.165330910737599257e-02,-5.504456291208008611e-01,2.734185551336018420e+02
-9.856237421078851924e+00,-5.040444761308485178e-02,-4.932080682342790956e-01,8.088603593861364294e-01,1.904506358068168773e-02,-5.876905687226433583e-01,2.749658317876422302e+02
-9.874366767105064113e+00,-7.242084420157098856e-01,-7.007567582175345811e-01,7.814687739147881951e-01,1.639766242822902897e-02,-6.237272417184045459e-01,2.765131084416826184e+02
-9.878159590234117715e+00,-1.373457005621321336e+00,-9.122789711127590184e-01,7.524705253870281885e-01,1.371654848636694700e-02,-6.584815598936918368e-01,2.780603850957230065e+02
-9.867314128718922106e+00,-2.002427703740309095e+00,-1.130352129304034614e+00,7.219252317248031625e-01,1.100723389739487364e-02,-6.918820713095650277e-01,2.796243950274525218e+02
-9.841576541225268926e+00,-2.601585697973205047e+00,-1.352938827789138987e+00,6.898956912776850192e-01,8.275288779613358681e-03,-7.238601071689310107e-01,2.811884049591820371e+02
-9.801130204667684254e+00,-3.168916591367634705e+00,-1.580386333547316946e+00,6.564477537470857493e-01,5.526329778247112551e-03,-7.543499229654547777e-01,2.827524148909115524e+02
-9.746638315797511609e+00,-3.702852589532191541e+00,-1.813323770856424488e+00,6.216501848410274089e-01,2.766008520725274887e-03,-7.832888336253912565e-01,2.843164248226410677e+02
-9.681458953231688369e+00,-4.187812194094283846e+00,-2.045002431834034518e+00,5.855745249369939120e-01,0.000000000000000000e+00,-8.106173423649849497e-01,2.858325664139024411e+02
-9.605134612897096247e+00,-4.639927840249208124e+00,-2.283067203111764254e+00,8.010230466218279943e-01,1.680977087608944570e-02,-5.983957807208056812e-01,2.873487080051638145e+02
-9.518431913751086881e+00,-5.057999673171059030e+00,-2.528198385737244092e+00,9.429866597446359133e-01,3.207743219650309452e-02,-3.312781276935125585e-01,2.888648495964251879e+02
-9.422104580569319765e+00,-5.440823461973033126e+00,-2.781076235693273446e+00,9.984418138771008477e-01,4.440234749862993768e-02,-3.376945127337916547e-02,2.903809911876865613e+02
-9.317188180748711801e+00,-5.787494848928944613e+00,-3.042337140304972376e+00,9.623011475947070847e-01,5.265384537069009441e-02,2.668371674009193950e-01,2.918971327789479346e+02
-9.205299058677036683e+00,-6.097711448809842061e+00,-3.312529794926465154e+00,8.378801759393996740e-01,5.607494484992718575e-02,5.429644659909178550e-01,2.934132743702093080e+02
-9.088345866756398550e+00,-6.371465474284113917e+00,-3.592159018695170403e+00,9.053473691449666072e-01,4.153717105648690455e-01,-8.837693841807206518e-02,2.949294159614706814e+02
-8.968236891734425953e+00,-6.608738482721176588e+00,-3.881729570565810139e+00,9.360722153546453539e-01,3.202522752089287938e-01,1.456203552547300495e-01,2.964455575527320548e+02
-8.839559980737728750e+00,-6.819181030582773140e+00,-4.200519214049688976e+00,9.061895982315796294e-01,2.043976334009164064e-01,3.701891672065157901e-01,2.980530021474328919e+02
-8.711747261949017940e+00,-6.986047151059064930e+00,-4.532381668589636092e+00,8.176343202152047684e-01,7.530893738781591074e-02,5.707895254430604970e-01,2.996604467421337290e+02
-8.586351603866701154e+00,-7.110049904064164039e+00,-4.878436321030542366e+00,7.843785636195371724e-01,1.014329603648742861e-01,6.119310610452609600e-01,3.012678913368345661e+02
-8.463226487628396910e+00,-7.193450085065098421e+00,-5.240767510659851247e+00,7.483923528909645073e-01,1.272038900111869819e-01,6.509424371525430741e-01,3.028753359315354032e+02
-8.295262588367725343e+00,-7.236221382074682573e+00,-5.776621145417090375e+00,0.000000000000000000e+00,9.983844631533018710e-01,-5.680196945670642344e-02,3.050836114631876512e+02
-8.124023887664959531e+00,-7.196631266870725518e+00,-6.368161311642240641e+00,4.081438505715209025e-02,9.978246683405279649e-01,5.175052872767943457e-02,3.072918869948398992e+02
-7.996289552029848480e+00,-7.129678699139208931e+00,-6.826745608919499553e+00,8.107982391399500000e-02,9.838443326184724835e-01,1.596069902250729367e-01,3.088811760806968891e+02
-7.863485235717590172e+00,-7.041566972834463201e+00,-7.307691357550538669e+00,1.202547528576992514e-01,9.566314911224695905e-01,2.653167627726186195e-01,3.104704651665538790e+02
-7.716054519581728499e+00,-6.928948997526766185e+00,-7.837578287690245560e+00,1.578122758224531907e-01,9.165521556103991552e-01,3.674580678744239770e-01,3.121493063977750353e+02
-7.559977718407091096e+00,-6.799233750319148228e+00,-8.384198525613889785e+00,1.932472512690127098e-01,8.641453910704877117e-01,4.646571240916265721e-01,3.138281476289961915e+02
-7.394301908059333073e+00,-6.655755588479972396e+00,-8.939506077238982940e+00,2.260830863773561072e-01,8.001160645898474089e-01,5.556066245465611786e-01,3.155069888602173478e+02
-7.218111855399562238e+00,-6.501854393657465536e+00,-9.495454880459998748e+00,2.558781471538286167e-01,7.253253641091970128e-01,6.390833200685656079e-01,3.171858300914385040e+02
-7.030530032382136696e+00,-6.340875371487489254e+00,-1.004399886802375441e+01,2.822316982334162616e-01,6.407792146972540737e-01,7.139644714727254593e-01,3.188646713226596603e+02
-6.830867690584640606e+00,-6.176371038228781529e+00,-1.057722617452427727e+01,3.047892924972596673e-01,5.476147482561699587e-01,7.792429497099214730e-01,3.205435125538808165e+02
-6.618789101927459839e+00,-6.012322571282690653e+00,-1.108783415051091303e+01,3.232475380382590080e-01,4.470850087367330139e-01,8.340407808473885298e-01,3.222223537851019728e+02
-6.394175531399722168e+00,-5.852956072626894546e+00,-1.156933608359655530e+01,3.373581783923914057e-01,3.405420986485929169e-01,8.776209537843587816e-01,3.239011950163231290e+02
-6.167258037325194842e+00,-5.708294195175975361e+00,-1.199865107034121792e+01,3.469314311961577135e-01,2.294189935806829062e-01,9.093973319920788390e-01,3.255105737869507720e+02
-5.929206057525778562e+00,-5.575123126996007983e+00,-1.239168704127086507e+01,3.518385404063183453e-01,1.152102693228961444e-01,9.289425360747919358e-01,3.271199525575784151e+02
-5.680019640045604667e+00,-5.456766040120102801e+00,-1.274321915413717221e+01,3.520135077923879363e-01,-5.479992337527160454e-04,9.359936912342581294e-01,3.287293313282060581e+02
-5.419679660733365267e+00,-5.356016268559209870e+00,-1.304796168656241306e+01,2.667117791109648306e-01,2.447389377469652225e-02,9.634645065623386184e-01,3.303387100988337011e+02
-5.148169074234146159e+00,-5.275402404427810055e+00,-1.330059866302513250e+01,1.791010901817740864e-01,4.928391228887925996e-02,9.825944715311299982e-01,3.319480888694613441e+02
-4.805301232617441798e+00,-5.212172513053950240e+00,-1.351902075113114954e+01,8.993987732009491032e-02,7.366727837904697707e-02,9.932179773654231658e-01,3.338834695940711299e+02
-4.443524469890038020e+00,-5.193516783715457663e+00,-1.363007942597370281e+01,0.000000000000000000e+00,9.741290686787916486e-02,9.952430484926604315e-01,3.358188503186809157e+02
-4.064179334808246224e+00,-5.224628692949161213e+00,-1.363497464452011698e+01,-0.000000000000000000e+00,-9.695091807975529663e-02,9.952881590151888558e-01,3.377542310432907016e+02
-3.749457396130547515e+00,-5.284788772164923820e+00,-1.357424145862220399e+01,-4.291282096655081070e-03,-2.252196961352708748e-01,9.742975281538440724e-01,3.393072186219453101e+02
-3.427915475702538295e+00,-5.374168376385650703e+00,-1.346921507512883132e+01,-8.509987894250357898e-03,-3.496795025689147796e-01,9.368296673276681474e-01,3.408602062005999187e+02
-3.100639316399650625e+00,-5.494019338743845182e+00,-1.332542014350736537e+01,-7.525276839494735026e-03,-2.888018937096377692e-01,9.573582591684978160e-01,3.424131937792545273e+02
-2.768727622780006836e+00,-5.645587599493356201e+00,-1.314838157234407134e+01,-6.509497914867861529e-03,-2.267319778936881802e-01,9.739344108497848262e-01,3.439661813579091358e+02
-2.433171688453380721e+00,-5.829430546134962476e+00,-1.294325729815735926e+01,-5.466844694432428445e-03,-1.637260063597008319e-01,9.864896899869861624e-01,3.455191689365637444e+02
-2.094725383113518191e+00,-6.044735265791653767e+00,-1.271447105666555544e+01,-4.401621693856015705e-03,-1.000440944872977578e-01,9.949722633745504696e-01,3.470721565152183530e+02
-1.718534055500566149e+00,-6.318707396680994570e+00,-1.243847243504852962e+01,-3.318226602569682160e-03,-3.594914811486257106e-02,9.993471109288953880e-01,3.487856200276899585e+02
-1.340088013090783292e+00,-6.630518032029163678e+00,-1.214220058604422725e+01,-2.221132131458964602e-03,2.829422165749335971e-02,9.995961702570690388e-01,3.504990835401615641e+02
-9.602572803724069850e-01,-6.977937037762182548e+00,-1.183165499948919042e+01,-1.114867550911389929e-03,9.242079070677156061e-02,9.957184112564252398e-01,3.522125470526331696e+02
-5.798857103787186107e-01,-7.358729293065220389e+00,-1.151283528122367805e+01,-3.999995304131439757e-06,1.561658166662475977e-01,9.877298404362626627e-01,3.539260105651047752e+02
-1.993199283499744734e-01,-7.770160276424574519e+00,-1.119022423491204954e+01,-3.431258075468773590e-06,1.373532654656963448e-01,9.905211155965775172e-01,3.556394740775763808e+02
1.820694341265403637e-01,-8.208505537449649836e+00,-1.086527095621178418e+01,-2.861279878233495316e-06,1.184910373819077628e-01,9.929541147710270188e-01,3.573529375900479863e+02
5.627126105576482074e-01,-8.666186656836028845e+00,-1.054022118042236045e+01,-2.290266830177746974e-06,9.958595345257659215e-02,9.950279583300892794e-01,3.590543796104893772e+02
9.464336776373400983e-01,-9.142015592214860931e+00,-1.021274524730657873e+01,-1.718425422772605465e-06,8.064485019431115453e-02,9.967418964421337346e-01,3.607558216309307682e+02
1.334442151444995783e+00,-9.631909882787063282e+00,-9.882777319905491353e+00,-1.145962446714471925e-06,6.167457713616028570e-02,9.980953093380336982e-01,3.624572636513721591e+02
1.727995112931579147e+00,-1.013179472672999282e+01,-9.550251581100104303e+00,-5.730849173465950719e-07,4.268199434934798892e-02,9.990877075345891978e-01,3.641587056718135500e+02
2.128397186633997240e+00,-1.063760323764888760e+01,-9.215102234144968207e+00,-0.000000000000000000e+00,2.367396997322678345e-02,9.997187320112477238e-01,3.658601476922549409e+02
2.536133911103903404e+00,-1.114547784912388195e+01,-8.876515021056214039e+00,-1.815685972366613410e-06,8.631051170094888869e-02,9.962672811885360247e-01,3.675615897126963318e+02
2.950001984106658259e+00,-1.165196464035043178e+01,-8.532178747007755248e+00,-3.624226711587903945e-06,1.486073979362688424e-01,9.888952630413665457e-01,3.692630317331377228e+02
3.343194958559931873e+00,-1.212470459915268961e+01,-8.200391803044874806e+00,-5.418505219052842428e-06,2.103194769713875589e-01,9.776316881000031156e-01,3.708643974005989890e+02
3.738141430608345583e+00,-1.259108286600863735e+01,-7.858845610454746833e+00,-7.191460618315129887e-06,2.712038983333718289e-01,9.625208805408472790e-01,3.724657630680602551e+02
4.133304351176361635e+00,-1.304852016490169753e+01,-7.505136367949533316e+00,-8.936115937843508848e-06,3.310210683394158027e-01,9.436223038035528310e-01,3.740671287355215213e+02
4.527174911851155947e+00,-1.349442837115564586e+01,-7.136860360630930877e+00,-1.064560556384511033e-05,3.895355928452018390e-01,9.210103266485138995e-01,3.756684944029827875e+02
4.918272567405378659e+00,-1.392621065477916531e+01,-6.751613977086851293e+00,-1.231320225525063741e-05,4.465172034807274315e-01,8.947739305789715880e-01,3.772698600704440537e+02
5.305145058014834269e+00,-1.434126162390568737e+01,-6.346993726487570875e+00,-1.393234361465973069e-05,5.017416637323274253e-01,8.650163597761567624e-01,3.788712257379053199e+02
5.686368431170970794e+00,-1.473696746832720628e+01,-5.920596255681267017e+00,-1.549665791116819078e-05,5.549916513083045233e-01,8.318547149214672309e-01,3.804725914053665861e+02
6.060547063288005631e+00,-1.511070610312080831e+01,-5.470018366288806000e+00,-1.699998915352857377e-05,6.060576133181894143e-01,7.954194924999823391e-01,3.820739570728278522e+02
6.426519661955201634e+00,-1.546010262082227449e+01,-4.993640760655817523e+00,-8.714160024713584786e-06,6.747554542646525544e-01,7.380400238874712526e-01,3.836753227402891184e+02
6.852797886945473316e+00,-1.584057909619394522e+01,-4.384223206317193089e+00,-3.585205410199641569e-07,7.380472384462178903e-01,6.747475630322210538e-01,3.855974869278406914e+02
7.262983592925425391e+00,-1.617203611893413040e+01,-3.731815555222900205e+00,7.999989140413108610e-06,7.954259202489223357e-01,6.060491773184206732e-01,3.875196511153922643e+02
7.655325499383048182e+00,-1.645202289476421598e+01,-3.038880619414449757e+00,6.003447275242286630e-06,8.086875497486893938e-01,5.882367268597092913e-01,3.894418153029438372e+02
7.965876124116054058e+00,-1.664761224818107976e+01,-2.439115599269349399e+00,4.003944591395868871e-06,8.215503719717091036e-01,5.701341826957058156e-01,3.910340298006260582e+02
8.262390888813225587e+00,-1.681386451314376629e+01,-1.821212019339383703e+00,2.002466653143350101e-06,8.340080464920200942e-01,5.517504674787980790e-01,3.926262442983082792e+02
8.542973423846293102e+00,-1.695088629019148385e+01,-1.187683074108039527e+00,0.000000000000000000e+00,8.460544322668346329e-01,5.330946422741880131e-01,3.942184587959905002e+02
8.805761038809237107e+00,-1.705903373899082709e+01,-5.413987497612445798e-01,-4.820826492293019128e-02,8.823206484469500177e-01,4.681711615612655364e-01,3.958106732936727212e+02
9.039832890937089971e+00,-1.713696152846286580e+01,8.709365537838723026e-02,-9.603787901766490387e-02,9.116568066446733010e-01,3.995705102891313198e-01,3.973379658955657874e+02
9.255094020813462663e+00,-1.719114534539756889e+01,7.203492090678516035e-01,-1.431131713361313007e-01,9.338324929755451587e-01,3.278315043644232096e-01,3.988652584974588535e+02
9.450032321600644991e+00,-1.722252259816344377e+01,1.355029316376547666e+00,-1.890643961725632649e-01,9.486735350473675110e-01,2.535176088587287602e-01,4.003925510993519197e+02
9.623125074647861155e+00,-1.723202219937398993e+01,1.987795373152142719e+00,-2.335306372001663133e-01,9.560633697694566058e-01,1.772125121850524065e-01,4.019198437012449858e+02
9.772838970557494065e+00,-1.722056451437263291e+01,2.615308787608542573e+00,-2.761626422186226892e-01,9.559439586337196149e-01,9.951554147806541961e-02,4.034471363031380520e+02
9.897630130356516176e+00,-1.718906130980357716e+01,3.234231001913779657e+00,-3.166255662481883837e-01,9.483162433044955986e-01,2.103695520210341341e-02,4.049744289050311181e+02
9.995944126772972282e+00,-1.713841570226882283e+01,3.841223513777747289e+00,-3.546016014287784457e-01,9.332401379573836975e-01,-5.760685003445976254e-02,4.065017215069241843e+02
1.006621600561741303e+01,-1.706952210707189721e+01,4.432947898039659940e+00,-3.897924730740328636e-01,9.108340584458703981e-01,-1.357981808105405142e-01,4.080290141088172504e+02
1.010687030726914948e+01,-1.698326618704866675e+01,5.006065828255136019e+00,-4.219217822837038057e-01,8.812739920112185876e-01,-2.129228983478907711e-01,4.095563067107103166e+02
1.011632108826721321e+01,-1.688052480148565593e+01,5.557239098282805045e+00,-4.507371767244026106e-01,8.447921148573285244e-01,-2.883752419941771894e-01,4.110835993126033827e+02
1.009297194300587286e+01,-1.676216595512630292e+01,6.083129643870323733e+00,-4.760123325391987792e-01,8.016749684599806525e-01,-3.615625868603486448e-01,4.126108919144964489e+02
1.003521602553463410e+01,-1.662904874726554993e+01,6.580399564239706400e+00,-4.975487318301110573e-01,7.522612089413860392e-01,-4.319100982591105309e-01,4.141381845163895150e+02
9.932003193545787312e+00,-1.647075577342291908e+01,7.075542200239385515e+00,-5.151772217625080197e-01,6.969389471894419374e-01,-4.988652464037193202e-01,4.157720594580900979e+02
9.783423418296010254e+00,-1.629684603975347912e+01,7.528018122068750095e+00,-4.711698250525133691e-01,6.409557283566804653e-01,-6.059478114891631018e-01,4.174059343997906808e+02
9.589975577536169027e+00,-1.610926175574706676e+01,7.935776198666414594e+00,-4.193704694032804325e-01,5.743727203469485287e-01,-7.030095216392946433e-01,4.190398093414912637e+02
9.353016336995093383e+00,-1.591023204768755051e+01,8.297536909938049376e+00,-3.606357834583678867e-01,4.982910355864810792e-01,-7.884452267249042468e-01,4.206736842831918466e+02
9.073875289589077298e+00,-1.570199385209805598e+01,8.612021076172057477e+00,-2.959370872987276413e-01,4.139688686939323459e-01,-8.608420390031479297e-01,4.223075592248924295e+02
8.753854935620676514e+00,-1.548679177499115056e+01,8.877949867503643233e+00,-2.263443299816221832e-01,3.228006900576384508e-01,-9.190026979204383162e-01,4.239414341665930124e+02
8.394230663285021876e+00,-1.526687795103377532e+01,9.094044813376928715e+00,-1.530083961310036433e-01,2.262941859352027851e-01,-9.619653695049218411e-01,4.255753091082935953e+02
7.996250729483815434e+00,-1.504451190262827076e+01,9.259027812005079738e+00,-7.714207405483466951e-02,1.260453262576606281e-01,-9.890195529615819492e-01,4.272091840499941782e+02
7.519078664204042362e+00,-1.480256372307651525e+01,9.376272840085682958e+00,-0.000000000000000000e+00,2.371197228180339442e-02,-9.997178313761895252e-01,4.289872703554020745e+02
6.996104163895533468e+00,-1.456340887966626951e+01,9.426941442036010699e+00,-7.892990921127130202e-03,0.000000000000000000e+00,-9.999678497920404530e-01,4.307653566608099709e+02
6.430824987518549030e+00,-1.432869332400539619e+01,9.417582715690363315e+00,-2.872728885472881633e-01,3.020151847007489232e-02,-9.573714826484192031e-01,4.325434429662178673e+02
5.844426181151601618e+00,-1.410430523822265414e+01,9.360941313017907106e+00,-5.434469747315679999e-01,5.796336819077416852e-02,-8.374387342386809818e-01,4.342762899229354048e+02
5.228596153184493112e+00,-1.388377508757645984e+01,9.267898101234001373e+00,-7.557215732820177223e-01,8.104295423911778151e-02,-6.498576330580629890e-01,4.360091368796529423e+02
4.588771834502062497e+00,-1.366647481462329061e+01,9.147258578799615236e+00,-6.115149142376264946e-01,9.641599621263295672e-02,-7.853352566502768140e-01,4.377419838363704798e+02
3.988123701607365845e+00,-1.346934567468558264e+01,9.019215535070268075e+00,-4.432229302732431653e-01,1.079915881966053010e-01,-8.898815937847283086e-01,4.393273710104307952e+02
3.378544436016606145e+00,-1.327253107609096894e+01,8.879598554635768082e+00,-2.574739619737981822e-01,1.153138048074176941e-01,-9.593789060240146549e-01,4.409127581844911106e+02
2.764680866289018546e+00,-1.307501588667032699e+01,8.732660375108929784e+00,-6.158395249877657296e-02,1.180942434069155444e-01,-9.910898881866269106e-01,4.424981453585514259e+02
2.151190440942634119e+00,-1.287581151354206632e+01,8.582653785020623260e+00,1.367316977029822134e-01,1.162233860325112417e-01,-9.837655042636471725e-01,4.440835325326117413e+02
1.542741161723703680e+00,-1.267395595625956872e+01,8.433831594181452118e+00,3.296620231152499469e-01,1.097749153141582001e-01,-9.376942030747426049e-01,4.456689197066720567e+02
9.440115167644808070e-01,-1.246851385967727843e+01,8.290446604043324896e+00,5.096081590780147108e-01,9.900281355549056528e-02,-8.546905680455579857e-01,4.472543068807323721e+02
3.596904136297602306e-01,-1.225857656653496441e+01,8.156751578061074426e+00,6.694826561777903473e-01,8.433135883447590020e-02,-7.380238444599726000e-01,4.488396940547926874e+02
-2.055228877474121196e-01,-1.204326216975970887e+01,8.036999212054272590e+00,8.029886460050812413e-01,6.633841231103834724e-02,-5.922891603235169722e-01,4.504250812288530028e+02
-3.563158045775506877e-01,-1.198369220348621056e+01,8.006746579236734718e+00,9.048678568021243374e-01,4.573265567638402918e-02,-4.232265184620244147e-01,4.508570014242857837e+02
-9.608439468221757762e-01,-1.173136784963746315e+01,7.894606991632164394e+00,9.711077085916172136e-01,2.332567623659526079e-02,-2.374946970797414125e-01,4.526471057173492909e+02
-1.523644599368770614e+00,-1.146841031562005497e+01,7.806648913167092196e+00,9.990993339585199084e-01,0.000000000000000000e+00,-4.240897172840243229e-02,4.544372100104127981e+02
-2.038404384709497918e+00,-1.119330997238175662e+01,7.739535819479532286e+00,9.990993332535061944e-01,-0.000000000000000000e+00,-4.240897169847657883e-02,4.562273143034763052e+02
-2.498503874331840624e+00,-1.090468258774505195e+01,7.686391208658882590e+00,6.921409340576635261e-01,-0.000000000000000000e+00,-7.217609904965988088e-01,4.580174185965398124e+02
-2.897161316782185025e+00,-1.060122905183749076e+01,7.638568558436179323e+00,5.299993955616641179e-04,-0.000000000000000000e+00,-9.999988595503095379e-01,4.598075228896033195e+02
-3.255734349603396360e+00,-1.024418172197045962e+01,7.583042395149778514e+00,4.169530785743756907e-01,4.529412474209571632e-02,-9.077976495522456224e-01,4.617980492884489081e+02
-3.513105858671969450e+00,-9.864998543068828951e+00,7.520451088390509575e+00,7.566728811008494038e-01,8.225587836747591530e-02,-6.485970409135887182e-01,4.637885756872944967e+02
-3.663607139633747956e+00,-9.464209164998363732e+00,7.448540854552382129e+00,7.550757964904738495e-01,2.554995927611568990e-02,-6.551379557806323861e-01,4.657791020861400852e+02
-3.710924446187718218e+00,-9.092124683699463361e+00,7.375896295694248650e+00,6.378742543269592113e-01,1.240828798227212038e-01,-7.600775451250559867e-01,4.675486979039659445e+02
