-2.626484305495984550e+00,1.741025983840246028e+01,-8.562897344163861391e+00,2.005502775541377347e-01,3.004255441678143138e-02,9.792216455410993614e-01,5.048795735967419773e+01
-2.590191222042025565e+00,1.738893489180264496e+01,-9.003773342225724008e+00,0.000000000000000000e+00,1.519999199371368896e-02,9.998834733317381041e-01,5.201778478175083364e+01
-2.534617349883515391e+00,1.733794761834051101e+01,-9.438727315816253238e+00,-0.000000000000000000e+00,6.377917058116652424e-03,9.999786608528554721e-01,5.354761220382746956e+01
-2.461687217191516286e+00,1.725816715696447545e+01,-9.864939657362203462e+00,-0.000000000000000000e+00,-2.444652874761686981e-03,9.999960118218210736e-01,5.507743962590410547e+01
-2.372324212978845104e+00,1.715160776678463606e+01,-1.027950206163715663e+01,-0.000000000000000000e+00,-1.126703122667802731e-02,9.999355249188323080e-01,5.660726704798074138e+01
-2.266933358936359610e+00,1.702085546726579324e+01,-1.067946192177285170e+01,-0.000000000000000000e+00,-2.008853143510555203e-02,9.997972048832026726e-01,5.813709447005737729e+01
-2.142325993977302279e+00,1.686401557647972282e+01,-1.107128158117523498e+01,-0.000000000000000000e+00,-2.890846700660624005e-02,9.995810625071457345e-01,5.970669106181776442e+01
-2.001195510010108869e+00,1.668672751835288537e+01,-1.144088863271582923e+01,-0.000000000000000000e+00,-3.772615157010862641e-02,9.992871146349184830e-01,6.127628765357815155e+01
-1.843897320964672293e+00,1.649186239105044294e+01,-1.178501434152862437e+01,-0.000000000000000000e+00,-4.654089893017572532e-02,9.989153841614963891e-01,6.284588424533853868e+01
-1.670755366105717288e+00,1.628229308752469606e+01,-1.210039014668834056e+01,-0.000000000000000000e+00,-5.535202312025905291e-02,9.984659000307835042e-01,6.441548083709892580e+01
-1.482062106099600873e+00,1.606089413877193195e+01,-1.238374768353534883e+01,-0.000000000000000000e+00,-6.415883845593449430e-02,9.979386972333547101e-01,6.598507742885931293e+01
-1.278078519408639036e+00,1.583054155707366384e+01,-1.263181880599959150e+01,-0.000000000000000000e+00,-7.296065958811630281e-02,9.973338168037325646e-01,6.755467402061970006e+01
-1.059034099012971408e+00,1.559411267922352806e+01,-1.284133560892339077e+01,-0.000000000000000000e+00,-8.175680155624505396e-02,9.966513058171966311e-01,6.912427061238008719e+01
-8.251268494599903747e-01,1.535448600974129896e+01,-1.300903045038302785e+01,-0.000000000000000000e+00,-9.054657984144540150e-02,9.958912173861287354e-01,7.069386720414047431e+01
-5.765232842413542391e-01,1.511454106407527753e+01,-1.313163597400894034e+01,-0.000000000000000000e+00,-9.932931041964995766e-02,9.950536106558915961e-01,7.226346379590086144e+01
-3.133584234975964056e-01,1.487715821179445363e+01,-1.320588513130447872e+01,-0.000000000000000000e+00,-1.081043098146848153e-01,9.941385508002410498e-01,7.383306038766124857e+01
-3.433080293186197007e-02,1.464414323889074510e+01,-1.322836253416517671e+01,-0.000000000000000000e+00,-1.168708951513131450e-01,9.931461090162760907e-01,7.541019847128949039e+01
2.591494619903657037e-01,1.441947591972357579e+01,-1.319545860392214465e+01,3.204669457962769537e-04,-5.880065388116560016e-02,9.982686914847954673e-01,7.698733655491773220e+01
5.666072706758226163e-01,1.420574658557469050e+01,-1.310477499660014900e+01,6.398446498911922750e-04,-5.306028803975711703e-04,9.999986545262882220e-01,7.856447463854597402e+01
8.874515012912006506e-01,1.400543241036128173e+01,-1.295422388256447910e+01,9.570477866497265193e-04,5.774124123053508278e-02,9.983301223121142653e-01,8.014161272217421583e+01
1.021201471137763717e+00,1.392730240847089362e+01,-1.287836610831719675e+01,1.270998420251536658e-03,1.158168560489946514e-01,9.932687654470839789e-01,8.078403856062790567e+01
1.360461199275909694e+00,1.374268668735286880e+01,-1.265215621629429599e+01,0.000000000000000000e+00,1.173078338390019654e-01,9.930945933284813787e-01,8.238127097373336483e+01
1.709867117762086774e+00,1.357456148021535647e+01,-1.236171566971374070e+01,-1.177648228227758248e-01,0.000000000000000000e+00,9.930405059701521431e-01,8.397850338683882399e+01
2.066262550877813187e+00,1.342138986004220058e+01,-1.200915617539716429e+01,-1.763156287943793976e-01,2.062332165748461885e-02,9.841165975878357619e-01,8.557573579994428314e+01
2.424170081412855726e+00,1.328131170057318222e+01,-1.160104257788258764e+01,-2.341729504548448471e-01,4.116552618769131477e-02,9.713220005385787559e-01,8.716453624033491110e+01
2.781910248718704626e+00,1.315073926789059300e+01,-1.114056010574743993e+01,-2.911092270767062229e-01,6.154581825240908188e-02,9.547070389223207831e-01,8.875333668072553905e+01
3.135926105471048331e+00,1.302699273944532088e+01,-1.063243822822028939e+01,-3.469005206505925698e-01,8.168403939141852255e-02,9.343370625649425332e-01,9.034213712111616701e+01
3.482631631910678482e+00,1.290741277127227171e+01,-1.008140674785104451e+01,-4.013273965962690371e-01,1.015009832736075285e-01,9.102921899792500993e-01,9.193093756150679496e+01
3.818411787723255291e+00,1.278936064429257868e+01,-9.492195767410379403e+00,-4.541757867598858467e-01,1.209187072024037607e-01,8.826669932488763193e-01,9.351973800189742292e+01
4.139622564227988022e+00,1.267021841039610131e+01,-8.869535656787499889e+00,-5.052378313063671245e-01,1.398608386512625312e-01,8.515701260789159122e-01,9.510853844228805087e+01
4.442591036874864230e+00,1.254738903830292429e+01,-8.218157019886517034e+00,-5.543126961982601797e-01,1.582528756244896972e-01,8.171238964755642709e-01,9.669733888267867883e+01
4.723615418050120418e+00,1.241829655920253117e+01,-7.542790661521661555e+00,-6.012073630482207554e-01,1.760224796629284438e-01,7.794637857343128529e-01,9.828613932306930678e+01
4.978965110189633059e+00,1.228038621216941806e+01,-6.848167554311454630e+00,-6.457373882407045906e-01,1.930997603428957488e-01,7.387379156269492375e-01,9.987493976345993474e+01
5.204880759199917328e+00,1.213112458935382776e+01,-6.139018805572013626e+00,-6.877276283389794909e-01,2.094175501501162051e-01,6.951064658809584795e-01,1.014637402038505627e+02
5.397574308186410263e+00,1.196799978094634831e+01,-5.420075624209617970e+00,-7.270129289257662997e-01,2.249116686481305305e-01,6.487410442400828314e-01,1.030525406442411906e+02
5.577212621650772029e+00,1.174357790520306288e+01,-4.532109525133424022e+00,-9.246034767262547582e-01,-1.743419773614379165e-01,3.386905457147098009e-01,1.050000257257920424e+02
5.684395087473513186e+00,1.148821532856047334e+01,-3.644734606108300579e+00,-8.498265231567917466e-01,-5.222387069684532035e-01,-7.113096008795406766e-02,1.069475108073428942e+02
5.718817774420666744e+00,1.123284827095274707e+01,-2.852340035086332826e+00,-9.225027107052581332e-01,-3.820525499434559435e-01,-5.497815768559451838e-02,1.087028936583431147e+02
5.696222821328115415e+00,1.095695834979522054e+01,-2.072143822648190969e+00,-9.719364694593536358e-01,-2.322406754257876627e-01,-3.744019247301075964e-02,1.104582765093433352e+02
5.616413697443681130e+00,1.066353591752754504e+01,-1.308676727067751733e+00,-9.968823582192178900e-01,-7.657756097871246115e-02,-1.895892997445768405e-02,1.122136593603435557e+02
5.479226320452507792e+00,1.035557230617483171e+01,-5.664693636417040823e-01,-9.967118863751273095e-01,8.101490948214877530e-02,-0.000000000000000000e+00,1.139690422113437762e+02
5.285620020937803254e+00,1.003640132348077607e+01,1.507793886875921641e-01,-9.932567570293234782e-01,8.139880434615835714e-02,-8.254240890503737604e-02,1.157244250623439967e+02
5.078329686526448228e+00,9.755629898087279983e+00,7.487164928539379316e-01,-9.830223045673989191e-01,8.122712403018601812e-02,-1.645214364331784862e-01,1.172373069545191839e+02
4.839114119517967438e+00,9.472729662730920097e+00,1.328614299115922881e+00,-9.660783830276251649e-01,8.050104033451617458e-02,-2.453775465544107415e-01,1.187501888466943711e+02
4.570383183310436692e+00,9.190080626341048387e+00,1.889805018780433166e+00,-9.425406411065262446e-01,7.922550907238744278e-02,-3.245588676588880839e-01,1.202630707388695583e+02
4.274569951612204655e+00,8.910049613157703163e+00,2.431620981868630071e+00,-9.125697327805535330e-01,7.740923624233604639e-02,-4.015249593220102109e-01,1.217759526310447455e+02
3.954130676720269744e+00,8.634990151821609672e+00,2.953394641347800942e+00,-8.763702207390996479e-01,7.506461860316120116e-02,-4.757505010370863263e-01,1.232888345232199327e+02
3.611544757576708786e+00,8.367242364592133441e+00,3.454458577362623295e+00,-8.341891801169368792e-01,7.220765905738532608e-02,-5.467288777362185881e-01,1.248017164153951200e+02
3.249314707603330632e+00,8.109132856694071023e+00,3.934145501465835526e+00,-7.863145120595614879e-01,6.885785742101434292e-02,-6.139756376252964998e-01,1.263145983075703072e+02
2.869966122314733248e+00,7.862974605794179617e+00,4.391788260848285219e+00,-7.330729786357232936e-01,6.503807732543331888e-02,-6.770317987314022901e-01,1.278274801997454944e+02
2.476047646709952144e+00,7.631066851608292900e+00,4.826719842568319763e+00,-6.748279725133988771e-01,6.077439016019298840e-02,-7.354669815944707700e-01,1.293403620919206674e+02
2.070130942442887534e+00,7.415694985639934345e+00,5.238273377780505058e+00,-6.119770366256332972e-01,5.609589712214067131e-02,-7.888823467226213637e-01,1.308532439840958546e+02
1.654810654771676104e+00,7.219130441051279767e+00,5.625782145963669656e+00,-5.449491507587007622e-01,5.103453058575693757e-02,-8.369133167640062654e-01,1.323661258762710418e+02
1.232704379287195895e+00,7.043630582667352868e+00,5.988579579148223253e+00,-4.742018035852761937e-01,4.562483615065762027e-02,-8.792320648181624065e-01,1.338790077684462290e+02
8.064526284208892726e-01,6.891438597114337483e+00,6.325999266142754429e+00,-4.002178701289689777e-01,3.990373685404841747e-02,-9.155497519066165824e-01,1.353918896606214162e+02
3.787187977321125887e-01,6.764783383092874303e+00,6.637374956759861888e+00,-3.235023159736916676e-01,3.391028115758249611e-02,-9.456184983349567030e-01,1.369047715527966034e+02
-4.781086802481878534e-02,6.665879441787214255e+00,6.922040566041246734e+00,-2.445787507129186800e-01,2.768537642874062746e-02,-9.692330754950132521e-01,1.384176534449717906e+02
-4.704273090536983948e-01,6.596926767411103398e+00,7.179330178482044467e+00,-1.639858541619299004e-01,2.127150973578075324e-02,-9.862323065638125552e-01,1.399305353371469778e+02
-8.863986848894267467e-01,6.560110737891280408e+00,7.408578052254322088e+00,-8.227369972366822826e-02,1.471245786181720958e-02,-9.965001665425308186e-01,1.414434172293221650e+02
-1.307093996231796895e+00,6.558835353895196008e+00,7.615213267860836410e+00,-0.000000000000000000e+00,8.052988517103476865e-03,-9.999665741302532496e-01,1.430104589938938489e+02
-1.713872011264432560e+00,6.597660881000939170e+00,7.790634437131078727e+00,1.984795552643255426e-02,-2.502312411574146231e-02,-9.994888203086398359e-01,1.445775007584655327e+02
-2.102678656790947898e+00,6.677738771046369592e+00,7.938328168566249232e+00,3.966637210066471797e-02,-5.806199530753911042e-02,-9.975236255981020372e-01,1.461445425230372166e+02
-2.469169109187716149e+00,6.799760998314943627e+00,8.063198401481162847e+00,5.942575608357240219e-02,-9.101445682225073330e-02,-9.940739148395347780e-01,1.477115842876089005e+02
-2.808990257320398864e+00,6.964395306627378268e+00,8.170149230508984672e+00,7.909670170042037984e-02,-1.238314690392284950e-01,-9.891448220846599249e-01,1.492786260521805843e+02
-3.117780761878530260e+00,7.172285168064076011e+00,8.264084872206787225e+00,9.864993479936944032e-02,-1.564641939287245986e-01,-9.827436829527518292e-01,1.508456678167522682e+02
-3.392567982667022974e+00,7.423224620142125474e+00,8.348805498680684778e+00,1.180563564139884697e-01,-1.888640677271934687e-01,-9.748800237121687529e-01,1.524127095813239521e+02
-3.633176672681161179e+00,7.715343625481254186e+00,8.425903078728795847e+00,1.372870860649880176e-01,-2.209828732043121191e-01,-9.655655471025326175e-01,1.539797513458956360e+02
-3.840849787651381408e+00,8.045949008041402450e+00,8.495865499979995406e+00,1.563135047367802954e-01,-2.527728114142484550e-01,-9.548141149186625265e-01,1.555467931104673198e+02
-4.016857491806337777e+00,8.412354950078137605e+00,8.559180698550646227e+00,1.751072974649543479e-01,-2.841865728244751810e-01,-9.426417273821817711e-01,1.571138348750390037e+02
-4.162497138659274398e+00,8.811883126848851333e+00,8.616336655721303472e+00,1.936404954713352999e-01,-3.151774077163534971e-01,-9.290664993314886599e-01,1.586808766396106876e+02
-4.279852107590446764e+00,9.245760983953438483e+00,8.668214399071958454e+00,2.118855177839669979e-01,-3.456991957527928983e-01,-9.141086332655016244e-01,1.602612433546739510e+02
-4.368831806541751739e+00,9.708112797291631679e+00,8.714781608197103679e+00,2.298152122801234709e-01,-3.757065146095286412e-01,-8.977903892812639786e-01,1.618416100697372144e+02
-4.430862671289045096e+00,1.019619244874125208e+01,8.756543057084911652e+00,2.474028960913110531e-01,-4.051547075679520216e-01,-8.801360519501076896e-01,1.634219767848004778e+02
-4.467399415553431119e+00,1.070726219978778104e+01,8.794003552901672904e+00,2.646223953101696225e-01,-4.339999499689659035e-01,-8.611718941816207673e-01,1.650023434998637413e+02
-4.479925009314973394e+00,1.123859283279521470e+01,8.827667932495241843e+00,2.814480839402158652e-01,-4.621993144290285072e-01,-8.409261381291346371e-01,1.665827102149270047e+02
-4.469950656830787850e+00,1.178746379218510398e+01,8.858041058898340481e+00,2.978549220304967937e-01,-4.897108347213858237e-01,-8.194289131948488958e-01,1.681630769299902681e+02
-4.439015774357692123e+00,1.235116332552252416e+01,8.885627817831723618e+00,3.138184929384293942e-01,-5.164935682274721662e-01,-7.967122111970159626e-01,1.697434436450535316e+02
-4.388687967579496529e+00,1.292698862450778030e+01,8.910933114207232109e+00,3.293150396653934386e-01,-5.425076568655753384e-01,-7.728098387658244306e-01,1.713238103601167950e+02
-4.320563008739108035e+00,1.351224596587258731e+01,8.934461868630725334e+00,3.443215002110234235e-01,-5.677143864061273693e-01,-7.477573670387459570e-01,1.729041770751800584e+02
-4.236264813475563606e+00,1.410425085217950425e+01,8.956719013904958615e+00,3.588155418935968788e-01,-5.920762440853672981e-01,-7.215920787301187689e-01,1.744845437902433218e+02
-4.137462772858707893e+00,1.470035167664124565e+01,8.977954584036138996e+00,3.261238091665379923e-01,-5.983834238621090762e-01,-7.318323162737410126e-01,1.760649105053065853e+02
-4.025888747609634777e+00,1.529795351888853538e+01,8.997908805005824462e+00,2.930363611846212857e-01,-6.039645280424834617e-01,-7.411845518431734448e-01,1.776452772203698487e+02
-3.903319181878502686e+00,1.589449495585257743e+01,9.016067004065952517e+00,2.595933459443491298e-01,-6.088127846805938548e-01,-7.496374376668961670e-01,1.792256439354331121e+02
-3.771557553789630646e+00,1.648742473909728545e+01,9.031914520799182000e+00,2.258353428610545555e-01,-6.129223110491396342e-01,-7.571807172227503768e-01,1.808060106504963755e+02
-3.632434349838641996e+00,1.707420193003910924e+01,9.044936710682964787e+00,1.918033135327638639e-01,-6.162881207760494418e-01,-7.638052376811473865e-01,1.823863773655596390e+02
-3.494361227070845288e+00,1.762703258756180702e+01,9.054340194283424736e+00,1.575385520405528095e-01,-6.189061298936551214e-01,-7.695029610092630756e-01,1.838965192883133568e+02
-3.352968321611008218e+00,1.817015997915207137e+01,9.060394403032834276e+00,1.230826348456841302e-01,-6.207731617931020462e-01,-7.742669737227949600e-01,1.854066612110670746e+02
-3.209849024131288697e+00,1.870149025125141051e+01,9.062669688913935317e+00,8.847737034428532210e-02,-6.218869510779986287e-01,-7.780914952734651058e-01,1.869168031338207925e+02
-3.066618175792785284e+00,1.921893819058255559e+01,9.060736427715823993e+00,5.376474814073870651e-02,-6.222461463126371939e-01,-7.809718850621093500e-01,1.884269450565745103e+02
-2.924912047687338479e+00,1.972042732674550436e+01,9.054165021750710807e+00,1.898688810129652016e-02,-6.218503116614556570e-01,-7.829046480688471865e-01,1.899370869793282282e+02
-2.786388320073531322e+00,2.020389003473070488e+01,9.042525902570591967e+00,-1.581401075030107808e-02,-6.206999274177608106e-01,-7.838874390935167691e-01,1.914472289020819460e+02
-2.652726061406999403e+00,2.066726763734857997e+01,9.025389533683759069e+00,-5.059572143323603360e-02,-6.187963894210655180e-01,-7.839190656012282599e-01,1.929573708248356638e+02
-2.525625707165168432e+00,2.110851050757458580e+01,9.002326413271182659e+00,-8.531604024396619024e-02,-6.161420073637511319e-01,-7.829994891695866155e-01,1.944675127475893817e+02
-2.406809038466529049e+00,2.152557817080898417e+01,8.972907076902707502e+00,-1.199328379623955249e-01,-6.127400019891026117e-01,-7.811298255358239961e-01,1.959776546703430995e+02
-2.298019160484578549e+00,2.191643940705049687e+01,8.936702100253100411e+00,-1.544041109677668500e-01,-6.085945011841122909e-01,-7.783123432437816236e-01,1.974877965930968173e+02
-2.201020480656535216e+00,2.227907235298308564e+01,8.893282101817877816e+00,-1.886880322022950474e-01,-6.037105349717799552e-01,-7.745504608923696743e-01,1.989979385158505352e+02
-2.117598686686958054e+00,2.261146460397495517e+01,8.842217745628953907e+00,-2.227430019207359002e-01,-5.980940294089788223e-01,-7.698487429888369871e-01,2.005080804386042530e+02
-2.049560724346384699e+00,2.291161331598909001e+01,8.783079743970056086e+00,-2.565276981643504484e-01,-5.917517993972735146e-01,-7.642128944118629086e-01,2.020182223613579708e+02
-1.998734775065119873e+00,2.317752530740434480e+01,8.715438860091918372e+00,-2.900011268980501322e-01,-5.846915404154006124e-01,-7.576497534911739162e-01,2.035283642841116887e+02
-1.966970233322285155e+00,2.340721716074648029e+01,8.638865910927234992e+00,-3.231226717499197654e-01,-5.769218191834223353e-01,-7.501672837120598736e-01,2.050385062068654065e+02
-1.956137683830263763e+00,2.359871532432812913e+01,8.552931769805365292e+00,-3.558521432927905237e-01,-5.684520632698635279e-01,-7.417745640548345509e-01,2.065486481296191243e+02
-1.968128878514663338e+00,2.375005621379706966e+01,8.457207369166752642e+00,-3.881498278080903752e-01,-5.592925496544206565e-01,-7.324817779809349449e-01,2.080587900523728422e+02
-2.009280632767692421e+00,2.386341750179916232e+01,8.343349185326141892e+00,-4.199765354728211553e-01,-5.494543922600975128e-01,-7.223002010789976168e-01,2.096707596792464301e+02
-2.081440944616042898e+00,2.392364990505449285e+01,8.216628628527930189e+00,-1.294010743361807547e-01,-5.992516874889408651e-01,-7.900321366902033349e-01,2.112827293061200180e+02
-2.182384582754377522e+00,2.392998369238955902e+01,8.076773230835437190e+00,1.730147582869359657e-01,-5.942164588185467888e-01,-7.854748204016575031e-01,2.128946989329936059e+02
-2.308309189614429435e+00,2.388221583147050353e+01,7.923605007933876898e+00,4.595995113955018141e-01,-5.348094314391391713e-01,-7.090452462074303686e-01,2.145066685598671938e+02
-2.455415981203603160e+00,2.378012082721498999e+01,7.756946071326037639e+00,4.886031448440830149e-01,-5.546216120546998418e-01,-6.735427486739613556e-01,2.161186381867407817e+02
-2.620579350200674895e+00,2.362403333575989706e+01,7.576917170386217926e+00,5.163881206062458373e-01,-5.730504741844442140e-01,-6.363603247647567906e-01,2.177306078136143697e+02
-2.802007947429247636e+00,2.341543594329035471e+01,7.384236232262590960e+00,5.428851385968223031e-01,-5.900500533862655939e-01,-5.975907134406943655e-01,2.193425774404879576e+02
-2.998562397307091842e+00,2.315638428345976507e+01,7.179919815936475658e+00,5.680281110850071702e-01,-6.055779500541840221e-01,-5.573306123176429150e-01,2.209545470673615455e+02
-3.209081516345663410e+00,2.284892692858188212e+01,6.964984564130061173e+00,5.917543275216134990e-01,-6.195954351654459069e-01,-5.156804364939292507e-01,2.225665166942351334e+02
-3.419274079097156971e+00,2.251728764473821087e+01,6.753499490115552284e+00,6.140046109438028754e-01,-6.320675468734066049e-01,-4.727440681067912043e-01,2.240880029226550221e+02
-3.639332740066514305e+00,2.214829677708028655e+01,6.534732437123209614e+00,6.347234655674028891e-01,-6.429631777054481967e-01,-4.286285972423875545e-01,2.256094891510749108e+02
-3.868284393450118763e+00,2.174356452251003446e+01,6.309491998141186997e+00,6.538592151988021905e-01,-6.522551521485164816e-01,-3.834440548453685316e-01,2.271309753794947994e+02
-4.105139639395289031e+00,2.130469545943710230e+01,6.078586807643536538e+00,6.713641321212908686e-01,-6.599202944287987371e-01,-3.373031382939402634e-01,2.286524616079146881e+02
-4.348892798329926812e+00,2.083328846933491363e+01,5.842825536401862863e+00,6.871945561344431352e-01,-6.659394863165046807e-01,-2.903209303246466200e-01,2.301739478363345768e+02
-4.598521925450458347e+00,2.033093665835518848e+01,5.603016886296805055e+00,7.013110034496757850e-01,-6.702977148115681905e-01,-2.426146120076677903e-01,2.316954340647544655e+02
-4.852988825367979153e+00,1.979922727900147450e+01,5.359969585129353398e+00,7.136782651703841296e-01,-6.729841095912906246e-01,-1.943031704882758337e-01,2.332169202931743541e+02
-5.111239066912536266e+00,1.923974165186247021e+01,5.114492381432042656e+00,7.242654951110107930e-01,-6.739919701264712737e-01,-1.455071022231477496e-01,2.347384065215942428e+02
-5.372201998095431641e+00,1.865405508740558815e+01,4.867394039280041440e+00,7.330462867359625045e-01,-6.733187823983054487e-01,-9.634811245148323933e-02,2.362598927500141315e+02
-5.634790761229465872e+00,1.804373680783156075e+01,4.619483333102177625e+00,7.399987390264024523e-01,-6.709662251742529726e-01,-4.694881165028084308e-02,2.377813789784340202e+02
-5.897902308207056521e+00,1.741034986899059689e+01,4.371569042491906920e+00,7.451055111105355788e-01,-6.669401658271010280e-01,2.567590269329712849e-03,2.393028652068539088e+02
-6.160417415936139562e+00,1.675545108236077141e+01,4.124459947018258354e+00,7.483538655210080215e-01,-6.612506457075105759e-01,5.207759126214162038e-02,2.408243514352737975e+02
-6.421200701933761579e+00,1.608059093708925502e+01,3.878964821036768651e+00,7.497356999713864489e-01,-6.539118551063769491e-01,1.014577051789949114e-01,2.423458376636936862e+02
-6.679100640077276552e+00,1.538731352209706316e+01,3.635892428500451246e+00,7.492475675723040407e-01,-6.449420978692937956e-01,1.505847697587968381e-01,2.438673238921135749e+02
-6.932949576513039780e+00,1.467715644824788335e+01,3.396051517770811934e+00,7.468906854366754722e-01,-6.343637457512095734e-01,1.993362538143297891e-01,2.453888101205334635e+02
-7.181563745722535863e+00,1.395165077058164727e+01,3.160250816428948006e+00,7.426709316523423254e-01,-6.222031826249545539e-01,2.475905628457103214e-01,2.469102963489533522e+02
-7.423743286745842163e+00,1.321232091061347624e+01,2.929299026086747304e+00,7.365988306295064847e-01,-6.084907386826270415e-01,2.952273423192458002e-01,2.484317825773732409e+02
-7.658272259562331818e+00,1.246068457869861135e+01,2.704004817198220056e+00,7.286895268593145403e-01,-5.932606147937857788e-01,3.421277778552244686e-01,2.499532688057931296e+02
-7.891146350611501603e+00,1.167213815022709333e+01,2.478031347278695229e+00,9.955207354021456956e-01,9.453287991603503970e-02,0.000000000000000000e+00,2.515261591115538238e+02
-8.112988543228244254e+00,1.087349493271618783e+01,2.259631352270565774e+00,9.895871733591945496e-01,1.439278510692431623e-01,0.000000000000000000e+00,2.530990494173145180e+02
-8.323252797809837844e+00,1.006688411521297866e+01,2.048269673908512001e+00,9.812043098871008340e-01,1.929665832452480967e-01,0.000000000000000000e+00,2.546719397230752122e+02
-8.521669118992637237e+00,9.254571665584688134e+00,1.842925224613822355e+00,9.703928888839234990e-01,2.415277234467198553e-01,0.000000000000000000e+00,2.562448300288359064e+02
-8.707942650339715485e+00,8.438821907659740162e+00,1.642576875504832667e+00,9.769128538952149832e-01,2.136335083477470254e-01,0.000000000000000000e+00,2.578177203345965722e+02
-8.881753678702596133e+00,7.621897397167830768e+00,1.446203463404407419e+00,9.826311646046371751e-01,1.855639898862600778e-01,0.000000000000000000e+00,2.593906106403572380e+02
-9.042757638842775947e+00,6.806058797698827156e+00,1.252783797847600411e+00,9.875431292009232420e-01,1.573422001971287454e-01,0.000000000000000000e+00,2.609635009461179038e+02
-9.190585118313006063e+00,5.993564756681529992e+00,1.061296668089459772e+00,9.916447173610906107e-01,1.289912963135745883e-01,0.000000000000000000e+00,2.625363912518785696e+02
-9.324841862598304942e+00,5.186671781383375368e+00,8.707208501129327649e-01,9.949325635558181613e-01,1.005345411835595754e-01,0.000000000000000000e+00,2.641092815576392354e+02
-9.445108780516683566e+00,4.387634114932140506e+00,6.800351136368519844e-01,9.974039698086810679e-01,7.199528459899393051e-02,0.000000000000000000e+00,2.656821718633999012e+02
-9.549474638113284897e+00,3.611367643662688920e+00,4.913714817516703359e-01,9.990569079092538329e-01,4.339694405382944764e-02,0.000000000000000000e+00,2.672294485174402894e+02
-9.639704706104582854e+00,2.846837496149483115e+00,3.006736617886409668e-01,9.998900210782709630e-01,1.476298554660309542e-02,0.000000000000000000e+00,2.687767251714806775e+02
-9.715483154263431231e+00,2.096158382778282814e+00,1.071748794963803264e-01,8.808491902946983254e-01,2.673097542801564433e-02,-4.726395655342977564e-01,2.703240018255210657e+02
-9.776763009637528867e+00,1.361464075313819855e+00,-8.951159068810592145e-02,8.586017000741579253e-01,2.421703666549421610e-02,-5.120689951201196077e-01,2.718712784795614539e+02
-9.823620014649483423e+00,6.448986597454173797e-01,-2.895824381186736241e-01,8.345889668483753576e-01,2.165330910737599257e-02,-5.504456291208008611e-01,2.734185551336018420e+02
-9.856106623973284186e+00,-5.139329498319421263e-02,-4.932343296808049948e-01,8.088603593861364294e-01,1.904506358068168773e-02,-5.876905687226433583e-01,2.749658317876422302e+02
-9.874252003100400188e+00,-7.252668513293138997e-01,-7.006639084838233167e-01,7.814687739147881951e-01,1.639766242822902897e-02,-6.237272417184045459e-01,2.765131084416826184e+02
-9.878062027141588430e+00,-1.374576817512226601e+00,-9.120677925532255648e-01,7.524705253870281885e-01,1.371654848636694700e-02,-6.584815598936918368e-01,2.780603850957230065e+02
-9.867235804024165446e+00,-2.003601011096145523e+00,-1.130020676027656990e+00,7.219252317248031625e-01,1.100723389739487364e-02,-6.918820713095650277e-01,2.796243950274525218e+02
-9.841519986282616372e+00,-2.602803635418490469e+00,-1.352484943948294882e+00,6.898956912776850192e-01,8.275288779613358681e-03,-7.238601071689310107e-01,2.811884049591820371e+02
-9.801097878066615365e+00,-3.170169561551962722e+00,-1.579807459908232792e+00,6.564477537470857493e-01,5.526329778247112551e-03,-7.543499229654547777e-01,2.827524148909115524e+02
-9.746632417593152908e+00,-3.704130263167978665e+00,-1.812618556766393718e+00,6.216501848410274089e-01,2.766008520725274887e-03,-7.832888336253912565e-01,2.843164248226410677e+02
-9.681478991171427850e+00,-4.189101593319419337e+00,-2.044176490782622757e+00,5.855745249369939120e-01,0.000000000000000000e+00,-8.106173423649849497e-01,2.858325664139024411e+02
-9.605179192242847108e+00,-4.641214502719298807e+00,-2.282125382844251149e+00,8.010230466218279943e-01,1.680977087608944570e-02,-5.983957807208056812e-01,2.873487080051638145e+02
-9.518499510719941270e+00,-5.059268358947830002e+00,-2.527147576982903487e+00,9.429866597446359133e-01,3.207743219650309452e-02,-3.312781276935125585e-01,2.888648495964251879e+02
-9.422193542551605461e+00,-5.442058152474761101e+00,-2.779925372121442972e+00,9.984418138771008477e-01,4.440234749862993768e-02,-3.376945127337916547e-02,2.903809911876865613e+02
-9.317296642755042768e+00,-5.788678848572534008e+00,-3.041097405351408600e+00,9.623011475947070847e-01,5.265384537069009441e-02,2.668371674009193950e-01,2.918971327789479346e+02
-9.205424774699425328e+00,-6.098827589220656265e+00,-3.311215035488671354e+00,8.378801759393996740e-01,5.607494484992718575e-02,5.429644659909178550e-01,2.934132743702093080e+02
-9.088486122916901166e+00,-6.372496215651888285e+00,-3.590785951927419895e+00,9.053473691449666072e-01,4.153717105648690455e-01,-8.837693841807206518e-02,2.949294159614706814e+02
-8.968388502534839546e+00,-6.609665912429336210e+00,-3.880317783772619933e+00,9.360722153546453539e-01,3.202522752089287938e-01,1.456203552547300495e-01,2.964455575527320548e+02
-8.839719761134610110e+00,-6.819983139041827513e+00,-4.199087032107637896e+00,9.061895982315796294e-01,2.043976334009164064e-01,3.701891672065157901e-01,2.980530021474328919e+02
-8.711910288859208151e+00,-6.986711319449725899e+00,-4.530949688744862591e+00,8.176343202152047684e-01,7.530893738781591074e-02,5.707895254430604970e-01,2.996604467421337290e+02
-8.586511819499882847e+00,-7.110563389811364488e+00,-4.877030887748052379e+00,7.843785636195371724e-01,1.014329603648742861e-01,6.119310610452609600e-01,3.012678913368345661e+02
-8.463377696748560552e+00,-7.193800700002840998e+00,-5.239425920702375450e+00,7.483923528909645073e-01,1.272038900111869819e-01,6.509424371525430741e-01,3.028753359315354032e+02
-8.295391641647944070e+00,-7.236406208274355656e+00,-5.775321446605539144e+00,0.000000000000000000e+00,9.983844631533018710e-01,-5.680196945670642344e-02,3.050836114631876512e+02
-8.124130929912652732e+00,-7.196771552309449760e+00,-6.366754419786203378e+00,4.081438505715209025e-02,9.978246683405279649e-01,5.175052872767943457e-02,3.072918869948398992e+02
-7.996383353952435158e+00,-7.129822733806509660e+00,-6.825254517190340486e+00,8.107982391399500000e-02,9.838443326184724835e-01,1.596069902250729367e-01,3.088811760806968891e+02
-7.863562851390063280e+00,-7.041707540024387590e+00,-7.306208192144167946e+00,1.202547528576992514e-01,9.566314911224695905e-01,2.653167627726186195e-01,3.104704651665538790e+02
-7.716113650244457389e+00,-6.929081238568497447e+00,-7.836195237569448580e+00,1.578122758224531907e-01,9.165521556103991552e-01,3.674580678744239770e-01,3.121493063977750353e+02
-7.560018656607288001e+00,-6.799355220649937692e+00,-8.382993228682209974e+00,1.932472512690127098e-01,8.641453910704877117e-01,4.646571240916265721e-01,3.138281476289961915e+02
-7.394325182094526383e+00,-6.655863703938031506e+00,-8.938541573776822347e+00,2.260830863773561072e-01,8.001160645898474089e-01,5.556066245465611786e-01,3.155069888602173478e+02
-7.218118194473863269e+00,-6.501946431610332588e+00,-9.494779612632131105e+00,2.558781471538286167e-01,7.253253641091970128e-01,6.390833200685656079e-01,3.171858300914385040e+02
-7.030520331768824072e+00,-6.340948472100661704e+00,-1.004364667950097711e+01,2.822316982334162616e-01,6.407792146972540737e-01,7.139644714727254593e-01,3.188646713226596603e+02
-6.830843051638321839e+00,-6.176422578587426493e+00,-1.057721696766203756e+01,3.047892924972596673e-01,5.476147482561699587e-01,7.792429497099214730e-01,3.205435125538808165e+02
-6.618750878196885346e+00,-6.012350792226536456e+00,-1.108817426585872568e+01,3.232475380382590080e-01,4.470850087367330139e-01,8.340407808473885298e-01,3.222223537851019728e+02
-6.394125230538971749e+00,-5.852960212805865758e+00,-1.157001708684976826e+01,3.373581783923914057e-01,3.405420986485929169e-01,8.776209537843587816e-01,3.239011950163231290e+02
-6.167195829868106216e+00,-5.708276110057765251e+00,-1.199962707783616445e+01,3.469314311961577135e-01,2.294189935806829062e-01,9.093973319920788390e-01,3.255105737869507720e+02
-5.929129808178589478e+00,-5.575085534042211854e+00,-1.239290192284646963e+01,3.518385404063183453e-01,1.152102693228961444e-01,9.289425360747919358e-01,3.271199525575784151e+02
-5.679927242103646634e+00,-5.456712893216590032e+00,-1.274459972581046507e+01,3.520135077923879363e-01,-5.479992337527160454e-04,9.359936912342581294e-01,3.287293313282060581e+02
-5.419569095038453632e+00,-5.355952478286709173e+00,-1.304941635036680658e+01,2.667117791109648306e-01,2.447389377469652225e-02,9.634645065623386184e-01,3.303387100988337011e+02
-5.148038432935147846e+00,-5.275333697907013786e+00,-1.330201672732470186e+01,1.791010901817740864e-01,4.928391228887925996e-02,9.825944715311299982e-01,3.319480888694613441e+02
-4.805159669674172740e+00,-5.212089913940660679e+00,-1.352035723333325912e+01,8.993987732009491032e-02,7.366727837904697707e-02,9.932179773654231658e-01,3.338834695940711299e+02
-4.443400073730006561e+00,-5.193395358149629715e+00,-1.363140238672177951e+01,0.000000000000000000e+00,9.741290686787916486e-02,9.952430484926604315e-01,3.358188503186809157e+02
-4.064097802317999886e+00,-5.224440614131066418e+00,-1.363635303841258306e+01,-0.000000000000000000e+00,-9.695091807975529663e-02,9.952881590151888558e-01,3.377542310432907016e+02
-3.749417526945900914e+00,-5.284541499039860923e+00,-1.357563199984076974e+01,-4.291282096655081070e-03,-2.252196961352708748e-01,9.742975281538440724e-01,3.393072186219453101e+02
-3.427912639185540122e+00,-5.373874130258897708e+00,-1.347050720337929519e+01,-8.509987894250357898e-03,-3.496795025689147796e-01,9.368296673276681474e-01,3.408602062005999187e+02
-3.100668796452727527e+00,-5.493690814980126014e+00,-1.332652584736732493e+01,-7.525276839494735026e-03,-2.888018937096377692e-01,9.573582591684978160e-01,3.424131937792545273e+02
-2.768784613537077721e+00,-5.645237966064216018e+00,-1.314923538985166651e+01,-6.509497914867861529e-03,-2.267319778936881802e-01,9.739344108497848262e-01,3.439661813579091358e+02
-2.433251323062425975e+00,-5.829073016594111145e+00,-1.294381432870435766e+01,-5.466844694432428445e-03,-1.637260063597008319e-01,9.864896899869861624e-01,3.455191689365637444e+02
-2.094822796356654138e+00,-6.044382246762403987e+00,-1.271470298420811673e+01,-4.401621693856015705e-03,-1.000440944872977578e-01,9.949722633745504696e-01,3.470721565152183530e+02
-1.718646619187240709e+00,-6.318365381181628493e+00,-1.243834610800352181e+01,-3.318226602569682160e-03,-3.594914811486257106e-02,9.993471109288953880e-01,3.487856200276899585e+02
-1.340211851500272111e+00,-6.630185593942972133e+00,-1.214174676824222487e+01,-2.221132131458964602e-03,2.829422165749335971e-02,9.995961702570690388e-01,3.504990835401615641e+02
-9.603879507370608470e-01,-6.977611810438508755e+00,-1.183091783246415041e+01,-1.114867550911389929e-03,9.242079070677156061e-02,9.957184112564252398e-01,3.522125470526331696e+02
-5.800182160770883666e-01,-7.358407970572359957e+00,-1.151187228385380834e+01,-3.999995304131439757e-06,1.561658166662475977e-01,9.877298404362626627e-01,3.539260105651047752e+02
-1.994492270501110609e-01,-7.769838530636134166e+00,-1.118910213654481467e+01,-3.431258075468773590e-06,1.373532654656963448e-01,9.905211155965775172e-01,3.556394740775763808e+02
1.819474214722651695e-01,-8.208177848794457887e+00,-1.086405736330697280e+01,-2.861279878233495316e-06,1.184910373819077628e-01,9.929541147710270188e-01,3.573529375900479863e+02
5.626005253170605069e-01,-8.665846662538104539e+00,-1.053898005388086645e+01,-2.290266830177746974e-06,9.958595345257659215e-02,9.950279583300892794e-01,3.590543796104893772e+02
9.463328752088827622e-01,-9.141655908331209446e+00,-1.021153612257625021e+01,-1.718425422772605465e-06,8.064485019431115453e-02,9.967418964421337346e-01,3.607558216309307682e+02
1.334352555862700740e+00,-9.631521742713180956e+00,-9.881656524943789321e+00,-1.145962446714471925e-06,6.167457713616028570e-02,9.980953093380336982e-01,3.624572636513721591e+02
1.727915189426292297e+00,-1.013136797608024686e+01,-9.549272235922185104e+00,-5.730849173465950719e-07,4.268199434934798892e-02,9.990877075345891978e-01,3.641587056718135500e+02
2.128323914203748224e+00,-1.063712632904944400e+01,-9.214314250397489303e+00,-0.000000000000000000e+00,2.367396997322678345e-02,9.997187320112477238e-01,3.658601476922549409e+02
2.536063718815424917e+00,-1.114493798236130218e+01,-8.875963136929158281e+00,-1.815685972366613410e-06,8.631051170094888869e-02,9.962672811885360247e-01,3.675615897126963318e+02
2.949932651764759939e+00,-1.165134805232481163e+01,-8.531898597500036985e+00,-3.624226711587903945e-06,1.486073979362688424e-01,9.888952630413665457e-01,3.692630317331377228e+02
3.343127442173063901e+00,-1.212400206640812961e+01,-8.200385989983491442e+00,-5.418505219052842428e-06,2.103194769713875589e-01,9.776316881000031156e-01,3.708643974005989890e+02
3.738079259722202785e+00,-1.259027961730601675e+01,-7.859117586675034239e+00,-7.191460618315129887e-06,2.712038983333718289e-01,9.625208805408472790e-01,3.724657630680602551e+02
4.133252072463835525e+00,-1.304760015398482231e+01,-7.505678813431994278e+00,-8.936115937843508848e-06,3.310210683394158027e-01,9.436223038035528310e-01,3.740671287355215213e+02
4.527138081546056902e+00,-1.349337427882167262e+01,-7.137655182553410249e+00,-1.064560556384511033e-05,3.895355928452018390e-01,9.210103266485138995e-01,3.756684944029827875e+02
4.918257743735763299e+00,-1.392500389093902413e+01,-6.752632309953289003e+00,-1.231320225525063741e-05,4.465172034807274315e-01,8.947739305789715880e-01,3.772698600704440537e+02
5.305159793635961130e+00,-1.433988232963445419e+01,-6.348195932333358549e+00,-1.393234361465973069e-05,5.017416637323274253e-01,8.650163597761567624e-01,3.788712257379053199e+02
5.686421265597859431e+00,-1.473539451790446364e+01,-5.921931924355186005e+00,-1.549665791116819078e-05,5.549916513083045233e-01,8.318547149214672309e-01,3.804725914053665861e+02
6.060647515327628021e+00,-1.510891710606098748e+01,-5.471426315811564578e+00,-1.699998915352857377e-05,6.060576133181894143e-01,7.954194924999823391e-01,3.820739570728278522e+02
6.426678070406898868e+00,-1.545807430614094535e+01,-4.995051609844915141e+00,-8.714160024713584786e-06,6.747554542646525544e-01,7.380400238874712526e-01,3.836753227402891184e+02
6.853053000318937826e+00,-1.583825064729198573e+01,-4.385595702535132645e+00,-3.585205410199641569e-07,7.380472384462178903e-01,6.747475630322210538e-01,3.855974869278406914e+02
7.263378110182865832e+00,-1.616941179196058798e+01,-3.733149985464223164e+00,7.999989140413108610e-06,7.954259202489223357e-01,6.060491773184206732e-01,3.875196511153922643e+02
7.655906067857138453e+00,-1.644911090759030259e+01,-3.040171723948902560e+00,6.003447275242286630e-06,8.086875497486893938e-01,5.882367268597092913e-01,3.894418153029438372e+02
7.966637168834258098e+00,-1.664445714684435629e+01,-2.440334413720541828e+00,4.003944591395868871e-06,8.215503719717091036e-01,5.701341826957058156e-01,3.910340298006260582e+02
8.263344600964783737e+00,-1.681044927088115770e+01,-1.822294815001153978e+00,2.002466653143350101e-06,8.340080464920200942e-01,5.517504674787980790e-01,3.926262442983082792e+02
8.544132627820026471e+00,-1.694719648354933383e+01,-1.188570846283453442e+00,0.000000000000000000e+00,8.460544322668346329e-01,5.330946422741880131e-01,3.942184587959905002e+02
8.807138858328990239e+00,-1.705505817929379120e+01,-5.420383139714270992e-01,-4.820826492293019128e-02,8.823206484469500177e-01,4.681711615612655364e-01,3.958106732936727212e+02
9.041429600269220046e+00,-1.713270362622098020e+01,8.673575862589953667e-02,-9.603787901766490387e-02,9.116568066446733010e-01,3.995705102891313198e-01,3.973379658955657874e+02
9.256914888182159018e+00,-1.718659972877037490e+01,7.203076984643940195e-01,-1.431131713361313007e-01,9.338324929755451587e-01,3.278315043644232096e-01,3.988652584974588535e+02
9.452081532109625428e+00,-1.721768836286613080e+01,1.355329425192667747e+00,-1.890643961725632649e-01,9.486735350473675110e-01,2.535176088587287602e-01,4.003925510993519197e+02
9.625405690967609118e+00,-1.722690289951813725e+01,1.988452849074399564e+00,-2.335306372001663133e-01,9.560633697694566058e-01,1.772125121850524065e-01,4.019198437012449858e+02
9.775352893638540763e+00,-1.721516815310777204e+01,2.616329892637670351e+00,-2.761626422186226892e-01,9.559439586337196149e-01,9.951554147806541961e-02,4.034471363031380520e+02
9.900378060169156669e+00,-1.718340032975963538e+01,3.235612512324204992e+00,-3.166255662481883837e-01,9.483162433044955986e-01,2.103695520210341341e-02,4.049744289050311181e+02
9.998925523073832977e+00,-1.713250697579960402e+01,3.842952720138463008e+00,-3.546016014287784457e-01,9.332401379573836975e-01,-5.760685003445976254e-02,4.065017215069241843e+02
1.006942904874328981e+01,-1.706338692629970311e+01,4.435002605296456402e+00,-3.897924730740328636e-01,9.108340584458703981e-01,-1.357981808105405142e-01,4.080290141088172504e+02
1.011031185895850903e+01,-1.697693025371015096e+01,5.008414355874193369e+00,-4.219217822837038057e-01,8.812739920112185876e-01,-2.129228983478907711e-01,4.095563067107103166e+02
1.011998665250977858e+01,-1.687401821657905998e+01,5.559840280455627948e+00,-4.507371767244026106e-01,8.447921148573285244e-01,-2.883752419941771894e-01,4.110835993126033827e+02
1.009685562692071059e+01,-1.675552320836017017e+01,6.085932829780040798e+00,-4.760123325391987792e-01,8.016749684599806525e-01,-3.615625868603486448e-01,4.126108919144964489e+02
1.003931050027712857e+01,-1.662230870630906310e+01,6.583344618388704106e+00,-4.975487318301110573e-01,7.522612089413860392e-01,-4.319100982591105309e-01,4.141381845163895150e+02
9.936324179550044988e+00,-1.646396354236483717e+01,7.078576801961646403e+00,-5.151772217625080197e-01,6.969389471894419374e-01,-4.988652464037193202e-01,4.157720594580900979e+02
9.787979216320001896e+00,-1.629006533865063844e+01,7.531084418142220294e+00,-4.711698250525133691e-01,6.409557283566804653e-01,-6.059478114891631018e-01,4.174059343997906808e+02
9.594767937248775524e+00,-1.610256507737001641e+01,7.938812167408584308e+00,-4.193704694032804325e-01,5.743727203469485287e-01,-7.030095216392946433e-01,4.190398093414912637e+02
9.358038521780724039e+00,-1.590370172996153109e+01,8.300477826061078090e+00,-3.606357834583678867e-01,4.982910355864810792e-01,-7.884452267249042468e-01,4.206736842831918466e+02
9.079111988682390333e+00,-1.569572203187463444e+01,8.614799511261963971e+00,-2.959370872987276413e-01,4.139688686939323459e-01,-8.608420390031479297e-01,4.223075592248924295e+02
8.759282176355396743e+00,-1.548088034133481905e+01,8.880495690519499163e+00,-2.263443299816221832e-01,3.228006900576384508e-01,-9.190026979204383162e-01,4.239414341665930124e+02
8.399815723457949801e+00,-1.526143849802402919e+01,9.096285191170078832e+00,-1.530083961310036433e-01,2.262941859352027851e-01,-9.619653695049218411e-01,4.255753091082935953e+02
8.001952049835079350e+00,-1.503966568167764883e+01,9.260887209858360336e+00,-7.714207405483466951e-02,1.260453262576606281e-01,-9.890195529615819492e-01,4.272091840499941782e+02
7.524863130602468253e+00,-1.479851864652827587e+01,9.377668155870091837e+00,-0.000000000000000000e+00,2.371197228180339442e-02,-9.997178313761895252e-01,4.289872703554020745e+02
7.001925274998716198e+00,-1.456034575764705785e+01,9.427862282933627824e+00,-7.892990921127130202e-03,0.000000000000000000e+00,-9.999678497920404530e-01,4.307653566608099709e+02
6.436610700817634978e+00,-1.432680800346863670e+01,9.418034837971978490e+00,-2.872728885472881633e-01,3.020151847007489232e-02,-9.573714826484192031e-01,4.325434429662178673e+02
5.850072821243439414e+00,-1.410376983377356908e+01,9.360955314618092160e+00,-5.434469747315679999e-01,5.796336819077416852e-02,-8.374387342386809818e-01,4.342762899229354048e+02
5.233963563167572275e+00,-1.388480258990318283e+01,9.267507582343316841e+00,-7.557215732820177223e-01,8.104295423911778151e-02,-6.498576330580629890e-01,4.360091368796529423e+02
4.593684275058715905e+00,-1.366929312570661992e+01,9.146520362598755227e+00,-6.115149142376264946e-01,9.641599621263295672e-02,-7.853352566502768140e-01,4.377419838363704798e+02
3.992435818585963414e+00,-1.347400566497097607e+01,9.018212895537827123e+00,-4.432229302732431653e-01,1.079915881966053010e-01,-8.898815937847283086e-01,4.393273710104307952e+02
3.382052838717376275e+00,-1.327922868990402172e+01,8.878385653608010131e+00,-2.574739619737981822e-01,1.153138048074176941e-01,-9.593789060240146549e-01,4.409127581844911106e+02
2.767155199697734602e+00,-1.308395611766105127e+01,8.731307926304467060e+00,-6.158395249877657296e-02,1.180942434069155444e-01,-9.910898881866269106e-01,4.424981453585514259e+02
2.152373269983076209e+00,-1.288720826249688933e+01,8.581249053547704619e+00,1.367316977029822134e-01,1.162233860325112417e-01,-9.837655042636471725e-01,4.440835325326117413e+02
1.542347855850556115e+00,-1.268803188834005269e+01,8.432478395929917880e+00,3.296620231152499469e-01,1.097749153141582001e-01,-9.376942030747426049e-01,4.456689197066720567e+02
9.417301348978671660e-01,-1.248550026108697963e+01,8.289265304961208614e+00,5.096081590780147108e-01,9.900281355549056528e-02,-8.546905680455579857e-01,4.472543068807323721e+02
3.551815894326291745e-01,-1.227871320061584548e+01,8.155879093315864026e+00,6.694826561777903473e-01,8.433135883447590020e-02,-7.380238444599726000e-01,4.488396940547926874e+02
-2.126260602478516337e-01,-1.206679713251955199e+01,8.036589005078829118e+00,8.029886460050812413e-01,6.633841231103834724e-02,-5.922891603235169722e-01,4.504250812288530028e+02
-3.641812530567408723e-01,-1.200818956557065142e+01,8.006487222580732421e+00,9.048678568021243374e-01,4.573265567638402918e-02,-4.232265184620244147e-01,4.508570014242857837e+02
-9.721964768396420542e-01,-1.176004815353045174e+01,7.895081287966886130e+00,9.711077085916172136e-01,2.332567623659526079e-02,-2.374946970797414125e-01,4.526471057173492909e+02
-1.539129831817149574e+00,-1.150164009371396290e+01,7.808047452585188175e+00,9.990993339585199084e-01,0.000000000000000000e+00,-4.240897172840243229e-02,4.544372100104127981e+02
-2.058701121475206008e+00,-1.123144278234271631e+01,7.742038993750607112e+00,9.990993332535061944e-01,-0.000000000000000000e+00,-4.240897169847657883e-02,4.562273143034763052e+02
-2.524312203932790322e+00,-1.094804508223898232e+01,7.690158679648715356e+00,6.921409340576635261e-01,-0.000000000000000000e+00,-7.217609904965988088e-01,4.580174185965398124e+02
-2.929196435378010666e+00,-1.065011400408816300e+01,7.643733991699185992e+00,5.299993955616641179e-04,-0.000000000000000000e+00,-9.999988595503095379e-01,4.598075228896033195e+02
-3.295631425458050323e+00,-1.029951788125117496e+01,7.589899739996478267e+00,4.169530785743756907e-01,4.529412474209571632e-02,-9.077976495522456224e-01,4.617980492884489081e+02
-3.561911620421533975e+00,-9.927043170651785431e+00,7.529125610437136018e+00,7.566728811008494038e-01,8.225587836747591530e-02,-6.485970409135887182e-01,4.637885756872944967e+02
-3.722281320004522165e+00,-9.533086487140739251e+00,7.459117869259565659e+00,7.550757964904738495e-01,2.554995927611568990e-02,-6.551379557806323861e-01,4.657791020861400852e+02
-3.778979894794134431e+00,-9.167044579728548470e+00,7.388181863585471909e+00,6.590534516584888314e-01,1.078671533496725621e-01,-7.443193031803649884e-01,4.675486979039659445e+02
-3.759861408807698702e+00,-8.788756962676380624e+00,7.308481111195791691e+00,5.472469119253028369e-01,1.876009636281161796e-01,-8.156743810096410696e-01,4.693182937217918038e+02
-3.686147378818311893e+00,-8.451823099540380468e+00,7.231875163740784096e+00,4.223338967758962226e-01,2.628417910506486432e-01,-8.674942492676822603e-01,4.708566169981860412e+02
-3.565665329926849481e+00,-8.109376014433816948e+00,7.148495952010578414e+00,2.873060232881916587e-01,3.317876362785645017e-01,-8.985378196802467077e-01,4.723949402745802786e+02
-3.401618339662882740e+00,-7.762862273150296311e+00,7.058000807984431191e+00,1.453971637443779996e-01,3.927872558892319677e-01,-9.080615818249158089e-01,4.739332635509745160e+02
-3.197222629097660640e+00,-7.413710643498479413e+00,6.960047110259345970e+00,5.999996079955432846e-06,4.443797096684325432e-01,-8.958374147125192088e-01,4.754715868273687533e+02
-2.955692305925013308e+00,-7.063361749346489304e+00,6.854187637302334934e+00,-2.306513462730577085e-02,3.985177464148167426e-01,-9.168694592773080076e-01,4.770099101037629907e+02
-2.658604656423027457e+00,-6.688896558158358374e+00,6.731071251796143962e+00,-4.606527057889397980e-02,3.514291765664014910e-01,-9.350794216016892202e-01,4.786557788078009708e+02
