-3.441622486007294146e+00,7.350459647637443084e+00,8.368691812169954503e+00,1.180563564139884697e-01,-1.888640677271934687e-01,-9.748800237121687529e-01,1.524127095813239521e+02
-3.677263419897735197e+00,7.649037868040570842e+00,8.440530501606234637e+00,1.372870860649880176e-01,-2.209828732043121191e-01,-9.655655471025326175e-01,1.539797513458956360e+02
-3.880166254749358057e+00,7.985922108757153914e+00,8.505957185975951518e+00,1.563135047367802954e-01,-2.527728114142484550e-01,-9.548141149186625265e-01,1.555467931104673198e+02
-4.051603786069418511e+00,8.358412303938424159e+00,8.565408714643169219e+00,1.751072974649543479e-01,-2.841865728244751810e-01,-9.426417273821817711e-01,1.571138348750390037e+02
-4.192876057019719660e+00,8.763815910302314549e+00,8.619321977560254311e+00,1.936404954713352999e-01,-3.151774077163534971e-01,-9.290664993314886599e-01,1.586808766396106876e+02
-4.306039296910381786e+00,9.203390246009666598e+00,8.668509827371465803e+00,2.118855177839669979e-01,-3.456991957527928983e-01,-9.141086332655016244e-01,1.602612433546739510e+02
-4.391048219652362583e+00,9.671191372722971025e+00,8.712920871328501349e+00,2.298152122801234709e-01,-3.757065146095286412e-01,-8.977903892812639786e-01,1.618416100697372144e+02
-4.449331831384768954e+00,1.016445896321090636e+01,8.753006825644717992e+00,2.474028960913110531e-01,-4.051547075679520216e-01,-8.801360519501076896e-01,1.634219767848004778e+02
-4.482347470389665745e+00,1.068044110054271201e+01,8.789219436383158168e+00,2.646223953101696225e-01,-4.339999499689659035e-01,-8.611718941816207673e-01,1.650023434998637413e+02
-4.491580785312318191e+00,1.121639441977064600e+01,8.822010476327486472e+00,2.814480839402158652e-01,-4.621993144290285072e-01,-8.409261381291346371e-01,1.665827102149270047e+02
-4.478545713084860935e+00,1.176958424952017701e+01,8.851831741852803859e+00,2.978549220304967937e-01,-4.897108347213858237e-01,-8.194289131948488958e-01,1.681630769299902681e+02
-4.444784456553528607e+00,1.233728475348672582e+01,8.879135049796337498e+00,3.138184929384293942e-01,-5.164935682274721662e-01,-7.967122111970159626e-01,1.697434436450535316e+02
-4.391867461809573214e+00,1.291677907183768781e+01,8.904372234328013391e+00,3.293150396653934386e-01,-5.425076568655753384e-01,-7.728098387658244306e-01,1.713238103601167950e+02
-4.321393395223999789e+00,1.350535946251848962e+01,8.927995143820947277e+00,3.443215002110234235e-01,-5.677143864061273693e-01,-7.477573670387459570e-01,1.729041770751800584e+02
-4.234989120186248179e+00,1.410032744246147551e+01,8.950455637721843161e+00,3.588155418935968788e-01,-5.920762440853672981e-01,-7.215920787301187689e-01,1.744845437902433218e+02
-4.134327350084709529e+00,1.469901811438420758e+01,8.971957627536905733e+00,3.261238091665379923e-01,-5.983834238621090762e-01,-7.318323162737410126e-01,1.760649105053065853e+02
-4.021143955303537076e+00,1.529882462722893344e+01,8.992209119534916084e+00,2.930363611846212857e-01,-6.039645280424834617e-01,-7.411845518431734448e-01,1.776452772203698487e+02
-3.897219743592531760e+00,1.589717432987098000e+01,9.010670172653608034e+00,2.595933459443491298e-01,-6.088127846805938548e-01,-7.496374376668961670e-01,1.792256439354331121e+02
-3.764362585362081681e+00,1.649150478852242330e+01,9.026800858123216642e+00,2.258353428610545555e-01,-6.129223110491396342e-01,-7.571807172227503768e-01,1.808060106504963755e+02
-3.624407387956389393e+00,1.707926392223109957e+01,9.040061263205519282e+00,1.918033135327638639e-01,-6.162881207760494418e-01,-7.638052376811473865e-01,1.823863773655596390e+02
-3.485782773955755864e+00,1.763263707815071868e+01,9.049625098312187532e+00,1.575385520405528095e-01,-6.189061298936551214e-01,-7.695029610092630756e-01,1.838965192883133568e+02
-3.344074423504268978e+00,1.817591538740729362e+01,9.055749041395655397e+00,1.230826348456841302e-01,-6.207731617931020462e-01,-7.742669737227949600e-01,1.854066612110670746e+02
-3.200881663936435917e+00,1.870699426777429863e+01,9.057981266791056640e+00,8.847737034428532210e-02,-6.218869510779986287e-01,-7.780914952734651058e-01,1.869168031338207925e+02
-3.057825320264682123e+00,1.922377782240159760e+01,9.055869973353436464e+00,5.376474814073870651e-02,-6.222461463126371939e-01,-7.809718850621093500e-01,1.884269450565745103e+02
-2.916547694502628296e+00,1.972417894272967942e+01,9.048963387314746143e+00,1.898688810129652016e-02,-6.218503116614556570e-01,-7.829046480688471865e-01,1.899370869793282282e+02
-2.778712544781864580e+00,2.020611941132055023e+01,9.036809765140720430e+00,-1.581401075030107808e-02,-6.206999274177608106e-01,-7.838874390935167691e-01,1.914472289020819460e+02
-2.646005064262332507e+00,2.066753000460445122e+01,9.018957396387635939e+00,-5.059572143323603360e-02,-6.187963894210655180e-01,-7.839190656012282599e-01,1.929573708248356638e+02
-2.520131859836425736e+00,2.110635059554162396e+01,8.994954606558899002e+00,-8.531604024396619024e-02,-6.161420073637511319e-01,-7.829994891695866155e-01,1.944675127475893817e+02
-2.402820930626932139e+00,2.152053025619825277e+01,8.964349759961480757e+00,-1.199328379623955249e-01,-6.127400019891026117e-01,-7.811298255358239961e-01,1.959776546703430995e+02
-2.295821646278927375e+00,2.190802736023582753e+01,8.926691262562156837e+00,-1.544041109677668500e-01,-6.085945011841122909e-01,-7.783123432437816236e-01,1.974877965930968173e+02
-2.200904725045750965e+00,2.226680968531304927e+01,8.881527564843558764e+00,-1.886880322022950474e-01,-6.037105349717799552e-01,-7.745504608923696743e-01,1.989979385158505352e+02
-2.119862211669174989e+00,2.259485451539951839e+01,8.828407164660001527e+00,-2.227430019207359002e-01,-5.980940294089788223e-01,-7.698487429888369871e-01,2.005080804386042530e+02
-2.054507455053904863e+00,2.289014874300036695e+01,8.766878610093101543e+00,-2.565276981643504484e-01,-5.917517993972735146e-01,-7.642128944118629086e-01,2.020182223613579708e+02
-2.006675085736515207e+00,2.315068897129098247e+01,8.696490502307135273e+00,-2.900011268980501322e-01,-5.846915404154006124e-01,-7.576497534911739162e-01,2.035283642841116887e+02
-1.978220993148960272e+00,2.337448161616110909e+01,8.616791498404170468e+00,-3.231226717499197654e-01,-5.769218191834223353e-01,-7.501672837120598736e-01,2.050385062068654065e+02
-1.971022302676774141e+00,2.355954300816738112e+01,8.527330314278916745e+00,-3.558521432927905237e-01,-5.684520632698635279e-01,-7.417745640548345509e-01,2.065486481296191243e+02
-1.986977352512092176e+00,2.370389949439358546e+01,8.427655727473318592e+00,-3.881498278080903752e-01,-5.592925496544206565e-01,-7.324817779809349449e-01,2.080587900523728422e+02
-2.032711314103622158e+00,2.380919635084408625e+01,8.309094946412347582e+00,-4.199765354728211553e-01,-5.494543922600975128e-01,-7.223002010789976168e-01,2.096707596792464301e+02
-2.109795428154050079e+00,2.386074222372036502e+01,8.177163686142282728e+00,-1.294010743361807547e-01,-5.992516874889408651e-01,-7.900321366902033349e-01,2.112827293061200180e+02
-2.215987995323923876e+00,2.385779086672350857e+01,8.031604305846684611e+00,1.730147582869359657e-01,-5.942164588185467888e-01,-7.854748204016575031e-01,2.128946989329936059e+02
-2.347463168616429563e+00,2.380017386520104594e+01,7.872267476292222455e+00,4.595995113955018141e-01,-5.348094314391391713e-01,-7.090452462074303686e-01,2.145066685598671938e+02
-2.500398297658332325e+00,2.368770015003033791e+01,7.699003967411678140e+00,4.898930715208476006e-01,-5.554896580358100744e-01,-6.718883972000754268e-01,2.161186381867407817e+02
-2.671632107900637543e+00,2.352075511302788158e+01,7.511984067491069617e+00,5.188511784169956842e-01,-5.746556147585337726e-01,-6.328999755749415979e-01,2.177306078136143697e+02
-2.859314151545591542e+00,2.330090480936827646e+01,7.312017000054759741e+00,5.463948923180587114e-01,-5.922550552637985133e-01,-5.921862639104329418e-01,2.193425774404879576e+02
-3.062233638275091430e+00,2.303030445164676010e+01,7.100231499927418533e+00,5.724491290741240412e-01,-6.082400035056096943e-01,-5.498582478773602622e-01,2.209545470673615455e+02
-3.279156975958562814e+00,2.271110175399708453e+01,6.877756386994007265e+00,5.969428648232683043e-01,-6.225668845130326590e-01,-5.060313137003565886e-01,2.225665166942351334e+02
-3.495375772473581222e+00,2.236826722140293100e+01,6.659175626721324015e+00,6.198093295961850657e-01,-6.351966431714870520e-01,-4.608249336246611483e-01,2.240880029226550221e+02
-3.721390390998456255e+00,2.198804140467567336e+01,6.433414646652075852e+00,6.409861893259185539e-01,-6.460948506841963646e-01,-4.143623402455346438e-01,2.256094891510749108e+02
-3.956165926026229851e+00,2.157211384245030317e+01,6.201374047001877443e+00,6.604157157666824540e-01,-6.552317984236558646e-01,-3.667701905877965296e-01,2.271309753794947994e+02
-4.198650410500111008e+00,2.112216810275594270e+01,5.963954468229714756e+00,6.780449438586830802e-01,-6.625825789173264146e-01,-3.181782208508845966e-01,2.286524616079146881e+02
-4.447774831009174257e+00,2.063988170079879225e+01,5.722056585259087669e+00,6.938258161100365751e-01,-6.681271537467924349e-01,-2.687188927602726651e-01,2.301739478363345768e+02
-4.702453143150052028e+00,2.012692601680710069e+01,5.476581101698974052e+00,7.077153136022346080e-01,-6.718504081752655344e-01,-2.185270324889586613e-01,2.316954340647544655e+02
-4.961582287054510765e+00,1.958496621393874193e+01,5.228428744064627764e+00,7.196755732620272461e-01,-6.737421923544560931e-01,-1.677394631329913177e-01,2.332169202931743541e+02
-5.224042203082802871e+00,1.901566115625210074e+01,4.978500255998281609e+00,7.296739910799986406e-01,-6.737973489983849484e-01,-1.164946317425855221e-01,2.347384065215942428e+02
-5.488695847682691920e+00,1.842066332674093232e+01,4.727696392489774802e+00,7.376833109943747857e-01,-6.720157274485697441e-01,-6.493223192523900344e-02,2.362598927500141315e+02
-5.754389209414088491e+00,1.780161874543382794e+01,4.476917914097129803e+00,7.436816991976447078e-01,-6.684021840920901791e-01,-1.319282304935810723e-02,2.377813789784340202e+02
-6.019951325139228260e+00,1.716016688755897235e+01,4.227065581167074093e+00,7.476528036632843488e-01,-6.629665691312067732e-01,3.858255291379712737e-02,2.393028652068539088e+02
-6.284194296378295519e+00,1.649794060177483956e+01,3.979040148055551285e+00,7.495857987301239866e-01,-6.557236997404047862e-01,9.025275586556300023e-02,2.408243514352737975e+02
-6.545913305830363349e+00,1.581656602846749138e+01,3.733742357348289520e+00,7.494754146226160207e-01,-6.466933196838168252e-01,1.416769323247953627e-01,2.423458376636936862e+02
-6.803886634059563399e+00,1.511766251811514827e+01,3.492072934081435154e+00,7.473219518262993466e-01,-6.359000455028863685e-01,1.927148993935589305e-01,2.438673238921135749e+02
-7.056875676346410664e+00,1.440284254972066513e+01,3.254932579962254824e+00,7.431312802790274175e-01,-6.233732994207302758e-01,2.432275268969542326e-01,2.453888101205334635e+02
-7.303624959704194453e+00,1.367371164931260274e+01,3.023221967589961423e+00,7.369148233799113212e-01,-6.091472291458790433e-01,2.930771166553703955e-01,2.469102963489533522e+02
-7.542862160060343157e+00,1.293186830851549729e+01,2.797841734676700387e+00,7.286895268593145403e-01,-5.932606147937857788e-01,3.421277778552244686e-01,2.484317825773732409e+02
-7.773298119602619849e+00,1.217890390319006499e+01,2.579692478268689193e+00,9.955207354021456956e-01,9.453287991603503970e-02,0.000000000000000000e+00,2.499532688057931296e+02
-8.000965501797695723e+00,1.139041262107071262e+01,2.362359609104111691e+00,9.913008634114531814e-01,1.316077436555698199e-01,0.000000000000000000e+00,2.515261591115538238e+02
-8.217190870474798459e+00,1.059347580416342005e+01,2.152932802284575509e+00,9.857007492619630495e-01,1.684993557698928335e-01,0.000000000000000000e+00,2.530990494173145180e+02
-8.421754579950391673e+00,9.790201568336170723e+00,1.950359077962668053e+00,9.787281891584446170e-01,2.051563592407236736e-01,0.000000000000000000e+00,2.546719397230752122e+02
-8.614413909909348632e+00,8.982696667822457570e+00,1.753585409252881533e+00,9.703928888839234990e-01,2.415277234467198553e-01,0.000000000000000000e+00,2.562448300288359064e+02
-8.794903069071310142e+00,8.173066379953132454e+00,1.561558729457866113e+00,9.769128538952149832e-01,2.136335083477470254e-01,0.000000000000000000e+00,2.578177203345965722e+02
-8.962933199098511494e+00,7.363414389904128221e+00,1.373225939294905329e+00,9.826311646046371751e-01,1.855639898862600778e-01,0.000000000000000000e+00,2.593906106403572380e+02
-9.118192378745094473e+00,6.555842675461048152e+00,1.187533914122562040e+00,9.875431292009232420e-01,1.573422001971287454e-01,0.000000000000000000e+00,2.609635009461179038e+02
-9.260345628247831584e+00,5.752451391801611358e+00,1.003429511167446053e+00,9.916447173610906107e-01,1.289912963135745883e-01,0.000000000000000000e+00,2.625363912518785696e+02
-9.389034913958289152e+00,4.955338756296951530e+00,8.198595767510878929e-01,9.949325635558181613e-01,1.005345411835595754e-01,0.000000000000000000e+00,2.641092815576392354e+02
-9.503879153216374220e+00,4.166600933332750500e+00,6.357709535169027149e-01,9.974039698086810679e-01,7.199528459899393051e-02,0.000000000000000000e+00,2.656821718633999012e+02
-9.603084300067017409e+00,3.400819747877021459e+00,4.531698758263073001e-01,9.990569079092538329e-01,4.339694405382944764e-02,0.000000000000000000e+00,2.672294485174402894e+02
-9.688359216330812984e+00,2.646974361113328733e+00,2.680827807663937468e-01,9.998900210782709630e-01,1.476298554660309542e-02,0.000000000000000000e+00,2.687767251714806775e+02
-9.759417912180774479e+00,1.907055977947402337e+00,7.972169520691929634e-02,8.808491902946983254e-01,2.673097542801564433e-02,-4.726395655342977564e-01,2.703240018255210657e+02
-9.816223483989537257e+00,1.183121816368895907e+00,-1.123021483916484681e-01,8.586017000741579253e-01,2.421703666549421610e-02,-5.120689951201196077e-01,2.718712784795614539e+02
-9.858852020793367643e+00,4.772628495889448819e-01,-3.081779013246724319e-01,8.345889668483753576e-01,2.165330910737599257e-02,-5.504456291208008611e-01,2.734185551336018420e+02
-9.887356977222053089e+00,-2.084294613772338933e-01,-5.080946893149880239e-01,8.088603593861364294e-01,1.904506358068168773e-02,-5.876905687226433583e-01,2.749658317876422302e+02
-9.901769172049183609e+00,-8.718632789644763514e-01,-7.122416112552244494e-01,7.814687739147881951e-01,1.639766242822902897e-02,-6.237272417184045459e-01,2.765131084416826184e+02
-9.902096786971792852e+00,-1.510946500317409846e+00,-9.208077379502557225e-01,7.524705253870281885e-01,1.371654848636694700e-02,-6.584815598936918368e-01,2.780603850957230065e+02
-9.888012770256599637e+00,-2.129908082897003840e+00,-1.136337526246913754e+00,7.219252317248031625e-01,1.100723389739487364e-02,-6.918820713095650277e-01,2.796243950274525218e+02
-9.859310961870010104e+00,-2.719383300317021579e+00,-1.356819507582571083e+00,6.898956912776850192e-01,8.275288779613358681e-03,-7.238601071689310107e-01,2.811884049591820371e+02
-9.816175340287763618e+00,-3.277400142986820253e+00,-1.582588474874207396e+00,6.564477537470857493e-01,5.526329778247112551e-03,-7.543499229654547777e-01,2.827524148909115524e+02
-9.759262437203219065e+00,-3.802407972717232632e+00,-1.814254544469874775e+00,6.216501848410274089e-01,2.766008520725274887e-03,-7.832888336253912565e-01,2.843164248226410677e+02
-9.691970928183957668e+00,-4.279069984539983551e+00,-2.045069641555215423e+00,5.855745249369939120e-01,0.000000000000000000e+00,-8.106173423649849497e-01,2.858325664139024411e+02
-9.613744918271670770e+00,-4.723228122197083323e+00,-2.282615544060811796e+00,8.010230466218279943e-01,1.680977087608944570e-02,-5.983957807208056812e-01,2.873487080051638145e+02
-9.525343056326043722e+00,-5.133685952107913231e+00,-2.527554198282366826e+00,9.429866597446359133e-01,3.207743219650309452e-02,-3.312781276935125585e-01,2.888648495964251879e+02
-9.427511193793884914e+00,-5.509242699780353192e+00,-2.780547503370550011e+00,9.984418138771008477e-01,4.440234749862993768e-02,-3.376945127337916547e-02,2.903809911876865613e+02
-9.321276611566046810e+00,-5.848992675250190842e+00,-3.042214118420267788e+00,9.623011475947070847e-01,5.265384537069009441e-02,2.668371674009193950e-01,2.918971327789479346e+02
-9.208246361005995695e+00,-6.152622547835322919e+00,-3.313086269835446185e+00,8.378801759393996740e-01,5.607494484992718575e-02,5.429644659909178550e-01,2.934132743702093080e+02
-9.090319179973061381e+00,-6.420108793786436507e+00,-3.593652936623096039e+00,9.053473691449666072e-01,4.153717105648690455e-01,-8.837693841807206518e-02,2.949294159614706814e+02
-8.969393287539023873e+00,-6.651417266674762629e+00,-3.884403035963455597e+00,9.360722153546453539e-01,3.202522752089287938e-01,1.456203552547300495e-01,2.964455575527320548e+02
-8.840016902756257622e+00,-6.855884811348635921e+00,-4.204671795791042221e+00,9.061895982315796294e-01,2.043976334009164064e-01,3.701891672065157901e-01,2.980530021474328919e+02
-8.711667552270606407e+00,-7.017150336745846317e+00,-4.538210953940920334e+00,8.176343202152047684e-01,7.530893738781591074e-02,5.707895254430604970e-01,2.996604467421337290e+02
-8.585879447998271630e+00,-7.135908639024292732e+00,-4.886108165277327942e+00,7.843785636195371724e-01,1.014329603648742861e-01,6.119310610452609600e-01,3.012678913368345661e+02
-8.462487465581995494e+00,-7.214405024356030260e+00,-5.250397366820405587e+00,7.483923528909645073e-01,1.272038900111869819e-01,6.509424371525430741e-01,3.028753359315354032e+02
-8.294367221848933269e+00,-7.251498363303663375e+00,-5.788229032690058951e+00,0.000000000000000000e+00,9.983844631533018710e-01,-5.680196945670642344e-02,3.050836114631876512e+02
-8.123255147956582434e+00,-7.207789162631474511e+00,-6.379977505827727491e+00,4.081438505715209025e-02,9.978246683405279649e-01,5.175052872767943457e-02,3.072918869948398992e+02
-7.995745878853978361e+00,-7.138523732527167986e+00,-6.837925477627909032e+00,8.107982391399500000e-02,9.838443326184724835e-01,1.596069902250729367e-01,3.088811760806968891e+02
-7.863205781196623612e+00,-7.048341732718302666e+00,-7.318079285884357965e+00,1.202547528576992514e-01,9.566314911224695905e-01,2.653167627726186195e-01,3.104704651665538790e+02
-7.716085173415173415e+00,-6.933789921273064039e+00,-7.846881281184570511e+00,1.578122758224531907e-01,9.165521556103991552e-01,3.674580678744239770e-01,3.121493063977750353e+02
-7.560338199422208305e+00,-6.802379153213933272e+00,-8.392127223326728114e+00,1.932472512690127098e-01,8.641453910704877117e-01,4.646571240916265721e-01,3.138281476289961915e+02
-7.394989955479898569e+00,-6.657397250720348048e+00,-8.945812300539625284e+00,2.260830863773561072e-01,8.001160645898474089e-01,5.556066245465611786e-01,3.155069888602173478e+02
-7.219102499163750686e+00,-6.502137712291064631e+00,-9.499931634969415839e+00,2.558781471538286167e-01,7.253253641091970128e-01,6.390833200685656079e-01,3.171858300914385040e+02
-7.031774863893693883e+00,-6.339899515964379617e+00,-1.004648034523354561e+01,2.822316982334162616e-01,6.407792146972540737e-01,7.139644714727254593e-01,3.188646713226596603e+02
-6.832302375241352088e+00,-6.174201884369294291e+00,-1.057759293151104529e+01,3.047892924972596673e-01,5.476147482561699587e-01,7.792429497099214730e-01,3.205435125538808165e+02
-6.620349404980584218e+00,-6.009018704944424805e+00,-1.108602143750765734e+01,3.232475380382590080e-01,4.470850087367330139e-01,8.340407808473885298e-01,3.222223537851019728e+02
-6.395805466870603695e+00,-5.848582276126251145e+00,-1.156533496252271220e+01,3.373581783923914057e-01,3.405420986485929169e-01,8.776209537843587816e-01,3.239011950163231290e+02
-6.168900923566209116e+00,-5.702964360028160762e+00,-1.199253976015410217e+01,3.469314311961577135e-01,2.294189935806829062e-01,9.093973319920788390e-01,3.255105737869507720e+02
-5.930807335810377445e+00,-5.568915711798852364e+00,-1.238343842569798525e+01,3.518385404063183453e-01,1.152102693228961444e-01,9.289425360747919358e-01,3.271199525575784151e+02
-5.681530956027387447e+00,-5.449767316342521539e+00,-1.273283975679851387e+01,3.520135077923879363e-01,-5.479992337527160454e-04,9.359936912342581294e-01,3.287293313282060581e+02
-5.421057965266947498e+00,-5.348318196766404853e+00,-1.303549995989245502e+01,2.667117791109648306e-01,2.447389377469652225e-02,9.634645065623386184e-01,3.303387100988337011e+02
-5.149376134477762434e+00,-5.267101561290533418e+00,-1.328614913240988749e+01,1.791010901817740864e-01,4.928391228887925996e-02,9.825944715311299982e-01,3.319480888694613441e+02
-4.806339286888611895e+00,-5.203200262282458688e+00,-1.350320186048613991e+01,8.993987732009491032e-02,7.366727837904697707e-02,9.932179773654231658e-01,3.338834695940711299e+02
-4.444511746300691790e+00,-5.183856115767638606e+00,-1.361484870919523971e+01,0.000000000000000000e+00,9.741290686787916486e-02,9.952430484926604315e-01,3.358188503186809157e+02
-4.065230096919372649e+00,-5.214256745975001550e+00,-1.362225426599231781e+01,-0.000000000000000000e+00,-9.695091807975529663e-02,9.952881590151888558e-01,3.377542310432907016e+02
-3.750587666712653867e+00,-5.273906179037975761e+00,-1.356424932821565932e+01,-4.291282096655081070e-03,-2.252196961352708748e-01,9.742975281538440724e-01,3.393072186219453101e+02
-3.429096762832045897e+00,-5.362918039423971273e+00,-1.346189040027062589e+01,-8.509987894250357898e-03,-3.496795025689147796e-01,9.368296673276681474e-01,3.408602062005999187e+02
-3.101846538983061397e+00,-5.482551207314295461e+00,-1.332066192964611240e+01,-7.525276839494735026e-03,-2.888018937096377692e-01,9.573582591684978160e-01,3.424131937792545273e+02
-2.769939126941560303e+00,-5.634058639220505427e+00,-1.314604862362626569e+01,-6.509497914867861529e-03,-2.267319778936881802e-01,9.739344108497848262e-01,3.439661813579091358e+02
-2.434368849693026693e+00,-5.818000687092290235e+00,-1.294317339731633965e+01,-5.466844694432428445e-03,-1.637260063597008319e-01,9.864896899869861624e-01,3.455191689365637444e+02
-2.095891779686607670e+00,-6.033559334867070412e+00,-1.271643532408845978e+01,-4.401621693856015705e-03,-1.000440944872977578e-01,9.949722633745504696e-01,3.470721565152183530e+02
-1.719656436541794564e+00,-6.307948078144020698e+00,-1.244250881222756178e+01,-3.318226602569682160e-03,-3.594914811486257106e-02,9.993471109288953880e-01,3.487856200276899585e+02
-1.341162965039740085e+00,-6.620278046895464286e+00,-1.214813049824273605e+01,-2.221132131458964602e-03,2.829422165749335971e-02,9.995961702570690388e-01,3.504990835401615641e+02
-9.612806470526753522e-01,-6.968310354625329772e+00,-1.183922876656395928e+01,-1.114867550911389929e-03,9.242079070677156061e-02,9.957184112564252398e-01,3.522125470526331696e+02
-5.808526372057968290e-01,-7.349801120192832826e+00,-1.152173211965863864e+01,-3.999995304131439757e-06,1.561658166662475977e-01,9.877298404362626627e-01,3.539260105651047752e+02
-2.002259478775555157e-01,-7.762005791584884129e+00,-1.120007538342670372e+01,-3.431258075468773590e-06,1.373532654656963448e-01,9.905211155965775172e-01,3.556394740775763808e+02
1.812262517189362487e-01,-8.201187358368102309e+00,-1.087570592475606901e+01,-2.861279878233495316e-06,1.184910373819077628e-01,9.929541147710270188e-01,3.573529375900479863e+02
5.619307885075812692e-01,-8.659748692832568651e+00,-1.055089077159636801e+01,-2.290266830177746974e-06,9.958595345257659215e-02,9.950279583300892794e-01,3.590543796104893772e+02
9.457093455833223139e-01,-9.136495016522641066e+00,-1.022332691867569743e+01,-1.718425422772605465e-06,8.064485019431115453e-02,9.967418964421337346e-01,3.607558216309307682e+02
1.333768029407552902e+00,-9.627329737916200614e+00,-9.892969315126300955e+00,-1.145962446714471925e-06,6.167457713616028570e-02,9.980953093380336982e-01,3.624572636513721591e+02
1.727360412908423681e+00,-1.012816392643293639e+01,-9.559772932343662433e+00,-5.730849173465950719e-07,4.268199434934798892e-02,9.990877075345891978e-01,3.641587056718135500e+02
2.127787514159315663e+00,-1.063491656871905100e+01,-9.223692764353121021e+00,-0.000000000000000000e+00,2.367396997322678345e-02,9.997187320112477238e-01,3.658601476922549409e+02
2.535533583445737094e+00,-1.114371762281680667e+01,-8.883944065881557606e+00,-1.815685972366613410e-06,8.631051170094888869e-02,9.962672811885360247e-01,3.675615897126963318e+02
2.949398756985867731e+00,-1.165110399250827733e+01,-8.538262596367291124e+00,-3.624226711587903945e-06,1.486073979362688424e-01,9.888952630413665457e-01,3.692630317331377228e+02
3.342588423462223624e+00,-1.212465587781149878e+01,-8.205074390959897102e+00,-5.418505219052842428e-06,2.103194769713875589e-01,9.776316881000031156e-01,3.708643974005989890e+02
3.737539403584688280e+00,-1.259180071435951476e+01,-7.862019838093445401e+00,-7.191460618315129887e-06,2.712038983333718289e-01,9.625208805408472790e-01,3.724657630680602551e+02
4.132714988163751713e+00,-1.304994979342788675e+01,-7.506728284245819616e+00,-8.936115937843508848e-06,3.310210683394158027e-01,9.436223038035528310e-01,3.740671287355215213e+02
4.526606678621521773e+00,-1.349650553655859753e+01,-7.136829162810919946e+00,-1.064560556384511033e-05,3.895355928452018390e-01,9.210103266485138995e-01,3.756684944029827875e+02
4.917734209596916983e+00,-1.392886163892678120e+01,-6.749952010959553661e+00,-1.231320225525063741e-05,4.465172034807274315e-01,8.947739305789715880e-01,3.772698600704440537e+02
5.304645571245616864e+00,-1.434440321280307984e+01,-6.343726486499853934e+00,-1.393234361465973069e-05,5.017416637323274253e-01,8.650163597761567624e-01,3.788712257379053199e+02
5.685917031234639651e+00,-1.474050693111037447e+01,-5.915782384737111599e+00,-1.549665791116819078e-05,5.549916513083045233e-01,8.318547149214672309e-01,3.804725914053665861e+02
6.060153156431406174e+00,-1.511454117107361839e+01,-5.463749655332861721e+00,-1.699998915352857377e-05,6.060576133181894143e-01,7.954194924999823391e-01,3.820739570728278522e+02
6.426192913471150625e+00,-1.546412280321155208e+01,-4.986034206236189981e+00,-8.714160024713584786e-06,6.747554542646525544e-01,7.380400238874712526e-01,3.836753227402891184e+02
6.852627180316048339e+00,-1.584476598620036114e+01,-4.375523467366825514e+00,-3.585205410199641569e-07,7.380472384462178903e-01,6.747475630322210538e-01,3.855974869278406914e+02
7.263113200881379683e+00,-1.617641915855293178e+01,-3.722887193639668357e+00,7.999989140413108610e-06,7.954259202489223357e-01,6.060491773184206732e-01,3.875196511153922643e+02
7.655916718430301415e+00,-1.645663981733216730e+01,-3.030549172764672949e+00,6.003447275242286630e-06,8.086875497486893938e-01,5.882367268597092913e-01,3.894418153029438372e+02
7.966924648512291540e+00,-1.665238243903436910e+01,-2.431661717251357491e+00,4.003944591395868871e-06,8.215503719717091036e-01,5.701341826957058156e-01,3.910340298006260582e+02
8.263903247407750285e+00,-1.681867475241205057e+01,-1.814738760886966285e+00,2.002466653143350101e-06,8.340080464920200942e-01,5.517504674787980790e-01,3.926262442983082792e+02
8.544955837506911678e+00,-1.695562934355303852e+01,-1.182286698009100911e+00,0.000000000000000000e+00,8.460544322668346329e-01,5.330946422741880131e-01,3.942184587959905002e+02
8.808218883846324232e+00,-1.706360962701022288e+01,-5.371663102884469687e-01,-4.820826492293019128e-02,8.823206484469500177e-01,4.681711615612655364e-01,3.958106732936727212e+02
9.042735997120031399e+00,-1.714128316784550776e+01,9.015068059943497081e-02,-9.603787901766490387e-02,9.116568066446733010e-01,3.995705102891313198e-01,3.973379658955657874e+02
9.258414063368233471e+00,-1.719512178790685297e+01,7.221932443487324438e-01,-1.431131713361313007e-01,9.338324929755451587e-01,3.278315043644232096e-01,3.988652584974588535e+02
9.453736437202923781e+00,-1.722607299286158167e+01,1.355627507399246534e+00,-1.890643961725632649e-01,9.486735350473675110e-01,2.535176088587287602e-01,4.003925510993519197e+02
9.627175799145611279e+00,-1.723507574743859649e+01,1.987119587181593205e+00,-2.335306372001663133e-01,9.560633697694566058e-01,1.772125121850524065e-01,4.019198437012449858e+02
9.777194176827828542e+00,-1.722306042355476308e+01,2.613335613674714786e+00,-2.761626422186226892e-01,9.559439586337196149e-01,9.951554147806541961e-02,4.034471363031380520e+02
9.902242966297610138e+00,-1.719094874852770971e+01,3.230941750963258752e+00,-3.166255662481883837e-01,9.483162433044955986e-01,2.103695520210341341e-02,4.049744289050311181e+02
1.000076295343181343e+01,-1.713965375337543406e+01,3.836604218794807952e+00,-3.546016014287784457e-01,9.332401379573836975e-01,-5.760685003445976254e-02,4.065017215069241843e+02
1.007118433545412728e+01,-1.707007972120315031e+01,4.426989314136841713e+00,-3.897924730740328636e-01,9.108340584458703981e-01,-1.357981808105405142e-01,4.080290141088172504e+02
1.011192674255868873e+01,-1.698312213567787410e+01,4.998763432733319689e+00,-4.219217822837038057e-01,8.812739920112185876e-01,-2.129228983478907711e-01,4.095563067107103166e+02
1.012139925963915843e+01,-1.687966762959102240e+01,5.548593090660775218e+00,-4.507371767244026106e-01,8.447921148573285244e-01,-2.883752419941771894e-01,4.110835993126033827e+02
1.009800044812313047e+01,-1.676059393350962878e+01,6.073144945883826473e+00,-4.760123325391987792e-01,8.016749684599806525e-01,-3.615625868603486448e-01,4.126108919144964489e+02
1.004011836791177004e+01,-1.662676982451642616e+01,6.569085819809968640e+00,-4.975487318301110573e-01,7.522612089413860392e-01,-4.319100982591105309e-01,4.141381845163895150e+02
9.936736845941087637e+00,-1.646775264656588078e+01,7.062917721210705047e+00,-5.151772217625080197e-01,6.969389471894419374e-01,-4.988652464037193202e-01,4.157720594580900979e+02
9.788002885741864390e+00,-1.629317710406312969e+01,7.514299650448220014e+00,-4.711698250525133691e-01,6.409557283566804653e-01,-6.059478114891631018e-01,4.174059343997906808e+02
9.594408089335876966e+00,-1.610500362181958423e+01,7.921189812725629942e+00,-4.193704694032804325e-01,5.743727203469485287e-01,-7.030095216392946433e-01,4.190398093414912637e+02
9.357299738607826711e+00,-1.590548185542524706e+01,8.282312428480764765e+00,-3.606357834583678867e-01,4.982910355864810792e-01,-7.884452267249042468e-01,4.206736842831918466e+02
9.077997947890146690e+00,-1.569686923608816187e+01,8.596392056833732198e+00,-2.959370872987276413e-01,4.139688686939323459e-01,-8.608420390031479297e-01,4.223075592248924295e+02
8.757795644224593445e+00,-1.548143082920865865e+01,8.862153605023312508e+00,-2.263443299816221832e-01,3.228006900576384508e-01,-9.190026979204383162e-01,4.239414341665930124e+02
8.397958547933011886e+00,-1.526143919286855777e+01,9.078322337841456147e+00,-1.530083961310036433e-01,2.262941859352027851e-01,-9.619653695049218411e-01,4.255753091082935953e+02
7.999725153497335484e+00,-1.503917423623672711e+01,9.243623887065785638e+00,-7.714207405483466951e-02,1.260453262576606281e-01,-9.890195529615819492e-01,4.272091840499941782e+02
7.522308426245650104e+00,-1.479757074830373220e+01,9.361735667369078584e+00,-0.000000000000000000e+00,2.371197228180339442e-02,-9.997178313761895252e-01,4.289872703554020745e+02
6.999187750117194184e+00,-1.455903488812601054e+01,9.414004845161844770e+00,-7.892990921127130202e-03,0.000000000000000000e+00,-9.999678497920404530e-01,4.307653566608099709e+02
6.433827093848334400e+00,-1.432523127063161361e+01,9.406855090048614088e+00,-2.872728885472881633e-01,3.020151847007489232e-02,-9.573714826484192031e-01,4.325434429662178673e+02
5.847348468848029945e+00,-1.410202564405801873e+01,9.352734982013616971e+00,-5.434469747315679999e-01,5.796336819077416852e-02,-8.374387342386809818e-01,4.342762899229354048e+02
5.231375785153635327e+00,-1.388297723329946365e+01,9.262370934339983819e+00,-7.557215732820177223e-01,8.104295423911778151e-02,-6.498576330580629890e-01,4.360091368796529423e+02
4.591305905712919966e+00,-1.366746682743067076e+01,9.144446592422283970e+00,-6.115149142376264946e-01,9.641599621263295672e-02,-7.853352566502768140e-01,4.377419838363704798e+02
3.990288040198068931e+00,-1.347224203292306122e+01,9.018808608348820144e+00,-4.432229302732431653e-01,1.079915881966053010e-01,-8.898815937847283086e-01,4.393273710104307952e+02
3.380154716045756125e+00,-1.327758039984603045e+01,8.881445188355977294e+00,-2.574739619737981822e-01,1.153138048074176941e-01,-9.593789060240146549e-01,4.409127581844911106e+02
2.765537183567353896e+00,-1.308246732141498825e+01,8.736596144902780026e+00,-6.158395249877657296e-02,1.180942434069155444e-01,-9.910898881866269106e-01,4.424981453585514259e+02
2.151077249182321349e+00,-1.288591470758275470e+01,8.588501342512921966e+00,1.367316977029822134e-01,1.162233860325112417e-01,-9.837655042636471725e-01,4.440835325326117413e+02
1.541427208660014259e+00,-1.268696103792622765e+01,8.441400668226508586e+00,3.296620231152499469e-01,1.097749153141582001e-01,-9.376942030747426049e-01,4.456689197066720567e+02
9.412497802503652089e-01,-1.248467141425146387e+01,8.299534002051704107e+00,5.096081590780147108e-01,9.900281355549056528e-02,-8.546905680455579857e-01,4.472543068807323721e+02
3.552180377038345327e-01,-1.227813761291672101e+01,8.167141187416417480e+00,6.694826561777903473e-01,8.433135883447590020e-02,-7.380238444599726000e-01,4.488396940547926874e+02
-2.119846568189637237e-01,-1.206647813687298232e+01,8.048462001620162454e+00,8.029886460050812413e-01,6.633841231103834724e-02,-5.922891603235169722e-01,4.504250812288530028e+02
-3.633576459845466733e-01,-1.200794008318555761e+01,8.018473262662743295e+00,9.048678568021243374e-01,4.573265567638402918e-02,-4.232265184620244147e-01,4.508570014242857837e+02
-9.706016423430400275e-01,-1.176008471914137843e+01,7.907175118742839182e+00,9.711077085916172136e-01,2.332567623659526079e-02,-2.374946970797414125e-01,4.526471057173492909e+02
-1.536774600762583320e+00,-1.150195595541244842e+01,7.819559806516485523e+00,9.990993339585199084e-01,0.000000000000000000e+00,-4.240897172840243229e-02,4.544372100104127981e+02
-2.055607671009347381e+00,-1.123202073734744388e+01,7.752392570060225196e+00,9.990993332535061944e-01,-0.000000000000000000e+00,-4.240897169847657883e-02,4.562273143034763052e+02
-2.520516899186238113e+00,-1.094885769238396023e+01,7.698959493938624554e+00,6.921409340576635261e-01,-0.000000000000000000e+00,-7.217609904965988088e-01,4.580174185965398124e+02
-2.924751239226752730e+00,-1.065112370830476607e+01,7.650807051695523775e+00,5.299993955616641179e-04,-0.000000000000000000e+00,-9.999988595503095379e-01,4.598075228896033195e+02
-3.290772895299223233e+00,-1.030071284089902584e+01,7.595078398079083470e+00,4.169530785743756907e-01,4.529412474209571632e-02,-9.077976495522456224e-01,4.617980492884489081e+02
-3.557222814837522673e+00,-9.928397671142445091e+00,7.532567732133947480e+00,7.566728811008494038e-01,8.225587836747591530e-02,-6.485970409135887182e-01,4.637885756872944967e+02
-3.718393354753642743e+00,-9.534565801857494804e+00,7.461032588212701988e+00,7.550757964904738495e-01,2.554995927611568990e-02,-6.551379557806323861e-01,4.657791020861400852e+02
-3.776130186796758714e+00,-9.168583911628099159e+00,7.388890642479554849e+00,6.590534516584888314e-01,1.078671533496725621e-01,-7.443193031803649884e-01,4.675486979039659445e+02
-3.758128922458704224e+00,-8.790289938544928461e+00,7.308085118422749993e+00,5.472469119253028369e-01,1.876009636281161796e-01,-8.156743810096410696e-01,4.693182937217918038e+02
-3.685334029058893623e+00,-8.453292619336618685e+00,7.230568819616686405e+00,4.223338967758962226e-01,2.628417910506486432e-01,-8.674942492676822603e-01,4.708566169981860412e+02
-3.565601437251109562e+00,-8.110726900566664455e+00,7.146287429359999166e+00,2.873060232881916587e-01,3.317876362785645017e-01,-8.985378196802467077e-01,4.723949402745802786e+02
-3.402145230312987767e+00,-7.764046026591794991e+00,7.054891838499169232e+00,1.453971637443779996e-01,3.927872558892319677e-01,-9.080615818249158089e-01,4.739332635509745160e+02
-3.198192649394235865e+00,-7.414685348538538889e+00,6.956032984487854343e+00,5.999996079955432846e-06,4.443797096684325432e-01,-8.958374147125192088e-01,4.754715868273687533e+02
-2.956968599215968219e+00,-7.064092085904869478e+00,6.849260346346309980e+00,-2.306513462730577085e-02,3.985177464148167426e-01,-9.168694592773080076e-01,4.770099101037629907e+02
-2.660105485215126908e+00,-6.689332970626399089e+00,6.725182116275441935e+00,-4.606527057889397980e-02,3.514291765664014910e-01,-9.350794216016892202e-01,4.786557788078009708e+02
-2.325947879784703964e+00,-6.316775570411754970e+00,6.589692534386466960e+00,-6.892361564629416459e-02,3.032589350963585395e-01,-9.504112549255870901e-01,4.803016475118389508e+02
-1.958702995211580866e+00,-5.948356795046495726e+00,6.441808363119350567e+00,-9.156981413887105292e-02,2.541552858707411544e-01,-9.628177708172112048e-01,4.819475162158769308e+02
-1.562597864939210712e+00,-5.585988541885898329e+00,6.280546457924525150e+00,-1.139341633962921291e-01,2.042693653700792256e-01,-9.722607843482423684e-01,4.835933849199149108e+02
-1.141879278231024974e+00,-5.231557592923738120e+00,6.104923774649922308e+00,-1.359478282856954878e-01,1.537547175801981247e-01,-9.787112315720272182e-01,4.852392536239528908e+02
-6.377844441401254727e-01,-4.841406098265729874e+00,5.885270962179656173e+00,-1.575430530285201469e-01,1.027668214811527370e-01,-9.821492589439214660e-01,4.871106136734319989e+02
-1.113500452470272128e-01,-4.468361057179120799e+00,5.641757190649857812e+00,-1.786533697062624437e-01,5.146261258608860606e-02,-9.825642844095885398e-01,4.889819737229111070e+02
4.305748172581231881e-01,-4.115315474964721609e+00,5.373127758816000465e+00,-1.992138028046138709e-01,0.000000000000000000e+00,-9.799550299737879167e-01,4.908533337723902150e+02
9.816997248414386368e-01,-3.784895516260813775e+00,5.078858650568227162e+00,-2.153716596713729781e-01,-2.002182468751991197e-06,-9.765311301671198985e-01,4.927246938218693231e+02
1.480654223371024925e+00,-3.507975690577957995e+00,4.792942746719751845e+00,-2.314707588939864946e-01,-4.003818211357638265e-06,-9.728408337134496486e-01,4.944086970505193221e+02
1.978049233479316493e+00,-3.251206585938354987e+00,4.487901593010440671e+00,-2.475067112427223326e-01,-6.004361501903186632e-06,-9.688851468740005135e-01,4.960927002791693212e+02
2.469869531051303024e+00,-3.016167027101497311e+00,4.163630415765647186e+00,-2.634751446801240626e-01,-8.003266912316206219e-06,-9.646651481477370726e-01,4.977767035078193203e+02
2.952081693802316664e+00,-2.804411557031186941e+00,3.820024592460224966e+00,-2.793717055426080398e-01,-9.999989460024915751e-06,-9.601819879695102644e-01,4.994607067364693194e+02
3.421098753966447248e+00,-2.617259032861850354e+00,3.458605268795519105e+00,-3.547642754181097868e-01,-2.630757755957549224e-02,-9.345845174466091976e-01,5.011447099651193184e+02
3.874248075624288301e+00,-2.455584991556778007e+00,3.084144962992218630e+00,-4.276625492563340125e-01,-5.242018957211361935e-02,-9.024161277868031350e-01,5.028287131937693175e+02
4.309311655545794650e+00,-2.320038535378230016e+00,2.703041912017242865e+00,-4.975539921374549923e-01,-7.816424278913521040e-02,-8.639029899579134808e-01,5.045127164224193166e+02
4.724063185519088215e+00,-2.211255472614996886e+00,2.321694405026759167e+00,-5.639472095602890978e-01,-1.033587352566131129e-01,-8.193158833296516619e-01,5.061967196510693157e+02
5.076452723841471837e+00,-2.136146411786514765e+00,1.985710473995928815e+00,-6.263754022335834559e-01,-1.278265288544903067e-01,-7.689682919331783939e-01,5.077005367194950054e+02
5.411294757239010877e+00,-2.081121758029521818e+00,1.658262828607890649e+00,-6.843996479583034365e-01,-1.513955946837269029e-01,-7.132142004936273816e-01,5.092043537879206951e+02
5.727150441431088090e+00,-2.046562797309368076e+00,1.343461640229984821e+00,-7.376119875368718493e-01,-1.739002225370667731e-01,-6.524456057360277228e-01,5.107081708563463849e+02
6.022802793357821649e+00,-2.032711600308984679e+00,1.044508077813188773e+00,-7.856382930184034885e-01,-1.951821859524037750e-01,-5.870897604546322368e-01,5.122119879247720746e+02
6.297485028274848240e+00,-2.039541106524892289e+00,7.627853647246002344e-01,-8.281408981173177253e-01,-2.150918546593917069e-01,-5.176061697132658956e-01,5.137158049931977075e+02
6.550656739634750814e+00,-2.066889106078837912e+00,4.987676931729398966e-01,-8.648209723125533932e-01,-2.334892465991560417e-01,-4.444833602863401123e-01,5.152196220616233404e+02
6.794044795834707884e+00,-2.118674217317710440e+00,2.395257572260529322e-01,-8.954206219344170714e-01,-2.502450121210860745e-01,-3.682354460443683086e-01,5.168124249110093160e+02
7.010632689279514551e+00,-2.194342127119249586e+00,2.373829447594933383e-03,-9.197247034633164731e-01,-2.652413434367635325e-01,-2.893985134230204204e-01,5.184052277603952916e+02
7.199745078281952537e+00,-2.293678298973378382e+00,-2.120946831825938350e-01,-9.375623362859477616e-01,-2.783728029358326639e-01,-2.085268523807997931e-01,5.199980306097812672e+02
7.360707655687889428e+00,-2.416464492828333199e+00,-4.032865332606873632e-01,-8.851352005091986941e-01,2.537197708297864521e-02,4.646395803182720718e-01,5.215908334591672428e+02
7.493172623582239567e+00,-2.561628723984197720e+00,-5.720278314427182931e-01,-9.326402006502990671e-01,1.780777216001360949e-02,3.603652860383348977e-01,5.231836363085532184e+02
7.597456424996085644e+00,-2.726397735148006429e+00,-7.219832349436069441e-01,-9.678463806872210640e-01,1.000873530664363187e-02,2.513388322724821600e-01,5.247764391579391940e+02
7.674232664503536583e+00,-2.907150893059079699e+00,-8.582367274415294567e-01,-9.902894792570465787e-01,2.077712412221741772e-03,1.389979510057136325e-01,5.263692420073251697e+02
7.724212762584314440e+00,-3.100271659866798313e+00,-9.858723889976891419e-01,-9.996735378510012149e-01,-5.880710185495411496e-03,2.482408040359950288e-02,5.279620448567111453e+02
7.747866083455043906e+00,-3.319031286382222223e+00,-1.120072766132257369e+00,-9.958748034407524097e-01,-1.376158475326136853e-02,-8.967716909222922528e-02,5.296838974865254386e+02
7.739887935245599593e+00,-3.543898837623691733e+00,-1.256734043197182515e+00,-9.789433609085624877e-01,-2.146098598945257035e-02,-2.029958674765814375e-01,5.314057501163397319e+02
7.701245306517963130e+00,-3.769950118800920347e+00,-1.402712333125149202e+00,-9.810007409085622632e-01,-1.981899813291013168e-02,-1.929838170351098059e-01,5.331276027461540252e+02
7.632639379112073463e+00,-3.992234530697012840e+00,-1.564793249836617051e+00,-9.829529864448335319e-01,-1.817488654632406359e-02,-1.829510861567904545e-01,5.348494553759683185e+02
7.534666691086127521e+00,-4.205789508725745307e+00,-1.749727063650290626e+00,-9.847998883842283835e-01,-1.652882739196730177e-02,-1.728987498258159339e-01,5.365713080057826119e+02
7.489080646003723807e+00,-4.287855445648256492e+00,-1.829306337336540800e+00,-9.865412488794554902e-01,-1.488099704054697721e-02,-1.628278851254481852e-01,5.372547444459768258e+02
7.374480985954420476e+00,-4.467714634010016894e+00,-2.021983993715981587e+00,-9.881768813844264976e-01,-1.323157205222959612e-02,-1.527395711217141017e-01,5.388052618538119987e+02
7.243819595135434497e+00,-4.637242556689907147e+00,-2.232438687934760413e+00,-9.897066106741573277e-01,-1.158072915777243195e-02,-1.426348887480861638e-01,5.403557792616471716e+02
7.101192977513739457e+00,-4.796844263527086483e+00,-2.456487772660262525e+00,-9.911302728634667769e-01,-9.928645239636976760e-03,-1.325149206899647325e-01,5.419062966694823444e+02
6.950692718198596687e+00,-4.946947623806559058e+00,-2.689948509910227603e+00,-9.924477154244704113e-01,-8.275497313086381188e-03,-1.223807512689756710e-01,5.434568140773175173e+02
6.796405427552603129e+00,-5.088003301826452329e+00,-2.928638098933913358e+00,-9.936587972028682048e-01,-6.621462507268837012e-03,-1.122334663270941058e-01,5.450073314851526902e+02
6.642918034540434391e+00,-5.220066089029460343e+00,-3.167575636008168605e+00,-9.947633884330236986e-01,-4.966718046288971095e-03,-1.020741531106072464e-01,5.465526432797223606e+02
6.493743600549111150e+00,-5.344127653901891151e+00,-3.403420826516415421e+00,-9.957613707518334634e-01,-3.311441230269101133e-03,-9.190390015392814471e-02,5.480979550742920310e+02
6.352913062531840183e+00,-5.461060312051705168e+00,-3.631822239330264157e+00,-9.966526372113855281e-01,-1.655809416402413258e-03,-8.172379716327209109e-02,5.496432668688617014e+02
6.224473825861192466e+00,-5.572479630948842910e+00,-3.847981843266219393e+00,-9.974370922904048919e-01,-0.000000000000000000e+00,-7.153493490020845780e-02,5.511885786634313718e+02
6.112468835000083978e+00,-5.680384089918042889e+00,-4.046878363508334076e+00,-8.786870335533891740e-01,-4.080246465295668812e-01,2.478366092612661331e-01,5.527338904580010421e+02
6.015987158709017457e+00,-5.794798871021534126e+00,-4.234648636732449845e+00,-5.116335055995741010e-01,-7.007479611520550655e-01,4.971734615697119275e-01,5.543951168303975692e+02
5.950175496889958282e+00,-5.910118033457571585e+00,-4.388253763738464208e+00,-0.000000000000000000e+00,-7.954506429652807853e-01,6.060167279919072003e-01,5.560563432027940962e+02
5.920599700738928384e+00,-6.029166110873045881e+00,-4.502475751378198332e+00,-9.983881034639610075e-01,-0.000000000000000000e+00,-5.673794905025818236e-02,5.577175695751906233e+02
5.932595898151062030e+00,-6.154682442409080245e+00,-4.575749343851726714e+00,-8.801591130455603817e-01,-3.112150199571598330e-01,3.584175596659747720e-01,5.593787959475871503e+02
5.991329788385703736e+00,-6.290461037450879367e+00,-4.609454818583032853e+00,-5.126802064654525370e-01,-5.342977610100468899e-01,6.720735885895970929e-01,5.610568720520356010e+02
6.095178648746985672e+00,-6.432388842016687924e+00,-4.606052307028371651e+00,-1.699997626480445192e-05,-6.060741538053741051e-01,7.954068894609166440e-01,5.626845033161424681e+02
6.245741713095959824e+00,-6.585276917647092887e+00,-4.570250690151858919e+00,-2.941603247288105405e-01,-4.959581013577614717e-01,8.170026101883051117e-01,5.643121345802493352e+02
6.447876765188794934e+00,-6.753156905179035441e+00,-4.502098643389390809e+00,-5.591487535151064003e-01,-3.366864117566035208e-01,7.576232121459157698e-01,5.659741937446606244e+02
6.697320413016803364e+00,-6.932599234926258625e+00,-4.402353336226386027e+00,-7.687185899005269940e-01,-1.440448951611679740e-01,6.231539117430768826e-01,5.676362529090719136e+02
6.991112677016855237e+00,-7.122769774833332512e+00,-4.270883904043537349e+00,-9.020988270279127752e-01,6.287324751936342049e-02,4.269223126316195605e-01,5.692983120734832028e+02
7.326305383939502036e+00,-7.322816761143424280e+00,-4.107559725164105835e+00,-9.460698451412695720e-01,2.635598309939504724e-01,1.883774498249298490e-01,5.709603712378944920e+02
7.699962213013109569e+00,-7.531870861360874692e+00,-3.912250421856396709e+00,-8.962736280310129588e-01,4.381243293420964968e-01,-6.883789462653634728e-02,5.726224304023057812e+02
8.109143093987050577e+00,-7.749166462443010772e+00,-3.685073003592687968e+00,-7.892423660360413651e-01,6.690594625737242285e-02,6.104245096726237385e-01,5.742844895667170704e+02
8.526864576132348716e+00,-7.962343925047298931e+00,-3.441247952990195813e+00,-8.518453034721581441e-01,5.965627409129964365e-02,5.203832317759888859e-01,5.758615011777494601e+02
8.970030984821196540e+00,-8.181829616216797163e+00,-3.171292723215952680e+00,-9.041586684695198661e-01,5.168600757550517039e-02,4.240561977523805703e-01,5.774385127887818498e+02
9.436233802445094909e+00,-8.407255346108462035e+00,-2.875907056757275537e+00,-9.455505725484681934e-01,4.309142037458968399e-02,3.226069500853476768e-01,5.790155243998142396e+02
9.923069608208095360e+00,-8.638239277273283889e+00,-2.555790871435901668e+00,-9.755210458083786174e-01,3.397632701381671227e-02,2.172608993528545029e-01,5.805925360108466293e+02
1.042814011213195258e+01,-8.874385950493422826e+00,-2.211644255584839236e+00,-9.937080750365289150e-01,2.445082899702161888e-02,1.092905236903628785e-01,5.821695476218790191e+02
1.094905218900616184e+01,-9.115286310761723243e+00,-1.844167463224350101e+00,-9.998919759345044067e-01,1.462998501631854707e-02,0.000000000000000000e+00,5.837465592329114088e+02
