4.414130534495445346e+00,8.942305005545934549e+00,2.678158663487081093e+00,-8.978048920799472921e-01,7.646824378700474434e-02,-4.337014911788947824e-01,1.248017164153951200e+02
4.128895749677502280e+00,8.701097351746572173e+00,3.170298679608651859e+00,-8.629610931471517477e-01,7.416833345428397450e-02,-4.997951680721581247e-01,1.263145983075703072e+02
3.829843128337590663e+00,8.470426358129998334e+00,3.644148924136894507e+00,-8.232952719163704192e-01,7.145398800453733879e-02,-5.630961044438403951e-01,1.278274801997454944e+02
3.519979430169005497e+00,8.252645591370059819e+00,4.099506040279276675e+00,-7.790290723681012608e-01,6.834037462017285292e-02,-6.232505897338126433e-01,1.293403620919206674e+02
3.202337027791759105e+00,8.050092865864588276e+00,4.536166788577599362e+00,-7.304098442692613657e-01,6.484489149651384565e-02,-6.799224951734420541e-01,1.308532439840958546e+02
2.879973869811457643e+00,7.865090123430650060e+00,4.953928048193479761e+00,-6.777092610050395871e-01,6.098707062175647703e-02,-7.327951519807884839e-01,1.323661258762710418e+02
2.555973443638276166e+00,7.699943313147771029e+00,5.352586818193240781e+00,-6.212218014998746041e-01,5.678846863403960027e-02,-7.815731208102436600e-01,1.338790077684462290e+02
2.233444738066204582e+00,7.556942271350111540e+00,5.731940218832204614e+00,-5.612631047118560312e-01,5.227254636563311713e-02,-8.259838425703722731e-01,1.353918896606214162e+02
1.915522205612766093e+00,7.438360601768483349e+00,6.091785492838362792e+00,-4.981682058965949400e-01,4.746453774744382320e-02,-8.657791613869482150e-01,1.369047715527966034e+02
1.605365724619370660e+00,7.346455555823185435e+00,6.431920006695431624e+00,-4.322896644969278501e-01,4.239130880646608396e-02,-9.007367112028601408e-01,1.384176534449717906e+02
1.306160561112577501e+00,7.283467913068586874e+00,6.752141251925408483e+00,-3.639955941199917167e-01,3.708120754413164050e-02,-9.306611582687187578e-01,1.399305353371469778e+02
1.021117330426547953e+00,7.251621861790426671e+00,7.052246846370597844e+00,-2.936676056099062349e-01,3.156390553443598479e-02,-9.553852925833411502e-01,1.414434172293221650e+02
7.445868295087758604e-01,7.254437679165853581e+00,7.341378680494142550e+00,-2.216986747094622234e-01,2.587023212695041541e-02,-9.747709621873168473e-01,1.430104589938938489e+02
4.910296350643356122e-01,7.296704881725943892e+00,7.607901243511500766e+00,-1.484909462251836343e-01,2.003200218111740247e-02,-9.887098450908657910e-01,1.445775007584655327e+02
2.642113554185290814e-01,7.380918737606246616e+00,7.851584115992409352e+00,-7.445348696453935045e-02,1.408183829433862395e-02,-9.971240545242712194e-01,1.461445425230372166e+02
6.792750610444686643e-02,7.509554240856360252e+00,8.072197033941513666e+00,-0.000000000000000000e+00,8.052988517103476865e-03,-9.999665741302532496e-01,1.477115842876089005e+02
-9.403981199201297270e-02,7.684514322679904197e+00,8.270848486481929385e+00,2.645883429299849404e-02,-3.604264902265709447e-02,-9.989989276972984777e-01,1.492786260521805843e+02
-2.179736978120088708e-01,7.906578390185609706e+00,8.451324304423200928e+00,5.284767139284701765e-02,-8.004293464461913199e-02,-9.953884931236486322e-01,1.508456678167522682e+02
-3.025031624150468779e-01,8.175041365286103812e+00,8.617461808816671009e+00,7.909670170042037984e-02,-1.238314690392284950e-01,-9.891448220846599249e-01,1.524127095813239521e+02
-3.508894182117019978e-01,8.487369220224813660e+00,8.770523959160470895e+00,1.051364854977059060e-01,-1.672924131244902524e-01,-9.802844321570185482e-01,1.539797513458956360e+02
-3.687356947396925877e-01,8.840137188765071485e+00,8.910486574342947108e+00,1.308981366322461148e-01,-2.103107944677680974e-01,-9.688307631149003507e-01,1.555467931104673198e+02
-3.616829553014387910e-01,9.229951308651061836e+00,9.037325562350593700e+00,1.563135047367802954e-01,-2.527728114142484550e-01,-9.548141149186625265e-01,1.571138348750390037e+02
-3.354098208733758968e-01,9.653448605073721822e+00,9.151016920430327772e+00,1.813153555023845898e-01,-2.945661341181041171e-01,-9.382715675597443905e-01,1.586808766396106876e+02
-2.952283151023735175e-01,1.011138814563624599e+01,9.252292994948911442e+00,2.058375485285607598e-01,-3.355802016805821686e-01,-9.192468829737804326e-01,1.602612433546739510e+02
-2.471692662763528281e-01,1.059703037798525038e+01,9.340064247089042482e+00,2.298152122801234154e-01,-3.757065146095285302e-01,-8.977903892812639786e-01,1.618416100697372144e+02
-1.972160910446048854e-01,1.110699628798494665e+01,9.414306183231312630e+00,2.531849156883770879e-01,-4.148389218272125478e-01,-8.739588476617502488e-01,1.634219767848004778e+02
-1.513911280487100774e-01,1.163793991928914018e+01,9.474994403346661542e+00,2.758848359429245667e-01,-4.528739014676980146e-01,-8.478153022134322647e-01,1.650023434998637413e+02
-1.133570283013379115e-01,1.218667567567295862e+01,9.522653226639288704e+00,2.978549220304967937e-01,-4.897108347213858237e-01,-8.194289131948488958e-01,1.665827102149270047e+02
-8.201614238789892153e-02,1.275028809347101166e+01,9.558904313385898632e+00,3.190370535884070602e-01,-5.252522720026856495e-01,-7.888747740893683469e-01,1.681630769299902681e+02
-5.390601399561100598e-02,1.332597861447643339e+01,9.585918028229670540e+00,3.393751946525839780e-01,-5.594041907370083111e-01,-7.562337129758202048e-01,1.697434436450535316e+02
-2.559693701296969492e-02,1.391092987444740814e+01,9.605864799675421395e+00,3.588155418935968788e-01,-5.920762440853672981e-01,-7.215920787301187689e-01,1.713238103601167950e+02
5.164962287322077961e-03,1.450235580712833183e+01,9.620336624510576584e+00,3.229890445555960166e-01,-5.989463529045001566e-01,-7.327614505692066071e-01,1.729041770751800584e+02
3.831539798037771755e-02,1.509756009948330480e+01,9.629768576232569544e+00,2.866924405694454281e-01,-6.049446985458846182e-01,-7.428642919285066704e-01,1.744845437902433218e+02
7.261607277591307363e-02,1.569389893226721178e+01,9.634017282582240327e+00,2.499785592381796873e-01,-6.100625506299954814e-01,-7.518858984187363204e-01,1.760649105053065853e+02
1.067981011794496837e-01,1.628873536436074332e+01,9.632939407083330963e+00,2.129008371748329909e-01,-6.142924603087822621e-01,-7.598131393566428526e-01,1.776452772203698487e+02
1.395620265815220584e-01,1.687943948310716635e+01,9.626391650035071024e+00,1.755132405301283449e-01,-6.176282711052184515e-01,-7.666344768735490200e-01,1.792256439354331121e+02
1.695778386606104637e-01,1.746338855457716122e+01,9.614230749504573126e+00,1.378701864498234897e-01,-6.200651278721323045e-01,-7.723399827059432843e-01,1.808060106504963755e+02
1.954849910996875328e-01,1.803796717376037151e+01,9.596313482319052568e+00,1.000264638759830460e-01,-6.215994838573334347e-01,-7.769213526437450668e-01,1.823863773655596390e+02
2.152755257319685089e-01,1.857612487728515660e+01,9.573773532183148305e+00,6.203715380738106938e-02,-6.222291058647699824e-01,-7.803719186152442422e-01,1.838965192883133568e+02
2.291172281011161216e-01,1.910161984767407262e+01,9.545904521410511379e+00,2.395754913502240804e-02,-6.219530775042170223e-01,-7.826866583911489261e-01,1.854066612110670746e+02
2.357932710215913108e-01,1.961228316923295623e+01,9.512585752417052731e+00,-1.415692583061425522e-02,-6.207718005247816473e-01,-7.838622028936359509e-01,1.869168031338207925e+02
2.340624223899716860e-01,2.010595226706686134e+01,9.473696561986876929e+00,-5.225079602355988534e-02,-6.186869942302801739e-01,-7.838968410997737557e-01,1.884269450565745103e+02
2.226590599107710067e-01,2.058047102169915732e+01,9.429116322035598685e+00,-9.026861636023883473e-02,-6.157016929773433400e-01,-7.827905225321866167e-01,1.899370869793282282e+02
2.002931860510028250e-01,2.103368988363148873e+01,9.378724440373526150e+00,-1.281550524338131714e-01,-6.118202417598794796e-01,-7.805448573333297890e-01,1.914472289020819460e+02
1.656504432234116309e-01,2.146346598784375814e+01,9.322400361468691443e+00,-1.658549610476182379e-01,-6.070482898863129861e-01,-7.771631139232572094e-01,1.929573708248356638e+02
1.173921291982870374e-01,2.186766326823321549e+01,9.260023567209707096e+00,-2.033134704705427676e-01,-6.013927827587797204e-01,-7.726502142442752685e-01,1.944675127475893817e+02
5.415521274377634031e-02,2.224415257199175500e+01,9.191473577668432426e+00,-2.404760602976152850e-01,-5.948619517662254719e-01,-7.670127265993759158e-01,1.959776546703430995e+02
-2.544765050538955534e-02,2.259081177392050321e+01,9.116629951862481818e+00,-2.772886407996254521e-01,-5.874653023060867341e-01,-7.602588560948483343e-01,1.974877965930968173e+02
-1.228281019508441207e-01,2.290552589068082057e+01,9.035372288517534045e+00,-3.136976316463486736e-01,-5.792135999519593126e-01,-7.523984327009382023e-01,1.989979385158505352e+02
-2.394220637052947021e-01,2.318618719498081049e+01,8.947580226829456862e+00,-3.496500398888479078e-01,-5.701188547873504708e-01,-7.434428969478947824e-01,2.005080804386042530e+02
-3.766897220390839074e-01,2.343069532969642310e+01,8.853133447226225528e+00,-3.850935370873992958e-01,-5.601943039282750725e-01,-7.334052832781767783e-01,2.020182223613579708e+02
-5.361155105986920022e-01,2.363695742192628657e+01,8.751911672129658371e+00,-4.199765354728211553e-01,-5.494543922600975128e-01,-7.223002010789976168e-01,2.035283642841116887e+02
-7.181650287763251539e-01,2.380336293061267838e+01,8.643714768057574105e+00,-2.986539060027746939e-01,-5.773301820899950920e-01,-7.599300660442835920e-01,2.050385062068654065e+02
-9.212349134186227362e-01,2.392925120806937400e+01,8.528182848231001145e+00,-1.722803761576005011e-01,-5.954419999853507450e-01,-7.847077778672809645e-01,2.065486481296191243e+02
-1.142685337324330419e+00,2.401442591041715957e+01,8.404876173510475112e+00,-4.299320395488334667e-02,-6.034835382950518579e-01,-7.962142949116118862e-01,2.080587900523728422e+02
-1.396813330809048237e+00,2.405868649418173888e+01,8.263936841753290352e+00,8.702107858375952854e-02,-6.013187983962540173e-01,-7.942550186044825544e-01,2.096707596792464301e+02
-1.666534348856743231e+00,2.405305148343826360e+01,8.112614239675146166e+00,2.155636429056352332e-01,-5.889843903941661685e-01,-7.788630840720257575e-01,2.112827293061200180e+02
-1.948467859119802359e+00,2.399721069855624123e+01,7.950347211426885607e+00,3.404605492752357798e-01,-5.666889140566566674e-01,-7.502987998612793419e-01,2.128946989329936059e+02
-2.239237742649307972e+00,2.389083471778214829e+01,7.776574679912520160e+00,4.595995113955018141e-01,-5.348094314391391713e-01,-7.090452462074303686e-01,2.145066685598671938e+02
-2.535472343272092921e+00,2.373357489960966049e+01,7.590735650834020909e+00,4.898930715208476006e-01,-5.554896580358100744e-01,-6.718883972000754268e-01,2.161186381867407817e+02
-2.834527335696785055e+00,2.352565127397602041e+01,7.392675413800120054e+00,5.188511784169956842e-01,-5.746556147585337726e-01,-6.328999755749415979e-01,2.177306078136143697e+02
-3.135199342990646620e+00,2.326844580821627417e+01,7.183051740507915284e+00,5.463948923180587114e-01,-5.922550552637985133e-01,-5.921862639104329418e-01,2.193425774404879576e+02
-3.436989274667060279e+00,2.296392256608862326e+01,6.962928682941634584e+00,5.724491290741240412e-01,-6.082400035056096943e-01,-5.498582478773602622e-01,2.209545470673615455e+02
-3.739374896359057843e+00,2.261404242673466314e+01,6.733370368644195025e+00,5.969428648232683043e-01,-6.225668845130326590e-01,-5.060313137003565886e-01,2.225665166942351334e+02
-4.024885094872814761e+00,2.224495382416228040e+01,6.509137047771782036e+00,6.198093295961850657e-01,-6.351966431714870520e-01,-4.608249336246611483e-01,2.240880029226550221e+02
-4.310045148172192420e+00,2.184083367028926403e+01,6.278614654450012544e+00,6.409861893259185539e-01,-6.460948506841963646e-01,-4.143623402455346438e-01,2.256094891510749108e+02
-4.594382371392148556e+00,2.140323691556135799e+01,6.042660728420937488e+00,6.604157157666824540e-01,-6.552317984236558646e-01,-3.667701905877965296e-01,2.271309753794947994e+02
-4.877406644893071075e+00,2.093371576576000237e+01,5.802132844228388819e+00,6.780449438586830802e-01,-6.625825789173264146e-01,-3.181782208508845966e-01,2.286524616079146881e+02
-5.158610421481595765e+00,2.043381959952589355e+01,5.557888605715570307e+00,6.938258161100365751e-01,-6.681271537467924349e-01,-2.687188927602726651e-01,2.301739478363345768e+02
-5.437468733797159892e+00,1.990509488591207088e+01,5.310785640522442286e+00,7.077153136022346080e-01,-6.718504081752655344e-01,-2.185270324889586613e-01,2.316954340647544655e+02
-5.713439201864183303e+00,1.934908510196713749e+01,5.061681594583036237e+00,7.196755732620272461e-01,-6.737421923544560931e-01,-1.677394631329913177e-01,2.332169202931743541e+02
-5.985962040809822859e+00,1.876733065034934356e+01,4.811434126622719631e+00,7.296739910799986406e-01,-6.737973489983849484e-01,-1.164946317425855221e-01,2.347384065215942428e+02
-6.254460068747355272e+00,1.816136877697211816e+01,4.560900902655415479e+00,7.376833109943747857e-01,-6.720157274485697441e-01,-6.493223192523900344e-02,2.362598927500141315e+02
-6.518338714825165248e+00,1.753273348868173542e+01,4.310939590480734829e+00,7.436816991976447078e-01,-6.684021840920901791e-01,-1.319282304935810723e-02,2.377813789784340202e+02
-6.776986027441229687e+00,1.688295547096777582e+01,4.062407854181042666e+00,7.476528036632843488e-01,-6.629665691312067732e-01,3.858255291379712737e-02,2.393028652068539088e+02
-7.029772682622995816e+00,1.621356200570706818e+01,3.816163348618581086e+00,7.495857987301239866e-01,-6.557236997404047862e-01,9.025275586556300023e-02,2.408243514352737975e+02
-7.276051992572662108e+00,1.552607688894171822e+01,3.573063713932673302e+00,7.494754146226160207e-01,-6.466933196838168252e-01,1.416769323247953627e-01,2.423458376636936862e+02
-7.515159914377830930e+00,1.482202034869191465e+01,3.333966570036973387e+00,7.473219518262993466e-01,-6.359000455028863685e-01,1.927148993935589305e-01,2.438673238921135749e+02
-7.746415058887531124e+00,1.410290896280410422e+01,3.099729511116844805e+00,7.431312802790274175e-01,-6.233732994207302758e-01,2.432275268969542326e-01,2.453888101205334635e+02
-7.969118699753545698e+00,1.337025557683523402e+01,2.871210100126908582e+00,7.369148233799113212e-01,-6.091472291458790433e-01,2.930771166553703955e-01,2.469102963489533522e+02
-8.182554782636882962e+00,1.262556922197375187e+01,2.649265863288699840e+00,7.286895268593145403e-01,-5.932606147937857788e-01,3.421277778552244686e-01,2.484317825773732409e+02
-8.385989934579340499e+00,1.187035503299801675e+01,2.434754284588443340e+00,9.955207354021456956e-01,9.453287991603503970e-02,0.000000000000000000e+00,2.499532688057931296e+02
-8.584972872977335356e+00,1.108012739719406170e+01,2.221333409374581791e+00,9.895871733591945496e-01,1.439278510692431623e-01,0.000000000000000000e+00,2.515261591115538238e+02
-8.771995928138727194e+00,1.028209162507107699e+01,2.015928734632823183e+00,9.812043098871008340e-01,1.929665832452480967e-01,0.000000000000000000e+00,2.530990494173145180e+02
-8.946982012217503666e+00,9.478412365571019293e+00,1.817474314529406776e+00,9.703928888839234990e-01,2.415277234467198553e-01,0.000000000000000000e+00,2.546719397230752122e+02
-9.109828418644427828e+00,8.671253737527743866e+00,1.624904155527846061e+00,9.769128538952149832e-01,2.136335083477470254e-01,0.000000000000000000e+00,2.562448300288359064e+02
-9.260406823682481914e+00,7.862779204196503002e+00,1.437152223704073917e+00,9.826311646046371751e-01,1.855639898862600778e-01,0.000000000000000000e+00,2.578177203345965722e+02
-9.398563288243430236e+00,7.055151447790497521e+00,1.253152452061834898e+00,9.875431292009232420e-01,1.573422001971287454e-01,0.000000000000000000e+00,2.593906106403572380e+02
-9.524118259965433708e+00,6.250532244025544415e+00,1.071838747848227413e+00,9.916447173610906107e-01,1.289912963135745883e-01,0.000000000000000000e+00,2.609635009461179038e+02
-9.636866575551747971e+00,5.451082336673886530e+00,8.921449998693594674e-01,9.949325635558181613e-01,1.005345411835595754e-01,0.000000000000000000e+00,2.625363912518785696e+02
-9.736577463370519325e+00,4.658961312128229615e+00,7.130050858061319774e-01,9.974039698086810679e-01,7.199528459899393051e-02,0.000000000000000000e+00,2.641092815576392354e+02
-9.822994546315630515e+00,3.876327473977138727e+00,5.333528795301355485e-01,9.990569079092538329e-01,4.339694405382944764e-02,0.000000000000000000e+00,2.656821718633999012e+02
-9.894872863408009422e+00,3.117691310851986142e+00,3.551069172906526350e-01,9.998900210782709630e-01,1.476298554660309542e-02,0.000000000000000000e+00,2.672294485174402894e+02
-9.953648851232136607e+00,2.372156200741772913e+00,1.745336981838651880e-01,9.696210115950587571e-01,2.139234177120899472e-02,-2.436708057729844723e-01,2.687767251714806775e+02
-9.999313112706385454e+00,1.641678340867557484e+00,-8.816479693656962061e-03,8.808491902946983254e-01,2.673097542801564433e-02,-4.726395655342977564e-01,2.703240018255210657e+02
-1.003193423128492157e+01,9.281928325932550239e-01,-1.952090112479805406e-01,8.560199191347874770e-01,2.393454119583877937e-02,-5.163865178145649049e-01,2.718712784795614539e+02
-1.005155813604521420e+01,2.336351900917491287e-01,-3.849092711875131689e-01,8.290179760429385869e-01,2.107735878052078085e-02,-5.588228165913226020e-01,2.734185551336018420e+02
-1.005820810047146807e+01,-4.400587688014166443e-01,-5.781826122592410577e-01,7.999118945068467434e-01,1.816667992238582205e-02,-5.998407561725753734e-01,2.749658317876422302e+02
-1.005188474146159194e+01,-1.090953031738939316e+00,-7.752943634850575361e-01,7.687755481037492622e-01,1.520989212566839326e-02,-6.393362306470284917e-01,2.765131084416826184e+02
-1.003256601855766661e+01,-1.717111501016367558e+00,-9.765098283983125738e-01,7.356879630359510758e-01,1.221449991245565983e-02,-6.772089980460405112e-01,2.780603850957230065e+02
-9.999713417340981181e+00,-2.322782249558356327e+00,-1.184361420400940723e+00,7.007331175990012540e-01,9.188105779921381180e-03,-7.133629347048452418e-01,2.796243950274525218e+02
-9.953321972806199014e+00,-2.898906560014275602e+00,-1.396989001949741738e+00,6.639997290902663885e-01,6.138390909072089820e-03,-7.477062791788827711e-01,2.811884049591820371e+02
-9.893548731587140210e+00,-3.443653483826004891e+00,-1.614803339643108071e+00,6.255810286974577972e-01,3.073095673857234849e-03,-7.801518650974788027e-01,2.827524148909115524e+02
-9.821032446135292915e+00,-3.955567214639124085e+00,-1.838484463681687497e+00,5.855745249369939120e-01,0.000000000000000000e+00,-8.106173423649849497e-01,2.843164248226410677e+02
-9.739556797000957999e+00,-4.419746724377438873e+00,-2.061609056637200954e+00,7.697594241280639737e-01,1.407459754418853223e-02,-6.381773536178406703e-01,2.858325664139024411e+02
-9.648028907239650565e+00,-4.851670140497846617e+00,-2.291593040155758487e+00,9.047891352437696932e-01,2.725042073836634118e-02,-4.249847471558993450e-01,2.873487080051638145e+02
-9.547197444069603023e+00,-5.250203628432522862e+00,-2.529161379808172683e+00,9.820409621608355843e-01,3.868609001835592726e-02,-1.846535541985379614e-01,2.888648495964251879e+02
-9.437797963938137968e+00,-5.614209253850765968e+00,-2.775038992798599224e+00,9.965817864270374304e-01,4.765134892139884920e-02,6.746919229384173988e-02,2.903809911876865613e+02
-9.320880116411052185e+00,-5.942831401633065447e+00,-3.029904816673678614e+00,9.474830769237077011e-01,5.357369636953746711e-02,3.152834883108385777e-01,2.918971327789479346e+02
-9.198139110305715960e+00,-6.235780896684067542e+00,-3.294345878324620447e+00,8.378801759393996740e-01,5.607494484992718575e-02,5.429644659909178550e-01,2.934132743702093080e+02
-9.071594876118673767e+00,-6.493045236808581144e+00,-3.568903216910345844e+00,9.053473691449666072e-01,4.153717105648690455e-01,-8.837693841807206518e-02,2.949294159614706814e+02
-8.943266958697686064e+00,-6.714601095457705782e+00,-3.854117807075139623e+00,9.360722153546453539e-01,3.202522752089287938e-01,1.456203552547300495e-01,2.964455575527320548e+02
-8.807550663211248576e+00,-6.909324063578853981e+00,-4.169042245565763416e+00,9.061895982315796294e-01,2.043976334009164064e-01,3.701891672065157901e-01,2.980530021474328919e+02
-8.674593709687298926e+00,-7.061538895933257010e+00,-4.497785505744287704e+00,8.176343202152047684e-01,7.530893738781591074e-02,5.707895254430604970e-01,2.996604467421337290e+02
-8.545981511365326355e+00,-7.171941114883206403e+00,-4.841562489129886515e+00,7.843785636195371724e-01,1.014329603648742861e-01,6.119310610452609600e-01,3.012678913368345661e+02
-8.421427286312098914e+00,-7.242752244167911968e+00,-5.202671704977832157e+00,7.483923528909645073e-01,1.272038900111869819e-01,6.509424371525430741e-01,3.028753359315354032e+02
-8.254342948595157381e+00,-7.271376062000642904e+00,-5.736850512071261399e+00,0.000000000000000000e+00,9.983844631533018710e-01,-5.680196945670642344e-02,3.050836114631876512e+02
-8.087101119057047427e+00,-7.222224900576838635e+00,-6.325207152508825814e+00,4.081438505715209025e-02,9.978246683405279649e-01,5.175052872767943457e-02,3.072918869948398992e+02
-7.963614391035732432e+00,-7.150248002434308248e+00,-6.782104522248278755e+00,8.107982391399500000e-02,9.838443326184724835e-01,1.596069902250729367e-01,3.088811760806968891e+02
-7.835648630618306854e+00,-7.057738288127685777e+00,-7.263610726862676614e+00,1.202547528576992514e-01,9.566314911224695905e-01,2.653167627726186195e-01,3.104704651665538790e+02
-7.693816348265351657e+00,-6.941116313390415904e+00,-7.796410860387167574e+00,1.578122758224531907e-01,9.165521556103991552e-01,3.674580678744239770e-01,3.121493063977750353e+02
-7.543738494447477017e+00,-6.808001111730715316e+00,-8.348041206450149687e+00,1.932472512690127098e-01,8.641453910704877117e-01,4.646571240916265721e-01,3.138281476289961915e+02
-7.384348728871447776e+00,-6.661607544497056388e+00,-8.910198820013752297e+00,2.260830863773561072e-01,8.001160645898474089e-01,5.556066245465611786e-01,3.155069888602173478e+02
-7.214619700437282290e+00,-6.505156475615310185e+00,-9.474580673640732087e+00,2.558781471538286167e-01,7.253253641091970128e-01,6.390833200685656079e-01,3.171858300914385040e+02
-7.033563062351825934e+00,-6.341874567880779523e+00,-1.003288372237753912e+01,2.822316982334162616e-01,6.407792146972540737e-01,7.139644714727254593e-01,3.188646713226596603e+02
-6.840413408053342081e+00,-6.175215648377506028e+00,-1.057696372823582287e+01,3.047892924972596673e-01,5.476147482561699587e-01,7.792429497099214730e-01,3.205435125538808165e+02
-6.634824802779992758e+00,-6.009097122118291168e+00,-1.109928880770901749e+01,3.232475380382590080e-01,4.470850087367330139e-01,8.340407808473885298e-01,3.222223537851019728e+02
-6.416701552737859693e+00,-5.847692435491878449e+00,-1.159307545530822026e+01,3.373581783923914057e-01,3.405420986485929169e-01,8.776209537843587816e-01,3.239011950163231290e+02
-6.195993974578309249e+00,-5.701068098850247345e+00,-1.203419685680091078e+01,3.469314311961577135e-01,2.294189935806829062e-01,9.093973319920788390e-01,3.255105737869507720e+02
-5.964128886724747503e+00,-5.565895351126052937e+00,-1.243854406896246623e+01,3.518385404063183453e-01,1.152102693228961444e-01,9.289425360747919358e-01,3.271199525575784151e+02
-5.721118973062930380e+00,-5.445461398013088150e+00,-1.280051558825844360e+01,3.520135077923879363e-01,-5.479992337527160454e-04,9.359936912342581294e-01,3.287293313282060581e+02
-5.466933915732796301e+00,-5.342526770095120447e+00,-1.311439715489315816e+01,2.667117791109648306e-01,2.447389377469652225e-02,9.634645065623386184e-01,3.303387100988337011e+02
-5.201534269014998380e+00,-5.259588933687724399e+00,-1.337441832407123243e+01,1.791010901817740864e-01,4.928391228887925996e-02,9.825944715311299982e-01,3.319480888694613441e+02
-4.866217534844727410e+00,-5.193011874337535083e+00,-1.360127343324424309e+01,8.993987732009491032e-02,7.366727837904697707e-02,9.932179773654231658e-01,3.338834695940711299e+02
-4.512432105262853987e+00,-5.170019188127636056e+00,-1.372211093502090229e+01,0.000000000000000000e+00,9.741290686787916486e-02,9.952430484926604315e-01,3.358188503186809157e+02
-4.141431028241721712e+00,-5.195684729218858600e+00,-1.373785188710052196e+01,-0.000000000000000000e+00,-9.695091807975529663e-02,9.952881590151888558e-01,3.377542310432907016e+02
-3.833421519228355834e+00,-5.250930163045905985e+00,-1.368485139297909292e+01,-4.291282096655081070e-03,-2.252196961352708748e-01,9.742975281538440724e-01,3.393072186219453101e+02
-3.518377288007785708e+00,-5.335235565069146091e+00,-1.358498907533964406e+01,-8.509987894250357898e-03,-3.496795025689147796e-01,9.368296673276681474e-01,3.408602062005999187e+02
-3.197359247303019014e+00,-5.449851489130090876e+00,-1.344402841299911344e+01,-7.636298918902155453e-03,-2.956295949471905993e-01,9.552710764647325270e-01,3.424131937792545273e+02
-2.871442250769482563e+00,-5.596022926460843649e+00,-1.326773315947589005e+01,-6.737698540331832527e-03,-2.406152762095235820e-01,9.705961530281199678e-01,3.439661813579091358e+02
-2.541554884358536270e+00,-5.774311811775040937e+00,-1.306141271374558954e+01,-5.817118179492025004e-03,-1.848160143417502954e-01,9.827549043270881191e-01,3.455191689365637444e+02
-2.208308951481393390e+00,-5.983920695892702035e+00,-1.282946749403578401e+01,-4.877560955736740152e-03,-1.284138377628337713e-01,9.917076664371218264e-01,3.470721565152183530e+02
-1.837078680343476433e+00,-6.251336330881116510e+00,-1.254776661591567688e+01,-3.922091891688285654e-03,-7.159274161279889637e-02,9.974252335606494935e-01,3.487856200276899585e+02
-1.462516929091522311e+00,-6.556215931741831149e+00,-1.224343052481539296e+01,-2.953827916271877397e-03,-1.453808762843182729e-02,9.998889532886163778e-01,3.504990835401615641e+02
-1.085212654974955671e+00,-6.896379731961443937e+00,-1.192214873733397695e+01,-1.975927698488835933e-03,4.256400043828593299e-02,9.990907874543366596e-01,3.522125470526331696e+02
-7.057273379528935520e-01,-7.269644804042473041e+00,-1.158961090782927350e+01,-9.915813450336687963e-04,9.952724389017328366e-02,9.950333383809690790e-01,3.539260105651047752e+02
-3.245949733490002265e-01,-7.673825206187561143e+00,-1.125150678210314403e+01,-3.999995304131439757e-06,1.561658166662475977e-01,9.877298404362626627e-01,3.556394740775763808e+02
5.810461563017271097e-02,-8.106185765459734682e+00,-1.091206811734089932e+01,-3.336342326332634652e-06,1.342128265673918630e-01,9.909515210958855791e-01,3.573529375900479863e+02
4.404533619473666728e-01,-8.559559907934577438e+00,-1.057499288642378410e+01,-2.671046988837721208e-06,1.121937671884797733e-01,9.936853418390096948e-01,3.590543796104893772e+02
8.263750915207148662e-01,-9.032552947073339666e+00,-1.023776028800680571e+01,-2.004436753114909808e-06,9.011947642004634884e-02,9.959299573537451211e-01,3.607558216309307682e+02
1.217175615276671063e+00,-9.520923737399360931e+00,-9.900231654612293042e+00,-1.336839726995968190e-06,6.800081930634807592e-02,9.976842629613479341e-01,3.624572636513721591e+02
1.614213729953003940e+00,-1.002043911875452586e+01,-9.562268320978693836e+00,-6.685845035928538692e-07,4.584868271106449372e-02,9.989473951524817652e-01,3.641587056718135500e+02
2.018901196253880759e+00,-1.052687419705140925e+01,-9.223731625178698934e+00,-0.000000000000000000e+00,2.367396997322678345e-02,9.997187320112477238e-01,3.658601476922549409e+02
2.431784731455427284e+00,-1.103623131539248625e+01,-8.883675790579086851e+00,-1.815685972366613410e-06,8.631051170094888869e-02,9.962672811885360247e-01,3.675615897126963318e+02
2.851624359728879732e+00,-1.154495178222961194e+01,-8.539540814279799719e+00,-3.624226711587903945e-06,1.486073979362688424e-01,9.888952630413665457e-01,3.692630317331377228e+02
3.251120815806482156e+00,-1.202037430294033449e+01,-8.209104713565270828e+00,-5.418505219052842428e-06,2.103194769713875589e-01,9.776316881000031156e-01,3.708643974005989890e+02
3.652963032485921691e+00,-1.248988969995655474e+01,-7.869663037180124832e+00,-7.191460618315129887e-06,2.712038983333718289e-01,9.625208805408472790e-01,3.724657630680602551e+02
4.055538876848691743e+00,-1.295083871823388932e+01,-7.518527810835169412e+00,-8.936115937843508848e-06,3.310210683394158027e-01,9.436223038035528310e-01,3.740671287355215213e+02
4.457267553232048485e+00,-1.340055316900877891e+01,-7.153011143294770058e+00,-1.064560556384511033e-05,3.895355928452018390e-01,9.210103266485138995e-01,3.756684944029827875e+02
4.856599625532232345e+00,-1.383635608599172606e+01,-6.770425245494066324e+00,-1.231320225525063741e-05,4.465172034807274315e-01,8.947739305789715880e-01,3.772698600704440537e+02
5.252017039177263591e+00,-1.425556188165427329e+01,-6.368082449655412702e+00,-1.393234361465973069e-05,5.017416637323274253e-01,8.650163597761567624e-01,3.788712257379053199e+02
5.642033142769217413e+00,-1.465547650360826815e+01,-5.943295228404362085e+00,-1.549665791116819078e-05,5.549916513083045233e-01,8.318547149214672309e-01,3.804725914053665861e+02
6.025192709395827073e+00,-1.503339759107606355e+01,-5.493376213885075465e+00,-1.699998915352857377e-05,6.060576133181894143e-01,7.954194924999823391e-01,3.820739570728278522e+02
6.400311394849304669e+00,-1.538688001474959144e+01,-5.016479947210060963e+00,-8.714160024713584786e-06,6.747554542646525544e-01,7.380400238874712526e-01,3.836753227402891184e+02
6.838104220776653364e+00,-1.577239703415761518e+01,-4.405743030790683079e+00,-3.585205410199641569e-07,7.380472384462178903e-01,6.747475630322210538e-01,3.855974869278406914e+02
7.260772129178604040e+00,-1.610930457327265586e+01,-3.752046446236748434e+00,7.999989140413108610e-06,7.954259202489223357e-01,6.060491773184206732e-01,3.875196511153922643e+02
7.666707330347676042e+00,-1.639512599133522031e+01,-3.057683359243478449e+00,6.003447275242286630e-06,8.086875497486893938e-01,5.882367268597092913e-01,3.894418153029438372e+02
7.989122666089904179e+00,-1.659557646891443738e+01,-2.455994997866945528e+00,4.003944591395868871e-06,8.215503719717091036e-01,5.701341826957058156e-01,3.910340298006260582e+02
8.297716450828403367e+00,-1.676643322370728129e+01,-1.834905046709168763e+00,2.002466653143350101e-06,8.340080464920200942e-01,5.517504674787980790e-01,3.926262442983082792e+02
8.590512420858139819e+00,-1.690779636944873232e+01,-1.196999952933758937e+00,0.000000000000000000e+00,8.460544322668346329e-01,5.330946422741880131e-01,3.942184587959905002e+02
8.865558993196300364e+00,-1.702002097911027789e+01,-5.452506511972721182e-01,-4.820826492293019128e-02,8.823206484469500177e-01,4.681711615612655364e-01,3.958106732936727212e+02
9.111284689450638297e+00,-1.710159171644851384e+01,8.938399723489763582e-02,-9.603787901766490387e-02,9.116568066446733010e-01,3.995705102891313198e-01,3.973379658955657874e+02
9.337937861860821087e+00,-1.715914127018818647e+01,7.295038390851460441e-01,-1.431131713361313007e-01,9.338324929755451587e-01,3.278315043644232096e-01,3.988652584974588535e+02
9.543896752536364048e+00,-1.719362176299597778e+01,1.371579443981089774e+00,-1.890643961725632649e-01,9.486735350473675110e-01,2.535176088587287602e-01,4.003925510993519197e+02
9.727527992846917826e+00,-1.720597656065884706e+01,2.012081368892793876e+00,-2.335306372001663133e-01,9.560633697694566058e-01,1.772125121850524065e-01,4.019198437012449858e+02
9.887186624722069439e+00,-1.719714021680417559e+01,2.647480180955289697e+00,-2.761626422186226892e-01,9.559439586337196149e-01,9.951554147806541961e-02,4.034471363031380520e+02
1.002121612206320300e+01,-1.716803841770616046e+01,3.274246480290830874e+00,-3.166255662481883837e-01,9.483162433044955986e-01,2.103695520210341341e-02,4.049744289050311181e+02
1.012794841226734377e+01,-1.711958792717886624e+01,3.888850922831056156e+00,-3.546016014287784457e-01,9.332401379573836975e-01,-5.760685003445976254e-02,4.065017215069241843e+02
1.020570389786282384e+01,-1.705269653155642828e+01,4.487764243138875564e+00,-3.897924730740328636e-01,9.108340584458703981e-01,-1.357981808105405142e-01,4.080290141088172504e+02
1.025279147825667891e+01,-1.696826298476083750e+01,5.067457277229930668e+00,-4.219217822837038057e-01,8.812739920112185876e-01,-2.129228983478907711e-01,4.095563067107103166e+02
1.026750857159364116e+01,-1.686717695345776136e+01,5.624400985393563701e+00,-4.507371767244026106e-01,8.447921148573285244e-01,-2.883752419941771894e-01,4.110835993126033827e+02
1.024814113672661620e+01,-1.675031896230083817e+01,6.155066475013151184e+00,-4.760123325391987792e-01,8.016749684599806525e-01,-3.615625868603486448e-01,4.126108919144964489e+02
1.019296369529855539e+01,-1.661856033926487797e+01,6.655925023385695027e+00,-4.975487318301110573e-01,7.522612089413860392e-01,-4.319100982591105309e-01,4.141381845163895150e+02
1.009098211412069368e+01,-1.646160806947514388e+01,7.153668651987588945e+00,-5.151772217625080197e-01,6.969389471894419374e-01,-4.988652464037193202e-01,4.157720594580900979e+02
9.942125578550141896e+00,-1.628896567961059816e+01,7.607576477268190196e+00,-4.711698250525133691e-01,6.409557283566804653e-01,-6.059478114891631018e-01,4.174059343997906808e+02
9.746904708772783366e+00,-1.610258848099244133e+01,8.015492082070538871e+00,-4.193704694032804325e-01,5.743727203469485287e-01,-7.030095216392946433e-01,4.190398093414912637e+02
9.506735610321895180e+00,-1.590471939931147283e+01,8.376053624668024611e+00,-3.606357834583678867e-01,4.982910355864810792e-01,-7.884452267249042468e-01,4.206736842831918466e+02
9.223005085835978889e+00,-1.569760923152890442e+01,8.687899613760475148e+00,-2.959370872987276413e-01,4.139688686939323459e-01,-8.608420390031479297e-01,4.223075592248924295e+02
8.897070615463576360e+00,-1.548351649633285554e+01,8.949668918547649454e+00,-2.263443299816221832e-01,3.228006900576384508e-01,-9.190026979204383162e-01,4.239414341665930124e+02
8.530260337592673991e+00,-1.526470728451103476e+01,9.160000778800659660e+00,-1.530083961310036433e-01,2.262941859352027851e-01,-9.619653695049218411e-01,4.255753091082935953e+02
8.123873029904840948e+00,-1.504345510924102491e+01,9.317534814931333287e+00,-7.714207405483466951e-02,1.260453262576606281e-01,-9.890195529615819492e-01,4.272091840499941782e+02
7.636499248863310108e+00,-1.480273867172715185e+01,9.425387830732104177e+00,-0.000000000000000000e+00,2.371197228180339442e-02,-9.997178313761895252e-01,4.289872703554020745e+02
7.102532704480816861e+00,-1.456484022844844084e+01,9.466052207992005307e+00,-7.892990921127130202e-03,0.000000000000000000e+00,-9.999678497920404530e-01,4.307653566608099709e+02
6.525495413880848972e+00,-1.433141909838822770e+01,9.446354153705836865e+00,-2.872728885472881633e-01,3.020151847007489232e-02,-9.573714826484192031e-01,4.325434429662178673e+02
5.926866675180363586e+00,-1.410835808309972883e+01,9.379534685206039057e+00,-5.434469747315679999e-01,5.796336819077416852e-02,-8.374387342386809818e-01,4.342762899229354048e+02
5.298029526566828018e+00,-1.388925140653276458e+01,9.276463073564022110e+00,-7.557215732820177223e-01,8.104295423911778151e-02,-6.498576330580629890e-01,4.360091368796529423e+02
4.644493427879864633e+00,-1.367349669614582197e+01,9.146317476394850488e+00,-6.115149142376264946e-01,9.641599621263295672e-02,-7.853352566502768140e-01,4.377419838363704798e+02
4.030697726300767947e+00,-1.347791383231003870e+01,9.010054503674485460e+00,-4.432229302732431653e-01,1.079915881966053010e-01,-8.898815937847283086e-01,4.393273710104307952e+02
3.407442851180635834e+00,-1.328279228969909553e+01,8.862667455222201340e+00,-2.574739619737981822e-01,1.153138048074176941e-01,-9.593789060240146549e-01,4.409127581844911106e+02
2.779518398083432817e+00,-1.308712911503338816e+01,8.708636385410994052e+00,-6.158395249877657296e-02,1.180942434069155444e-01,-9.910898881866269106e-01,4.424981453585514259e+02
2.151725232883809902e+00,-1.288994772805145672e+01,8.552441394814907838e+00,1.367316977029822134e-01,1.162233860325112417e-01,-9.837655042636471725e-01,4.440835325326117413e+02
1.528875426649998204e+00,-1.269029797690497041e+01,8.398562598986579530e+00,3.296620231152499469e-01,1.097749153141582001e-01,-9.376942030747426049e-01,4.456689197066720567e+02
9.157921904110313260e-01,-1.248725619328078729e+01,8.251480097234786371e+00,5.096081590780147108e-01,9.900281355549056528e-02,-8.546905680455579857e-01,4.472543068807323721e+02
3.173098098086792329e-01,-1.227992524724964873e+01,8.115673941402061331e+00,6.694826561777903473e-01,8.433135883447590020e-02,-7.380238444599726000e-01,4.488396940547926874e+02
-2.617264203655396693e-01,-1.206743460184102190e+01,7.995624104642536700e+00,8.029886460050812413e-01,6.633841231103834724e-02,-5.922891603235169722e-01,4.504250812288530028e+02
-4.162072154372819521e-01,-1.200866400915236198e+01,7.965600174307514436e+00,9.048678568021243374e-01,4.573265567638402918e-02,-4.232265184620244147e-01,4.508570014242857837e+02
-1.035885339658611848e+00,-1.175984947378226941e+01,7.855514459424134621e+00,9.711077085916172136e-01,2.332567623659526079e-02,-2.374946970797414125e-01,4.526471057173492909e+02
-1.613727826650533492e+00,-1.150080327611983755e+01,7.771322221171755196e+00,9.990993339585199084e-01,0.000000000000000000e+00,-4.240897172840243229e-02,4.544372100104127981e+02
-2.143325144965167350e+00,-1.123001843039088499e+01,7.709396951601060088e+00,9.990993332535061944e-01,-0.000000000000000000e+00,-4.240897169847657883e-02,4.562273143034763052e+02
-2.617855767882931506e+00,-1.094609883017337459e+01,7.662427081186561573e+00,6.921409340576635261e-01,-0.000000000000000000e+00,-7.217609904965988088e-01,4.580174185965398124e+02
-3.030282048707054976e+00,-1.064772651946886484e+01,7.621258475581687009e+00,5.299993955616641179e-04,-0.000000000000000000e+00,-9.999988595503095379e-01,4.598075228896033195e+02
-3.403963584318569602e+00,-1.029684927524054672e+01,7.573312291286696585e+00,4.169530785743756907e-01,4.529412474209571632e-02,-9.077976495522456224e-01,4.617980492884489081e+02
-3.676756700424862689e+00,-9.924419169429787857e+00,7.518405943949080239e+00,7.566728811008494038e-01,8.225587836747591530e-02,-6.485970409135887182e-01,4.637885756872944967e+02
-3.842709395562010855e+00,-9.530832001297678602e+00,7.454280588333134894e+00,7.550757964904738495e-01,2.554995927611568990e-02,-6.551379557806323861e-01,4.657791020861400852e+02
-3.902780838790254503e+00,-9.165295382435060034e+00,7.388483666561149299e+00,6.590534516584888314e-01,1.078671533496725621e-01,-7.443193031803649884e-01,4.675486979039659445e+02
-3.884748194619722650e+00,-8.787582448936376522e+00,7.313714856907536088e+00,5.472469119253028369e-01,1.876009636281161796e-01,-8.156743810096410696e-01,4.693182937217918038e+02
-3.809799143661328547e+00,-8.451167196309970819e+00,7.241132855964595549e+00,4.223338967758962226e-01,2.628417910506486432e-01,-8.674942492676822603e-01,4.708566169981860412e+02
-3.685835062792287786e+00,-8.109222698227222637e+00,7.161423993324969928e+00,2.873060232881916587e-01,3.317876362785645017e-01,-8.985378196802467077e-01,4.723949402745802786e+02
-3.516330138882971745e+00,-7.763203624056452590e+00,7.074248393744889896e+00,1.453971637443779996e-01,3.927872558892319677e-01,-9.080615818249158089e-01,4.739332635509745160e+02
-3.304772747413099676e+00,-7.414546057067432194e+00,6.979266230903377277e+00,5.999996079955432846e-06,4.443797096684325432e-01,-8.958374147125192088e-01,4.754715868273687533e+02
-3.054622479822786119e+00,-7.064697126268733918e+00,6.876015168382366483e+00,-2.306513462730577085e-02,3.985177464148167426e-01,-9.168694592773080076e-01,4.770099101037629907e+02
-2.747048208336706487e+00,-6.690778856034154565e+00,6.755301127558824170e+00,-4.606527057889397980e-02,3.514291765664014910e-01,-9.350794216016892202e-01,4.786557788078009708e+02
-2.401246283813166293e+00,-6.319103310411358976e+00,6.622723751405915849e+00,-6.892361564629416459e-02,3.032589350963585395e-01,-9.504112549255870901e-01,4.803016475118389508e+02
-2.021596588692931906e+00,-5.951599135048575739e+00,6.477215118064501453e+00,-9.156981413887105292e-02,2.541552858707411544e-01,-9.628177708172112048e-01,4.819475162158769308e+02
-1.612500276986260417e+00,-5.590169911873139164e+00,6.317707402719627829e+00,-1.139341633962921291e-01,2.042693653700792256e-01,-9.722607843482423684e-01,4.835933849199149108e+02
-1.178379710034489047e+00,-5.236694050640115172e+00,6.143132885623751704e+00,-1.359478282856954878e-01,1.537547175801981247e-01,-9.787112315720272182e-01,4.852392536239528908e+02
-6.589572215531758204e-01,-4.847585510521606800e+00,5.923959448668458805e+00,-1.575430530285201469e-01,1.027668214811527370e-01,-9.821492589439214660e-01,4.871106136734319989e+02
-1.174737548093288120e-01,-4.475465607871636387e+00,5.680304700961524844e+00,-1.786533697062624437e-01,5.146261258608860606e-02,-9.825642844095885398e-01,4.889819737229111070e+02
4.390695711775319809e-01,-4.123191478585110481e+00,5.410812828613142500e+00,-1.992138028046138709e-01,0.000000000000000000e+00,-9.799550299737879167e-01,4.908533337723902150e+02
1.004289987712724708e+00,-3.793354339822591736e+00,5.114842287139603094e+00,-2.153716596713729781e-01,-2.002182468751991197e-06,-9.765311301671198985e-01,4.927246938218693231e+02
1.515446224095624794e+00,-3.516832992493309273e+00,4.826388183211377303e+00,-2.314707588939864946e-01,-4.003818211357638265e-06,-9.728408337134496486e-01,4.944086970505193221e+02
2.024527994107258699e+00,-3.260389636218430365e+00,4.517562325572282766e+00,-2.475067112427223326e-01,-6.004361501903186632e-06,-9.688851468740005135e-01,4.960927002791693212e+02
2.527422525230222483e+00,-3.025591085213306553e+00,4.188172245863564847e+00,-2.634751446801240626e-01,-8.003266912316206219e-06,-9.646651481477370726e-01,4.977767035078193203e+02
3.019997537215302508e+00,-2.813980188085532852e+00,3.838025637370254373e+00,-2.793717055426080398e-01,-9.999989460024915751e-06,-9.601819879695102644e-01,4.994607067364693194e+02
3.498592980171343569e+00,-2.626865130590823938e+00,3.468696961702029569e+00,-3.547642754181097868e-01,-2.630757755957549224e-02,-9.345845174466091976e-01,5.011447099651193184e+02
3.960516238954132184e+00,-2.465112579716858043e+00,3.085294041581099656e+00,-4.276625492563340125e-01,-5.242018957211361935e-02,-9.024161277868031350e-01,5.028287131937693175e+02
4.403555707122477791e+00,-2.329363960984145443e+00,2.694691415517735056e+00,-4.975539921374549923e-01,-7.816424278913521040e-02,-8.639029899579134808e-01,5.045127164224193166e+02
4.825490880689937256e+00,-2.220247920601338798e+00,2.303763678593063968e+00,-5.639472095602890978e-01,-1.033587352566131129e-01,-8.193158833296516619e-01,5.061967196510693157e+02
5.183557831578822217e+00,-2.144780577050744874e+00,1.959584418753438140e+00,-6.263754022335834559e-01,-1.278265288544903067e-01,-7.689682919331783939e-01,5.077005367194950054e+02
5.523300224098417033e+00,-2.089394568290122489e+00,1.624718513883113502e+00,-6.843996479583034365e-01,-1.513955946837269029e-01,-7.132142004936273816e-01,5.092043537879206951e+02
5.843265407052523841e+00,-2.054469048128897857e+00,1.303672250546354938e+00,-7.376119875368718493e-01,-1.739002225370667731e-01,-6.524456057360277228e-01,5.107081708563463849e+02
6.142224041556430869e+00,-2.040244054449828148e+00,9.999532016978645022e-01,-7.856382930184034885e-01,-1.951821859524037750e-01,-5.870897604546322368e-01,5.122119879247720746e+02
6.419400430815641379e+00,-2.046690422181786317e+00,7.150715777566156728e-01,-8.281408981173177253e-01,-2.150918546593917069e-01,-5.176061697132658956e-01,5.137158049931977075e+02
6.674247083695014737e+00,-2.073643806528988165e+00,4.495388440723033230e-01,-8.648209723125533932e-01,-2.334892465991560417e-01,-4.444833602863401123e-01,5.152196220616233404e+02
6.918558576825441619e+00,-2.124966882066422258e+00,1.904621613408075120e-01,-8.954206219344170714e-01,-2.502450121210860745e-01,-3.682354460443683086e-01,5.168124249110093160e+02
7.135237575558059930e+00,-2.200097077981908456e+00,-4.472522916333194348e-02,-9.197247034633164731e-01,-2.652413434367635325e-01,-2.893985134230204204e-01,5.184052277603952916e+02
7.323603652927625163e+00,-2.298818292422154741e+00,-2.553895103965904689e-01,-9.375623362859477616e-01,-2.783728029358326639e-01,-2.085268523807997931e-01,5.199980306097812672e+02
7.482977490575963841e+00,-2.420910820683753073e+00,-4.408970378328508355e-01,-8.851352005091986941e-01,2.537197708297864521e-02,4.646395803182720718e-01,5.215908334591672428e+02
7.613009980966480406e+00,-2.565307435486311238e+00,-6.021641303672333745e-01,-9.326402006502990671e-01,1.780777216001360949e-02,3.603652860383348977e-01,5.231836363085532184e+02
7.714024481978569270e+00,-2.729251913280725805e+00,-7.432068503163633544e-01,-9.678463806872210640e-01,1.000873530664363187e-02,2.513388322724821600e-01,5.247764391579391940e+02
7.786707452626364656e+00,-2.909146713780367044e+00,-8.695911887150586939e-01,-9.902894792570465787e-01,2.077712412221741772e-03,1.389979510057136325e-01,5.263692420073251697e+02
7.831785927528998492e+00,-3.101398305656496213e+00,-9.868832397097109244e-01,-9.996735378510012149e-01,-5.880710185495411496e-03,2.482408040359950288e-02,5.279620448567111453e+02
7.849357059568132122e+00,-3.319218914503325291e+00,-1.109948601623019782e+00,-9.958748034407524097e-01,-1.376158475326136853e-02,-8.967716909222922528e-02,5.296838974865254386e+02
7.834605078909421927e+00,-3.543173173079564364e+00,-1.236091607967109596e+00,-9.789433609085624877e-01,-2.146098598945257035e-02,-2.029958674765814375e-01,5.314057501163397319e+02
7.788467813674252227e+00,-3.768387515095882989e+00,-1.372720629869806253e+00,-9.808572692501559276e-01,-1.993635549474700661e-02,-1.936996620448346029e-01,5.331276027461540252e+02
7.711516828031586890e+00,-3.989961929821530529e+00,-1.527193652810485025e+00,-9.826805390777807458e-01,-1.840988298005233337e-02,-1.843855588547544666e-01,5.348494553759683185e+02
7.604170663207252545e+00,-4.202983644102419980e+00,-1.706843365838510262e+00,-9.844130019796589748e-01,-1.688170947221563287e-02,-1.750544184147810878e-01,5.365713080057826119e+02
7.554554716686777027e+00,-4.284873208316339444e+00,-1.785044688519676459e+00,-9.860544979338491389e-01,-1.535197615508113698e-02,-1.657071028064640572e-01,5.372547444459768258e+02
7.430103413905973397e+00,-4.464378614686409286e+00,-1.976300737699724586e+00,-9.876048753172069761e-01,-1.382082435635424711e-02,-1.563444756038278316e-01,5.388052618538119987e+02
7.288663509861700085e+00,-4.633661998795669312e+00,-2.187674121539753269e+00,-9.890639909193315038e-01,-1.228839553457862672e-02,-1.469674017937944721e-01,5.403557792616471716e+02
7.134517133693676350e+00,-4.793121581941507614e+00,-2.414663477387961166e+00,-9.904317099557409243e-01,-1.075483126610147014e-02,-1.375767476964774583e-01,5.419062966694823444e+02
6.971941140076305388e+00,-4.943178525098521625e+00,-2.652767338467258096e+00,-9.917079060802765911e-01,-9.220273232028017643e-03,-1.281733808853541545e-01,5.434568140773175173e+02
6.805207054126454658e+00,-5.084276903255791957e+00,-2.897484163881199226e+00,-9.928924613967347046e-01,-7.684863205166574812e-03,-1.187581701073237711e-01,5.450073314851526902e+02
6.639129367143741689e+00,-5.216463731259013414e+00,-3.143487819754182677e+00,-9.939852664697226281e-01,-6.148743036965147873e-03,-1.093319852026579941e-01,5.465526432797223606e+02
6.477363315845477310e+00,-5.340723673154774254e+00,-3.387138168631347312e+00,-9.949862203347419332e-01,-4.612054644440898195e-03,-9.989569702485166791e-02,5.480979550742920310e+02
6.324128284993067339e+00,-5.457921005268929981e+00,-3.623748906539896453e+00,-9.958952305074942890e-01,-3.074939997103603301e-03,-9.045017736038074574e-02,5.496432668688617014e+02
6.183670670732749564e+00,-5.569659488782453316e+00,-3.848151657651045277e+00,-9.967122129924108620e-01,-1.537541103874248954e-03,-8.099629884837426796e-02,5.511885786634313718e+02
6.060236738715852667e+00,-5.677924041082921036e+00,-4.054937067717558463e+00,-9.974370922904048919e-01,-0.000000000000000000e+00,-7.153493490020845780e-02,5.527338904580010421e+02
5.952285653920877273e+00,-5.792758517394817730e+00,-4.250513904144770372e+00,-7.210981958187557828e-01,-5.750716144384162565e-01,3.864039728761088366e-01,5.543951168303975692e+02
