1.559107051315833381e+00,1.381004574375820759e+01,-1.267359501661402277e+01,-1.177648228227758248e-01,0.000000000000000000e+00,9.930405059701521431e-01,8.238127097373336483e+01
1.922957516623184260e+00,1.366052583320515268e+01,-1.237095062693131986e+01,-1.718334208608132685e-01,1.903875956595443147e-02,9.849410140260459467e-01,8.397850338683882399e+01
2.292726018419904754e+00,1.352423351662982220e+01,-1.201121410491883346e+01,-2.253261143692684432e-01,3.801370885045658038e-02,9.735404974236920861e-01,8.557573579994428314e+01
2.662958608487418832e+00,1.339937805456491482e+01,-1.160046142004828340e+01,-2.780636239689197597e-01,5.686125376168874729e-02,9.588771656720611603e-01,8.716453624033491110e+01
3.032047669544602808e+00,1.328258503456702222e+01,-1.114139262065425129e+01,-3.298692013560086123e-01,7.551822724213318183e-02,9.410001633115568920e-01,8.875333668072553905e+01
3.396411305405087067e+00,1.317126940865764517e+01,-1.063858910639543254e+01,-3.805692216246341908e-01,9.392210095604157372e-02,9.199694052007826306e-01,9.034213712111616701e+01
3.752434139536219071e+00,1.306286513168610597e+01,-1.009663258293610788e+01,-4.299937651198358912e-01,1.120111948355999726e-01,8.958553757114162686e-01,9.193093756150679496e+01
4.096467361226262760e+00,1.295482532287558541e+01,-9.520105029879331937e+00,-4.779771868733713180e-01,1.297248837840308811e-01,8.687388925087369262e-01,9.351973800189742292e+01
4.424828772086387474e+00,1.284462242717614444e+01,-8.913588668698999129e+00,-5.243586717152480814e-01,1.470038008434053078e-01,8.387108357092184496e-01,9.510853844228805087e+01
4.733802832887394452e+00,1.272974837642334833e+01,-8.281665930671305631e+00,-5.689827732020049655e-01,1.637900361467729271e-01,8.058718433223677202e-01,9.669733888267867883e+01
5.019640710732242717e+00,1.260771475030119149e+01,-7.628919424806117178e+00,-6.116999345568586710e-01,1.800273309883163586e-01,7.703319739967228186e-01,9.828613932306930678e+01
5.278560326563981775e+00,1.247605293710795848e+01,-6.959931905778394601e+00,-6.523669898769680620e-01,1.956612663615568681e-01,7.322103381992772775e-01,9.987493976345993474e+01
5.506746403008872193e+00,1.233231429432366788e+01,-6.279286241858875961e+00,-6.908476439290043292e-01,2.106394453341159378e-01,6.916346990631832004e-01,1.014637402038505627e+02
5.700350512554943627e+00,1.217407030897781794e+01,-5.591565382843254106e+00,-7.270129289257662997e-01,2.249116686481305305e-01,6.487410442400828314e-01,1.030525406442411906e+02
5.888001024113163950e+00,1.195659233844249414e+01,-4.745591575533550710e+00,-9.246034767262547582e-01,-1.743419773614379165e-01,3.386905457147098009e-01,1.050000257257920424e+02
6.019381179665222348e+00,1.171090089933614742e+01,-3.902470433480365930e+00,-8.498265231567917466e-01,-5.222387069684532035e-01,-7.113096008795406766e-02,1.069475108073428942e+02
6.086269703372648721e+00,1.146575913692093707e+01,-3.149708583660538075e+00,-9.097764572098885338e-01,-4.109769391039692077e-01,-5.833312464285502624e-02,1.087028936583431147e+02
6.102474897668630938e+00,1.120049389563149234e+01,-2.407317416366261398e+00,-9.550453190685268545e-01,-2.930832919055429975e-01,-4.459397415261633774e-02,1.104582765093433352e+02
6.068266986769010884e+00,1.091790638006647285e+01,-1.677777294105023298e+00,-9.849026284388019414e-01,-1.704602042659174865e-01,-3.013521620656858108e-02,1.122136593603435557e+02
5.983950695724559843e+00,1.062079594911744707e+01,-9.635684695396221633e-01,-9.988665941599867981e-01,-4.508642607873940278e-02,-1.519016967036251192e-02,1.139690422113437762e+02
5.849865244728481350e+00,1.031195993022567059e+01,-2.671710643073531011e-01,-9.967118863751273095e-01,8.101490948214877530e-02,-0.000000000000000000e+00,1.157244250623439967e+02
5.694369547361072037e+00,1.003887127223846676e+01,3.161231320555528690e-01,-9.938786151399388036e-01,8.138616644815961643e-02,-7.469665507656873815e-02,1.172373069545191839e+02
5.503404195867587667e+00,9.762094579004953587e+00,8.819510343745103897e-01,-9.854917821397713995e-01,8.130265650452821180e-02,-1.489759221536578471e-01,1.187501888466943711e+02
5.280296239948253145e+00,9.484126339029792518e+00,1.430132658290411030e+00,-9.715982512682185268e-01,8.076484630003151477e-02,-2.224227455453637037e-01,1.202630707388695583e+02
5.028402518391744458e+00,9.207446448040853326e+00,1.960488131433331338e+00,-9.522756566966336100e-01,7.977574101885170910e-02,-2.946267211390999341e-01,1.217759526310447455e+02
4.751109621015606521e+00,8.934518073218214340e+00,2.472837694559687716e+00,-9.276319690529114537e-01,7.834086758696734432e-02,-3.651843896691878144e-01,1.232888345232199327e+02
4.451833850339137477e+00,8.667787517574334188e+00,2.967001702688918829e+00,-8.978048920799472921e-01,7.646824378700474434e-02,-4.337014911788947824e-01,1.248017164153951200e+02
4.134021182988933951e+00,8.409684084486359623e+00,3.442800626239623796e+00,-8.629610931471517477e-01,7.416833345428397450e-02,-4.997951680721581247e-01,1.263145983075703072e+02
3.801147230837053304e+00,8.162619942381551752e+00,3.900055052165829927e+00,-8.232952719163704192e-01,7.145398800453733879e-02,-5.630961044438403951e-01,1.278274801997454944e+02
3.456717201872013590e+00,7.928989989576800568e+00,4.338585685092496647e+00,-7.790290723681012608e-01,6.834037462017285292e-02,-6.232505897338126433e-01,1.293403620919206674e+02
3.104265860802945198e+00,7.711171719273302472e+00,4.758213348449872093e+00,-7.304098442692613657e-01,6.484489149651384565e-02,-6.799224951734420541e-01,1.308532439840958546e+02
2.747357489397197039e+00,7.511525084707596278e+00,5.158758985607433623e+00,-6.777092610050395871e-01,6.098707062175647703e-02,-7.327951519807884839e-01,1.323661258762710418e+02
2.389585846551721460e+00,7.332392364460001311e+00,5.540043661007255871e+00,-6.212218014998746041e-01,5.678846863403960027e-02,-7.815731208102436600e-01,1.338790077684462290e+02
2.034574128098320944e+00,7.176098027921305800e+00,5.901888561296434688e+00,-5.612631047118560312e-01,5.227254636563311713e-02,-8.259838425703722731e-01,1.353918896606214162e+02
1.685974926342887370e+00,7.044948600918764292e+00,6.244114996458436373e+00,-4.981682058965949400e-01,4.746453774744382320e-02,-8.657791613869482150e-01,1.369047715527966034e+02
1.347470189339093460e+00,6.941232531502460112e+00,6.566544400944362536e+00,-4.322896644969278501e-01,4.239130880646608396e-02,-9.007367112028601408e-01,1.384176534449717906e+02
1.022771179896817317e+00,6.867220055893024977e+00,6.868998334804359729e+00,-3.639955941199917167e-01,3.708120754413164050e-02,-9.306611582687187578e-01,1.399305353371469778e+02
7.156184343251897895e-01,6.825163064592000062e+00,7.151298484818290113e+00,-2.936676056099062349e-01,3.156390553443598479e-02,-9.553852925833411502e-01,1.414434172293221650e+02
4.198710171171430305e-01,6.817996499072420669e+00,7.422610477753191383e+00,-2.216986747094622234e-01,2.587023212695041541e-02,-9.747709621873168473e-01,1.430104589938938489e+02
1.509055702944562816e-01,6.850607149477923485e+00,7.672605740409289332e+00,-1.484909462251836343e-01,2.003200218111740247e-02,-9.887098450908657910e-01,1.445775007584655327e+02
-8.706711394971045070e-02,6.925478010352201785e+00,7.901092772059770120e+00,-7.445348696453935045e-02,1.408183829433862395e-02,-9.971240545242712194e-01,1.461445425230372166e+02
-2.898028662780895437e-01,7.045070400458792292e+00,8.107880218364252656e+00,-0.000000000000000000e+00,8.052988517103476865e-03,-9.999665741302532496e-01,1.477115842876089005e+02
-4.529639846022672778e-01,7.211307851246384182e+00,8.294093775750685182e+00,2.480648213142977454e-02,-3.328825544376778911e-02,-9.991368927703728753e-01,1.492786260521805843e+02
-5.720678993302119597e-01,7.425059593853685413e+00,8.463493086829453560e+00,4.955528359987007581e-02,-7.455209612162742860e-02,-9.959840655514209384e-01,1.508456678167522682e+02
-6.452632839372743900e-01,7.685765977373953284e+00,8.619867630693081040e+00,7.418885998289542760e-02,-1.156425893159232915e-01,-9.905154237021905894e-01,1.524127095813239521e+02
-6.761126086887967457e-01,7.991083044012946779e+00,8.764432613012994366e+00,9.864993479936944032e-02,-1.564641939287245986e-01,-9.827436829527518292e-01,1.539797513458956360e+02
-6.709124135826752822e-01,8.337800456475388700e+00,8.897116138778473626e+00,1.228816326759893801e-01,-1.969219940957168125e-01,-9.726869139622991156e-01,1.555467931104673198e+02
-6.359982556070962190e-01,8.722740831357624458e+00,9.017846393799413107e+00,1.468276115808932192e-01,-2.369219198629048118e-01,-9.603685002993336273e-01,1.571138348750390037e+02
-5.777446294284607209e-01,9.142759924123117443e+00,9.126551645192302331e+00,1.704321938170866024e-01,-2.763709658962886229e-01,-9.458170840714991146e-01,1.586808766396106876e+02
-5.018989683318081374e-01,9.598774017156941341e+00,9.223977134326410976e+00,1.936404954713352999e-01,-3.151774077163534971e-01,-9.290664993314886599e-01,1.602612433546739510e+02
-4.154822559780997904e-01,1.008425958005705958e+01,9.309121406558785949e+00,2.163985540177539579e-01,-3.532510149549621947e-01,-9.101556934137911004e-01,1.618416100697372144e+02
-3.251324135369299539e-01,1.059608320006740279e+01,9.381911701928226321e+00,2.386534537796070055e-01,-3.905032611391511255e-01,-8.891286363850489094e-01,1.634219767848004778e+02
-2.375272677409130395e-01,1.113114647325782336e+01,9.442275345940240427e+00,2.603534489578043232e-01,-4.268475295143882020e-01,-8.660342188183842715e-01,1.650023434998637413e+02
-1.590079426909606908e-01,1.168632215722309198e+01,9.490215425403736305e+00,2.814480839402158652e-01,-4.621993144290285072e-01,-8.409261381291346371e-01,1.665827102149270047e+02
-9.277304045109331654e-02,1.225849816292156014e+01,9.526339270018899796e+00,3.018883106122317583e-01,-4.964764178119956961e-01,-8.138627737359940273e-01,1.681630769299902681e+02
-3.682448251271728396e-02,1.284473134730240318e+01,9.552235579119045639e+00,3.216266023959436504e-01,-5.295991402870849907e-01,-7.849070513374922786e-01,1.697434436450535316e+02
1.322804647039806623e-02,1.344217451125925855e+01,9.569945929056462575e+00,3.406170647529017104e-01,-5.614904664797094602e-01,-7.541262966190149797e-01,1.713238103601167950e+02
6.173772519230554673e-02,1.404795763027742161e+01,9.581511952779315777e+00,3.588155418935968788e-01,-5.920762440853672981e-01,-7.215920787301187689e-01,1.729041770751800584e+02
1.116145103078532985e-01,1.465922221657556435e+01,9.588418425506779030e+00,3.211849428912349480e-01,-5.992670522976669689e-01,-7.332920512941952795e-01,1.744845437902433218e+02
1.629196126897155539e-01,1.527316549606866403e+01,9.591036354263030361e+00,2.830389527178454601e-01,-6.054962389530291755e-01,-7.438153372033975419e-01,1.760649105053065853e+02
2.142723454317303766e-01,1.588702112189287341e+01,9.589179875488904159e+00,2.444387825824987093e-01,-6.107538085137781403e-01,-7.531450504095669185e-01,1.776452772203698487e+02
2.642564445077310586e-01,1.649803006958502394e+01,9.582663156510450975e+00,2.054463724580465334e-01,-6.150313245328966616e-01,-7.612662201149514862e-01,1.792256439354331121e+02
3.114200865151416364e-01,1.710344080775184494e+01,9.571300396825638046e+00,1.661242916940164627e-01,-6.183219231889047762e-01,-7.681658147913962287e-01,1.808060106504963755e+02
3.542759067718661559e-01,1.770050946866519226e+01,9.554905829390948568e+00,1.265356386200930661e-01,-6.206203242976541246e-01,-7.738327630881846053e-01,1.823863773655596390e+02
3.897506151785939954e-01,1.826087063864445525e+01,9.534266617601824478e+00,8.674393930121074292e-02,-6.219228397834201116e-01,-7.782579715950620480e-01,1.838965192883133568e+02
4.184113600403808197e-01,1.880899642336745359e+01,9.508493628374949935e+00,4.681304560662421371e-02,-6.222273795957306008e-01,-7.814343394319780423e-01,1.854066612110670746e+02
4.388500496032060050e-01,1.934256412163034256e+01,9.477417995453205180e+00,6.807032756418628441e-03,-6.215334550624512788e-01,-7.833567696421649407e-01,1.869168031338207925e+02
4.496288792055149197e-01,1.985925800591231649e+01,9.440870886024548270e+00,-3.320990349024550287e-02,-6.198421796737618727e-01,-7.840221773702942265e-01,1.884269450565745103e+02
4.492803470511914088e-01,2.035676945784954484e+01,9.398683501789545147e+00,-7.317354984028126563e-02,-6.171562672957620066e-01,-7.834294948125956060e-01,1.899370869793282282e+02
4.363072702502213684e-01,2.083279710364625359e+01,9.350687080029040033e+00,-1.130197785000408711e-01,-6.134800278165758458e-01,-7.815796729309995028e-01,1.914472289020819460e+02
4.091828011269965648e-01,2.128504694942208531e+01,9.296712894671710359e+00,-1.526846500716714516e-01,-6.088193602319189601e-01,-7.784756799285390549e-01,1.929573708248356638e+02
3.663504437960409255e-01,2.171123251649465402e+01,9.236592257361438740e+00,-1.921045161474519147e-01,-6.031817431812098729e-01,-7.741224964884403370e-01,1.944675127475893817e+02
3.062240710050581072e-01,2.210907497659624354e+01,9.170156518524541056e+00,-2.312161214375831608e-01,-5.965762229493768443e-01,-7.685271077845109433e-01,1.959776546703430995e+02
2.271879412452080527e-01,2.247630328702366498e+01,9.097237068436818674e+00,-2.699567052676475343e-01,-5.890133989535802916e-01,-7.616984922756067089e-01,1.974877965930968173e+02
1.275967161285412321e-01,2.281065432572014018e+01,9.017665338290445476e+00,-3.082641022829544775e-01,-5.805054067380960303e-01,-7.536476073021112221e-01,1.989979385158505352e+02
5.775478032497885147e-03,2.310987302628826257e+01,8.931272801260599081e+00,-3.460768421982581278e-01,-5.710658985045954372e-01,-7.443873715074829089e-01,2.005080804386042530e+02
-1.399802519886328145e-01,2.337171251293289487e+01,8.837890973571836284e+00,-3.833342484328515765e-01,-5.607100212090149194e-01,-7.339326441130157308e-01,2.020182223613579708e+02
-3.114044960254002681e-01,2.359393423533305523e+01,8.737351415564351242e+00,-4.199765354728211553e-01,-5.494543922600975128e-01,-7.223002010789976168e-01,2.035283642841116887e+02
-5.089978572903093301e-01,2.377481593473799037e+01,8.629407170212729739e+00,-3.141385007942008034e-01,-5.743715676271480275e-01,-7.559181864601064449e-01,2.050385062068654065e+02
-7.307559898080355776e-01,2.391365125888994925e+01,8.513654202141296423e+00,-2.042315232335925046e-01,-5.918490498460435845e-01,-7.797449500413348167e-01,2.065486481296191243e+02
-9.734196941687829341e-01,2.401022949025762543e+01,8.389609962727709203e+00,-9.167919634133196716e-02,-6.016604607407545213e-01,-7.934718740701748319e-01,2.080587900523728422e+02
-1.251597243794602132e+00,2.406567734691228821e+01,8.247799845711556443e+00,2.206062339442155240e-02,-6.036787175315465603e-01,-7.969211597742492659e-01,2.096707596792464301e+02
-1.545577873210840281e+00,2.407090470403972304e+01,8.096017933618314899e+00,1.355146989267453084e-01,-5.978776786596280424e-01,-7.900481300125633544e-01,2.112827293061200180e+02
-1.851509396170295307e+00,2.402558125016770418e+01,7.933711584100412217e+00,2.472134941618859549e-01,-5.843324823401598866e-01,-7.729418078919988444e-01,2.128946989329936059e+02
-2.165544723932791626e+00,2.392935571344805723e+01,7.760328230544188521e+00,3.557102075596545454e-01,-5.632185734645729358e-01,-7.458237638632615463e-01,2.145066685598671938e+02
-2.483841917772209751e+00,2.378185588688446472e+01,7.575315386053256717e+00,4.595995113955018141e-01,-5.348094314391391713e-01,-7.090452462074303686e-01,2.161186381867407817e+02
-2.803432605268130651e+00,2.358328631013452892e+01,7.378513986991431572e+00,5.052810068771005358e-01,-5.161937598995610665e-01,-6.915440017316401011e-01,2.177306078136143697e+02
-3.123080069124577474e+00,2.333503214626713884e+01,7.170551733691280738e+00,5.495782112055798141e-01,-4.961639037809060793e-01,-6.721481758913101512e-01,2.193425774404879576e+02
-3.442395426056802155e+00,2.303907078060050395e+01,6.952449746374361972e+00,5.923697662220269722e-01,-4.747747379128701706e-01,-6.509109065816379713e-01,2.209545470673615455e+02
-3.760964111589662817e+00,2.269737715352935581e+01,6.725229218236910000e+00,6.335384387581237675e-01,-4.520848611113041926e-01,-6.278903765555321481e-01,2.225665166942351334e+02
-4.060548654498794541e+00,2.233517891377522702e+01,6.503124801516489306e+00,6.729714418045151803e-01,-4.281564356343420807e-01,-6.031496540176860544e-01,2.240880029226550221e+02
-4.358623878726454848e+00,2.193665112724745114e+01,6.274321286976522138e+00,7.105607434971634717e-01,-4.030550168768496366e-01,-5.767565198352033740e-01,2.256094891510749108e+02
-4.654763761651341092e+00,2.150340443525933054e+01,6.039724142689277819e+00,7.462033630754889568e-01,-3.768493737699405433e-01,-5.487832818384070777e-01,2.271309753794947994e+02
-4.948521785733277945e+00,2.103704711913539072e+01,5.800238873860113387e+00,7.798016530017342074e-01,-3.496113003776566974e-01,-5.193065767206749284e-01,2.286524616079146881e+02
-5.239430944672036183e+00,2.053918500599085206e+01,5.556771017016909120e+00,8.112635664689171744e-01,-3.214154192069962335e-01,-4.884071600800900526e-01,2.301739478363345768e+02
-5.527003749753035322e+00,2.001142137453616954e+01,5.310226134199548476e+00,8.405029095647771342e-01,-2.923389767701495834e-01,-4.561696851781505968e-01,2.316954340647544655e+02
-5.810732236379968718e+00,1.945535686090735794e+01,5.061509807149588092e+00,8.674395774011461890e-01,-2.624616319590003521e-01,-4.226824710216552927e-01,2.332169202931743541e+02
-6.090087970794864525e+00,1.887258936452281688e+01,4.811527631499845192e+00,8.919997735621182366e-01,-2.318652378116155266e-01,-3.880372604031047667e-01,2.347384065215942428e+02
-6.364522056985854270e+00,1.826471395396737663e+01,4.561185210963937031e+00,9.141162122700545734e-01,-2.006336172685248553e-01,-3.523289685624292344e-01,2.362598927500141315e+02
-6.633465143782726336e+00,1.763332277290423633e+01,4.311388151525416212e+00,9.337283027158089777e-01,-1.688523335330311681e-01,-3.156554231585200210e-01,2.377813789784340202e+02
-6.896327432139651492e+00,1.698000494601564370e+01,4.063042055626551630e+00,9.507823150483843966e-01,-1.366084556645574544e-01,-2.781170962628198295e-01,2.393028652068539088e+02
-7.152498682604690572e+00,1.630634648497316164e+01,3.817052516357425151e+00,9.652315275694548502e-01,-1.039903200470779360e-01,-2.398168291090602700e-01,2.408243514352737975e+02
-7.401348222976480429e+00,1.561393019443808328e+01,3.574325111645286768e+00,9.770363547296352369e-01,-7.108728838596282962e-02,-2.008595503530527238e-01,2.423458376636936862e+02
-7.642224956148246484e+00,1.490433557809272536e+01,3.335765398443820473e+00,9.861644555759493391e-01,-3.798950289607325170e-02,-1.613519886142105730e-01,2.438673238921135749e+02
-7.874457368139426094e+00,1.417913874470314894e+01,3.102278906922722346e+00,9.925908223534525288e-01,-4.787639351625803778e-03,-1.214023800861248337e-01,2.453888101205334635e+02
-8.097353536314829014e+00,1.343991231421408905e+01,2.874771134657668092e+00,9.962978490182999858e-01,2.842734132579578799e-02,-8.112017201702242941e-02,2.469102963489533522e+02
-8.310201137790233616e+00,1.268822532387723712e+01,2.654147540820154472e+00,9.972753794745361500e-01,6.156444226069587161e-02,-4.061572287224782946e-02,2.484317825773732409e+02
-8.512267458024391331e+00,1.192564313441356205e+01,2.441313540367222146e+00,9.955207354023959399e-01,9.453287991605881235e-02,-0.000000000000000000e+00,2.499532688057931296e+02
-8.709317943046794852e+00,1.112754813552847466e+01,2.229792038811662547e+00,9.895871733591945496e-01,1.439278510692431623e-01,0.000000000000000000e+00,2.515261591115538238e+02
-8.894201508024304204e+00,1.032150976233837447e+01,2.026227528514260356e+00,9.812043098871008340e-01,1.929665832452480967e-01,0.000000000000000000e+00,2.530990494173145180e+02
-9.066880671466655883e+00,9.509726189558215026e+00,1.829562712916296796e+00,9.703928888839234990e-01,2.415277234467198553e-01,0.000000000000000000e+00,2.546719397230752122e+02
-9.227289024561468267e+00,8.694395286810527423e+00,1.638740248106841157e+00,9.769128538952149832e-01,2.136335083477470254e-01,0.000000000000000000e+00,2.562448300288359064e+02
-9.375331232169530793e+00,7.877714480463813729e+00,1.452702750078294747e+00,9.826311646046371751e-01,1.855639898862600778e-01,0.000000000000000000e+00,2.578177203345965722e+02
-9.510883034104987033e+00,7.061880615475915945e+00,1.270392801982408004e+00,9.875431292009232420e-01,1.573422001971287454e-01,0.000000000000000000e+00,2.593906106403572380e+02
-9.633791246700566191e+00,6.249089817243457468e+00,1.090752961386335151e+00,9.916447173610906107e-01,1.289912963135745883e-01,0.000000000000000000e+00,2.609635009461179038e+02
-9.743873764657951853e+00,5.441537353458087978e+00,9.127257675286796212e-01,9.949325635558181613e-01,1.005345411835595754e-01,0.000000000000000000e+00,2.625363912518785696e+02
-9.840919563183318175e+00,4.641417495970703300e+00,7.352537485758667835e-01,9.974039698086810679e-01,7.199528459899393051e-02,0.000000000000000000e+00,2.641092815576392354e+02
-9.924688700407896746e+00,3.850923382665299766e+00,5.572794288789717498e-01,9.990569079092538329e-01,4.339694405382944764e-02,0.000000000000000000e+00,2.656821718633999012e+02
-9.993834086184193666e+00,3.084768990863522298e+00,3.806746208382733032e-01,9.998900210782709630e-01,1.476298554660309542e-02,0.000000000000000000e+00,2.672294485174402894e+02
-1.004959169795764318e+01,2.332017078422776279e+00,2.016919680257003578e-01,9.962137931015124792e-01,1.379333285831311172e-02,-8.582436952020218446e-02,2.687767251714806775e+02
-1.009193397529332437e+01,1.594680741875334151e+00,1.983836142712955275e-02,9.851852175856112837e-01,1.272188143630537116e-02,-1.710153232437534032e-01,2.703240018255210657e+02
-1.012090151667470117e+01,8.747548056352034695e-01,-1.652030346229950708e-01,9.668856898819657708e-01,1.155653889840314863e-02,-2.549441293908575878e-01,2.718712784795614539e+02
-1.013650873956268406e+01,1.742343263821168331e-01,-3.537490346218816750e-01,9.414502662991307558e-01,1.030590579253040477e-02,-3.369913713907328745e-01,2.734185551336018420e+02
-1.013874387964669133e+01,-5.048855297061248804e-01,-5.461164297933731593e-01,9.090666673329422798e-01,8.979212124291683153e-03,-4.165515191360025238e-01,2.749658317876422302e+02
-1.012756899034523350e+01,-1.160609609723851632e+00,-7.426219859826180825e-01,8.699738922743760483e-01,7.586249239746260808e-03,-4.930373977540812858e-01,2.765131084416826184e+02
-1.010291994255614156e+01,-1.790942896809215590e+00,-9.435824415509063146e-01,8.244604554201455660e-01,6.137297565949939582e-03,-5.658845209294945944e-01,2.780603850957230065e+02
-1.006424814381904831e+01,-2.400177940637408636e+00,-1.151542563366434901e+00,7.728622568968787077e-01,4.643050742320553245e-03,-6.345552568095174095e-01,2.796243950274525218e+02
-1.001165513882781966e+01,-2.979221448780771109e+00,-1.364654141345657656e+00,7.155601038031140781e-01,3.114536702494184132e-03,-6.985427957590173431e-01,2.811884049591820371e+02
-9.945281124150088914e+00,-3.526189656512777493e+00,-1.583389918112855232e+00,6.529768999514995453e-01,1.563036288837333244e-03,-7.573748906899301359e-01,2.827524148909115524e+02
-9.865819071666990681e+00,-4.039569901221709891e+00,-1.808520446652606806e+00,5.855745249376080874e-01,0.000000000000000000e+00,-8.106173423658352695e-01,2.843164248226410677e+02
-9.777134262766187689e+00,-4.504170003458590976e+00,-2.033834039978283048e+00,7.697594241280639737e-01,1.407459754418853223e-02,-6.381773536178406703e-01,2.858325664139024411e+02
-9.677790525157519141e+00,-4.935238166309323660e+00,-2.267080659325648284e+00,9.047891352437696932e-01,2.725042073836634118e-02,-4.249847471558993450e-01,2.873487080051638145e+02
-9.568644483215571483e+00,-5.331571818216477965e+00,-2.509121912612291450e+00,9.820409621608355843e-01,3.868609001835592726e-02,-1.846535541985379614e-01,2.888648495964251879e+02
-9.450537008744666068e+00,-5.691963989015133230e+00,-2.760819351672304744e+00,9.965817864270374304e-01,4.765134892139884920e-02,6.746919229384173988e-02,2.903809911876865613e+02
-9.324703809889502537e+00,-6.015497466876023935e+00,-3.022992101943627219e+00,9.474830769237077011e-01,5.357369636953746711e-02,3.152834883108385777e-01,2.918971327789479346e+02
-9.193190984876014937e+00,-6.301836223616089860e+00,-3.296374492425123037e+00,8.378801759393996740e-01,5.607494484992718575e-02,5.429644659909178550e-01,2.934132743702093080e+02
-9.058451851553181555e+00,-6.550927276556754997e+00,-3.581658415810214269e+00,9.053473691449666072e-01,4.153717105648690455e-01,-8.837693841807206518e-02,2.949294159614706814e+02
-8.922938803382635342e+00,-6.762705250165645943e+00,-3.879535688901412538e+00,9.360722153546453539e-01,3.202522752089287938e-01,1.456203552547300495e-01,2.964455575527320548e+02
-8.781153156200023346e+00,-6.945817962320759875e+00,-4.209483038167173952e+00,9.061895982315796294e-01,2.043976334009164064e-01,3.701891672065157901e-01,2.980530021474328919e+02
-8.644087806518987449e+00,-7.085632248614627926e+00,-4.554365959718769119e+00,8.176343202152047684e-01,7.530893738781591074e-02,5.707895254430604970e-01,2.996604467421337290e+02
-8.513494166550287900e+00,-7.182808298528009949e+00,-4.915456221773724543e+00,7.843785636195371724e-01,1.014329603648742861e-01,6.119310610452609600e-01,3.012678913368345661e+02
-8.388931666467689396e+00,-7.239570577437073773e+00,-5.295006708095794323e+00,7.483923528909645073e-01,1.272038900111869819e-01,6.509424371525430741e-01,3.028753359315354032e+02
-8.223696317430452041e+00,-7.255017413555507666e+00,-5.845902273361229362e+00,0.000000000000000000e+00,9.983844631533018710e-01,-5.680196945670642344e-02,3.050836114631876512e+02
-8.060179616216352372e+00,-7.204888532984223382e+00,-6.430535888396960331e+00,4.081438505715209025e-02,9.978246683405279649e-01,5.175052872767943457e-02,3.072918869948398992e+02
-7.940450606662457389e+00,-7.135826319087089864e+00,-6.877119371826459826e+00,8.107982391399500000e-02,9.838443326184724835e-01,1.596069902250729367e-01,3.088811760806968891e+02
-7.816403196714891699e+00,-7.045569688093617167e+00,-7.348842423725117534e+00,1.202547528576992514e-01,9.566314911224695905e-01,2.653167627726186195e-01,3.104704651665538790e+02
-7.678782313436892437e+00,-6.930941487553430314e+00,-7.870555201097663378e+00,1.578122758224531907e-01,9.165521556103991552e-01,3.674580678744239770e-01,3.121493063977750353e+02
-7.533008674433884444e+00,-6.799688633883066657e+00,-8.409375700063421277e+00,1.932472512690127098e-01,8.641453910704877117e-01,4.646571240916265721e-01,3.138281476289961915e+02
-7.377878874623228000e+00,-6.655002549344223972e+00,-8.957372283094533927e+00,2.260830863773561072e-01,8.001160645898474089e-01,5.556066245465611786e-01,3.155069888602173478e+02
-7.212231157224180400e+00,-6.500081235851064676e+00,-9.506613240841792489e+00,2.558781471538286167e-01,7.253253641091970128e-01,6.390833200685656079e-01,3.171858300914385040e+02
-7.034945430089345031e+00,-6.338129061103604300e+00,-1.004916685412687194e+01,2.822316982334162616e-01,6.407792146972540737e-01,7.139644714727254593e-01,3.188646713226596603e+02
-6.845160524943571190e+00,-6.172591891080219106e+00,-1.057725035627727195e+01,3.047892924972596673e-01,5.476147482561699587e-01,7.792429497099214730e-01,3.205435125538808165e+02
-6.642506377882695823e+00,-6.007408393775201638e+00,-1.108366008967829508e+01,3.232475380382590080e-01,4.470850087367330139e-01,8.340407808473885298e-01,3.222223537851019728e+02
-6.426904106263020999e+00,-5.846789721291727027e+00,-1.156190385712480406e+01,3.373581783923914057e-01,3.405420986485929169e-01,8.776209537843587816e-01,3.239011950163231290e+02
-6.207959707168942742e+00,-5.700911152191703302e+00,-1.198752610037863064e+01,3.469314311961577135e-01,2.294189935806829062e-01,9.093973319920788390e-01,3.255105737869507720e+02
-5.976950650931287967e+00,-5.566648912794715187e+00,-1.237461348879560497e+01,3.518385404063183453e-01,1.152102693228961444e-01,9.289425360747919358e-01,3.271199525575784151e+02
-5.733907551527982704e+00,-5.447393853275248610e+00,-1.271745398911813574e+01,3.520135077923879363e-01,-5.479992337527160454e-04,9.359936912342581294e-01,3.287293313282060581e+02
-5.478800054889721771e+00,-5.345994766921098318e+00,-1.301028867266013300e+01,2.667117791109648306e-01,2.447389377469652225e-02,9.634645065623386184e-01,3.303387100988337011e+02
-5.211581360346307257e+00,-5.265029730161774779e+00,-1.324733536320522020e+01,1.791010901817740864e-01,4.928391228887925996e-02,9.825944715311299982e-01,3.319480888694613441e+02
-4.874857679299981150e+00,-5.199637365897642916e+00,-1.345751238187476595e+01,8.993987732009491032e-02,7.366727837904697707e-02,9.932179773654231658e-01,3.338834695940711299e+02
-4.522286836296025569e+00,-5.174678322712064293e+00,-1.358654427746019167e+01,0.000000000000000000e+00,9.741290686787916486e-02,9.952430484926604315e-01,3.358188503186809157e+02
-4.155036320448480147e+00,-5.194864670923414529e+00,-1.363505987574900757e+01,-0.000000000000000000e+00,-9.695091807975529663e-02,9.952881590151888558e-01,3.377542310432907016e+02
-3.850611081473126251e+00,-5.244821817827452826e+00,-1.361532034083787224e+01,-4.291282096655081070e-03,-2.252196961352708748e-01,9.742975281538440724e-01,3.393072186219453101e+02
-3.538427925705696087e+00,-5.325037341051310769e+00,-1.354381738512949163e+01,-8.509987894250357898e-03,-3.496795025689147796e-01,9.368296673276681474e-01,3.408602062005999187e+02
-3.219759975914739503e+00,-5.436821460781847470e+00,-1.342660358006875931e+01,-7.636298918902155453e-03,-2.956295949471905993e-01,9.552710764647325270e-01,3.424131937792545273e+02
-2.895896700566892079e+00,-5.581477996152704790e+00,-1.326973180267054886e+01,-6.737698540331832527e-03,-2.406152762095235820e-01,9.705961530281199678e-01,3.439661813579091358e+02
-2.567939364559446602e+00,-5.759597260996105916e+00,-1.307879486008895498e+01,-5.817118179492025004e-03,-1.848160143417502954e-01,9.827549043270881191e-01,3.455191689365637444e+02
-2.236584434215144856e+00,-5.970350376430920925e+00,-1.285846511726383135e+01,-4.877560955736740152e-03,-1.284138377628337713e-01,9.917076664371218264e-01,3.470721565152183530e+02
-1.867708147141407871e+00,-6.239620426506552242e+00,-1.258760615423521756e+01,-3.922091891688285654e-03,-7.159274161279889637e-02,9.974252335606494935e-01,3.487856200276899585e+02
-1.496048526231777531e+00,-6.546130690362500282e+00,-1.229391391036922876e+01,-2.953827916271877397e-03,-1.453808762843182729e-02,9.998889532886163778e-01,3.504990835401615641e+02
-1.122179533407161811e+00,-6.887718646753762997e+00,-1.198255604239353467e+01,-1.975927698488835933e-03,4.256400043828593299e-02,9.990907874543366596e-01,3.522125470526331696e+02
-7.466461327553455263e-01,-7.262218776791343089e+00,-1.165870035067767674e+01,-9.915813450336687963e-04,9.952724389017328366e-02,9.950333383809690790e-01,3.539260105651047752e+02
-3.699642837187489541e-01,-7.667462716424018332e+00,-1.132751473716735724e+01,-3.999995304131439757e-06,1.561658166662475977e-01,9.877298404362626627e-01,3.556394740775763808e+02
7.862869866118204695e-03,-8.100736312142991835e+00,-1.099287236413101532e+01,-3.336342326332634652e-06,1.342128265673918630e-01,9.909515210958855791e-01,3.573529375900479863e+02
3.851666471543398473e-01,-8.554933837632450633e+00,-1.065842059432756272e+01,-2.671046988837721208e-06,1.121937671884797733e-01,9.936853418390096948e-01,3.590543796104893772e+02
7.661128434940873699e-01,-9.028729364981751715e+00,-1.032180123857494536e+01,-2.004436753114909808e-06,9.011947642004634884e-02,9.959299573537451211e-01,3.607558216309307682e+02
1.152270541064745579e+00,-9.517898846766597032e+00,-9.983003277517992657e+00,-1.336839726995968190e-06,6.800081930634807592e-02,9.976842629613479341e-01,3.624572636513721591e+02
1.545265232935117306e+00,-1.001822749717109140e+01,-9.642015709153177738e+00,-6.685845035928538692e-07,4.584868271106449372e-02,9.989473951524817652e-01,3.641587056718135500e+02
1.946778798220227591e+00,-1.052551008618703143e+01,-9.298827548919556207e+00,-0.000000000000000000e+00,2.367396997322678345e-02,9.997187320112477238e-01,3.658601476922549409e+02
2.357566568484894542e+00,-1.103577006721778631e+01,-8.952685862897483915e+00,-1.815685972366613410e-06,8.631051170094888869e-02,9.962672811885360247e-01,3.675615897126963318e+02
2.776470496979374314e+00,-1.154547117959607228e+01,-8.601353806965176929e+00,-3.624226711587903945e-06,1.486073979362688424e-01,9.888952630413665457e-01,3.692630317331377228e+02
3.176366154645049900e+00,-1.202181217193900942e+01,-8.263060776713635036e+00,-5.418505219052842428e-06,2.103194769713875589e-01,9.776316881000031156e-01,3.708643974005989890e+02
3.580013578608300051e+00,-1.249212201695287128e+01,-7.914489711368370983e+00,-7.191460618315129887e-06,2.712038983333718289e-01,9.625208805408472790e-01,3.724657630680602551e+02
3.985696061228647835e+00,-1.295367889881844370e+01,-7.553014151429120915e+00,-8.936115937843508848e-06,3.310210683394158027e-01,9.436223038035528310e-01,3.740671287355215213e+02
4.391732315205918447e+00,-1.340375190231650393e+01,-7.176007729076689046e+00,-1.064560556384511033e-05,3.895355928452018390e-01,9.210103266485138995e-01,3.756684944029827875e+02
4.796476495765973347e+00,-1.383960118539481421e+01,-6.780844186851687994e+00,-1.231320225525063741e-05,4.465172034807274315e-01,8.947739305789715880e-01,3.772698600704440537e+02
5.198318222484069828e+00,-1.425847815182777012e+01,-6.364897396331199886e+00,-1.393234361465973069e-05,5.017416637323274253e-01,8.650163597761567624e-01,3.788712257379053199e+02
5.595682600746041402e+00,-1.465762562396675328e+01,-5.925541376805975702e+00,-1.549665791116819078e-05,5.549916513083045233e-01,8.318547149214672309e-01,3.804725914053665861e+02
5.987030242847152905e+00,-1.503427801557972643e+01,-5.460150313958084922e+00,-1.699998915352857377e-05,6.060576133181894143e-01,7.954194924999823391e-01,3.820739570728278522e+02
6.371154121608307186e+00,-1.538593511643621703e+01,-4.966922801863685955e+00,-8.714160024713584786e-06,6.747554542646525544e-01,7.380400238874712526e-01,3.836753227402891184e+02
6.822262603685983251e+00,-1.577077939937625928e+01,-4.341123481106105686e+00,-3.585205410199641569e-07,7.380472384462178903e-01,6.747475630322210538e-01,3.855974869278406914e+02
7.262473901287828326e+00,-1.611088716404601584e+01,-3.682284877543546386e+00,7.999989140413108610e-06,7.954259202489223357e-01,6.060491773184206732e-01,3.875196511153922643e+02
7.690666057886256901e+00,-1.640399717803800073e+01,-2.992122522578066768e+00,6.003447275242286630e-06,8.086875497486893938e-01,5.882367268597092913e-01,3.894418153029438372e+02
8.034028891109757708e+00,-1.661187752851695620e+01,-2.397124163882489167e+00,4.003944591395868871e-06,8.215503719717091036e-01,5.701341826957058156e-01,3.910340298006260582e+02
8.364391545701712616e+00,-1.678950879091866000e+01,-1.781773237652060304e+00,2.002466653143350101e-06,8.340080464920200942e-01,5.517504674787980790e-01,3.926262442983082792e+02
8.679617911706545286e+00,-1.693701731596621585e+01,-1.148725329583390797e+00,0.000000000000000000e+00,8.460544322668346329e-01,5.330946422741880131e-01,3.942184587959905002e+02
8.977572078104806508e+00,-1.705478915796980388e+01,-5.010312699350303323e-01,-4.820826492293019128e-02,8.823206484469500177e-01,4.681711615612655364e-01,3.958106732936727212e+02
9.245046714947257271e+00,-1.714091026447967181e+01,1.306443019241426140e-01,-9.603787901766490387e-02,9.116568066446733010e-01,3.995705102891313198e-01,3.973379658955657874e+02
9.492483202516119434e+00,-1.720205251236201960e+01,7.687635640890898570e-01,-1.431131713361313007e-01,9.338324929755451587e-01,3.278315043644232096e-01,3.988652584974588535e+02
9.717940713064914249e+00,-1.723922280267935392e+01,1.409442355203105235e+00,-1.890643961725632649e-01,9.486735350473675110e-01,2.535176088587287602e-01,4.003925510993519197e+02
9.919464566960582985e+00,-1.725341813194966534e+01,2.048796497347802337e+00,-2.335306372001663133e-01,9.560633697694566058e-01,1.772125121850524065e-01,4.019198437012449858e+02
1.009508625605920251e+01,-1.724562552808525240e+01,2.682941821161888729e+00,-2.761626422186226892e-01,9.559439586337196149e-01,9.951554147806541961e-02,4.034471363031380520e+02
1.024282346721016701e+01,-1.721682198642502826e+01,3.307994190958353897e+00,-3.166255662481883837e-01,9.483162433044955986e-01,2.103695520210341341e-02,4.049744289050311181e+02
1.036068010588882160e+01,-1.716797440586101686e+01,3.920069529841737843e+00,-3.546016014287784457e-01,9.332401379573836975e-01,-5.760685003445976254e-02,4.065017215069241843e+02
1.044664631995728321e+01,-1.710003952505965685e+01,4.515283844825107806e+00,-3.897924730740328636e-01,9.108340584458703981e-01,-1.357981808105405142e-01,4.080290141088172504e+02
1.049869852355348243e+01,-1.701396385877835371e+01,5.089753251946496526e+00,-4.219217822837038057e-01,8.812739920112185876e-01,-2.129228983478907711e-01,4.095563067107103166e+02
1.051479942110832511e+01,-1.691068363427778820e+01,5.639594001384717892e+00,-4.507371767244026106e-01,8.447921148573285244e-01,-2.883752419941771894e-01,4.110835993126033827e+02
1.049289803149058642e+01,-1.679112472783054955e+01,6.160922502574559978e+00,-4.760123325391987792e-01,8.016749684599806525e-01,-3.615625868603486448e-01,4.126108919144964489e+02
1.043092971227958721e+01,-1.665620260132650898e+01,6.649855349321166287e+00,-4.975487318301110573e-01,7.522612089413860392e-01,-4.319100982591105309e-01,4.141381845163895150e+02
1.031848753592610102e+01,-1.649565575193712874e+01,7.133909748982710575e+00,-5.151772217625080197e-01,6.969389471894419374e-01,-4.988652464037193202e-01,4.157720594580900979e+02
1.015746558343529848e+01,-1.631948590868031346e+01,7.575213783523912170e+00,-4.711698250525133691e-01,6.409557283566804653e-01,-6.059478114891631018e-01,4.174059343997906808e+02
9.948342637435338531e+00,-1.612967758258177042e+01,7.971542527402261769e+00,-4.193704694032804325e-01,5.743727203469485287e-01,-7.030095216392946433e-01,4.190398093414912637e+02
9.692567366035660825e+00,-1.592850364702850641e+01,8.321419243173243885e+00,-3.606357834583678867e-01,4.982910355864810792e-01,-7.884452267249042468e-01,4.206736842831918466e+02
9.391556013557273985e+00,-1.571824472401719852e+01,8.623367537154519979e+00,-2.959370872987276413e-01,4.139688686939323459e-01,-8.608420390031479297e-01,4.223075592248924295e+02
9.046692381648687942e+00,-1.550118902214328642e+01,8.875911370350767271e+00,-2.263443299816221832e-01,3.228006900576384508e-01,-9.190026979204383162e-01,4.239414341665930124e+02
8.659327810750856003e+00,-1.527963217451007871e+01,9.077575069376299766e+00,-1.530083961310036433e-01,2.262941859352027851e-01,-9.619653695049218411e-01,4.255753091082935953e+02
8.230781161911298938e+00,-1.505587707655929286e+01,9.226883337375323180e+00,-7.714207405483466951e-02,1.260453262576606281e-01,-9.890195529615819492e-01,4.272091840499941782e+02
7.719964805994488088e+00,-1.481268206141512422e+01,9.330571051084669776e+00,-0.000000000000000000e+00,2.371197228180339442e-02,-9.997178313761895252e-01,4.289872703554020745e+02
7.165541677202199367e+00,-1.457247748265290532e+01,9.375814620180610959e+00,-7.892990921127130202e-03,0.000000000000000000e+00,-9.999678497920404530e-01,4.307653566608099709e+02
6.570819917310755542e+00,-1.433686159101495328e+01,9.368109617013672619e+00,-2.872728885472881633e-01,3.020151847007489232e-02,-9.573714826484192031e-01,4.325434429662178673e+02
5.956853762924323448e+00,-1.411178334943273427e+01,9.317488590810507176e+00,-5.434469747315679999e-01,5.796336819077416852e-02,-8.374387342386809818e-01,4.342762899229354048e+02
5.313857926806230481e+00,-1.389080079188477335e+01,9.232603446446038475e+00,-7.557215732820177223e-01,8.104295423911778151e-02,-6.498576330580629890e-01,4.360091368796529423e+02
4.647308338316685550e+00,-1.367328577903178477e+01,9.121398535118508732e+00,-6.115149142376264946e-01,9.641599621263295672e-02,-7.853352566502768140e-01,4.377419838363704798e+02
4.021910063459226414e+00,-1.347624876745103961e+01,9.001319621924674053e+00,-4.432229302732431653e-01,1.079915881966053010e-01,-8.898815937847283086e-01,4.393273710104307952e+02
3.386908547344284148e+00,-1.327985752846467982e+01,8.867679302171042721e+00,-2.574739619737981822e-01,1.153138048074176941e-01,-9.593789060240146549e-01,4.409127581844911106e+02
2.747679304294318836e+00,-1.308304583150377276e+01,8.725075503860891146e+00,-6.158395249877657296e-02,1.180942434069155444e-01,-9.910898881866269106e-01,4.424981453585514259e+02
2.109611166531969673e+00,-1.288477574389240843e+01,8.578106217380398135e+00,1.367316977029822134e-01,1.162233860325112417e-01,-9.837655042636471725e-01,4.440835325326117413e+02
1.478106215956578762e+00,-1.268403769479454901e+01,8.431369463454714719e+00,3.296620231152499469e-01,1.097749153141582001e-01,-9.376942030747426049e-01,4.456689197066720567e+02
8.585797157883321429e-01,-1.247985053887709839e+01,8.289463261104344838e+00,5.096081590780147108e-01,9.900281355549056528e-02,-8.546905680455579857e-01,4.472543068807323721e+02
2.564600420801161906e-01,-1.227126161968876517e+01,8.156985595601570438e+00,6.694826561777903473e-01,8.433135883447590020e-02,-7.380238444599726000e-01,4.488396940547926874e+02
-3.228113849025995297e-01,-1.205734683275430186e+01,8.038534386426887224e+00,8.029886460050812413e-01,6.633841231103834724e-02,-5.922891603235169722e-01,4.504250812288530028e+02
-4.763503769393167553e-01,-1.199814696526968838e+01,8.010154602000918445e+00,9.048678568021243374e-01,4.573265567638402918e-02,-4.232265184620244147e-01,4.508570014242857837e+02
-1.090002307927294023e+00,-1.174752572887372182e+01,7.909588213305174698e+00,9.711077085916172136e-01,2.332567623659526079e-02,-2.374946970797414125e-01,4.526471057173492909e+02
-1.661831351227698317e+00,-1.148674720532379112e+01,7.828690173594385016e+00,9.990993339585199084e-01,0.000000000000000000e+00,-4.240897172840243229e-02,4.544372100104127981e+02
-2.185598254590857437e+00,-1.121431148476041351e+01,7.764705590356622444e+00,9.990993332535061944e-01,-0.000000000000000000e+00,-4.240897169847657883e-02,4.562273143034763052e+02
-2.654595192906743506e+00,-1.092883159434244078e+01,7.711859401222031174e+00,6.921409340576635261e-01,-0.000000000000000000e+00,-7.217609904965988088e-01,4.580174185965398124e+02
-3.061869605032714770e+00,-1.062899916551604562e+01,7.662866435003823362e+00,5.299993955616641179e-04,-0.000000000000000000e+00,-9.999988595503095379e-01,4.598075228896033195e+02
-3.436445280504166977e+00,-1.027722181328527107e+01,7.606140490522231623e+00,4.169530785743756907e-01,4.529412474209571632e-02,-9.077976495522456224e-01,4.617980492884489081e+02
-3.723472650888560054e+00,-9.905203928230335464e+00,7.543799614411884846e+00,7.566728811008494038e-01,8.225587836747591530e-02,-6.485970409135887182e-01,4.637885756872944967e+02
-3.917897073508145755e+00,-9.513263567601031312e+00,7.474234411847567650e+00,7.561826312730529631e-01,5.392490214792167169e-02,-6.521333706066914093e-01,4.657791020861400852e+02
-4.009669765260889918e+00,-9.149603632327215408e+00,7.404881619678302940e+00,7.550757964904738495e-01,2.554995927611568990e-02,-6.551379557806323861e-01,4.675486979039659445e+02
-4.023257366024282078e+00,-8.773551069123188384e+00,7.327136023276599630e+00,6.378742543269592113e-01,1.240828798227212038e-01,-7.600775451250559867e-01,4.693182937217918038e+02
-3.971242102589399359e+00,-8.438145611552196002e+00,7.251611138334246753e+00,4.986932446768944094e-01,2.183402531658568124e-01,-8.388269079866401690e-01,4.708566169981860412e+02
-3.861496219507553285e+00,-8.096601635698041477e+00,7.167660042951552235e+00,3.423285350037110764e-01,3.050742323934313438e-01,-8.886725419706992257e-01,4.723949402745802786e+02
-3.698301483021430691e+00,-7.750473435909295716e+00,7.074831042439789108e+00,1.741680032913324183e-01,3.812961925762965443e-01,-9.078968664758643170e-01,4.739332635509745160e+02
-3.485956492914755067e+00,-7.401293551070252441e+00,6.972672500316931199e+00,5.999996079955432846e-06,4.443797096684325432e-01,-8.958374147125192088e-01,4.754715868273687533e+02
-3.228668936697376424e+00,-7.050605583168564117e+00,6.860609842906809419e+00,-2.306513462730577085e-02,3.985177464148167426e-01,-9.168694592773080076e-01,4.770099101037629907e+02
-2.908736681287934278e+00,-6.675546430635733941e+00,6.729186755621662464e+00,-4.606527057889397980e-02,3.514291765664014910e-01,-9.350794216016892202e-01,4.786557788078009708e+02
-2.547725249998524788e+00,-6.302556489888242020e+00,6.585138346602991355e+00,-6.892361564629416459e-02,3.032589350963585395e-01,-9.504112549255870901e-01,4.803016475118389508e+02
-2.150344919366311558e+00,-5.933620181402790905e+00,6.427378810083169469e+00,-9.156981413887105292e-02,2.541552858707411544e-01,-9.628177708172112048e-01,4.819475162158769308e+02
-1.721329683031890490e+00,-5.570695948417964338e+00,6.254822443223639006e+00,-1.139341633962921291e-01,2.042693653700792256e-01,-9.722607843482423684e-01,4.835933849199149108e+02
-1.265437186437156081e+00,-5.215716138290800608e+00,6.066383654273979964e+00,-1.359478282856954878e-01,1.537547175801981247e-01,-9.787112315720272182e-01,4.852392536239528908e+02
-7.212826053461323106e-01,-4.824501668376423247e+00,5.832704102634457044e+00,-1.575430530285201469e-01,1.027668214811527370e-01,-9.821492589439214660e-01,4.871106136734319989e+02
-1.567229508398460813e-01,-4.449394800005658013e+00,5.578144920131263618e+00,-1.786533697062624437e-01,5.146261258608860606e-02,-9.825642844095885398e-01,4.889819737229111070e+02
4.218617829114927331e-01,-4.093134404076543831e+00,5.301623581220759718e+00,-1.992138028046138709e-01,0.000000000000000000e+00,-9.799550299737879167e-01,4.908533337723902150e+02
1.008734229617605838e+00,-3.758221607833769795e+00,5.002722781080040981e+00,-2.153716596713729781e-01,-2.002182468751991197e-06,-9.765311301671198985e-01,4.927246938218693231e+02
1.539505003700726959e+00,-3.476684210982335266e+00,4.713605706496298176e+00,-2.314707588939864946e-01,-4.003818211357638265e-06,-9.728408337134496486e-01,4.944086970505193221e+02
2.068477735664727035e+00,-3.215366024141967483e+00,4.404348378848272461e+00,-2.475067112427223326e-01,-6.004361501903186632e-06,-9.688851468740005135e-01,4.960927002791693212e+02
2.591462926049746152e+00,-2.975881569817123040e+00,4.074882991127149801e+00,-2.634751446801240626e-01,-8.003266912316206219e-06,-9.646651481477370726e-01,4.977767035078193203e+02
3.104249500942510842e+00,-2.759821717888929715e+00,3.725141895193856634e+00,-2.793717055426080398e-01,-9.999989460024915751e-06,-9.601819879695102644e-01,4.994607067364693194e+02
3.603121290743164007e+00,-2.568550673495621162e+00,3.356679012804867135e+00,-3.609415949317849592e-01,-2.849323758268621637e-02,-9.321519728354705769e-01,5.011447099651193184e+02
4.085377097943144520e+00,-2.403006871220032981e+00,2.974291233887217167e+00,-4.395334820679930310e-01,-5.674138659569887694e-02,-8.964311090035397278e-01,5.028287131937693175e+02
4.548819710850589004e+00,-2.263911647385952186e+00,2.584396968329363276e+00,-5.144989356927688329e-01,-8.452138240420671578e-02,-8.533141163067852197e-01,5.045127164224193166e+02
4.991241314394799566e+00,-2.151974032592549158e+00,2.193414685018988397e+00,-5.852194447098786334e-01,-1.116040229414178159e-01,-8.031567366321941126e-01,5.061967196510693157e+02
5.366374012330866528e+00,-2.075006801432819348e+00,1.848840462354473413e+00,-6.511115211104220313e-01,-1.377658596924679069e-01,-7.463727989291618625e-01,5.077005367194950054e+02
5.720545046224068564e+00,-2.019689507173044962e+00,1.514054428583021084e+00,-7.116315139661164579e-01,-1.627910412244116256e-01,-6.834308050038333526e-01,5.092043537879206951e+02
6.052101727435559297e+00,-1.986471775880240154e+00,1.194127674116552518e+00,-7.662800947872518975e-01,-1.864730940463021625e-01,-6.148500642680145845e-01,5.107081708563463849e+02
6.359617670401656930e+00,-1.975662829477720095e+00,8.931114275369808064e-01,-8.146063772467520003e-01,-2.086166261101412844e-01,-5.411964093191947711e-01,5.122119879247720746e+02
6.642128108192327574e+00,-1.987300638981157608e+00,6.130172615522703206e-01,-8.562116372844280621e-01,-2.290389389006393939e-01,-4.630775276846450517e-01,5.137158049931977075e+02
