-3.273040868726660779e+00,1.433677732336365551e+01,-8.433124064407255815e+00,5.692015277677465734e-01,5.548795396498383548e-02,8.203223194279380959e-01,5.048795735967419773e+01
-3.072752338043594378e+00,1.446694045205087420e+01,-8.686567727118740478e+00,5.126815717913879578e-01,5.177423449123912114e-02,8.570151892397397386e-01,5.201778478175083364e+01
-2.866774714503751653e+00,1.457846824408036746e+01,-8.927964691893686577e+00,4.538265243810947758e-01,4.782470068185860207e-02,8.898046323616229936e-01,5.354761220382746956e+01
-2.655690224607776706e+00,1.467174150144724365e+01,-9.156482935493164277e+00,3.929044487389432572e-01,4.365734123405916323e-02,9.185413059394110791e-01,5.507743962590410547e+01
-2.440078174392817267e+00,1.474714498118323647e+01,-9.371290518186649265e+00,3.301928222107341493e-01,3.929113692169125538e-02,9.430943254623288530e-01,5.660726704798074138e+01
-2.220514939173651836e+00,1.480506737943316686e+01,-9.571555589150806398e+00,2.659772726299523549e-01,3.474597415492951952e-02,9.633518608087177082e-01,5.813709447005737729e+01
-1.991780004469388743e+00,1.484695486448746848e+01,-9.761246825043338404e+00,2.005502775541377347e-01,3.004255441678143138e-02,9.792216455410993614e-01,5.970669106181776442e+01
-1.760175834634944758e+00,1.487170586753442336e+01,-9.934287824002360878e+00,1.342098323104886914e-01,2.520229998834666585e-02,9.906313971328959411e-01,6.127628765357815155e+01
-1.526299739368981667e+00,1.487974203904253834e+01,-1.008980322591863477e+01,6.725809290951098585e-02,2.024725639163953150e-02,9.975291462135693621e-01,6.284588424533853868e+01
-1.290745818598626693e+00,1.487148921379114164e+01,-1.022691779031174875e+01,0.000000000000000000e+00,1.519999199371368896e-02,9.998834733317381041e-01,6.441548083709892580e+01
-1.054061781525823971e+00,1.484766970677652154e+01,-1.034472151223490854e+01,-0.000000000000000000e+00,-1.126703122667802731e-02,9.999355249188323080e-01,6.598507742885931293e+01
-8.167028841854546695e-01,1.480959417911240905e+01,-1.044223473841753425e+01,-0.000000000000000000e+00,-3.772615157010862641e-02,9.992871146349184830e-01,6.755467402061970006e+01
-5.790707673485404605e-01,1.475886864225534190e+01,-1.051844306402751528e+01,-0.000000000000000000e+00,-6.415883845593450818e-02,9.979386972333547101e-01,6.912427061238008719e+01
-3.415551777056392013e-01,1.469710186907168570e+01,-1.057233222967121122e+01,-0.000000000000000000e+00,-9.054657984144540150e-02,9.958912173861287354e-01,7.069386720414047431e+01
-1.045339605853136955e-01,1.462590532786505193e+01,-1.060288812832108363e+01,-0.000000000000000000e+00,-1.168708951513131450e-01,9.931461090162760907e-01,7.226346379590086144e+01
1.316062255170207251e-01,1.454685807521182284e+01,-1.060922606064195683e+01,4.271009153723480975e-04,-3.938973353242305325e-02,9.992228312402899881e-01,7.383306038766124857e+01
3.675759667547578435e-01,1.446106127897273197e+01,-1.059063038584641525e+01,8.516217579232864118e-04,3.832932482848624284e-02,9.992637977999676568e-01,7.541019847128949039e+01
6.018101839915409590e-01,1.437038483642609954e+01,-1.054656976160679527e+01,1.270998420251536658e-03,1.158168560489946514e-01,9.932687654470839789e-01,7.698733655491773220e+01
8.338896528398251906e-01,1.427632582351983181e+01,-1.047654296107547722e+01,0.000000000000000000e+00,1.173078338390019654e-01,9.930945933284813787e-01,7.856447463854597402e+01
1.063353417385235700e+00,1.418020779938705189e+01,-1.038018552750592782e+01,-1.177648228227758248e-01,0.000000000000000000e+00,9.930405059701521431e-01,8.014161272217421583e+01
1.155608423739389545e+00,1.414066751195546878e+01,-1.033017466674827034e+01,-1.617339854955850975e-01,1.547193044299498971e-02,9.867120843008138076e-01,8.078403856062790567e+01
1.381469234778762489e+00,1.404177915969181711e+01,-1.017925768945016429e+01,-2.053452721896188160e-01,3.090962448443826741e-02,9.782003446660907375e-01,8.238127097373336483e+01
1.603024775051254514e+00,1.394219725166723833e+01,-1.000222648198298359e+01,-2.485021839018554668e-01,4.627892300679704168e-02,9.675241216024872415e-01,8.397850338683882399e+01
1.819442663754431644e+00,1.384192208817838932e+01,-9.799864736420799360e+00,-2.911092270767062229e-01,6.154581825240908188e-02,9.547070389223207831e-01,8.557573579994428314e+01
2.028788929137646857e+00,1.374132637834901161e+01,-9.574466466430427758e+00,-3.330721248899425335e-01,7.667652906741798113e-02,9.397774574402693037e-01,8.716453624033491110e+01
2.231391882530656012e+00,1.363964256330088176e+01,-9.326209160005923593e+00,-3.742980258393420190e-01,9.163757564403057776e-02,9.227684122163646308e-01,8.875333668072553905e+01
2.426435469217786078e+00,1.353663676674227467e+01,-9.056337014166661703e+00,-4.146957091813987528e-01,1.063958535958360180e-01,9.037175394588851107e-01,9.034213712111616701e+01
2.613101646410038281e+00,1.343208121578689607e+01,-8.766094377122657377e+00,-4.541757867598858467e-01,1.209187072024037607e-01,8.826669932488763193e-01,9.193093756150679496e+01
2.790570400364987602e+00,1.332575425226419163e+01,-8.456725739567989564e+00,-4.926509007800377038e-01,1.351740016612170414e-01,8.596633522705116048e-01,9.351973800189742292e+01
2.958019763531565260e+00,1.321744034395566025e+01,-8.129475725973527744e+00,-5.300359170910756701e-01,1.491301941871918668e-01,8.347575167535484786e-01,9.510853844228805087e+01
3.114625831719835425e+00,1.310693009575629198e+01,-7.785589085879048632e+00,-5.662481135497249296e-01,1.627564038025781645e-01,8.080045958557596775e-01,9.669733888267867883e+01
3.259562781295654688e+00,1.299402026076108108e+01,-7.426310685184798643e+00,-6.012073630482207554e-01,1.760224796629284438e-01,7.794637857343128529e-01,9.828613932306930678e+01
3.392002886400430128e+00,1.287851375127649689e+01,-7.052885497442329843e+00,-6.348363108020863566e-01,1.888990677680516816e-01,7.491982385756400520e-01,9.987493976345993474e+01
3.511116536196088767e+00,1.276021964975621081e+01,-6.666558595144664423e+00,-6.670605455056195510e-01,2.013576759104304670e-01,7.172749228733028559e-01,1.014637402038505627e+02
3.616072252134606924e+00,1.263895321966109897e+01,-6.268575141015886310e+00,-6.978087639765604422e-01,2.133707367174676461e-01,6.837644752626957922e-01,1.030525406442411906e+02
3.726231017063907025e+00,1.248638411052997732e+01,-5.768065099834468690e+00,-7.270129289257662997e-01,2.249116686481305305e-01,6.487410442400828314e-01,1.050000257257920424e+02
3.816845975038188232e+00,1.232979087260961926e+01,-5.256626667963963051e+00,-8.580059652290623617e-01,2.627071805556559572e-02,5.129655085926755342e-01,1.069475108073428942e+02
3.880364986646381187e+00,1.218532793495663924e+01,-4.787349337632210045e+00,-9.246034767262547582e-01,-1.743419773614379165e-01,3.386905457147098009e-01,1.087028936583431147e+02
3.925390520142553630e+00,1.203801517532895815e+01,-4.311240262209016905e+00,-9.218070772726286721e-01,-3.618699516426724938e-01,1.389958646460617009e-01,1.104582765093433352e+02
3.951751766196648585e+00,1.188849881438594558e+01,-3.829646462798774298e+00,-8.498265231567917466e-01,-5.222387069684532035e-01,-7.113096008795406766e-02,1.122136593603435557e+02
3.959647368363071074e+00,1.173783517761622441e+01,-3.343776824830916095e+00,-8.941079885489863210e-01,-4.435235167498022824e-01,-6.209504732172116404e-02,1.139690422113437762e+02
3.949466643830179979e+00,1.158728301866779731e+01,-2.854771178973362300e+00,-9.310232505799866942e-01,-3.611543445821806531e-01,-5.254756196351747372e-02,1.157244250623439967e+02
3.925478854642896920e+00,1.145866604639278385e+01,-2.431566613255098375e+00,-9.602681886303738867e-01,-2.758097943338574387e-01,-4.256716168265127498e-02,1.172373069545191839e+02
3.886626272914962321e+00,1.133214795721254475e+01,-2.007489583691835833e+00,-9.816018734269598145e-01,-1.881929803328760975e-01,-3.223607044823216528e-02,1.187501888466943711e+02
3.833218026794113165e+00,1.120865663624107356e+01,-1.583386568513664550e+00,-9.948485513330306285e-01,-9.902573517747415011e-02,-2.163940117134026744e-02,1.202630707388695583e+02
3.765569390364800650e+00,1.108911778085434996e+01,-1.160104046098682451e+00,-9.998990918407817396e-01,-9.042663484708748228e-03,-1.086445456601446875e-02,1.217759526310447455e+02
3.684001777835973268e+00,1.097445486818019411e+01,-7.384884896041763458e-01,-9.967118863751273095e-01,8.101490948214877530e-02,-0.000000000000000000e+00,1.232888345232199327e+02
3.589014386336442541e+00,1.086563069024771977e+01,-3.193342629167688074e-01,-9.932567570293234782e-01,8.139880434615835714e-02,-8.254240890503737604e-02,1.248017164153951200e+02
3.481456234412688033e+00,1.076368725778660007e+01,9.666848306643763267e-02,-9.830223045673989191e-01,8.122712403018601812e-02,-1.645214364331784862e-01,1.263145983075703072e+02
3.362355095485913825e+00,1.066970175057229753e+01,5.088817161336267603e-01,-9.660783830276251649e-01,8.050104033451617458e-02,-2.453775465544107415e-01,1.278274801997454944e+02
3.232746029411719846e+00,1.058474409614530920e+01,9.166674281241952160e-01,-9.425406411065262446e-01,7.922550907238744278e-02,-3.245588676588880839e-01,1.293403620919206674e+02
3.093671363236929484e+00,1.050987693116366017e+01,1.319387638976510013e+00,-9.125697327805535330e-01,7.740923624233604639e-02,-4.015249593220102109e-01,1.308532439840958546e+02
2.946180671876084123e+00,1.044615556283687141e+01,1.716404400775218830e+00,-8.763702207390996479e-01,7.506461860316120116e-02,-4.757505010370863263e-01,1.323661258762710418e+02
2.791330758707610382e+00,1.039462793044211431e+01,2.107079801797768770e+00,-8.341891801169368792e-01,7.220765905738532608e-02,-5.467288777362185881e-01,1.338790077684462290e+02
2.630185636089532153e+00,1.035633456692031729e+01,2.490775970561479813e+00,-7.863145120595614879e-01,6.885785742101434292e-02,-6.139756376252964998e-01,1.353918896606214162e+02
2.463816505795112022e+00,1.033230856055254421e+01,2.866855079870367362e+00,-7.330729786357232936e-01,6.503807732543331888e-02,-6.770317987314022901e-01,1.369047715527966034e+02
2.293301739369223213e+00,1.032357551671838714e+01,3.234679350861011660e+00,-6.748279725133988771e-01,6.077439016019298840e-02,-7.354669815944707700e-01,1.384176534449717906e+02
2.119726858405290848e+00,1.033115351973663287e+01,3.593611057048391455e+00,-6.119770366256332972e-01,5.609589712214067131e-02,-7.888823467226213637e-01,1.399305353371469778e+02
1.944184514743136472e+00,1.035605309478791547e+01,3.943012528370861247e+00,-5.449491507587007622e-01,5.103453058575693757e-02,-8.369133167640062654e-01,1.414434172293221650e+02
1.761471798617015860e+00,1.040084539856419710e+01,4.294384281962804195e+00,-4.742018035852761937e-01,4.562483615065762027e-02,-8.792320648181624065e-01,1.430104589938938489e+02
1.579053238504457335e+00,1.046570905626208869e+01,4.634539677712113281e+00,-4.002178701289689777e-01,3.990373685404841747e-02,-9.155497519066165824e-01,1.445775007584655327e+02
1.398124367790146927e+00,1.055170320267857598e+01,4.962794742045634422e+00,-3.235023159736916676e-01,3.391028115758249611e-02,-9.456184983349567030e-01,1.461445425230372166e+02
1.219888553092889572e+00,1.065987840081419868e+01,5.278465582392128930e+00,-2.445787507129186800e-01,2.768537642874062746e-02,-9.692330754950132521e-01,1.477115842876089005e+02
1.045556971013068104e+00,1.079127659853029719e+01,5.580868391836069975e+00,-1.639858541619299004e-01,2.127150973578075324e-02,-9.862323065638125552e-01,1.492786260521805843e+02
8.763042297288649030e-01,1.094663177388143005e+01,5.869529239258299391e+00,-8.227369972366822826e-02,1.471245786181720958e-02,-9.965001665425308186e-01,1.508456678167522682e+02
7.128353389861865619e-01,1.112566688090413258e+01,6.144383081964461368e+00,-0.000000000000000000e+00,8.052988517103476865e-03,-9.999665741302532496e-01,1.524127095813239521e+02
5.550359396932272871e-01,1.132699346013341390e+01,6.405553204554602864e+00,2.834690088608468606e-02,-3.919006955468050390e-02,-9.988286097522067752e-01,1.539797513458956360e+02
4.023949162577454275e-01,1.154882104026363088e+01,6.653152208676229584e+00,5.660771691063360561e-02,-8.631411319793044767e-02,-9.946574486978749796e-01,1.555467931104673198e+02
2.543881209753868222e-01,1.178936324379354161e+01,6.887292788339411054e+00,8.469662741515192328e-02,-1.331760390923250881e-01,-9.874657583518431370e-01,1.571138348750390037e+02
1.104783860053847322e-01,1.204683785903142201e+01,7.108087729154361156e+00,1.125283338143436423e-01,-1.796335399703844204e-01,-9.772753784926321297e-01,1.586808766396106876e+02
-3.105486787980435426e-02,1.232178621293189913e+01,7.317417665312908603e+00,1.400183186071626562e-01,-2.255455367367692754e-01,-9.641172549611426446e-01,1.602612433546739510e+02
-1.693424724798484327e-01,1.261029442859702776e+01,7.513549340187414494e+00,1.670831020154441848e-01,-2.707726068571033040e-01,-9.480313456832384356e-01,1.618416100697372144e+02
-3.044321584489043109e-01,1.291076855359404796e+01,7.696673423916388757e+00,1.936404954713352999e-01,-3.151774077163534971e-01,-9.290664993314886599e-01,1.634219767848004778e+02
-4.362309373728757711e-01,1.322168057236463490e+01,7.867002351092007295e+00,2.196098511843120049e-01,-3.586250936620790641e-01,-9.072803069944198606e-01,1.650023434998637413e+02
-5.646570941156435763e-01,1.354150195871297413e+01,8.024748644867592873e+00,2.449123070304541072e-01,-4.009837254670006179e-01,-8.827389273034214057e-01,1.665827102149270047e+02
-6.896401880079016111e-01,1.386870373861047590e+01,8.170124915468486293e+00,2.694710260208224017e-01,-4.421246709683125942e-01,-8.555168855478827439e-01,1.681630769299902681e+02
-8.111210538324018504e-01,1.420175655304846529e+01,8.303343858712912251e+00,2.932114296221975391e-01,-4.819229956678754423e-01,-8.256968473879670034e-01,1.697434436450535316e+02
-9.290518026576912725e-01,1.453913072090921688e+01,8.424618254535101158e+00,3.160614242220456949e-01,-5.202578421078100090e-01,-7.933693678514306402e-01,1.713238103601167950e+02
-1.043395822530872818e+00,1.487929630184462582e+01,8.534160965508815977e+00,3.379516200503286938e-01,-5.570127968699895016e-01,-7.586326163758315699e-01,1.729041770751800584e+02
-1.154127779033588430e+00,1.522072315916031471e+01,8.632184935370847967e+00,3.588155418935968788e-01,-5.920762440853672981e-01,-7.215920787301187689e-01,1.744845437902433218e+02
-1.261356817017764254e+00,1.556184502751144549e+01,8.718892545674425065e+00,3.144890140630408060e-01,-6.004365011196749480e-01,-7.352351108031079940e-01,1.760649105053065853e+02
-1.365450120101604048e+00,1.590102480387026240e+01,8.794464972516058410e+00,2.694640494412599563e-01,-6.074632652847933301e-01,-7.472452792685643219e-01,1.776452772203698487e+02
-1.466910242025851963e+00,1.623659244289489578e+01,8.859072827149271134e+00,2.238406423203770368e-01,-6.131409313581532849e-01,-7.575959115120713960e-01,1.792256439354331121e+02
-1.566252075226379104e+00,1.656688163188997365e+01,8.912886796671690703e+00,1.777201159804958075e-01,-6.174568902381014635e-01,-7.662640204749004980e-01,1.808060106504963755e+02
-1.664002840441996645e+00,1.689022985962076362e+01,8.956077642841913544e+00,1.312048976769084885e-01,-6.204015569412928421e-01,-7.732303556970745451e-01,1.823863773655596390e+02
-1.756424288565864522e+00,1.719100229479846220e+01,8.987360282878372075e+00,8.439829117679882586e-02,-6.219683918851729443e-01,-7.784794460634364421e-01,1.838965192883133568e+02
-1.848394168320177222e+00,1.748203104255673779e+01,9.008812466297690946e+00,3.740424735032488873e-02,-6.221539154084030354e-01,-7.819996341579565913e-01,1.854066612110670746e+02
-1.940426864815416597e+00,1.776180877883564335e+01,9.020590315257699388e+00,-9.672866674747976692e-03,-6.209577154970414847e-01,-7.837831021500820672e-01,1.869168031338207925e+02
-2.033047483088209706e+00,1.802883173095717950e+01,9.022850013013862025e+00,-5.672849928252169521e-02,-6.183824486993575453e-01,-7.838258891557071673e-01,1.884269450565745103e+02
-2.126791838828033576e+00,1.828159973480910594e+01,9.015747802931411314e+00,-1.036581465481524050e-01,-6.144338342272498421e-01,-7.821279000342359344e-01,1.899370869793282282e+02
-2.222206448985268423e+00,1.851861629199018466e+01,8.999439987497199311e+00,-1.503575843114532684e-01,-6.091206412573436646e-01,-7.786929056021906215e-01,1.914472289020819460e+02
-2.319848522260651968e+00,1.873838862691637530e+01,8.974082927331295423e+00,-1.967230996298364731e-01,-6.024546694599168806e-01,-7.735285342628482885e-01,1.929573708248356638e+02
-2.420285949476248533e+00,1.893942774388795414e+01,8.939833040197978420e+00,-2.426517210968907878e-01,-5.944507227988089504e-01,-7.666462550704081780e-01,1.944675127475893817e+02
-2.524097293828071464e+00,1.912024848411708788e+01,8.896846800016115608e+00,-2.880414475153831866e-01,-5.851265766603970242e-01,-7.580613522661874271e-01,1.959776546703430995e+02
-2.631871781020309164e+00,1.927936958271438783e+01,8.845280735869611277e+00,-3.327914744171076578e-01,-5.745029383844983961e-01,-7.477928913432455582e-01,1.974877965930968173e+02
-2.744209289281029918e+00,1.941531372563390789e+01,8.785291431017943964e+00,-3.768024179267527307e-01,-5.626034012847070942e-01,-7.358636767146222724e-01,1.989979385158505352e+02
-2.861720339259483659e+00,1.952660760657671091e+01,8.717035521906492335e+00,-4.199765354728211553e-01,-5.494543922600975128e-01,-7.223002010789976168e-01,2.005080804386042530e+02
-2.984776864312626010e+00,1.961208881926108560e+01,8.640663667688441407e+00,-2.485924457744723148e-01,-5.857675069561850689e-01,-7.714118379303657180e-01,2.020182223613579708e+02
-3.113260069574608213e+00,1.967121038185843673e+01,8.556314519784617545e+00,-6.897918907131329880e-02,-6.026898605379259477e-01,-7.949872976852214723e-01,2.035283642841116887e+02
-3.246805282331692410e+00,1.970373038813174205e+01,8.464120750495618850e+00,1.129174884084330061e-01,-5.996612779033404506e-01,-7.922461691897638714e-01,2.050385062068654065e+02
-3.385049722204538369e+00,1.970940400393645220e+01,8.364215081651863670e+00,2.910762554624261034e-01,-5.767820131696964614e-01,-7.632791905919688036e-01,2.065486481296191243e+02
-3.527632509553100260e+00,1.968798347744872856e+01,8.256730283775228330e+00,4.595995113955018141e-01,-5.348094314391391713e-01,-7.090452462074303686e-01,2.080587900523728422e+02
-3.684075919245999309e+00,1.963594380434847153e+01,8.134050912977290437e+00,4.998698848303276265e-01,-5.185033512154567648e-01,-6.937451787357097333e-01,2.096707596792464301e+02
-3.844371665494379364e+00,1.955446347471168522e+01,8.003572670671168510e+00,5.390796886516721065e-01,-5.010971697797158564e-01,-6.769732016284029097e-01,2.112827293061200180e+02
-4.008115302067738028e+00,1.944325000719389962e+01,7.865447029250613120e+00,5.771457320997773754e-01,-4.826278177562139393e-01,-6.587648999817541373e-01,2.128946989329936059e+02
-4.174904736428599605e+00,1.930200742362367805e+01,7.719825516116561204e+00,6.139872511490415130e-01,-4.631344814646815022e-01,-6.391589063026623663e-01,2.145066685598671938e+02
-4.344340240499492189e+00,1.913043626251497642e+01,7.566859712587245212e+00,6.495260798598008201e-01,-4.426585197768713731e-01,-6.181968185392782145e-01,2.161186381867407817e+02
-4.516052329061021275e+00,1.892859521413036461e+01,7.406735221423621951e+00,6.836868162171801933e-01,-4.212433763640131557e-01,-5.959231118202098498e-01,2.177306078136143697e+02
-4.689725977595514905e+00,1.869726303190620698e+01,7.239705634109781407e+00,7.163969821053209897e-01,-3.989344875214433928e-01,-5.723850440897747527e-01,2.193425774404879576e+02
-4.865067273529213310e+00,1.843757731417912282e+01,7.066058560412442624e+00,7.475871770776754133e-01,-3.757791857660093826e-01,-5.476325558395590543e-01,2.209545470673615455e+02
-5.041773726954626333e+00,1.815067297953262226e+01,6.886081657695464209e+00,7.771912255972199812e-01,-3.518265994107983019e-01,-5.217181641490554744e-01,2.225665166942351334e+02
-5.209529254656134256e+00,1.785521827324581068e+01,6.710501129131929865e+00,8.051463174343032048e-01,-3.271275483302743536e-01,-4.946968512602165635e-01,2.240880029226550221e+02
-5.377932090360224571e+00,1.753611183900679293e+01,6.529475261374138029e+00,8.313931409243595638e-01,-3.017344361369737604e-01,-4.666259479223458517e-01,2.256094891510749108e+02
-5.546690544534439660e+00,1.719435732573143127e+01,6.343260404627796056e+00,8.558760088028739554e-01,-2.757011389985162819e-01,-4.375650117548318674e-01,2.271309753794947994e+02
-5.715505743558489726e+00,1.683095596976346187e+01,6.152112942348311186e+00,8.785429763507243139e-01,-2.490828913308047732e-01,-4.075757008857864294e-01,2.286524616079146881e+02
-5.884071636779371062e+00,1.644690655626536113e+01,5.956289289597086700e+00,8.993459515993448283e-01,-2.219361686099094455e-01,-3.767216431346659400e-01,2.301739478363345768e+02
-6.052075003647200191e+00,1.604320538063909751e+01,5.756045891397708836e+00,9.182407973619854946e-01,-1.943185675512291155e-01,-3.450683010163866360e-01,2.316954340647544655e+02
-6.219195460932050779e+00,1.562084620997682727e+01,5.551639221091990706e+00,9.351874248746879781e-01,-1.662886839101102021e-01,-3.126828328533134971e-01,2.332169202931743541e+02
-6.385105470022009122e+00,1.518082024454165690e+01,5.343325778695574790e+00,9.501498788483798696e-01,-1.379059881631330142e-01,-2.796339502897349227e-01,2.347384065215942428e+02
-6.549470344302309677e+00,1.472411607927867117e+01,5.131362089253668657e+00,9.630964137517057377e-01,-1.092306993337738424e-01,-2.459917725110739029e-01,2.362598927500141315e+02
-6.711948256615106523e+00,1.425171966535676127e+01,4.916004701197389082e+00,9.739995611628051719e-01,-8.032365723007710290e-02,-2.118276774770575521e-01,2.377813789784340202e+02
-6.872190246799337210e+00,1.376461427174228369e+01,4.697510184699609681e+00,9.828361880471829792e-01,-5.124619336534271680e-02,-1.772141504844070847e-01,2.393028652068539088e+02
-7.029840229310595490e+00,1.326378044680477686e+01,4.476135130030061582e+00,9.895875458380531953e-01,-2.206000083562098188e-02,-1.422246303802631451e-01,2.408243514352737975e+02
-7.184535000921144388e+00,1.275019597995516385e+01,4.252136145910120568e+00,9.942393102150365314e-01,7.172996569977652809e-03,-1.069333537525472000e-01,2.423458376636936862e+02
-7.335904248500304092e+00,1.222483586331622440e+01,4.025769857867570245e+00,9.967816114968136576e-01,3.639077574852197378e-02,-7.141519742775126467e-02,2.438673238921135749e+02
-7.483570556875127622e+00,1.168867225342529537e+01,3.797292906591624106e+00,9.972090555832314740e-01,6.553134587337509920e-02,-3.574551961023526847e-02,2.453888101205334635e+02
-7.627149416770965473e+00,1.114267443297060822e+01,3.566961946287879659e+00,9.955207354023959399e-01,9.453287991605881235e-02,-0.000000000000000000e+00,2.469102963489533522e+02
-7.766304974702562092e+00,1.058786861222589160e+01,3.334952305220036717e+00,9.922554729209166480e-01,1.242057826707294726e-01,0.000000000000000000e+00,2.484317825773732409e+02
-7.900805211471380929e+00,1.002539826226511899e+01,3.101276646773571954e+00,9.881059679272566898e-01,1.537679945144918570e-01,0.000000000000000000e+00,2.499532688057931296e+02
-8.034880940978576191e+00,9.437262213984515924e+00,2.857912095016137854e+00,9.830759178530230624e-01,1.831931759860485343e-01,0.000000000000000000e+00,2.515261591115538238e+02
-8.163819398903228830e+00,8.843744369579043862e+00,2.612680565068288718e+00,9.771698042665541983e-01,2.124551096581906995e-01,0.000000000000000000e+00,2.530990494173145180e+02
-8.287403854705530648e+00,8.246125999274603657e+00,2.365508727171429459e+00,9.703928888839234990e-01,2.415277234467198553e-01,0.000000000000000000e+00,2.546719397230752122e+02
-8.405407885027376125e+00,7.645686670751656422e+00,2.116323264854792274e+00,9.762279090292290684e-01,2.167419424732175692e-01,0.000000000000000000e+00,2.562448300288359064e+02
-8.517595378593391331e+00,7.043704195122306722e+00,1.865050875441105482e+00,9.814299582598581262e-01,1.918156328999458538e-01,0.000000000000000000e+00,2.578177203345965722e+02
-8.623720541229021208e+00,6.441454572928612343e+00,1.611618270552168664e+00,9.859956641162486157e-01,1.667649553676443519e-01,0.000000000000000000e+00,2.593906106403572380e+02
-8.723527900996032258e+00,5.840211940163398729e+00,1.355952176614252158e+00,9.899220666094779020e-01,1.416061511179741716e-01,0.000000000000000000e+00,2.609635009461179038e+02
-8.816752313445663347e+00,5.241248514313218365e+00,1.097979335363788111e+00,9.932066201401694716e-01,1.163555314737123869e-01,0.000000000000000000e+00,2.625363912518785696e+02
-8.903118966989364225e+00,4.645834540423480874e+00,8.376265043528885457e-01,9.958471951472656070e-01,9.102946727311383990e-02,0.000000000000000000e+00,2.641092815576392354e+02
-8.982343388386198058e+00,4.055238237188040884e+00,5.748204574544584222e-01,9.978420794878647415e-01,6.564437826578990720e-02,0.000000000000000000e+00,2.656821718633999012e+02
-9.052945432277015314e+00,3.480236844868973112e+00,3.138090861795114206e-01,9.991899795472329870e-01,4.021672247691633617e-02,0.000000000000000000e+00,2.672294485174402894e+02
-9.115902013552492633e+00,2.912438773854451934e+00,5.024162066411583250e-02,9.998900210782709630e-01,1.476298554660309542e-02,0.000000000000000000e+00,2.687767251714806775e+02
-9.170954511962575495e+00,2.353065874815933434e+00,-2.159252864577157205e-01,9.968016981998342185e-01,1.387812921658219956e-02,-7.868781351614180519e-02,2.703240018255210657e+02
-9.217924017533720260e+00,1.803340048771087112e+00,-4.846800099480562118e-01,9.875311073553978414e-01,1.290719934764120516e-02,-1.568875910040850585e-01,2.718712784795614539e+02
-9.256666875398005701e+00,1.264482969051466066e+00,-7.559834297112042467e-01,9.721357467560072241e-01,1.185621774515885699e-02,-2.341143310022020529e-01,2.734185551336018420e+02
-9.287030237367778440e+00,7.377153713550144154e-01,-1.029796408721272538e+00,9.507111005220438837e-01,1.073170269384904688e-02,-3.098890670904148603e-01,2.749658317876422302e+02
-9.308852064292592488e+00,2.242570032676214908e-01,-1.306079793279041557e+00,9.233900464643145511e-01,9.540628531951769742e-03,-3.837418383478146677e-01,2.765131084416826184e+02
-9.321961128524280937e+00,-2.746734262053760478e-01,-1.584794413269019708e+00,8.903420319769225211e-01,8.290382397399443867e-03,-4.552146039568612523e-01,2.780603850957230065e+02
-9.326232433042530801e+00,-7.630802396051094005e-01,-1.868941019940315584e+00,8.517720231553975729e-01,6.988718414170007852e-03,-5.238640838856366555e-01,2.796243950274525218e+02
-9.321341166881047968e+00,-1.234327865016355164e+00,-2.155465422397907727e+00,8.079192336549781972e-01,5.643709602844542740e-03,-5.892645080376519573e-01,2.811884049591820371e+02
-9.307145886779244037e+00,-1.687297575370715785e+00,-2.444310080420892817e+00,7.590556411682902738e-01,4.263697813485547473e-03,-6.510102568255368150e-01,2.827524148909115524e+02
-9.283620498247612929e+00,-2.121117410799073344e+00,-2.735382519952956226e+00,7.054843007173862146e-01,2.857241991209182388e-03,-7.087183767970912651e-01,2.843164248226410677e+02
-9.251774025286000125e+00,-2.522373869281481884e+00,-3.019600319487878881e+00,6.475374652141415721e-01,1.433065095165468030e-03,-7.620309557155540148e-01,2.858325664139024411e+02
-9.210884358801079586e+00,-2.903633090509268211e+00,-3.305768103008806413e+00,5.855745249376080874e-01,0.000000000000000000e+00,-8.106173423658352695e-01,2.873487080051638145e+02
-9.160968244151268536e+00,-3.264190468798392253e+00,-3.593782552159848098e+00,8.010230466218279943e-01,1.680977087608944570e-02,-5.983957807208056812e-01,2.888648495964251879e+02
-9.102037092723335832e+00,-3.603341032463444726e+00,-3.883540336779791158e+00,9.429866597446359133e-01,3.207743219650309452e-02,-3.312781276935125585e-01,2.903809911876865613e+02
-9.034160936149813637e+00,-3.920547720115585832e+00,-4.174894155422085973e+00,9.984418138771008477e-01,4.440234749862993768e-02,-3.376945127337916547e-02,2.918971327789479346e+02
-8.957533982824136487e+00,-4.215609045648283093e+00,-4.467608776142217408e+00,9.623011475947070847e-01,5.265384537069009441e-02,2.668371674009193950e-01,2.934132743702093080e+02
-8.872413062222189950e+00,-4.488489952327896937e+00,-4.761404998144926459e+00,8.378801759393996740e-01,5.607494484992718575e-02,5.429644659909178550e-01,2.949294159614706814e+02
-8.779054464749222575e+00,-4.739153265825528649e+00,-5.056003613713926370e+00,9.053473691449666072e-01,4.153717105648690455e-01,-8.837693841807206518e-02,2.964455575527320548e+02
-8.671645631281545974e+00,-4.981324722709874031e+00,-5.368892854005243187e+00,9.286776543665467010e-01,2.644741591311298157e-01,2.600177559940689553e-01,2.980530021474328919e+02
-8.556121000816210298e+00,-5.199874297925810573e+00,-5.682021830780469074e+00,8.176343202152047684e-01,7.530893738781591074e-02,5.707895254430604970e-01,2.996604467421337290e+02
-8.432638445284160511e+00,-5.395057180875161507e+00,-5.995073049926951114e+00,7.957731143247932515e-01,9.275971804356768213e-02,5.984469777786836087e-01,3.012678913368345661e+02
-8.301101597241416385e+00,-5.567736416424679646e+00,-6.307721876408753481e+00,7.726805509466726507e-01,1.100669599842965807e-01,6.251783989348375092e-01,3.028753359315354032e+02
-8.109192139722152248e+00,-5.775929966188536824e+00,-6.736180944149778860e+00,7.483923528909645073e-01,1.272038900111869819e-01,6.509424371525430741e-01,3.050836114631876512e+02
-7.905851489704270207e+00,-5.957559870041590599e+00,-7.162869253490690369e+00,6.960760398967401619e-01,4.108489517103389166e-01,5.887947737207638310e-01,3.072918869948398992e+02
-7.750867517402188156e+00,-6.071102954438894805e+00,-7.467900286794537656e+00,5.831634957205101832e-01,6.587279764597748777e-01,4.753901453425525281e-01,3.088811760806968891e+02
-7.586902785170819286e+00,-6.169339533384900598e+00,-7.769903734638558213e+00,4.194841842552795574e-01,8.492620970858576479e-01,3.206008571625954540e-01,3.104704651665538790e+02
-7.404067606929965351e+00,-6.258874271825401792e+00,-8.084476945092195166e+00,2.192870272628086870e-01,9.658645139045589634e-01,1.379019233163145675e-01,3.121493063977750353e+02
-7.211543903360518648e+00,-6.336034080736727248e+00,-8.393021469888104491e+00,0.000000000000000000e+00,9.983844631533018710e-01,-5.680196945670642344e-02,3.138281476289961915e+02
-7.009313338533520010e+00,-6.402627165367838380e+00,-8.693790682327280805e+00,7.109473985738075374e-02,9.885903786514511626e-01,1.327878051723664077e-01,3.155069888602173478e+02
-6.797371490623877577e+00,-6.460461646951383585e+00,-8.985038016345166412e+00,1.392678525819752988e-01,9.381704256779987983e-01,3.169206803296928943e-01,3.171858300914385040e+02
-6.575727851358794673e+00,-6.511345481257582612e+00,-9.265016980069374242e+00,2.017177756949087297e-01,8.491966240700946633e-01,4.880297456479399942e-01,3.188646713226596603e+02
-6.344407621143662190e+00,-6.557101018160766515e+00,-9.531979500325107324e+00,2.558781471538286167e-01,7.253253641091970128e-01,6.390833200685656079e-01,3.205435125538808165e+02
-6.103466123164152712e+00,-6.599669113000095955e+00,-9.784188764090304247e+00,2.995232700366187162e-01,5.716471338335905594e-01,7.638739196278618859e-01,3.222223537851019728e+02
-5.853000646966889597e+00,-6.641183811967296791e+00,-1.001993539801352817e+01,3.308595745922742193e-01,3.944773133387635689e-01,8.572733468172034632e-01,3.239011950163231290e+02
-5.603883502156813634e+00,-6.682059867782715656e+00,-1.022853942883350697e+01,3.485993198661503367e-01,2.010966382425798948e-01,9.154434205772143951e-01,3.255105737869507720e+02
-5.345879909140646369e+00,-6.726058544198370903e+00,-1.041818165231974547e+01,3.520135077923879363e-01,-5.479992337527160454e-04,9.359936912342581294e-01,3.271199525575784151e+02
-5.079155876502507105e+00,-6.775094810362502606e+00,-1.058738210683444159e+01,2.667117791109648306e-01,2.447389377469652225e-02,9.634645065623386184e-01,3.287293313282060581e+02
-4.803929648219442683e+00,-6.830830958804961384e+00,-1.073481527603041563e+01,1.791010901817740864e-01,4.928391228887925996e-02,9.825944715311299982e-01,3.303387100988337011e+02
-4.520450615668424099e+00,-6.894801929390213857e+00,-1.085923294907878933e+01,8.993987732009491032e-02,7.366727837904697707e-02,9.932179773654231658e-01,3.319480888694613441e+02
-4.169991618586446513e+00,-6.983702958317589804e+00,-1.097959393162574848e+01,0.000000000000000000e+00,9.741290686787916486e-02,9.952430484926604315e-01,3.338834695940711299e+02
-3.810463027336158603e+00,-7.086774599107443784e+00,-1.106930111244811954e+01,-0.000000000000000000e+00,-9.695091807975529663e-02,9.952881590151888558e-01,3.358188503186809157e+02
-3.442555792057336195e+00,-7.205786832739969228e+00,-1.112790028741182802e+01,-8.509987894250357898e-03,-3.496795025689147796e-01,9.368296673276681474e-01,3.377542310432907016e+02
-3.141257645546972288e+00,-7.314837520806897864e+00,-1.115037231194636647e+01,-7.525276839494735026e-03,-2.888018937096377692e-01,9.573582591684978160e-01,3.393072186219453101e+02
-2.834498501322790798e+00,-7.437906933392286035e+00,-1.114890550395145574e+01,-6.509497914867861529e-03,-2.267319778936881802e-01,9.739344108497848262e-01,3.408602062005999187e+02
-2.522915893729077208e+00,-7.575556134705400346e+00,-1.112407060687715799e+01,-5.466844694432428445e-03,-1.637260063597008319e-01,9.864896899869861624e-01,3.424131937792545273e+02
-2.207151278207011291e+00,-7.728341695073083883e+00,-1.107643852035236698e+01,-4.401621693856015705e-03,-1.000440944872977578e-01,9.949722633745504696e-01,3.439661813579091358e+02
-1.887850522291315780e+00,-7.896518440967716934e+00,-1.100662346421337645e+01,-3.318226602569682160e-03,-3.594914811486257106e-02,9.993471109288953880e-01,3.455191689365637444e+02
-1.565661497823667370e+00,-8.079742204598472810e+00,-1.091532614224290931e+01,-2.221132131458964602e-03,2.829422165749335971e-02,9.995961702570690388e-01,3.470721565152183530e+02
-1.207762835725300521e+00,-8.297837094241796052e+00,-1.079173265464505427e+01,-1.114867550911389929e-03,9.242079070677156061e-02,9.957184112564252398e-01,3.487856200276899585e+02
-8.482493430997605222e-01,-8.531163439910560697e+00,-1.064615974255959863e+01,-3.999995304131439757e-06,1.561658166662475977e-01,9.877298404362626627e-01,3.504990835401615641e+02
-4.878936864938452911e-01,-8.778922770560118494e+00,-1.047951352797054447e+01,-3.431258075468773590e-06,1.373532654656963448e-01,9.905211155965775172e-01,3.522125470526331696e+02
-1.274620180914585454e-01,-9.040310623065176188e+00,-1.029270030427888294e+01,-2.861279878233495316e-06,1.184910373819077628e-01,9.929541147710270188e-01,3.539260105651047752e+02
2.323310464815847576e-01,-9.314309085145900724e+00,-1.008656381253619116e+01,-2.290266830177746974e-06,9.958595345257659215e-02,9.950279583300892794e-01,3.556394740775763808e+02
5.908696832756956674e-01,-9.599479826396423832e+00,-9.861822518188086306e+00,-1.718425422772605465e-06,8.064485019431115453e-02,9.967418964421337346e-01,3.573529375900479863e+02
9.450974530620667169e-01,-9.892102704388713974e+00,-9.620834008917420022e+00,-1.145962446714471925e-06,6.167457713616028570e-02,9.980953093380336982e-01,3.590543796104893772e+02
1.296995120898464249e+00,-1.019253894932194626e+01,-9.362669670660743293e+00,-5.730849173465950719e-07,4.268199434934798892e-02,9.990877075345891978e-01,3.607558216309307682e+02
1.646037895185757938e+00,-1.049915281546301316e+01,-9.087976507250456137e+00,-0.000000000000000000e+00,2.367396997322678345e-02,9.997187320112477238e-01,3.624572636513721591e+02
1.991714008895141941e+00,-1.081030448604279925e+01,-8.797401655076640736e+00,-1.513375075517903570e-06,7.588802991145153498e-02,9.971153428335347568e-01,3.641587056718135500e+02
2.333408761174361690e+00,-1.112439621967091519e+01,-8.491551886109123259e+00,-3.022613920811112574e-06,1.278946796309073375e-01,9.917867466916221453e-01,3.658601476922549409e+02
2.670288065815264122e+00,-1.143991725685581251e+01,-8.170953111242715394e+00,-4.523591691355671480e-06,1.795517816949279144e-01,9.837475070717472958e-01,3.675615897126963318e+02
3.001413698515831729e+00,-1.175539596673381659e+01,-7.836090867867235410e+00,-6.012206119863658164e-06,2.307181539693704542e-01,9.730195955852778411e-01,3.692630317331377228e+02
3.306822279597074310e+00,-1.205087084711503032e+01,-7.507951452826636896e+00,-7.484388726670552624e-06,2.812539554354359650e-01,9.596323319354927994e-01,3.708643974005989890e+02
3.605200426257563873e+00,-1.234352478195849301e+01,-7.167276576814650468e+00,-8.936115937843508848e-06,3.310210683394158027e-01,9.436223038035528310e-01,3.724657630680602551e+02
3.895747099715159756e+00,-1.263203527807606186e+01,-6.814496553818585767e+00,-1.036342008065981130e-05,3.798834756362867715e-01,9.250332668779628342e-01,3.740671287355215213e+02
4.177670991641845077e+00,-1.291507376653414951e+01,-6.450041783833576403e+00,-1.176240022643735615e-05,4.277076326967084730e-01,9.039160253000807499e-01,3.756684944029827875e+02
4.450190541421406465e+00,-1.319130565754791107e+01,-6.074342749803688157e+00,-1.312923285111294619e-05,4.743628322625373928e-01,8.803282928515860917e-01,3.772698600704440537e+02
4.712533953286978772e+00,-1.345939039544966676e+01,-5.687830014564236869e+00,-1.446018228445817173e-05,5.197215616542801842e-01,8.543345352622985223e-01,3.788712257379053199e+02
4.963939213338385947e+00,-1.371798151373132058e+01,-5.290934217785222771e+00,-1.575161091939562325e-05,5.636598512549176876e-01,8.260057940682182798e-01,3.804725914053665861e+02
5.203654106439171478e+00,-1.396572669016169499e+01,-4.884086072914151089e+00,-1.699998915352857377e-05,6.060576133181894143e-01,7.954194924999823391e-01,3.820739570728278522e+02
5.431003150441826577e+00,-1.420139066090391999e+01,-4.467809940674831282e+00,-1.079476870995449121e-05,6.580670211098091915e-01,7.529580304416703118e-01,3.836753227402891184e+02
5.688288060058960482e+00,-1.446861779882044274e+01,-3.957725997807100882e+00,-4.540889644353970971e-06,7.071098581352692758e-01,7.071022899858621091e-01,3.855974869278406914e+02
5.929235361416737682e+00,-1.471908652540194673e+01,-3.438336281366504377e+00,1.733457279194359904e-06,7.529650576593011069e-01,6.580589805916416957e-01,3.875196511153922643e+02
6.153194500676486101e+00,-1.495152732323000677e+01,-2.910801476170291835e+00,7.999989140413108610e-06,7.954259202489223357e-01,6.060491773184206732e-01,3.894418153029438372e+02
6.324182076850515699e+00,-1.512823349492648894e+01,-2.468068323593354041e+00,6.403024029217899400e-06,8.060669220623603026e-01,5.918227074869062410e-01,3.910340298006260582e+02
6.480206478897556188e+00,-1.528865128317027633e+01,-2.020640666484798675e+00,4.804037914103918422e-06,8.164535101763906733e-01,5.774094437040970806e-01,3.926262442983082792e+02
6.620778536075933474e+00,-1.543261686867556648e+01,-1.569607340311689025e+00,3.203535217060066142e-06,8.265824079014316705e-01,5.628139327685812709e-01,3.942184587959905002e+02
6.745409782977090707e+00,-1.555996252926527035e+01,-1.116057205876661573e+00,1.602020838721043431e-06,8.364504197167073052e-01,5.480407788965814264e-01,3.958106732936727212e+02
6.849212857579850322e+00,-1.566600182959730247e+01,-6.796201111622819369e-01,0.000000000000000000e+00,8.460544322668346329e-01,5.330946422741880131e-01,3.973379658955657874e+02
6.936890622175758025e+00,-1.575587591095912821e+01,-2.428635097642972973e-01,-4.820826492293019128e-02,8.823206484469500177e-01,4.681711615612655364e-01,3.988652584974588535e+02
7.008194968856312990e+00,-1.582978081542239934e+01,1.930661386576367211e-01,-9.603787901766490387e-02,9.116568066446733010e-01,3.995705102891313198e-01,4.003925510993519197e+02
7.062942405868009033e+00,-1.588803081320500432e+01,6.269741742451251376e-01,-1.431131713361313007e-01,9.338324929755451587e-01,3.278315043644232096e-01,4.019198437012449858e+02
7.100946652481772148e+00,-1.593093863987336078e+01,1.057665950208462879e+00,-1.890643961725632649e-01,9.486735350473675110e-01,2.535176088587287602e-01,4.034471363031380520e+02
7.122018643517141534e+00,-1.595881548092293123e+01,1.483946840550357971e+00,-2.335306372001663133e-01,9.560633697694566058e-01,1.772125121850524065e-01,4.049744289050311181e+02
7.125966533899603661e+00,-1.597197095637880437e+01,1.904622247791186496e+00,-2.761626422186226892e-01,9.559439586337196149e-01,9.951554147806541961e-02,4.065017215069241843e+02
7.112595703250999435e+00,-1.597071310541626055e+01,2.318497610696948374e+00,-3.166255662481883837e-01,9.483162433044955986e-01,2.103695520210341341e-02,4.080290141088172504e+02
7.081708760513127032e+00,-1.595534837099941150e+01,2.724378412005321159e+00,-3.546016014287784457e-01,9.332401379573836975e-01,-5.760685003445976254e-02,4.095563067107103166e+02
7.033105548604704715e+00,-1.592618158453810651e+01,3.121070186148924730e+00,-3.897924730740328636e-01,9.108340584458703981e-01,-1.357981808105405142e-01,4.110835993126033827e+02
6.966583149111421847e+00,-1.588351595056450449e+01,3.507378526978287336e+00,-4.219217822837038057e-01,8.812739920112185876e-01,-2.129228983478907711e-01,4.126108919144964489e+02
6.881935887009123398e+00,-1.582765303142964619e+01,3.882109095484301164e+00,-4.507371767244026106e-01,8.447921148573285244e-01,-2.883752419941771894e-01,4.141381845163895150e+02
6.771775460963265658e+00,-1.575408768014117378e+01,4.269304192115643382e+00,-4.760123325391987792e-01,8.016749684599806525e-01,-3.615625868603486448e-01,4.157720594580900979e+02
6.641782259111247200e+00,-1.566704100764365215e+01,4.641468257166996736e+00,-4.975487318301110573e-01,7.522612089413860392e-01,-4.319100982591105309e-01,4.174059343997906808e+02
6.491711163231022041e+00,-1.556685227107625558e+01,4.997234640905027447e+00,-5.151772217625080197e-01,6.969389471894419374e-01,-4.988652464037193202e-01,4.190398093414912637e+02
6.321591890519576040e+00,-1.545397831934226573e+01,5.335389792200021297e+00,-4.711698250525133691e-01,6.409557283566804653e-01,-6.059478114891631018e-01,4.206736842831918466e+02
6.132005959693420216e+00,-1.532911610507756173e+01,5.655026244774520983e+00,-4.193704694032804325e-01,5.743727203469485287e-01,-7.030095216392946433e-01,4.223075592248924295e+02
5.923806661421722630e+00,-1.519308725537442228e+01,5.955389646649261515e+00,-3.606357834583678867e-01,4.982910355864810792e-01,-7.884452267249042468e-01,4.239414341665930124e+02
5.697840243773064195e+00,-1.504671977987019815e+01,6.235725788457044061e+00,-2.959370872987276413e-01,4.139688686939323459e-01,-8.608420390031479297e-01,4.255753091082935953e+02
5.454945894145224017e+00,-1.489084802951573572e+01,6.495280609022863416e+00,-2.263443299816221832e-01,3.228006900576384508e-01,-9.190026979204383162e-01,4.272091840499941782e+02
5.173148469666761784e+00,-1.471176469972426837e+01,6.754289357006411088e+00,-1.530083961310036433e-01,2.262941859352027851e-01,-9.619653695049218411e-01,4.289872703554020745e+02
4.875048123154202884e+00,-1.452409000060088218e+01,6.989285528528715652e+00,-7.714207405483466951e-02,1.260453262576606281e-01,-9.890195529615819492e-01,4.307653566608099709e+02
4.562129023185124588e+00,-1.432861529486961594e+01,7.200332052640472824e+00,-0.000000000000000000e+00,2.371197228180339442e-02,-9.997178313761895252e-01,4.325434429662178673e+02
4.244498677210827964e+00,-1.413111006246986356e+01,7.383180408701265129e+00,-7.557215732820224963e-01,8.104295423911829499e-02,-6.498576330580670968e-01,4.342762899229354048e+02
3.916305339642704109e+00,-1.392695308355727413e+01,7.543990972372094816e+00,-7.892990921432009588e-03,0.000000000000000000e+00,-9.999678498306658891e-01,4.360091368796529423e+02
3.579953792807116564e+00,-1.371628538935813246e+01,7.683704508614450646e+00,9.438392342459250850e-02,-0.000000000000000000e+00,-9.955348688018281766e-01,4.377419838363704798e+02
3.267078841017836410e+00,-1.351764062780193676e+01,7.793090016473474435e+00,1.956716733125969665e-01,-0.000000000000000000e+00,-9.806684435956498636e-01,4.393273710104307952e+02
2.951372969481779407e+00,-1.331309043759247857e+01,7.884871704880278109e+00,2.949087406652401988e-01,-0.000000000000000000e+00,-9.555243768112161584e-01,4.409127581844911106e+02
2.635133777514480524e+00,-1.310259824288861452e+01,7.959864540416875300e+00,3.910550985602747609e-01,-0.000000000000000000e+00,-9.203661825008414565e-01,4.424981453585514259e+02
2.320659046750651822e+00,-1.288614455435109463e+01,8.018883606602331682e+00,4.831031107555469051e-01,-0.000000000000000000e+00,-8.755623246687785910e-01,4.440835325326117413e+02
2.010246693429913023e+00,-1.266372697003017045e+01,8.062744098211322097e+00,5.700880918196333802e-01,-0.000000000000000000e+00,-8.215823559244944674e-01,4.456689197066720567e+02
1.706194720681049048e+00,-1.243536017604509780e+01,8.092261315591990467e+00,6.510984172092327826e-01,-0.000000000000000000e+00,-7.589919967354926689e-01,4.472543068807323721e+02
1.410801170804698801e+00,-1.220107594705568488e+01,8.108250658983436665e+00,7.252850773434301734e-01,-0.000000000000000000e+00,-6.884472068239756437e-01,4.488396940547926874e+02
1.126364077554624643e+00,-1.196092314652632993e+01,8.111527622832566564e+00,7.918705755437341898e-01,-0.000000000000000000e+00,-6.106873108135916217e-01,4.504250812288530028e+02
1.052272160202124107e+00,-1.189401455918524952e+01,8.109132580316538608e+00,8.501570765771688798e-01,-0.000000000000000000e+00,-5.265272501460578347e-01,4.508570014242857837e+02
7.609230688129072773e-01,-1.161054986319463644e+01,8.085962913911222572e+00,8.995337203864339770e-01,-0.000000000000000000e+00,-4.368490424486053958e-01,4.526471057173492909e+02
4.877569169238004099e-01,-1.132050676092301167e+01,8.049874965184837805e+00,9.394830243346821153e-01,-0.000000000000000000e+00,-3.425925378454832138e-01,4.544372100104127981e+02
2.351610824050980042e-01,-1.102398965900849959e+01,8.001147663668833232e+00,9.695863068416660235e-01,-0.000000000000000000e+00,-2.447455690825293684e-01,4.562273143034763052e+02
5.357710273423979541e-03,-1.072115733987853226e+01,7.939781675474252509e+00,9.895280755431306030e-01,-0.000000000000000000e+00,-1.443335986950402550e-01,4.580174185965398124e+02
-1.995140827857200261e-01,-1.041220427881181898e+01,7.865638591090490905e+00,9.990993339589762101e-01,-0.000000000000000000e+00,-4.240897172842180568e-02,4.598075228896033195e+02
-3.973113769288430519e-01,-1.006213572946239232e+01,7.768967661277455861e+00,5.299993955616641179e-04,-0.000000000000000000e+00,-9.999988595503095379e-01,4.617980492884489081e+02
-5.631490097024022257e-01,-9.706038104503084796e+00,7.658324907068537080e+00,9.990993339589759881e-01,-0.000000000000000000e+00,-4.240897172842179180e-02,4.637885756872944967e+02
-6.957297920666731805e-01,-9.344721621155315461e+00,7.534110935019409538e+00,7.566728811006263600e-01,8.225587836745165693e-02,-6.485970409133974268e-01,4.657791020861400852e+02
-7.836691904686765575e-01,-9.019865446381619023e+00,7.411978193117186642e+00,7.550757964904738495e-01,2.554995927611568990e-02,-6.551379557806323861e-01,4.675486979039659445e+02
-8.416853467294956870e-01,-8.692435763891404932e+00,7.278484686548106097e+00,6.049639977889966769e-01,1.481783273090158393e-01,-7.823424727679112456e-01,4.693182937217918038e+02
-8.663636306061159864e-01,-8.406472165856735401e+00,7.152849265544412027e+00,4.223338967758962226e-01,2.628417910506486432e-01,-8.674942492676822603e-01,4.708566169981860412e+02
-8.660324917448354309e-01,-8.120126751062183956e+00,7.017906551246150926e+00,2.170022226365545259e-01,3.633769277550212840e-01,-9.060161387892701201e-01,4.723949402745802786e+02
-8.416085315184903548e-01,-7.834348881867419401e+00,6.873932830347802003e+00,5.999996079955432846e-06,4.443797096684325432e-01,-8.958374147125192088e-01,4.739332635509745160e+02
-7.940988619005476812e-01,-7.550075195267480943e+00,6.721197543505033956e+00,-2.306513462730577085e-02,3.985177464148167426e-01,-9.168694592773080076e-01,4.754715868273687533e+02
-7.246854657188974702e-01,-7.268222685625638668e+00,6.559956378311713188e+00,-4.606527057889397980e-02,3.514291765664014910e-01,-9.350794216016892202e-01,4.770099101037629907e+02
-6.283316757536236974e-01,-6.970248412359292267e+00,6.378612269010877966e+00,-6.892361564629416459e-02,3.032589350963585395e-01,-9.504112549255870901e-01,4.786557788078009708e+02
