1.326789129410407275e+00,2.338561495308840943e+00,9.823114618633290718e-01,-2.256800000000000125e-02,-9.740079999999999849e-01,-2.253860000000000030e-01,0.000000000000000000e+00
1.388648305047887499e+00,3.132213281427465912e+00,6.592164369462967244e-01,-2.256798026319742356e-02,-9.740071481831086286e-01,-2.253858028890914078e-01,1.579087266284199487e+00
1.447456683171219671e+00,3.923462302721224315e+00,3.395050632342578867e-01,-2.256798026319883563e-02,-9.740071481831695799e-01,-2.253858028891054799e-01,3.158174532568398973e+00
1.497176464450336031e+00,4.710164489626431639e+00,2.656436452233057466e-02,-2.256798026319742356e-02,-9.740071481831086286e-01,-2.253858028890914078e-01,4.737261798852598460e+00
1.532962910510195842e+00,5.490152118346785848e+00,-2.763621189422156288e-01,-2.256798026319319084e-02,-9.740071481829258859e-01,-2.253858028890491083e-01,6.316349065136797947e+00
1.552665218027657890e+00,6.261152850267912129e+00,-5.664180061538119926e-01,1.833254147066601739e-02,-9.853611766419828610e-01,-1.694853075950786825e-01,7.895436331420997433e+00
1.555018807888993493e+00,7.020724502394352307e+00,-8.412801845804511736e-01,5.914274684802296733e-02,-9.918606829312208717e-01,-1.127498166343988556e-01,9.474523597705196920e+00
1.537266397761961390e+00,7.766232198877125903e+00,-1.099104482626490187e+00,9.966157859612588543e-02,-9.934736464593049154e-01,-5.545884549059783286e-02,1.105361086398939641e+01
1.495745928590046292e+00,8.494964792859219571e+00,-1.338236156165877322e+00,1.396894148830705173e-01,-9.901921201745024215e-01,2.105353766136343081e-03,1.263269813027359589e+01
1.426765232216013590e+00,9.204231944517056618e+00,-1.557020590306640972e+00,1.790290527682666943e-01,-9.820322704292872018e-01,5.965918287146149829e-02,1.421178539655779538e+01
1.331352498937427020e+00,9.867730669416355127e+00,-1.747582865097093929e+00,2.174866797548291042e-01,-9.690342973590386766e-01,1.169190945549642285e-01,1.573468103808561125e+01
1.205159202115818617e+00,1.050907282186867775e+01,-1.917383840035003617e+00,2.548728286412904609e-01,-9.512622368537400064e-01,1.736029894812607943e-01,1.725757667961342534e+01
1.047755810036063107e+00,1.112625605385922256e+01,-2.069031550953604803e+00,2.910033109681257057e-01,-9.288036450972543268e-01,2.294316060616655162e-01,1.878047232114123943e+01
8.626253316778168534e-01,1.171792332881805265e+01,-2.211178725734433304e+00,3.257001244599182499e-01,-9.017691672274030790e-01,2.841298962889257096e-01,2.030336796266905353e+01
6.550284149008283041e-01,1.228302843824187818e+01,-2.355297072783698376e+00,3.587923299920197651e-01,-8.702919922411032072e-01,3.374283808162134579e-01,2.182626360419686762e+01
4.283103100328779500e-01,1.282017011153767427e+01,-2.511722761111950142e+00,3.901168937606270259e-01,-8.345271968294237785e-01,3.890644766036953639e-01,2.334915924572468171e+01
1.838737645923864406e-01,1.332801439097689844e+01,-2.686802510924396703e+00,4.195194905065810498e-01,-7.946509813748239281e-01,4.387837905910350056e-01,2.487205488725249580e+01
-7.503329378822520823e-02,1.380636228237825058e+01,-2.882310763259723796e+00,4.468552638350547501e-01,-7.508598018743336544e-01,4.863413730215024877e-01,2.639495052878030990e+01
-3.689121052318755645e-01,1.429446693156646297e+01,-3.120598373980754126e+00,4.719895398846724044e-01,-7.033694020654027712e-01,5.315029242421057676e-01,2.805963386483880839e+01
-6.678476242154864906e-01,1.474530380693567189e+01,-3.385718211297027214e+00,4.947984908294763562e-01,-6.524137505230371836e-01,5.740459490333810200e-01,2.972431720089730689e+01
-9.645039788930563907e-01,1.515952067071882148e+01,-3.677749884145403492e+00,5.151697449443770616e-01,-5.982438879652297592e-01,6.137608527810293202e-01,3.138900053695580539e+01
-1.251538124658625462e+00,1.553772093693932277e+01,-3.996772794617057478e+00,5.330029402280686002e-01,-5.411266904462633809e-01,6.504519740881913314e-01,3.305368387301430033e+01
-1.521599962211286572e+00,1.588046363378741432e+01,-4.342866137342992872e+00,5.482102188555738609e-01,-4.813435545320181586e-01,6.839385487404116004e-01,3.471836720907279528e+01
-1.767332455703257921e+00,1.618826336651943976e+01,-4.716108898880761124e+00,5.607166600242153853e-01,-4.191890109359158179e-01,7.140556002736854202e-01,3.638305054513129022e+01
-1.973382004191609251e+00,1.644876889130591735e+01,-5.093635702988536629e+00,5.704606490604534619e-01,-3.549692734466661226e-01,7.406547527577570511e-01,3.796094368375838002e+01
-2.152082546509618499e+00,1.667937745442273823e+01,-5.491404838582553793e+00,5.773941809691841565e-01,-2.890007302978197523e-01,7.636049617902332942e-01,3.953883682238546982e+01
-2.303132108228549857e+00,1.687949961952866929e+01,-5.906469582363668813e+00,5.814830969302080543e-01,-2.216083854126935371e-01,7.827931601002129369e-01,4.111672996101255961e+01
-2.426233758693069564e+00,1.704854402027664761e+01,-6.335883091561304248e+00,5.827072525770398137e-01,-1.531242572051277617e-01,7.981248145810122541e-01,4.269462309963964941e+01
-2.521095616496840996e+00,1.718591738525201507e+01,-6.776698424273019050e+00,5.810606172294330296e-01,-8.388574282553397377e-02,8.095243920080945621e-01,4.427251623826673921e+01
-2.587430854906872746e+00,1.729102456293380996e+01,-7.225968559804593738e+00,5.765513035912456230e-01,-1.423395591180482735e-02,8.169357311483508299e-01,4.585040937689382901e+01
-2.624957707236577065e+00,1.736326854667889208e+01,-7.680746419010524129e+00,5.692015277679184360e-01,5.548795396500057903e-02,8.203223194281856756e-01,4.742830251552091880e+01
-2.634657082926217697e+00,1.740205292881285715e+01,-8.124102456298444963e+00,3.929044487389432572e-01,4.365734123405916323e-02,9.185413059394110791e-01,4.895812993759756182e+01
-2.620260550846853942e+00,1.741060708062717310e+01,-8.567029351627937217e+00,2.005502775541377347e-01,3.004255441678143138e-02,9.792216455410993614e-01,5.048795735967419773e+01
-2.584182892716755831e+00,1.738920569295828855e+01,-9.006764951975053890e+00,0.000000000000000000e+00,1.519999199371368896e-02,9.998834733317381041e-01,5.201778478175083364e+01
-2.528835014891952060e+00,1.733813655658826747e+01,-9.440547124936010448e+00,-0.000000000000000000e+00,6.377917058116652424e-03,9.999786608528554721e-01,5.354761220382746956e+01
-2.456132794369358940e+00,1.725826858044095857e+01,-9.865569383303133932e+00,-0.000000000000000000e+00,-2.444652874761686981e-03,9.999960118218210736e-01,5.507743962590410547e+01
-2.366998048265404719e+00,1.715161618590670756e+01,-1.027893650992868757e+01,-0.000000000000000000e+00,-1.126703122667802731e-02,9.999355249188323080e-01,5.660726704798074138e+01
-2.261837821568315032e+00,1.702076576774635086e+01,-1.067770896985398110e+01,-0.000000000000000000e+00,-2.008853143510555203e-02,9.997972048832026726e-01,5.813709447005737729e+01
-2.137468099995459614e+00,1.686381778147815069e+01,-1.106832475472193522e+01,-0.000000000000000000e+00,-2.890846700660624005e-02,9.995810625071457345e-01,5.970669106181776442e+01
-1.996575129227843748e+00,1.668641237106412234e+01,-1.143674790993587997e+01,-0.000000000000000000e+00,-3.772615157010862641e-02,9.992871146349184830e-01,6.127628765357815155e+01
-1.839516999718904922e+00,1.649142174132970595e+01,-1.177972166041561053e+01,-0.000000000000000000e+00,-4.654089893017572532e-02,9.989153841614963891e-01,6.284588424533853868e+01
-1.666620415393721188e+00,1.628171990985500273e+01,-1.209398940480330431e+01,-0.000000000000000000e+00,-5.535202312025905291e-02,9.984659000307835042e-01,6.441548083709892580e+01
-1.478180689667818237e+00,1.606018255054055288e+01,-1.237629473770675936e+01,-0.000000000000000000e+00,-6.415883845593449430e-02,9.979386972333547101e-01,6.598507742885931293e+01
-1.274461741792948022e+00,1.582968683715735381e+01,-1.262338147194162374e+01,-0.000000000000000000e+00,-7.296065958811630281e-02,9.973338168037325646e-01,6.755467402061970006e+01
-1.055696093529856716e+00,1.559311128688229964e+01,-1.283199366077251469e+01,-0.000000000000000000e+00,-8.175680155624505396e-02,9.966513058171966311e-01,6.912427061238008719e+01
-8.220848661480614217e-01,1.535333560382052731e+01,-1.299887562015289433e+01,-0.000000000000000000e+00,-9.054657984144540150e-02,9.958912173861287354e-01,7.069386720414047431e+01
-5.737977777526577228e-01,1.511324052251594097e+01,-1.312077195096361137e+01,-0.000000000000000000e+00,-9.932931041964995766e-02,9.950536106558915961e-01,7.226346379590086144e+01
-3.109731409381695233e-01,1.487570765145128071e+01,-1.319442756124996663e+01,-0.000000000000000000e+00,-1.081043098146848153e-01,9.941385508002410498e-01,7.383306038766124857e+01
-3.231413476855295175e-02,1.464254350497279944e+01,-1.321643342916850550e+01,-0.000000000000000000e+00,-1.168708951513131450e-01,9.931461090162760907e-01,7.541019847128949039e+01
2.607678730745039419e-01,1.441773024242321100e+01,-1.318319200347053055e+01,3.204669457962769537e-04,-5.880065388116560016e-02,9.982686914847954673e-01,7.698733655491773220e+01
5.677945323089733654e-01,1.420386001677678323e+01,-1.309231865399790884e+01,6.398446498911922750e-04,-5.306028803975711703e-04,9.999986545262882220e-01,7.856447463854597402e+01
8.881715259294162834e-01,1.400341197027992735e+01,-1.294173993833400260e+01,9.570477866497265193e-04,5.774124123053508278e-02,9.983301223121142653e-01,8.014161272217421583e+01
1.021718900379986916e+00,1.392522724067896611e+01,-1.286593905739984045e+01,1.270998420251536658e-03,1.158168560489946514e-01,9.932687654470839789e-01,8.078403856062790567e+01
1.360445149257029529e+00,1.374047739143022540e+01,-1.264003820073786066e+01,0.000000000000000000e+00,1.173078338390019654e-01,9.930945933284813787e-01,8.238127097373336483e+01
1.709283047183441706e+00,1.357223177178310003e+01,-1.235007763940668468e+01,-1.177648228227758248e-01,0.000000000000000000e+00,9.930405059701521431e-01,8.397850338683882399e+01
2.065081948706136483e+00,1.341895484309775810e+01,-1.199816825535300246e+01,-1.763156287943793976e-01,2.062332165748461885e-02,9.841165975878357619e-01,8.557573579994428314e+01
2.422375629774227157e+00,1.327878803437507216e+01,-1.159086213073634575e+01,-2.341729504548448471e-01,4.116552618769131477e-02,9.713220005385787559e-01,8.716453624033491110e+01
2.779489729581720248e+00,1.314814430078211949e+01,-1.113133476354031437e+01,-2.911092270767062229e-01,6.154581825240908188e-02,9.547070389223207831e-01,8.875333668072553905e+01
3.132875786046660505e+00,1.302434549546563503e+01,-1.062429835555538382e+01,-3.469005206505925698e-01,8.168403939141852255e-02,9.343370625649425332e-01,9.034213712111616701e+01
3.478956373151896209e+00,1.290473393547750902e+01,-1.007446544098068664e+01,-4.013273965962690371e-01,1.015009832736075285e-01,9.102921899792500993e-01,9.193093756150679496e+01
3.814125152829489274e+00,1.278667254764823547e+01,-9.486548853444311646e+00,-4.541757867598858467e-01,1.209187072024037607e-01,8.826669932488763193e-01,9.351973800189742292e+01
4.134746927153202911e+00,1.266754501424057189e+01,-8.865261693021999179e+00,-5.052378313063671245e-01,1.398608386512625312e-01,8.515701260789159122e-01,9.510853844228805087e+01
4.437157690838736457e+00,1.254475591838210669e+01,-8.215317293254443598e+00,-5.543126961982601797e-01,1.582528756244896972e-01,8.171238964755642709e-01,9.669733888267867883e+01
4.717664684051388058e+00,1.241573088927547808e+01,-7.541429188163390585e+00,-6.012073630482207554e-01,1.760224796629284438e-01,7.794637857343128529e-01,9.828613932306930678e+01
4.972546445520817926e+00,1.227791674718491777e+01,-6.848311079266681922e+00,-6.457373882407045906e-01,1.930997603428957488e-01,7.387379156269492375e-01,9.987493976345993474e+01
5.198052865962595526e+00,1.212878164819789006e+01,-6.140676802592421879e+00,-6.877276283389794909e-01,2.094175501501162051e-01,6.951064658809584795e-01,1.014637402038505627e+02
5.390405241806202064e+00,1.196581522876051373e+01,-5.423240295692429491e+00,-7.270129289257662997e-01,2.249116686481305305e-01,6.487410442400828314e-01,1.030525406442411906e+02
5.569592992844294876e+00,1.174160594201389785e+01,-4.537060608838252129e+00,-9.246034767262547582e-01,-1.743419773614379165e-01,3.386905457147098009e-01,1.050000257257920424e+02
5.676171378845417337e+00,1.148645664572527814e+01,-3.651390028733441984e+00,-8.498265231567917466e-01,-5.222387069684532035e-01,-7.113096008795406766e-02,1.069475108073428942e+02
5.709997533723557339e+00,1.123130546718700273e+01,-2.860469436665595389e+00,-9.225027107052581332e-01,-3.820525499434559435e-01,-5.497815768559451838e-02,1.087028936583431147e+02
5.686847106669571161e+00,1.095568130731545686e+01,-2.081679464376972266e+00,-9.719364694593536358e-01,-2.322406754257876627e-01,-3.744019247301075964e-02,1.104582765093433352e+02
5.606537869578655631e+00,1.066258772893502993e+01,-1.319549929517159104e+00,-9.968823582192178900e-01,-7.657756097871246115e-02,-1.895892997445768405e-02,1.122136593603435557e+02
5.468920119946378833e+00,1.035502918517088489e+01,-5.786105073451526248e-01,-9.967118863751273095e-01,8.101490948214877530e-02,-0.000000000000000000e+00,1.139690422113437762e+02
5.274969095702724431e+00,1.003635322107096073e+01,1.374401437002546189e-01,-9.932567570293234782e-01,8.139880434615835714e-02,-8.254240890503737604e-02,1.157244250623439967e+02
5.067503284040846268e+00,9.756089037309354950e+00,7.344401151852031351e-01,-9.830223045673989191e-01,8.122712403018601812e-02,-1.645214364331784862e-01,1.172373069545191839e+02
4.828276466938222100e+00,9.473775965178742098e+00,1.313532832121185656e+00,-9.660783830276251649e-01,8.050104033451617458e-02,-2.453775465544107415e-01,1.187501888466943711e+02
4.559703112611516396e+00,9.191798922866862398e+00,1.874052728414987268e+00,-9.425406411065262446e-01,7.922550907238744278e-02,-3.245588676588880839e-01,1.202630707388695583e+02
4.264220878081945720e+00,8.912529595765743551e+00,2.415334355835613511e+00,-9.125697327805535330e-01,7.740923624233604639e-02,-4.015249593220102109e-01,1.217759526310447455e+02
3.944290577312353996e+00,8.638326325568629116e+00,2.936712388232026072e+00,-8.763702207390996479e-01,7.506461860316120116e-02,-4.757505010370863263e-01,1.232888345232199327e+02
3.602396149122288449e+00,8.371533999495452960e+00,3.437521625750297627e+00,-8.341891801169368792e-01,7.220765905738532608e-02,-5.467288777362185881e-01,1.248017164153951200e+02
3.241044624881253888e+00,8.114483939647787025e+00,3.917096999050170059e+00,-7.863145120595614879e-01,6.885785742101434292e-02,-6.139756376252964998e-01,1.263145983075703072e+02
2.862766095980330050e+00,7.869493792494094642e+00,4.374773573520989167e+00,-7.330729786357232936e-01,6.503807732543331888e-02,-6.770317987314022901e-01,1.278274801997454944e+02
2.470113681082323431e+00,7.638867418486213090e+00,4.809886553496999007e+00,-6.748279725133988771e-01,6.077439016019298840e-02,-7.354669815944707700e-01,1.293403620919206674e+02
2.065663493150651675e+00,7.424894781807913624e+00,5.221771286471969198e+00,-6.119770366256332972e-01,5.609589712214067131e-02,-7.888823467226213637e-01,1.308532439840958546e+02
1.652014606257129481e+00,7.229851840256425355e+00,5.609763267313146784e+00,-5.449491507587007622e-01,5.103453058575693757e-02,-8.369133167640062654e-01,1.323661258762710418e+02
1.231789022168844783e+00,7.056000435257802295e+00,5.973198142474503314e+00,-4.742018035852761937e-01,4.562483615065762027e-02,-8.792320648181624065e-01,1.338790077684462290e+02
8.076316367143141495e-01,6.905588182017010190e+00,6.311411714209254953e+00,-4.002178701289689777e-01,3.990373685404841747e-02,-9.155497519066165824e-01,1.353918896606214162e+02
3.822102059291063725e-01,6.780848359803606229e+00,6.623739944781646294e+00,-3.235023159736916676e-01,3.391028115758249611e-02,-9.456184983349567030e-01,1.369047715527966034e+02
-4.178468801888218093e-02,6.683999802373884691e+00,6.909518960677969446e+00,-2.445787507129186800e-01,2.768537642874062746e-02,-9.692330754950132521e-01,1.384176534449717906e+02
-4.616396711243077600e-01,6.617246788530366075e+00,7.168085056816814848e+00,-1.639858541619299004e-01,2.127150973578075324e-02,-9.862323065638125552e-01,1.399305353371469778e+02
-8.746186120592279734e-01,6.582778932819506323e+00,7.398774700758505851e+00,-8.227369972366822826e-02,1.471245786181720958e-02,-9.965001665425308186e-01,1.414434172293221650e+02
-1.291958340598154953e+00,6.584105878632011688e+00,7.607066321818921395e+00,-0.000000000000000000e+00,8.052988517103476865e-03,-9.999665741302532496e-01,1.430104589938938489e+02
-1.695111510597837157e+00,6.625717292184043927e+00,7.784281823593159899e+00,1.984795552643255426e-02,-2.502312411574146231e-02,-9.994888203086398359e-01,1.445775007584655327e+02
-2.080031446839384568e+00,6.708760084307306748e+00,7.933859640791316004e+00,3.966637210066471797e-02,-5.806199530753911042e-02,-9.975236255981020372e-01,1.461445425230372166e+02
-2.442385497842201492e+00,6.833918359920753360e+00,8.060638900218537017e+00,5.942575608357240219e-02,-9.101445682225073330e-02,-9.940739148395347780e-01,1.477115842876089005e+02
-2.777832822831734827e+00,7.001852023691428784e+00,8.169458883828195184e+00,7.909670170042037984e-02,-1.238314690392284950e-01,-9.891448220846599249e-01,1.492786260521805843e+02
-3.082024451043046565e+00,7.213196739206828134e+00,8.265158995768743466e+00,9.864993479936944032e-02,-1.564641939287245986e-01,-9.827436829527518292e-01,1.508456678167522682e+02
-3.352002482785447768e+00,7.467733277160260030e+00,8.351489705277518993e+00,1.180563564139884697e-01,-1.888640677271934687e-01,-9.748800237121687529e-01,1.524127095813239521e+02
-3.587611097592001475e+00,7.763567421028199966e+00,8.430023496989486276e+00,1.372870860649880176e-01,-2.209828732043121191e-01,-9.655655471025326175e-01,1.539797513458956360e+02
-3.790115150238563491e+00,8.097976445993252170e+00,8.501243884381288751e+00,1.563135047367802954e-01,-2.527728114142484550e-01,-9.548141149186625265e-01,1.555467931104673198e+02
-3.960806922528913088e+00,8.468245123945377983e+00,8.565634430630423068e+00,1.751072974649543479e-01,-2.841865728244751810e-01,-9.426417273821817711e-01,1.571138348750390037e+02
-4.101006103717623752e+00,8.871665859380559738e+00,8.623678745321717187e+00,1.936404954713352999e-01,-3.151774077163534971e-01,-9.290664993314886599e-01,1.586808766396106876e+02
-4.212768809564906292e+00,9.309471118034563730e+00,8.676257010854566687e+00,2.118855177839669979e-01,-3.456991957527928983e-01,-9.141086332655016244e-01,1.602612433546739510e+02
-4.296071389183362399e+00,9.775723398477540016e+00,8.723322554806140161e+00,2.298152122801234709e-01,-3.757065146095286412e-01,-8.977903892812639786e-01,1.618416100697372144e+02
-4.352364277417017036e+00,1.026764652726406801e+01,8.765375765640801120e+00,2.474028960913110531e-01,-4.051547075679520216e-01,-8.801360519501076896e-01,1.634219767848004778e+02
-4.383126416576955897e+00,1.078247286222391566e+01,8.802917066431296789e+00,2.646223953101696225e-01,-4.339999499689659035e-01,-8.611718941816207673e-01,1.650023434998637413e+02
-4.389865234356726376e+00,1.131744343499494398e+01,8.836446911392563663e+00,2.814480839402158652e-01,-4.621993144290285072e-01,-8.409261381291346371e-01,1.665827102149270047e+02
-4.374116621449407383e+00,1.186980809346248300e+01,8.866465782415401620e+00,2.978549220304967937e-01,-4.897108347213858237e-01,-8.194289131948488958e-01,1.681630769299902681e+02
-4.337444908866500803e+00,1.243682564410391755e+01,8.893474185599968607e+00,3.138184929384293942e-01,-5.164935682274721662e-01,-7.967122111970159626e-01,1.697434436450535316e+02
-4.281442844958767147e+00,1.301576399423728247e+01,8.917972647789165208e+00,3.293150396653934386e-01,-5.425076568655753384e-01,-7.728098387658244306e-01,1.713238103601167950e+02
-4.207731572139162601e+00,1.360390029417258972e+01,8.940461713101925056e+00,3.443215002110234235e-01,-5.677143864061273693e-01,-7.477573670387459570e-01,1.729041770751800584e+02
-4.117960603308000067e+00,1.419852107926468499e+01,8.961441939466384454e+00,3.588155418935968788e-01,-5.920762440853672981e-01,-7.215920787301187689e-01,1.744845437902433218e+02
-4.013853275507990759e+00,1.479693410090373362e+01,8.981160522829112480e+00,3.246281171674334498e-01,-5.986529165201547320e-01,-7.322767721886745962e-01,1.760649105053065853e+02
-3.897252036603403802e+00,1.539648050256210254e+01,8.999357923119010394e+00,2.900101731225198654e-01,-6.044356563979763619e-01,-7.419903212044393070e-01,1.776452772203698487e+02
-3.770072692202385500e+00,1.599452378921764861e+01,9.015521238368402024e+00,2.550076198428287699e-01,-6.094167948162900750e-01,-7.507198438957448650e-01,1.792256439354331121e+02
-3.634258817740450009e+00,1.658843845032412290e+01,9.029137580588821876e+00,2.196668774511796596e-01,-6.135897259369349488e-01,-7.584537633741678109e-01,1.808060106504963755e+02
-3.491781730832838271e+00,1.717561009882894396e+01,9.039694079322821096e+00,1.840348145503888921e-01,-6.169489157450080974e-01,-7.651818230952986966e-01,1.823863773655596390e+02
-3.351267993450962379e+00,1.772821526106342205e+01,9.046530750174120783e+00,1.481586860699484753e-01,-6.194899093865237072e-01,-7.708951004587510925e-01,1.838965192883133568e+02
-3.208286965531172541e+00,1.827048196789061052e+01,9.049821054208139870e+00,1.120860706006303470e-01,-6.212093370751726740e-01,-7.755860186394252231e-01,1.854066612110670746e+02
-3.064550048402148619e+00,1.880025797285768974e+01,9.049137410744245713e+00,7.586480730007495732e-02,-6.221049185603583220e-01,-7.792483566343660906e-01,1.869168031338207925e+02
-2.921790658451949518e+00,1.931540032435519905e+01,9.044052264141402731e+00,3.954293245298649839e-02,-6.221754661505991546e-01,-7.818772575119012913e-01,1.884269450565745103e+02
-2.781764204994951584e+00,1.981377547101308423e+01,9.034138086501904752e+00,3.168615770015761716e-03,-6.214208862882928397e-01,-7.834692348521394845e-01,1.899370869793282282e+02
-2.646248067927267744e+00,2.029325936700750788e+01,9.018967380374981246e+00,-3.320990349024550287e-02,-6.198421796737618727e-01,-7.840221773702942265e-01,1.914472289020819460e+02
-2.517041575170778867e+00,2.075173757727766599e+01,8.998112681460259665e+00,-6.954438049149828938e-02,-6.174414399384111629e-01,-7.835353517167061854e-01,1.929573708248356638e+02
-2.395965979905902987e+00,2.118710538265169419e+01,8.971146561311069689e+00,-1.057866287974185415e-01,-6.142218508687596890e-01,-7.820094034498509261e-01,1.944675127475893817e+02
-2.284864437593220998e+00,2.159726788488088545e+01,8.937641630037575169e+00,-1.418885842719944945e-01,-6.101876821850156229e-01,-7.794463561810346386e-01,1.959776546703430995e+02
-2.185601982784090680e+00,2.198014011158138814e+01,8.897170539009733758e+00,-1.778023688178317352e-01,-6.053442838797847836e-01,-7.758496088919047962e-01,1.974877965930968173e+02
-2.100065505720380532e+00,2.233364712108246408e+01,8.849305983560046940e+00,-2.134803538679444779e-01,-5.996980791244060915e-01,-7.712239314283174663e-01,1.989979385158505352e+02
-2.030163728723443750e+00,2.265572410718059615e+01,8.793620705686118200e+00,-2.488752235468845997e-01,-5.932565557523028499e-01,-7.655754581765170652e-01,2.005080804386042530e+02
-1.977827182372474235e+00,2.294431650379850041e+01,8.729687496752966069e+00,-2.839400374174871344e-01,-5.860282563306241643e-01,-7.589116799299936433e-01,2.020182223613579708e+02
-1.945008181472364317e+00,2.319738008954829311e+01,8.657079200195129332e+00,-3.186282927300625456e-01,-5.780227668333187685e-01,-7.512414339577758726e-01,2.035283642841116887e+02
-1.933680800811206080e+00,2.341288109219789249e+01,8.575368714218505772e+00,-3.528939860915203397e-01,-5.692507039306371475e-01,-7.425748922873004476e-01,2.050385062068654065e+02
-1.945840850707566849e+00,2.358879629303992331e+01,8.484128994501949350e+00,-3.866916744726696109e-01,-5.597237009118894990e-01,-7.329235482173624971e-01,2.065486481296191243e+02
-1.983505852347670739e+00,2.372311313116218656e+01,8.382933056898576041e+00,-4.199765354728211553e-01,-5.494543922600975128e-01,-7.223002010789976168e-01,2.080587900523728422e+02
-2.053718300099807603e+00,2.381718253418193143e+01,8.263109903402195755e+00,-2.042315232335925046e-01,-5.918490498460435845e-01,-7.797449500413348167e-01,2.096707596792464301e+02
-2.153836958453603678e+00,2.385802677190729781e+01,8.130408061545338683e+00,2.206062339442155240e-02,-6.036787175315465603e-01,-7.969211597742492659e-01,2.112827293061200180e+02
-2.280247770969516363e+00,2.384544533361615493e+01,7.984573934019548069e+00,2.472134941618859549e-01,-5.843324823401598866e-01,-7.729418078919988444e-01,2.128946989329936059e+02
-2.429340276416698252e+00,2.377921630772101125e+01,7.825354018032287584e+00,4.595995113955018141e-01,-5.348094314391391713e-01,-7.090452462074303686e-01,2.145066685598671938e+02
-2.597507664700346997e+00,2.365909640059200569e+01,7.652494907135379165e+00,4.898930715208476006e-01,-5.554896580358100744e-01,-6.718883972000754268e-01,2.161186381867407817e+02
-2.781777185867345459e+00,2.348542052730143936e+01,7.466085478244631979e+00,5.188511784169956842e-01,-5.746556147585337726e-01,-6.328999755749415979e-01,2.177306078136143697e+02
-2.980431814988295791e+00,2.325970627155873061e+01,7.266899076193410245e+00,5.463948923180587114e-01,-5.922550552637985133e-01,-5.921862639104329418e-01,2.193425774404879576e+02
-3.192366823410232701e+00,2.298406158217245476e+01,7.056051322971207185e+00,5.724491290741240412e-01,-6.082400035056096943e-01,-5.498582478773602622e-01,2.209545470673615455e+02
-3.416455076620682263e+00,2.266058753726683150e+01,6.834657924496191583e+00,5.969428648232683043e-01,-6.225668845130326590e-01,-5.060313137003565886e-01,2.225665166942351334e+02
-3.637864186861771820e+00,2.231440128821107294e+01,6.617234027216827741e+00,6.198093295961850657e-01,-6.351966431714870520e-01,-4.608249336246611483e-01,2.240880029226550221e+02
-3.867664855256519374e+00,2.193145674688810232e+01,6.392764543005537092e+00,6.409861893259185539e-01,-6.460948506841963646e-01,-4.143623402455346438e-01,2.256094891510749108e+02
-4.104910641531245297e+00,2.151340536627688849e+01,6.162135261389095398e+00,6.604157157666824540e-01,-6.552317984236558646e-01,-3.667701905877965296e-01,2.271309753794947994e+02
-4.348638375554186197e+00,2.106189311926595664e+01,5.926232011368568919e+00,6.780449438586830802e-01,-6.625825789173264146e-01,-3.181782208508845966e-01,2.286524616079146881e+02
-4.597868171334253518e+00,2.057856041802335767e+01,5.685940655735507221e+00,6.938258161100365751e-01,-6.681271537467924349e-01,-2.687188927602726651e-01,2.301739478363345768e+02
-4.851603441182595233e+00,2.006504203342377224e+01,5.442147085387960104e+00,7.077153136022346080e-01,-6.718504081752655344e-01,-2.185270324889586613e-01,2.316954340647544655e+02
-5.108830910036873618e+00,1.952296701453342820e+01,5.195737213646367536e+00,7.196755732620272461e-01,-6.737421923544560931e-01,-1.677394631329913177e-01,2.332169202931743541e+02
-5.368520629948185352e+00,1.895395860815337841e+01,4.947596970569340336e+00,7.296739910799986406e-01,-6.737973489983849484e-01,-1.164946317425855221e-01,2.347384065215942428e+02
-5.629625994730534266e+00,1.835963417842189571e+01,4.698612297269357363e+00,7.376833109943747857e-01,-6.720157274485697441e-01,-6.493223192523900344e-02,2.362598927500141315e+02
-5.891083754772780345e+00,1.774160512647658550e+01,4.449669140228412978e+00,7.436816991976447078e-01,-6.684021840920901791e-01,-1.319282304935810723e-02,2.377813789784340202e+02
-6.151814032012977052e+00,1.710147681017684462e+01,4.201653445613637849e+00,7.476528036632843488e-01,-6.629665691312067732e-01,3.858255291379712737e-02,2.393028652068539088e+02
-6.410720335075009046e+00,1.644084846388736665e+01,3.955451153592920654e+00,7.495857987301239866e-01,-6.557236997404047862e-01,9.025275586556300023e-02,2.408243514352737975e+02
-6.666689574567455701e+00,1.576131311832327775e+01,3.711948192650555090e+00,7.494754146226160207e-01,-6.466933196838168252e-01,1.416769323247953627e-01,2.423458376636936862e+02
-6.918592078544577362e+00,1.506445752045762809e+01,3.472030473902950831e+00,7.473219518262993466e-01,-6.359000455028863685e-01,1.927148993935589305e-01,2.438673238921135749e+02
-7.165281608129345337e+00,1.435186205349180888e+01,3.236583885414423101e+00,7.431312802790274175e-01,-6.233732994207302758e-01,2.432275268969542326e-01,2.453888101205334635e+02
-7.405595373298431205e+00,1.362510065688957894e+01,3.006494286513094139e+00,7.369148233799113212e-01,-6.091472291458790433e-01,2.930771166553703955e-01,2.469102963489533522e+02
-7.638354048829053333e+00,1.288574074647537060e+01,2.782647502106938120e+00,7.286895268593145403e-01,-5.932606147937857788e-01,3.421277778552244686e-01,2.484317825773732409e+02
-7.862361790407613071e+00,1.213534313459745562e+01,2.565929316999986831e+00,9.955207354021456956e-01,9.453287991603503970e-02,0.000000000000000000e+00,2.499532688057931296e+02
-8.083506033848925298e+00,1.134956246321677575e+01,2.349967459510195145e+00,9.913008634114531814e-01,1.316077436555698199e-01,0.000000000000000000e+00,2.515261591115538238e+02
-8.293359764475082940e+00,1.055537351740196073e+01,2.141809764773207281e+00,9.857007492619630495e-01,1.684993557698928335e-01,0.000000000000000000e+00,2.530990494173145180e+02
-8.491718004756270588e+00,9.754871624182937850e+00,1.940406105694753469e+00,9.787281891584446170e-01,2.051563592407236736e-01,0.000000000000000000e+00,2.546719397230752122e+02
-8.678352832653702720e+00,8.950150833262174643e+00,1.744706308821839968e+00,9.703928888839234990e-01,2.415277234467198553e-01,0.000000000000000000e+00,2.562448300288359064e+02
-8.853013385073531083e+00,8.143303802415227111e+00,1.553660161549437868e+00,9.769128538952149832e-01,2.136335083477470254e-01,0.000000000000000000e+00,2.578177203345965722e+02
-9.015425861560824927e+00,7.336421682906262731e+00,1.366217419327378391e+00,9.826311646046371751e-01,1.855639898862600778e-01,0.000000000000000000e+00,2.593906106403572380e+02
-9.165293528233600995e+00,6.531594004919552887e+00,1.181327812867412730e+00,9.875431292009232420e-01,1.573422001971287454e-01,0.000000000000000000e+00,2.609635009461179038e+02
-9.302296721956869519e+00,5.730908563007916179e+00,9.979410553503968995e-01,9.916447173610906107e-01,1.289912963135745883e-01,0.000000000000000000e+00,2.625363912518785696e+02
-9.426092854756696227e+00,4.936451301559097615e+00,8.150068496335689527e-01,9.949325635558181613e-01,1.005345411835595754e-01,0.000000000000000000e+00,2.641092815576392354e+02
-9.536316418474216405e+00,4.150306200281091762e+00,6.314748954578821571e-01,9.974039698086810679e-01,7.199528459899393051e-02,0.000000000000000000e+00,2.656821718633999012e+02
-9.631261328995144311e+00,3.387000980355256985e+00,4.493490111193579328e-01,9.990569079092538329e-01,4.339694405382944764e-02,0.000000000000000000e+00,2.672294485174402894e+02
-9.712578260987820400e+00,2.635544094284032024e+00,2.646706755429689140e-01,9.998900210782709630e-01,1.476298554660309542e-02,0.000000000000000000e+00,2.687767251714806775e+02
-9.779990346583382177e+00,1.897915884941678621e+00,7.665755667823176411e-02,8.808491902946983254e-01,2.673097542801564433e-02,-4.726395655342977564e-01,2.703240018255210657e+02
-9.833457649953542656e+00,1.176164928356837169e+00,-1.150702724404509547e-01,8.586017000741579253e-01,2.421703666549421610e-02,-5.120689951201196077e-01,2.718712784795614539e+02
-9.873047185655980940e+00,4.723746173161599282e-01,-3.106915226444397216e-01,8.345889668483753576e-01,2.165330910737599257e-02,-5.504456291208008611e-01,2.734185551336018420e+02
-9.898803419133576753e+00,-2.113712188501166711e-01,-5.103848789172426015e-01,8.088603593861364294e-01,1.904506358068168773e-02,-5.876905687226433583e-01,2.749658317876422302e+02
-9.910748265392303580e+00,-8.729884250897136377e-01,-7.143289992061547800e-01,7.814687739147881951e-01,1.639766242822902897e-02,-6.237272417184045459e-01,2.765131084416826184e+02
-9.908881087907605689e+00,-1.510392631454929635e+00,-9.227025132340337388e-01,7.524705253870281885e-01,1.371654848636694700e-02,-6.584815598936918368e-01,2.780603850957230065e+02
-9.892843716216521699e+00,-2.127801745116912002e+00,-1.138039449373587697e+00,7.219252317248031625e-01,1.100723389739487364e-02,-6.918820713095650277e-01,2.796243950274525218e+02
-9.862443338736913034e+00,-2.715874708946950378e+00,-1.358321882621314591e+00,6.898956912776850192e-01,8.275288779613358681e-03,-7.238601071689310107e-01,2.811884049591820371e+02
-9.817852883459533331e+00,-3.272646226172355011e+00,-1.583873594882788005e+00,6.564477537470857493e-01,5.526329778247112551e-03,-7.543499229654547777e-01,2.827524148909115524e+02
-9.759713680893534971e+00,-3.796570562928090364e+00,-1.815293113056175134e+00,6.216501848410274089e-01,2.766008520725274887e-03,-7.832888336253912565e-01,2.843164248226410677e+02
-9.691441905522649947e+00,-4.272350566621673451e+00,-2.045822584061307570e+00,5.855745249369939120e-01,0.000000000000000000e+00,-8.106173423649849497e-01,2.858325664139024411e+02
-9.612431287069968633e+00,-4.715806819752935475e+00,-2.283017686982028671e+00,8.010230466218279943e-01,1.680977087608944570e-02,-5.983957807208056812e-01,2.873487080051638145e+02
-9.523424128420780121e+00,-5.125747533405608181e+00,-2.527528189377471257e+00,9.429866597446359133e-01,3.207743219650309452e-02,-3.312781276935125585e-01,2.888648495964251879e+02
-9.425149990155571089e+00,-5.500976668362175026e+00,-2.780003812154908438e+00,9.984418138771008477e-01,4.440234749862993768e-02,-3.376945127337916547e-02,2.903809911876865613e+02
-9.318618306610542135e+00,-5.840592083316323624e+00,-3.041051241398665006e+00,9.623011475947070847e-01,5.265384537069009441e-02,2.668371674009193950e-01,2.918971327789479346e+02
-9.205415098861452705e+00,-6.144281544250995708e+00,-3.311191140473255690e+00,8.378801759393996740e-01,5.607494484992718575e-02,5.429644659909178550e-01,2.934132743702093080e+02
-9.087416476148332478e+00,-6.412021466656814717e+00,-3.590901130729248880e+00,9.053473691449666072e-01,4.153717105648690455e-01,-8.837693841807206518e-02,2.949294159614706814e+02
-8.966498033281569136e+00,-6.643777768753117208e+00,-3.880658772483432273e+00,9.360722153546453539e-01,3.202522752089287938e-01,1.456203552547300495e-01,2.964455575527320548e+02
-8.837190179645887156e+00,-6.848906360034559881e+00,-4.199741136270437991e+00,9.061895982315796294e-01,2.043976334009164064e-01,3.701891672065157901e-01,2.980530021474328919e+02
-8.708948144870912955e+00,-7.010999703174844555e+00,-4.531969881043193205e+00,8.176343202152047684e-01,7.530893738781591074e-02,5.707895254430604970e-01,2.996604467421337290e+02
-8.583288893904869710e+00,-7.130749402807812665e+00,-4.878426390649512001e+00,7.843785636195371724e-01,1.014329603648742861e-01,6.119310610452609600e-01,3.012678913368345661e+02
-8.460038774619588864e+00,-7.210390400175502812e+00,-5.241148394634604024e+00,7.483923528909645073e-01,1.272038900111869819e-01,6.509424371525430741e-01,3.028753359315354032e+02
-8.292128890276332598e+00,-7.248786619964776357e+00,-5.777609819361438248e+00,0.000000000000000000e+00,9.983844631533018710e-01,-5.680196945670642344e-02,3.050836114631876512e+02
-8.121177147665274987e+00,-7.205696483265599639e+00,-6.369896715162803424e+00,4.081438505715209025e-02,9.978246683405279649e-01,5.175052872767943457e-02,3.072918869948398992e+02
-7.993747718565063387e+00,-7.136693275877125764e+00,-6.828950453165876233e+00,8.107982391399500000e-02,9.838443326184724835e-01,1.596069902250729367e-01,3.088811760806968891e+02
-7.861301492310611039e+00,-7.046850145499016449e+00,-7.310159353089134449e+00,1.202547528576992514e-01,9.566314911224695905e-01,2.653167627726186195e-01,3.104704651665538790e+02
-7.714288263340686846e+00,-6.932710624569931923e+00,-7.840099027293590872e+00,1.578122758224531907e-01,9.165521556103991552e-01,3.674580678744239770e-01,3.121493063977750353e+02
-7.558648387936433899e+00,-6.801745775948720762e+00,-8.386561421138923222e+00,1.932472512690127098e-01,8.641453910704877117e-01,4.646571240916265721e-01,3.138281476289961915e+02
-7.393407031887266001e+00,-6.657237842534450500e+00,-8.941526563279726503e+00,2.260830863773561072e-01,8.001160645898474089e-01,5.556066245465611786e-01,3.155069888602173478e+02
-7.217626319391397871e+00,-6.502474738615076078e+00,-9.496974415789747326e+00,2.558781471538286167e-01,7.253253641091970128e-01,6.390833200685656079e-01,3.171858300914385040e+02
-7.030405347568150276e+00,-6.340749853185338125e+00,-1.004488493683375516e+01,2.822316982334162616e-01,6.407792146972540737e-01,7.139644714727254593e-01,3.188646713226596603e+02
-6.831039526164898845e+00,-6.175576307874623971e+00,-1.057737899021843475e+01,3.047892924972596673e-01,5.476147482561699587e-01,7.792429497099214730e-01,3.205435125538808165e+02
-6.619193208657010885e+00,-6.010920522762933871e+00,-1.108719684146945994e+01,3.232475380382590080e-01,4.470850087367330139e-01,8.340407808473885298e-01,3.222223537851019728e+02
-6.394755612300847325e+00,-5.851006124340922376e+00,-1.156789495530999901e+01,3.373581783923914057e-01,3.405420986485929169e-01,8.776209537843587816e-01,3.239011950163231290e+02
-6.167964351644864784e+00,-5.705870329854407785e+00,-1.199647641474458837e+01,3.469314311961577135e-01,2.294189935806829062e-01,9.093973319920788390e-01,3.255105737869507720e+02
-5.930007033575535047e+00,-5.572270661535204006e+00,-1.238886593828127403e+01,3.518385404063183453e-01,1.152102693228961444e-01,9.289425360747919358e-01,3.271199525575784151e+02
-5.680889776188571716e+00,-5.453527221087225207e+00,-1.273987831685319705e+01,3.520135077923879363e-01,-5.479992337527160454e-04,9.359936912342581294e-01,3.287293313282060581e+02
-5.420599186210347753e+00,-5.352430269297707710e+00,-1.304427058201532930e+01,2.667117791109648306e-01,2.447389377469652225e-02,9.634645065623386184e-01,3.303387100988337011e+02
-5.149123717582472892e+00,-5.271505309017386232e+00,-1.329677107179231754e+01,1.791010901817740864e-01,4.928391228887925996e-02,9.825944715311299982e-01,3.319480888694613441e+02
-4.806263748424614235e+00,-5.207974247623119446e+00,-1.351519722689413072e+01,8.993987732009491032e-02,7.366727837904697707e-02,9.932179773654231658e-01,3.338834695940711299e+02
-4.444444336580508192e+00,-5.189123605928042338e+00,-1.362632346811071749e+01,0.000000000000000000e+00,9.741290686787916486e-02,9.952430484926604315e-01,3.358188503186809157e+02
-4.065012221997903019e+00,-5.220151517631531846e+00,-1.363134756991572516e+01,-0.000000000000000000e+00,-9.695091807975529663e-02,9.952881590151888558e-01,3.377542310432907016e+02
-3.750203313168449792e+00,-5.280300324009968627e+00,-1.357085215068095252e+01,-4.291282096655081070e-03,-2.252196961352708748e-01,9.742975281538440724e-01,3.393072186219453101e+02
-3.428572945788351145e+00,-5.369689509911958147e+00,-1.346626983206081007e+01,-8.509987894250357898e-03,-3.496795025689147796e-01,9.368296673276681474e-01,3.408602062005999187e+02
-3.101204682103694488e+00,-5.489570646050248470e+00,-1.332307799239933033e+01,-7.525276839494735026e-03,-2.888018937096377692e-01,9.573582591684978160e-01,3.424131937792545273e+02
-2.769194991872698797e+00,-5.641189411267037990e+00,-1.314675426809574077e+01,-6.509497914867861529e-03,-2.267319778936881802e-01,9.739344108497848262e-01,3.439661813579091358e+02
-2.433533352319631859e+00,-5.825102623200205443e+00,-1.294241360593539092e+01,-5.466844694432428445e-03,-1.637260063597008319e-01,9.864896899869861624e-01,3.455191689365637444e+02
-2.094972741393161808e+00,-6.040496179494274642e+00,-1.271444531784660725e+01,-4.401621693856015705e-03,-1.000440944872977578e-01,9.949722633745504696e-01,3.470721565152183530e+02
-1.718642196979701220e+00,-6.314597665354511946e+00,-1.243932921954757553e+01,-3.318226602569682160e-03,-3.594914811486257106e-02,9.993471109288953880e-01,3.487856200276899585e+02
-1.340040678283938469e+00,-6.626578930119998212e+00,-1.214386214223611482e+01,-2.221132131458964602e-03,2.829422165749335971e-02,9.995961702570690388e-01,3.504990835401615641e+02
-9.600386450482905065e-01,-6.974206344458753648e+00,-1.183401040669682480e+01,-1.114867550911389929e-03,9.242079070677156061e-02,9.957184112564252398e-01,3.522125470526331696e+02
-5.794804382768197204e-01,-7.355241281293335653e+00,-1.151574045062070439e+01,-3.999995304131439757e-06,1.561658166662475977e-01,9.877298404362626627e-01,3.539260105651047752e+02
-1.987151189240571325e-01,-7.766945426328998536e+00,-1.119351240004904469e+01,-3.431258075468773590e-06,1.373532654656963448e-01,9.905211155965775172e-01,3.556394740775763808e+02
1.828803793414628676e-01,-8.205589966129917201e+00,-1.086877365308052923e+01,-2.861279878233495316e-06,1.184910373819077628e-01,9.929541147710270188e-01,3.573529375900479863e+02
5.637264168179502155e-01,-8.663589024042616771e+00,-1.054377959098064288e+01,-2.290266830177746974e-06,9.958595345257659215e-02,9.950279583300892794e-01,3.590543796104893772e+02
9.476400514041933842e-01,-9.139751585775815812e+00,-1.021621194292096213e+01,-1.718425422772605465e-06,8.064485019431115453e-02,9.967418964421337346e-01,3.607558216309307682e+02
1.335822378365117302e+00,-9.629990758478136570e+00,-9.886013433530306926e+00,-1.145962446714471925e-06,6.167457713616028570e-02,9.980953093380336982e-01,3.624572636513721591e+02
1.729521935602884586e+00,-1.013022727151649960e+01,-9.553126808391796843e+00,-5.730849173465950719e-07,4.268199434934798892e-02,9.990877075345891978e-01,3.641587056718135500e+02
2.130034682450644645e+00,-1.063638973250863984e+01,-9.217494834507744983e+00,-0.000000000000000000e+00,2.367396997322678345e-02,9.997187320112477238e-01,3.658601476922549409e+02
2.537840160893893415e+00,-1.114461659175178987e+01,-8.878316586499201080e+00,-1.815685972366613410e-06,8.631051170094888869e-02,9.962672811885360247e-01,3.675615897126963318e+02
2.951734534362946860e+00,-1.165145103692757722e+01,-8.533303738775355640e+00,-3.624226711587903945e-06,1.486073979362688424e-01,9.888952630413665457e-01,3.692630317331377228e+02
3.344914917804031607e+00,-1.212451330369467328e+01,-8.200832689004522891e+00,-5.418505219052842428e-06,2.103194769713875589e-01,9.776316881000031156e-01,3.708643974005989890e+02
3.739814336369284398e+00,-1.259120904097737714e+01,-7.858587532304381007e+00,-7.191460618315129887e-06,2.712038983333718289e-01,9.625208805408472790e-01,3.724657630680602551e+02
4.134898304083726828e+00,-1.304895803109507391e+01,-7.504189056691193294e+00,-8.936115937843508848e-06,3.310210683394158027e-01,9.436223038035528310e-01,3.740671287355215213e+02
4.528660475902841931e+00,-1.349517120383121949e+01,-7.135258136501378523e+00,-1.064560556384511033e-05,3.895355928452018390e-01,9.210103266485138995e-01,3.756684944029827875e+02
4.919622670268228859e+00,-1.392725077941316592e+01,-6.749415749313381951e+00,-1.231320225525063741e-05,4.465172034807274315e-01,8.947739305789715880e-01,3.772698600704440537e+02
5.306334891358877925e+00,-1.434259041158744097e+01,-6.344282992869005433e+00,-1.393234361465973069e-05,5.017416637323274253e-01,8.650163597761567624e-01,3.788712257379053199e+02
5.687375351037900373e+00,-1.473857533078918536e+01,-5.917481101994100712e+00,-1.549665791116819078e-05,5.549916513083045233e-01,8.318547149214672309e-01,3.804725914053665861e+02
6.061350490494604060e+00,-1.511258248740447918e+01,-5.466631465518535293e+00,-1.699998915352857377e-05,6.060576133181894143e-01,7.954194924999823391e-01,3.820739570728278522e+02
6.427099852533532776e+00,-1.546223610340098098e+01,-4.990133528822084941e+00,-8.714160024713584786e-06,6.747554542646525544e-01,7.380400238874712526e-01,3.836753227402891184e+02
6.853062366698324581e+00,-1.584297327237752562e+01,-4.380713675126759021e+00,-3.585205410199641569e-07,7.380472384462178903e-01,6.747475630322210538e-01,3.855974869278406914e+02
7.262856660685329757e+00,-1.617460658370354665e+01,-3.728402880236250549e+00,7.999989140413108610e-06,7.954259202489223357e-01,6.060491773184206732e-01,3.875196511153922643e+02
7.654724856698068791e+00,-1.645468141941378448e+01,-3.035670821514924178e+00,6.003447275242286630e-06,8.086875497486893938e-01,5.882367268597092913e-01,3.894418153029438372e+02
7.964838270890659544e+00,-1.665030064960591005e+01,-2.436190834446648523e+00,4.003944591395868871e-06,8.215503719717091036e-01,5.701341826957058156e-01,3.910340298006260582e+02
8.260898318869719148e+00,-1.681657088830879587e+01,-1.818711358450371796e+00,2.002466653143350101e-06,8.340080464920200942e-01,5.517504674787980790e-01,3.926262442983082792e+02
8.541012577346084100e+00,-1.695359913715476097e+01,-1.185735580887903984e+00,0.000000000000000000e+00,8.460544322668346329e-01,5.330946422741880131e-01,3.942184587959905002e+02
8.803322621996112929e+00,-1.706174195419482942e+01,-5.401209435012305216e-01,-4.820826492293019128e-02,8.823206484469500177e-01,4.681711615612655364e-01,3.958106732936727212e+02
9.036935912081457190e+00,-1.713965814822635281e+01,8.763505253091581626e-02,-9.603787901766490387e-02,9.116568066446733010e-01,3.995705102891313198e-01,3.973379658955657874e+02
9.251746826513464583e+00,-1.719382660494936488e+01,7.200804421638828945e-01,-1.431131713361313007e-01,9.338324929755451587e-01,3.278315043644232096e-01,3.988652584974588535e+02
9.446248406292665933e+00,-1.722518488747964938e+01,1.353896164111339839e+00,-1.890643961725632649e-01,9.486735350473675110e-01,2.535176088587287602e-01,4.003925510993519197e+02
9.618923121365227757e+00,-1.723466207298318764e+01,1.985763148215922147e+00,-2.335306372001663133e-01,9.560633697694566058e-01,1.772125121850524065e-01,4.019198437012449858e+02
9.768242891687267004e+00,-1.722317870130430251e+01,2.612362336910842853e+00,-2.761626422186226892e-01,9.559439586337196149e-01,9.951554147806541961e-02,4.034471363031380520e+02
9.892669108394072097e+00,-1.719164672367959312e+01,3.230374706681438557e+00,-3.166255662481883837e-01,9.483162433044955986e-01,2.103695520210341341e-02,4.049744289050311181e+02
9.990652655074162780e+00,-1.714096945153817586e+01,3.836481289526549432e+00,-3.546016014287784457e-01,9.332401379573836975e-01,-5.760685003445976254e-02,4.065017215069241843e+02
1.006063392914801824e+01,-1.707204150538859722e+01,4.427363194419631220e+00,-3.897924730740328636e-01,9.108340584458703981e-01,-1.357981808105405142e-01,4.080290141088172504e+02
1.010104286335140422e+01,-1.698574876379285925e+01,4.999701628769494199e+00,-4.219217822837038057e-01,8.812739920112185876e-01,-2.129228983478907711e-01,4.095563067107103166e+02
1.011029894732310908e+01,-1.688296831242796969e+01,5.550177919880563415e+00,-4.507371767244026106e-01,8.447921148573285244e-01,-2.883752419941771894e-01,4.110835993126033827e+02
1.008681124929703898e+01,-1.676456839323544301e+01,6.075473536412553166e+00,-4.760123325391987792e-01,8.016749684599806525e-01,-3.615625868603486448e-01,4.126108919144964489e+02
1.002897843789849652e+01,-1.663140835365915748e+01,6.572270109839462471e+00,-4.975487318301110573e-01,7.522612089413860392e-01,-4.319100982591105309e-01,4.141381845163895150e+02
9.925744886227047203e+00,-1.647306490719655869e+01,7.067044000489668854e+00,-5.151772217625080197e-01,6.969389471894419374e-01,-4.988652464037193202e-01,4.157720594580900979e+02
9.777199398909342420e+00,-1.629909756855081326e+01,7.519293182767130546e+00,-4.711698250525133691e-01,6.409557283566804653e-01,-6.059478114891631018e-01,4.174059343997906808e+02
9.583840498407541375e+00,-1.611144950521451591e+01,7.926978178606767678e+00,-4.193704694032804325e-01,5.743727203469485287e-01,-7.030095216392946433e-01,4.190398093414912637e+02
9.347022495435910017e+00,-1.591235088883072635e+01,8.288828270108012930e+00,-3.606357834583678867e-01,4.982910355864810792e-01,-7.884452267249042468e-01,4.206736842831918466e+02
9.068072719908602863e+00,-1.570403970297396512e+01,8.603573078550411424e+00,-2.959370872987276413e-01,4.139688686939323459e-01,-8.608420390031479297e-01,4.223075592248924295e+02
8.748291501114609403e+00,-1.548876160273723102e+01,8.869942573792519269e+00,-2.263443299816221832e-01,3.228006900576384508e-01,-9.190026979204383162e-01,4.239414341665930124e+02
8.388952148199610548e+00,-1.526876977423365744e+01,9.086667083668880096e+00,-1.530083961310036433e-01,2.262941859352027851e-01,-9.619653695049218411e-01,4.255753091082935953e+02
