1.533744265483796942e+00,5.490048199153476638e+00,-2.723816130349978049e-01,-2.256798026319319084e-02,-9.740071481829258859e-01,-2.253858028890491083e-01,6.316349065136797947e+00
1.553958306487786212e+00,6.261304391444157957e+00,-5.620967057384183008e-01,1.833254147066601739e-02,-9.853611766419828610e-01,-1.694853075950786825e-01,7.895436331420997433e+00
1.556743857192395719e+00,7.021092036707760720e+00,-8.367267902588657602e-01,5.914274684802296733e-02,-9.918606829312208717e-01,-1.127498166343988556e-01,9.474523597705196920e+00
1.539339784333874972e+00,7.766766873852875896e+00,-1.094458778933999676e+00,9.966157859612588543e-02,-9.934736464593049154e-01,-5.545884549059783286e-02,1.105361086398939641e+01
1.498078174641573668e+00,8.495608029021541441e+00,-1.333669763963816646e+00,1.396894148830705173e-01,-9.901921201745024215e-01,2.105353766136343081e-03,1.263269813027359589e+01
1.429260935905446006e+00,9.204915482513584379e+00,-1.552736965595737928e+00,1.790290527682666943e-01,-9.820322704292872018e-01,5.965918287146149829e-02,1.421178539655779538e+01
1.333911820896836131e+00,9.868380885137304048e+00,-1.743790373601879828e+00,2.174866797548291042e-01,-9.690342973590386766e-01,1.169190945549642285e-01,1.573468103808561125e+01
1.207691339242006334e+00,1.050961136732835577e+01,-1.914324285993870056e+00,2.548728286412904609e-01,-9.512622368537400064e-01,1.736029894812607943e-01,1.725757667961342534e+01
1.050177875166881991e+00,1.112659568356599493e+01,-2.066958923195451270e+00,2.910033109681257057e-01,-9.288036450972543268e-01,2.294316060616655162e-01,1.878047232114123943e+01
8.648637799748537525e-01,1.171796820189377186e+01,-2.210314775842343593e+00,3.257001244599182499e-01,-9.017691672274030790e-01,2.841298962889257096e-01,2.030336796266905353e+01
6.570172315635487426e-01,1.228267439054279109e+01,-2.355807738361314296e+00,3.587923299920197651e-01,-8.702919922411032072e-01,3.374283808162134579e-01,2.182626360419686762e+01
4.299870112407594425e-01,1.281930338331235397e+01,-2.513724300880008755e+00,3.901168937606270259e-01,-8.345271968294237785e-01,3.890644766036953639e-01,2.334915924572468171e+01
1.851794477198892841e-01,1.332651375678048744e+01,-2.690379251309802822e+00,4.195194905065810498e-01,-7.946509813748239281e-01,4.387837905910350056e-01,2.487205488725249580e+01
-7.414195585227374707e-02,1.380410695529835152e+01,-2.887532184035679350e+00,4.468552638350547501e-01,-7.508598018743336544e-01,4.863413730215024877e-01,2.639495052878030990e+01
-3.684954036420672874e-01,1.429124760508171654e+01,-3.127689698535200957e+00,4.719895398846724044e-01,-7.033694020654027712e-01,5.315029242421057676e-01,2.805963386483880839e+01
-6.678975253258847555e-01,1.474097504741930820e+01,-3.394746119553505803e+00,4.947984908294763562e-01,-6.524137505230371836e-01,5.740459490333810200e-01,2.972431720089730689e+01
-9.649784164961385802e-01,1.515394358667650287e+01,-3.688767680643346925e+00,5.151697449443770616e-01,-5.982438879652297592e-01,6.137608527810293202e-01,3.138900053695580539e+01
-1.252360934341008925e+00,1.553076294287340176e+01,-4.009820408102036104e+00,5.330029402280686002e-01,-5.411266904462633809e-01,6.504519740881913314e-01,3.305368387301430033e+01
-1.522660816375915216e+00,1.587199821370294828e+01,-4.357970120459721208e+00,5.482102188555738609e-01,-4.813435545320181586e-01,6.839385487404116004e-01,3.471836720907279528e+01
-1.768486799258849995e+00,1.617816983707495737e+01,-4.733282427968854122e+00,5.607166600242153853e-01,-4.191890109359158179e-01,7.140556002736854202e-01,3.638305054513129022e+01
-1.974468051775623234e+00,1.643702891989359571e+01,-5.112767777777652789e+00,5.704606490604534619e-01,-3.549692734466661226e-01,7.406547527577570511e-01,3.796094368375838002e+01
-2.152930583107127038e+00,1.666589919542900233e+01,-5.512471762426618405e+00,5.773941809691841565e-01,-2.890007302978197523e-01,7.636049617902332942e-01,3.953883682238546982e+01
-2.303554106505648402e+00,1.686419694635763733e+01,-5.929424973311572700e+00,5.814830969302080543e-01,-2.216083854126935371e-01,7.827931601002129369e-01,4.111672996101255961e+01
-2.426023302813910654e+00,1.703133641867425752e+01,-6.360657882676860275e+00,5.827072525770398137e-01,-1.531242572051277617e-01,7.981248145810122541e-01,4.269462309963964941e+01
-2.520027826211864497e+00,1.716672984625470022e+01,-6.803200864111511592e+00,5.810606172294330296e-01,-8.388574282553397377e-02,8.095243920080945621e-01,4.427251623826673921e+01
-2.585262309913020307e+00,1.726978747544285753e+01,-7.254084213045916663e+00,5.765513035912456230e-01,-1.423395591180482735e-02,8.169357311483508299e-01,4.585040937689382901e+01
-2.621426371810278599e+00,1.733991758966163488e+01,-7.710338167248902863e+00,5.692015277679184360e-01,5.548795396500057903e-02,8.203223194281856756e-01,4.742830251552091880e+01
-2.629543076757751674e+00,1.737660012121015995e+01,-8.154964866443124905e+00,3.929044487389432572e-01,4.365734123405916323e-02,9.185413059394110791e-01,4.895812993759756182e+01
-2.613299750455911230e+00,1.738301645939501938e+01,-8.598954115405982535e+00,2.005502775541377347e-01,3.004255441678143138e-02,9.792216455410993614e-01,5.048795735967419773e+01
-2.575102219660533542e+00,1.735945916589180982e+01,-9.039481143916756167e+00,0.000000000000000000e+00,1.519999199371368896e-02,9.998834733317381041e-01,5.201778478175083364e+01
-2.517352243249552313e+00,1.730623386096164751e+01,-9.473721204132756313e+00,-0.000000000000000000e+00,6.377917058116652424e-03,9.999786608528554721e-01,5.354761220382746956e+01
-2.441957840646544753e+00,1.722423296766224965e+01,-9.898793249651179238e+00,-0.000000000000000000e+00,-2.444652874761686981e-03,9.999960118218210736e-01,5.507743962590410547e+01
-2.349835674609235259e+00,1.711550584051853718e+01,-1.031170361493635390e+01,-0.000000000000000000e+00,-1.126703122667802731e-02,9.999355249188323080e-01,5.660726704798074138e+01
-2.241388753059217365e+00,1.698267951059782632e+01,-1.070940237400817274e+01,-0.000000000000000000e+00,-2.008853143510555203e-02,9.997972048832026726e-01,5.813709447005737729e+01
-2.113326824306601015e+00,1.682385203413154784e+01,-1.109814824434477032e+01,-0.000000000000000000e+00,-2.890846700660624005e-02,9.995810625071457345e-01,5.970669106181776442e+01
-1.968407929085402630e+00,1.664476295037438192e+01,-1.146379330741690339e+01,-0.000000000000000000e+00,-3.772615157010862641e-02,9.992871146349184830e-01,6.127628765357815155e+01
-1.806984341692994711e+00,1.644832942656936936e+01,-1.180295843015774970e+01,-0.000000000000000000e+00,-4.654089893017572532e-02,9.989153841614963891e-01,6.284588424533853868e+01
-1.629376495619197618e+00,1.623747041140674696e+01,-1.211226466026258386e+01,-0.000000000000000000e+00,-5.535202312025905291e-02,9.984659000307835042e-01,6.441548083709892580e+01
-1.435872979638783464e+00,1.601510647627189243e+01,-1.238833324926788038e+01,-0.000000000000000000e+00,-6.415883845593449430e-02,9.979386972333547101e-01,6.598507742885931293e+01
-1.226730534235832559e+00,1.578415965647770314e+01,-1.262778567562938825e+01,-0.000000000000000000e+00,-7.296065958811630281e-02,9.973338168037325646e-01,6.755467402061970006e+01
-1.002174048359964154e+00,1.554755329248285634e+01,-1.282724366779902958e+01,-0.000000000000000000e+00,-8.175680155624505396e-02,9.966513058171966311e-01,6.912427061238008719e+01
-7.623965565144640300e-01,1.530821187109725301e+01,-1.298332922730053163e+01,-0.000000000000000000e+00,-9.054657984144540150e-02,9.958912173861287354e-01,7.069386720414047431e+01
-5.075592361763208160e-01,1.506906086667602551e+01,-1.309266465180364669e+01,-0.000000000000000000e+00,-9.932931041964995766e-02,9.950536106558915961e-01,7.226346379590086144e+01
-2.377914055481919753e-01,1.483302658230351945e+01,-1.315187255819685674e+01,-0.000000000000000000e+00,-1.081043098146848153e-01,9.941385508002410498e-01,7.383306038766124857e+01
4.825047305529633901e-02,1.460197338937904554e+01,-1.315733233076301900e+01,-0.000000000000000000e+00,-1.168708951513131450e-01,9.931461090162760907e-01,7.541019847128949039e+01
3.491143764763094959e-01,1.437992920412986031e+01,-1.310540465662743337e+01,-0.000000000000000000e+00,-5.842598549233594951e-02,9.982907413244255235e-01,7.698733655491773220e+01
6.642746824551983842e-01,1.416954581480109354e+01,-1.299364871705367541e+01,-0.000000000000000000e+00,2.200131365709311819e-04,9.999989757941887270e-01,7.856447463854597402e+01
9.930711389766193609e-01,1.397336700310503943e+01,-1.281995770877212770e+01,-0.000000000000000000e+00,5.886523909786058745e-02,9.982649365881264281e-01,8.014161272217421583e+01
1.130106847525816915e+00,1.389711474337287811e+01,-1.273421000192622898e+01,-0.000000000000000000e+00,1.173078338869206483e-01,9.930945937341473240e-01,8.078403856062790567e+01
1.477223246919728394e+00,1.371712692183351301e+01,-1.248282825817328678e+01,1.270998419732385096e-03,1.158168560016881454e-01,9.932687650413736247e-01,8.238127097373336483e+01
1.833476506040552678e+00,1.355285354235774342e+01,-1.216683270232789482e+01,-1.177648228227752558e-01,0.000000000000000000e+00,9.930405059701471471e-01,8.397850338683882399e+01
2.195324064318755486e+00,1.340218985165923904e+01,-1.178898029888211596e+01,-1.816074833447078318e-01,2.249536404289151706e-02,9.831127507010541944e-01,8.557573579994428314e+01
2.557217186039517198e+00,1.326327649619991433e+01,-1.135617420067431738e+01,-2.446001233135345621e-01,4.488543598003069679e-02,9.685835417315357132e-01,8.716453624033491110e+01
2.917425662716669255e+00,1.313254820638266906e+01,-1.087174094098486066e+01,-3.064479078803077350e-01,6.706541980010792547e-02,9.495208840379535387e-01,8.875333668072553905e+01
3.272306086004563408e+00,1.300732830521576311e+01,-1.034068107647423673e+01,-3.668613608084618227e-01,8.893150287289935951e-02,9.260140008358307417e-01,9.034213712111616701e+01
3.618186063740538305e+00,1.288496112790986992e+01,-9.767995490038055451e+00,-4.255577192520839658e-01,1.103813418047569217e-01,8.981729159620766012e-01,9.193093756150679496e+01
3.951364273198967769e+00,1.276281216791596407e+01,-9.158685355809284445e+00,-4.822622571119882240e-01,1.313145414164163249e-01,8.661279389208698110e-01,9.351973800189742292e+01
4.268110514653820076e+00,1.263826822273756356e+01,-8.517752104158970994e+00,-5.367095707810943805e-01,1.516331246029972435e-01,8.300290550074360674e-01,9.510853844228805087e+01
4.564665765249396046e+00,1.250873753951612599e+01,-7.850197386695607626e+00,-5.886448212658882406e-01,1.712419908787092826e-01,7.900452233626342746e-01,9.669733888267867883e+01
4.837242233178928430e+00,1.237164996038823617e+01,-7.161023041263367084e+00,-6.378249268744961009e-01,1.900493614616348692e-01,7.463635862412140165e-01,9.828613932306930678e+01
5.082023412170698862e+00,1.222445706761336837e+01,-6.455231056939345180e+00,-6.840197008926774958e-01,2.079672088167840993e-01,6.991885931912854568e-01,9.987493976345993474e+01
5.295164136281348632e+00,1.206463232847089984e+01,-5.737823539030009634e+00,-7.270129289257662997e-01,2.249116686481305305e-01,6.487410442400828314e-01,1.014637402038505627e+02
5.473245912460475537e+00,1.189015450939143470e+01,-5.013583708542706852e+00,-9.246034767262547582e-01,-1.743419773614379165e-01,3.386905457147098009e-01,1.030525406442411906e+02
5.633459182992964998e+00,1.165217475863625474e+01,-4.123093379015591253e+00,-8.498265231567917466e-01,-5.222387069684532035e-01,-7.113096008795406766e-02,1.050000257257920424e+02
5.719957858653584637e+00,1.138429232884719511e+01,-3.237341688071589285e+00,-9.225027107052581332e-01,-3.820525499434559435e-01,-5.497815768559451838e-02,1.069475108073428942e+02
5.734802284223063040e+00,1.111845757333958318e+01,-2.449646924137426574e+00,-9.719364694593536358e-01,-2.322406754257876627e-01,-3.744019247301075964e-02,1.087028936583431147e+02
5.691865772380205968e+00,1.083286122830180176e+01,-1.677468255192816393e+00,-9.968823582192178900e-01,-7.657756097871246115e-02,-1.895892997445768405e-02,1.104582765093433352e+02
5.590938717615607345e+00,1.053052920063858444e+01,-9.260323987734212503e-01,-9.967118863751273095e-01,8.101490948214877530e-02,-0.000000000000000000e+00,1.122136593603435557e+02
5.432894299900028479e+00,1.021479840054522015e+01,-1.995182834461541044e-01,-9.935909064848896799e-01,8.139279809092614393e-02,-7.842399486575242495e-02,1.139690422113437762e+02
5.220743507636646186e+00,9.889617619362519818e+00,4.999905985876306747e-01,-9.843491894992110192e-01,8.126928927329975239e-02,-1.563648801825682499e-01,1.157244250623439967e+02
4.999960700112958456e+00,9.605173477728204290e+00,1.081883925293777526e+00,-9.690436666902570995e-01,8.064514388862012439e-02,-2.333425225199094455e-01,1.172373069545191839e+02
4.749322383757559329e+00,9.319818784934978950e+00,1.645251516434751204e+00,-9.477686238613035608e-01,7.952420684081119850e-02,-3.088827223262657351e-01,1.187501888466943711e+02
4.471141227034770793e+00,9.035865939750008735e+00,2.189521858025317513e+00,-9.206551204992963200e-01,7.791338339109914191e-02,-3.825201351410187911e-01,1.202630707388695583e+02
4.167752393258921551e+00,8.755614663542894860e+00,2.714123557267494657e+00,-8.878701823842151120e-01,7.582259661745806290e-02,-4.538011382495300561e-01,1.217759526310447455e+02
3.841513510076871363e+00,8.481351892656027402e+00,3.218485346171517492e+00,-8.496157726316143632e-01,7.326472628303362655e-02,-5.222866251204036914e-01,1.232888345232199327e+02
3.494804638735029112e+00,8.215351670898083825e+00,3.702036085176206637e+00,-8.061275475093008236e-01,7.025552949030966499e-02,-5.875547104092730955e-01,1.248017164153951200e+02
3.130028243131047105e+00,7.959875042161541181e+00,4.164204766768725641e+00,-7.576734046951907331e-01,6.681354361001122510e-02,-6.492033288649762257e-01,1.263145983075703072e+02
2.749609158650357266e+00,7.717169943165040458e+00,4.604420519103708642e+00,-7.045518329220857856e-01,6.295997208294094871e-02,-7.068527121281976688e-01,1.278274801997454944e+02
2.355994560787718850e+00,7.489471096321484112e+00,5.022112609621745882e+00,-6.470900731785629301e-01,5.871855379845413586e-02,-7.601477281655009133e-01,1.293403620919206674e+02
1.951653933553966436e+00,7.278999902732688376e+00,5.416710448667199529e+00,-5.856421027958264025e-01,5.411541685443719413e-02,-8.087600689284755173e-01,1.308532439840958546e+02
1.539079037668114491e+00,7.087964335311466968e+00,5.787643593105343598e+00,-5.205864548410971127e-01,4.917891759984553690e-02,-8.523902727632276521e-01,1.323661258762710418e+02
1.120783878535013933e+00,6.918558832031973971e+00,6.134341749938802657e+00,-4.523238862522119264e-01,4.393946595148573442e-02,-8.907695691138756144e-01,1.338790077684462290e+02
6.993046740087272006e-01,6.772964189309190530e+00,6.456234779923275546e+00,-3.812749090793531859e-01,3.842933806123980528e-02,-9.236615341587349759e-01,1.353918896606214162e+02
2.771998219418070897e-01,6.653347455508363595e+00,6.752752701182526351e+00,-3.078772000425074040e-01,3.268247748780536005e-02,-9.508635471827900920e-01,1.369047715527966034e+02
-1.429501324793412409e-01,6.561861824585280445e+00,7.023325692822637301e+00,-2.325829043622278658e-01,2.673428609778935594e-02,-9.722080387175837668e-01,1.384176534449717906e+02
-5.585425296128350148e-01,6.500646529858214784e+00,7.267384098545488058e+00,-1.558558504719395055e-01,2.062140598421018101e-02,-9.875635227623282830e-01,1.399305353371469778e+02
-9.669526284532443672e-01,6.471826737912386385e+00,7.484358430261453421e+00,-7.816869276843597947e-02,1.438149374574877910e-02,-9.968354067298987875e-01,1.414434172293221650e+02
-1.379355026783494420e+00,6.479052481221440729e+00,7.679397704921957946e+00,-0.000000000000000000e+00,8.052988517103476865e-03,-9.999665741302532496e-01,1.430104589938938489e+02
-1.777464739023637108e+00,6.526553634622307420e+00,7.844416405508372492e+00,1.984795552643255426e-02,-2.502312411574146231e-02,-9.994888203086398359e-01,1.445775007584655327e+02
-2.157303378856435749e+00,6.615438372571850856e+00,7.982850063489125070e+00,3.966637210066471797e-02,-5.806199530753911042e-02,-9.975236255981020372e-01,1.461445425230372166e+02
-2.514586270959267456e+00,6.746363550701321543e+00,8.099497857299200021e+00,5.942575608357240219e-02,-9.101445682225073330e-02,-9.940739148395347780e-01,1.477115842876089005e+02
-2.845020850007962121e+00,6.919962079881616823e+00,8.199159113625590578e+00,7.909670170042037984e-02,-1.238314690392284950e-01,-9.891448220846599249e-01,1.492786260521805843e+02
-3.144306719364462488e+00,7.136842886868468128e+00,8.286633274726336040e+00,9.864993479936944032e-02,-1.564641939287245986e-01,-9.827436829527518292e-01,1.508456678167522682e+02
-3.409523064626304389e+00,7.396766413125055450e+00,8.365628195289584568e+00,1.180563564139884697e-01,-1.888640677271934687e-01,-9.748800237121687529e-01,1.524127095813239521e+02
-3.640527771801503665e+00,7.697830589308948923e+00,8.437668446725647087e+00,1.372870860649880176e-01,-2.209828732043121191e-01,-9.655655471025326175e-01,1.539797513458956360e+02
-3.838587656151766669e+00,8.037311043149161449e+00,8.503186977244341804e+00,1.563135047367802954e-01,-2.527728114142484550e-01,-9.548141149186625265e-01,1.555467931104673198e+02
-4.004996949534511685e+00,8.412490914534872744e+00,8.562616779365507469e+00,1.751072974649543479e-01,-2.841865728244751810e-01,-9.426417273821817711e-01,1.571138348750390037e+02
-4.141077280783854064e+00,8.820660991408168172e+00,8.616390886969897522e+00,1.936404954713352999e-01,-3.151774077163534971e-01,-9.290664993314886599e-01,1.586808766396106876e+02
-4.248854546671709365e+00,9.263089802106778237e+00,8.665313198170133901e+00,2.118855177839669979e-01,-3.456991957527928983e-01,-9.141086332655016244e-01,1.602612433546739510e+02
-4.328343551854830551e+00,9.733796510215038111e+00,8.709326846601499028e+00,2.298152122801234709e-01,-3.757065146095286412e-01,-8.977903892812639786e-01,1.618416100697372144e+02
-4.380996709044461923e+00,1.023000331414391262e+01,8.748879892158690552e+00,2.474028960913110531e-01,-4.051547075679520216e-01,-8.801360519501076896e-01,1.634219767848004778e+02
-4.408294927387276907e+00,1.074894095968903507e+01,8.784420425523943976e+00,2.646223953101696225e-01,-4.339999499689659035e-01,-8.611718941816207673e-01,1.650023434998637413e+02
-4.411747590336526414e+00,1.128784888255674446e+01,8.816396565063303825e+00,2.814480839402158652e-01,-4.621993144290285072e-01,-8.409261381291346371e-01,1.665827102149270047e+02
-4.392892533224853402e+00,1.184397535079639496e+01,8.845256453722756262e+00,2.978549220304967937e-01,-4.897108347213858237e-01,-8.194289131948488958e-01,1.681630769299902681e+02
-4.353296020538892641e+00,1.241457760713769254e+01,8.871448255924230253e+00,3.138184929384293942e-01,-5.164935682274721662e-01,-7.967122111970159626e-01,1.697434436450535316e+02
-4.294552722895797814e+00,1.299692201123181512e+01,8.895420154461493922e+00,3.293150396653934386e-01,-5.425076568655753384e-01,-7.728098387658244306e-01,1.713238103601167950e+02
-4.218285693721838925e+00,1.358828418179510145e+01,8.917620347395939007e+00,3.443215002110234235e-01,-5.677143864061273693e-01,-7.477573670387459570e-01,1.729041770751800584e+02
-4.126146345633215695e+00,1.418594913865405971e+01,8.938497044952304904e+00,3.588155418935968788e-01,-5.920762440853672981e-01,-7.215920787301187689e-01,1.744845437902433218e+02
-4.019858031427540723e+00,1.478722476831504196e+01,8.958256102414202005e+00,3.246281171674334498e-01,-5.986529165201547320e-01,-7.322767721886745962e-01,1.760649105053065853e+02
-3.901259434921118263e+00,1.538945562055326022e+01,8.976618654698095057e+00,2.900101731225198654e-01,-6.044356563979763619e-01,-7.419903212044393070e-01,1.776452772203698487e+02
-3.772260655721536793e+00,1.599001022204245537e+01,8.993063482284455290e+00,2.550076198428287699e-01,-6.094167948162900750e-01,-7.507198438957448650e-01,1.792256439354331121e+02
-3.634799482389599934e+00,1.658626805740321686e+01,9.007069378827374351e+00,2.196668774511796596e-01,-6.135897259369349488e-01,-7.584537633741678109e-01,1.808060106504963755e+02
-3.490841364853136675e+00,1.717561970786318426e+01,9.018115154763989949e+00,1.840348145503888921e-01,-6.169489157450080974e-01,-7.651818230952986966e-01,1.823863773655596390e+02
-3.349058989773224138e+00,1.773016315688221667e+01,9.025503210536834686e+00,1.481586860699484753e-01,-6.194899093865237072e-01,-7.708951004587510925e-01,1.838965192883133568e+02
-3.204943877903395855e+00,1.827423405363210307e+01,9.029417818081524771e+00,1.120860706006303470e-01,-6.212093370751726740e-01,-7.755860186394252231e-01,1.854066612110670746e+02
-3.060202314720801287e+00,1.880568424311751485e+01,9.029424470589740181e+00,7.586480730007495732e-02,-6.221049185603583220e-01,-7.792483566343660906e-01,1.869168031338207925e+02
-2.916562536287715002e+00,1.932237484253336035e+01,9.025088685875642724e+00,3.954293245298649839e-02,-6.221754661505991546e-01,-7.818772575119012913e-01,1.884269450565745103e+02
-2.775774707168169542e+00,1.982217634638831782e+01,9.015976009123399137e+00,3.168615770015761716e-03,-6.214208862882928397e-01,-7.834692348521394845e-01,1.899370869793282282e+02
-2.639610898133593953e+00,2.030296873153933390e+01,9.001652015634594051e+00,-3.320990349024550287e-02,-6.198421796737618727e-01,-7.840221773702942265e-01,1.914472289020819460e+02
-2.509865063657578776e+00,2.076264156213630940e+01,8.981682313575479526e+00,-6.954438049149828938e-02,-6.174414399384111629e-01,-7.835353517167061854e-01,1.929573708248356638e+02
-2.388353019199897620e+00,2.119909409447610571e+01,8.955632546724080711e+00,-1.057866287974185415e-01,-6.142218508687596890e-01,-7.820094034498509261e-01,1.944675127475893817e+02
-2.276912418279908312e+00,2.161023538176501191e+01,8.923068397217138070e+00,-1.418885842719944945e-01,-6.101876821850156229e-01,-7.794463561810346386e-01,1.959776546703430995e+02
-2.177402729339456222e+00,2.199398437878892310e+01,8.883555588296850658e+00,-1.778023688178317352e-01,-6.053442838797847836e-01,-7.758496088919047962e-01,1.974877965930968173e+02
-2.091705212395417401e+00,2.234827004649028126e+01,8.836659887057447094e+00,-2.134803538679444779e-01,-5.996980791244060915e-01,-7.712239314283174663e-01,1.989979385158505352e+02
-2.021722895482001014e+00,2.267103145645105045e+01,8.781947107191527380e+00,-2.488752235468845997e-01,-5.932565557523028499e-01,-7.655754581765170652e-01,2.005080804386042530e+02
-1.969380550882948278e+00,2.296021789528081669e+01,8.718983111736196889e+00,-2.839400374174871344e-01,-5.860282563306241643e-01,-7.589116799299936433e-01,2.020182223613579708e+02
-1.936624671153752919e+00,2.321378896890923826e+01,8.647333815818962321e+00,-3.186282927300625456e-01,-5.780227668333187685e-01,-7.512414339577758726e-01,2.035283642841116887e+02
-1.925423444934042161e+00,2.342971470678196511e+01,8.566565189403378966e+00,-3.528939860915203397e-01,-5.692507039306371475e-01,-7.425748922873004476e-01,2.050385062068654065e+02
-1.937766732550245230e+00,2.360597566595922814e+01,8.476243260034445726e+00,-3.866916744726696109e-01,-5.597237009118894990e-01,-7.329235482173624971e-01,2.065486481296191243e+02
-1.975666041408689955e+00,2.374056303511625643e+01,8.375934115583715922e+00,-4.199765354728211553e-01,-5.494543922600975128e-01,-7.223002010789976168e-01,2.080587900523728422e+02
-2.046179140502957239e+00,2.383483933482484574e+01,8.257016341081712341e+00,-2.042315232335925046e-01,-5.918490498460435845e-01,-7.797449500413348167e-01,2.096707596792464301e+02
-2.146642485473554185e+00,2.387580723370655633e+01,8.125175246362296377e+00,2.206062339442155240e-02,-6.036787175315465603e-01,-7.969211597742492659e-01,2.112827293061200180e+02
-2.273430437719051067e+00,2.386327058798886469e+01,7.980159240779895136e+00,2.472134941618859549e-01,-5.843324823401598866e-01,-7.729418078919988444e-01,2.128946989329936059e+02
-2.422920903781478952e+00,2.379701176986273126e+01,7.821716828512042419e+00,4.595995113955018141e-01,-5.348094314391391713e-01,-7.090452462074303686e-01,2.145066685598671938e+02
-2.591495391507132151e+00,2.367679168605729600e+01,7.649596610373349925e+00,4.898930715208476006e-01,-5.554896580358100744e-01,-6.718883972000754268e-01,2.161186381867407817e+02
-2.776172154972650130e+00,2.350294923838194094e+01,7.463888891433580142e+00,5.188511784169956842e-01,-5.746556147585337726e-01,-6.328999755749415979e-01,2.177306078136143697e+02
-2.975230608387191111e+00,2.327700567800880549e+01,7.265367286173828099e+00,5.463948923180587114e-01,-5.922550552637985133e-01,-5.921862639104329418e-01,2.193425774404879576e+02
-3.187565181458706487e+00,2.300107246853707110e+01,7.055147107110228966e+00,5.724491290741240412e-01,-6.082400035056096943e-01,-5.498582478773602622e-01,2.209545470673615455e+02
-3.412047888179154942e+00,2.267725419233368811e+01,6.834343750955810037e+00,5.969428648232683043e-01,-6.225668845130326590e-01,-5.060313137003565886e-01,2.225665166942351334e+02
-3.633823972428261051e+00,2.233069654884084443e+01,6.617443154016867446e+00,6.198093295961850657e-01,-6.351966431714870520e-01,-4.608249336246611483e-01,2.240880029226550221e+02
-3.863985824712009798e+00,2.194733994654080789e+01,6.393465159327369918e+00,6.409861893259185539e-01,-6.460948506841963646e-01,-4.143623402455346438e-01,2.256094891510749108e+02
-4.101586326688595463e+00,2.152883857719772465e+01,6.163295279331129528e+00,6.604157157666824540e-01,-6.552317984236558646e-01,-3.667701905877965296e-01,2.271309753794947994e+02
-4.345661623160927967e+00,2.107684114442438528e+01,5.927819066152217431e+00,6.780449438586830802e-01,-6.625825789173264146e-01,-3.181782208508845966e-01,2.286524616079146881e+02
-4.595231136100421665e+00,2.059299078299184060e+01,5.687922105912919690e+00,6.938258161100365751e-01,-6.681271537467924349e-01,-2.687188927602726651e-01,2.301739478363345768e+02
-4.849297578833708933e+00,2.007892497819629085e+01,5.444490013051532351e+00,7.077153136022346080e-01,-6.718504081752655344e-01,-2.185270324889586613e-01,2.316954340647544655e+02
-5.106846970392233231e+00,1.953627548528380942e+01,5.198408424640021508e+00,7.196755732620272461e-01,-6.737421923544560931e-01,-1.677394631329913177e-01,2.332169202931743541e+02
-5.366848650024604872e+00,1.896666824893364023e+01,4.950562994701571462e+00,7.296739910799986406e-01,-6.737973489983849484e-01,-1.164946317425855221e-01,2.347384065215942428e+02
-5.628255291871663957e+00,1.837172332280065845e+01,4.701839388528052055e+00,7.376833109943747857e-01,-6.720157274485697441e-01,-6.493223192523900344e-02,2.362598927500141315e+02
-5.890002919804140369e+00,1.775305478911766244e+01,4.453123276997433599e+00,7.436816991976447078e-01,-6.684021840920901791e-01,-1.319282304935810723e-02,2.377813789784340202e+02
-6.151010922422859295e+00,1.711227067835815063e+01,4.205300330891173388e+00,7.476528036632843488e-01,-6.629665691312067732e-01,3.858255291379712737e-02,2.393028652068539088e+02
-6.410182068221380369e+00,1.645097288896021936e+01,3.959256215211602647e+00,7.495857987301239866e-01,-6.557236997404047862e-01,9.025275586556300023e-02,2.408243514352737975e+02
-6.666402520910991392e+00,1.577075710711226186e+01,3.715876583499339691e+00,7.494754146226160207e-01,-6.466933196838168252e-01,1.416769323247953627e-01,2.423458376636936862e+02
-6.918541854907974020e+00,1.507321272660106182e+01,3.476047072150762585e+00,7.473219518262993466e-01,-6.359000455028863685e-01,1.927148993935589305e-01,2.438673238921135749e+02
-7.165453070983050843e+00,1.435992276872297957e+01,3.240653294735561296e+00,7.431312802790274175e-01,-6.233732994207302758e-01,2.432275268969542326e-01,2.453888101205334635e+02
-7.405972612072924122e+00,1.363246380225885623e+01,3.010580836314402209e+00,7.369148233799113212e-01,-6.091472291458790433e-01,2.930771166553703955e-01,2.469102963489533522e+02
-7.638920379253816506e+00,1.289240586351327700e+01,2.786715247756729408e+00,7.286895268593145403e-01,-5.932606147937857788e-01,3.421277778552244686e-01,2.484317825773732409e+02
-7.863099747876932000e+00,1.214131237641885441e+01,2.569942040058730726e+00,9.955207354021456956e-01,9.453287991603503970e-02,0.000000000000000000e+00,2.499532688057931296e+02
-8.084402147552667728e+00,1.135481700409881434e+01,2.353885579625885072e+00,9.913008634114531814e-01,1.316077436555698199e-01,0.000000000000000000e+00,2.515261591115538238e+02
-8.294394294811084478e+00,1.055991978131190123e+01,2.145597698146628929e+00,9.857007492619630495e-01,1.684993557698928335e-01,0.000000000000000000e+00,2.530990494173145180e+02
-8.492871898608527204e+00,9.758717295234479394e+00,1.944032819466245954e+00,9.787281891584446170e-01,2.051563592407236736e-01,0.000000000000000000e+00,2.546719397230752122e+02
-8.679607738259488059e+00,8.953304858771968355e+00,1.748145321284136022e+00,9.703928888839234990e-01,2.415277234467198553e-01,0.000000000000000000e+00,2.562448300288359064e+02
-8.854351666883825800e+00,8.145776395995167007e+00,1.556889542329288556e+00,9.769128538952149832e-01,2.136335083477470254e-01,0.000000000000000000e+00,2.578177203345965722e+02
-9.016830615094029611e+00,7.338224327591494678e+00,1.369219789535957466e+00,9.826311646046371751e-01,1.855639898862600778e-01,0.000000000000000000e+00,2.593906106403572380e+02
-9.166748594922474069e+00,6.532739456332205208e+00,1.184090345219496632e+00,9.875431292009232420e-01,1.573422001971287454e-01,0.000000000000000000e+00,2.609635009461179038e+02
-9.303786703988647488e+00,5.731410852556501290e+00,1.000455474252325505e+00,9.916447173610906107e-01,1.289912963135745883e-01,0.000000000000000000e+00,2.625363912518785696e+02
-9.427603129906341195e+00,4.936325739673572244e+00,8.172694312399838568e-01,9.949325635558181613e-01,1.005345411835595754e-01,0.000000000000000000e+00,2.641092815576392354e+02
-9.537833154930755342e+00,4.149569379683541115e+00,6.334864676972411512e-01,9.974039698086810679e-01,7.199528459899393051e-02,0.000000000000000000e+00,2.656821718633999012e+02
-9.632771868562279849e+00,3.385680126908811705e+00,4.511188249163480823e-01,9.990569079092538329e-01,4.339694405382944764e-02,0.000000000000000000e+00,2.672294485174402894e+02
-9.714071100794431146e+00,2.633657399596509130e+00,2.662081406460258259e-01,9.998900210782709630e-01,1.476298554660309542e-02,0.000000000000000000e+00,2.687767251714806775e+02
-9.781454678977327788e+00,1.895483096824582381e+00,7.797464611061966089e-02,8.808491902946983254e-01,2.673097542801564433e-02,-4.726395655342977564e-01,2.703240018255210657e+02
-9.834883195059791916e+00,1.173208057323734232e+00,-1.139624409372817920e-01,8.586017000741579253e-01,2.421703666549421610e-02,-5.120689951201196077e-01,2.718712784795614539e+02
-9.874424105910424743e+00,4.689182913950172282e-01,-3.097843959232449706e-01,8.345889668483753576e-01,2.165330910737599257e-02,-5.504456291208008611e-01,2.734185551336018420e+02
-9.900122320093812434e+00,-2.152997510122006408e-01,-5.096724684817783846e-01,8.088603593861364294e-01,1.904506358068168773e-02,-5.876905687226433583e-01,2.749658317876422302e+02
-9.912000196539814567e+00,-8.773592911549423778e-01,-7.138078812509449644e-01,7.814687739147881951e-01,1.639766242822902897e-02,-6.237272417184045459e-01,2.765131084416826184e+02
-9.910057543441388006e+00,-1.515173332356446911e+00,-9.223718286671089839e-01,7.524705253870281885e-01,1.371654848636694700e-02,-6.584815598936918368e-01,2.780603850957230065e+02
-9.893935608717802310e+00,-2.132960766935454444e+00,-1.137903037940238393e+00,7.219252317248031625e-01,1.100723389739487364e-02,-6.918820713095650277e-01,2.796243950274525218e+02
-9.863442731072296965e+00,-2.721372961399555201e+00,-1.358384216360374763e+00,6.898956912776850192e-01,8.275288779613358681e-03,-7.238601071689310107e-01,2.811884049591820371e+02
-9.818752528749614683e+00,-3.278442001136526063e+00,-1.584141036965228011e+00,6.564477537470857493e-01,5.526329778247112551e-03,-7.543499229654547777e-01,2.827524148909115524e+02
-9.760507468593624836e+00,-3.802619804119035329e+00,-1.815772342674539797e+00,6.216501848410274089e-01,2.766008520725274887e-03,-7.832888336253912565e-01,2.843164248226410677e+02
-9.692128655601100817e+00,-4.278602150928249692e+00,-2.046512905690615725e+00,5.855745249369939120e-01,0.000000000000000000e+00,-8.106173423649849497e-01,2.858325664139024411e+02
-9.613008018612863026e+00,-4.722216812241277317e+00,-2.283924212962577194e+00,8.010230466218279943e-01,1.680977087608944570e-02,-5.983957807208056812e-01,2.873487080051638145e+02
-9.523889040969152120e+00,-5.132270024143374521e+00,-2.528655603218715964e+00,9.429866597446359133e-01,3.207743219650309452e-02,-3.312781276935125585e-01,2.888648495964251879e+02
-9.425502459523004362e+00,-5.507563762464393164e+00,-2.781356368505600862e+00,9.984418138771008477e-01,4.440234749862993768e-02,-3.376945127337916547e-02,2.903809911876865613e+02
-9.318859347807594062e+00,-5.847194322906301700e+00,-3.042632525811788113e+00,9.623011475947070847e-01,5.265384537069009441e-02,2.668371674009193950e-01,2.918971327789479346e+02
-9.205548296790420082e+00,-6.150848757472378026e+00,-3.313003588967291080e+00,8.378801759393996740e-01,5.607494484992718575e-02,5.429644659909178550e-01,2.934132743702093080e+02
-9.087448450112455944e+00,-6.418503177546480032e+00,-3.592945789564697456e+00,9.053473691449666072e-01,4.153717105648690455e-01,-8.837693841807206518e-02,2.949294159614706814e+02
-8.966438434626818221e+00,-6.650123172823734663e+00,-3.882935298156128479e+00,9.360722153546453539e-01,3.202522752089287938e-01,1.456203552547300495e-01,2.964455575527320548e+02
-8.837047938315205187e+00,-6.855049382801293945e+00,-4.202261705265730285e+00,9.061895982315796294e-01,2.043976334009164064e-01,3.701891672065157901e-01,2.980530021474328919e+02
-8.708742240576645699e+00,-7.016878408214829221e+00,-4.534731154041828916e+00,8.176343202152047684e-01,7.530893738781591074e-02,5.707895254430604970e-01,2.996604467421337290e+02
-8.583040642012072396e+00,-7.136303512204622557e+00,-4.881419411922514051e+00,7.843785636195371724e-01,1.014329603648742861e-01,6.119310610452609600e-01,3.012678913368345661e+02
-8.459768768690407725e+00,-7.215565617764981177e+00,-5.244350826692405931e+00,7.483923528909645073e-01,1.272038900111869819e-01,6.509424371525430741e-01,3.028753359315354032e+02
-8.291863582805872213e+00,-7.253351940951324295e+00,-5.781017055607628130e+00,0.000000000000000000e+00,9.983844631533018710e-01,-5.680196945670642344e-02,3.050836114631876512e+02
-8.120952169315511782e+00,-7.209560461854707114e+00,-6.373350629742641438e+00,4.081438505715209025e-02,9.978246683405279649e-01,5.175052872767943457e-02,3.072918869948398992e+02
-7.993565627438035115e+00,-7.140018748797732684e+00,-6.832320645573512152e+00,8.107982391399500000e-02,9.838443326184724835e-01,1.596069902250729367e-01,3.088811760806968891e+02
-7.861167841376365040e+00,-7.049625530800590845e+00,-7.313346513686990846e+00,1.202547528576992514e-01,9.566314911224695905e-01,2.653167627726186195e-01,3.104704651665538790e+02
-7.714209148210414035e+00,-6.934897739356539859e+00,-7.842980961709720589e+00,1.578122758224531907e-01,9.165521556103991552e-01,3.674580678744239770e-01,3.121493063977750353e+02
-7.558625183830944394e+00,-6.803339415712459370e+00,-8.389032660463229263e+00,1.932472512690127098e-01,8.641453910704877117e-01,4.646571240916265721e-01,3.138281476289961915e+02
-7.393439190625954893e+00,-6.658233671527172604e+00,-8.943500798637872506e+00,2.260830863773561072e-01,8.001160645898474089e-01,5.556066245465611786e-01,3.155069888602173478e+02
-7.217711332238441635e+00,-6.502869305264658450e+00,-9.498384499017655358e+00,2.558781471538286167e-01,7.253253641091970128e-01,6.390833200685656079e-01,3.171858300914385040e+02
-7.030538708124530523e+00,-6.340540605645453631e+00,-1.004568288100235840e+01,2.822316982334162616e-01,6.407792146972540737e-01,7.139644714727254593e-01,3.188646713226596603e+02
-6.831215258493410047e+00,-6.174762790282252389e+00,-1.057753542723946616e+01,3.047892924972596673e-01,5.476147482561699587e-01,7.792429497099214730e-01,3.205435125538808165e+02
-6.619405079253765756e+00,-6.009507002627508143e+00,-1.108670094940118034e+01,3.232475380382590080e-01,4.470850087367330139e-01,8.340407808473885298e-01,3.222223537851019728e+02
-6.394997905898154755e+00,-5.849003286184230710e+00,-1.156675594090183878e+01,3.373581783923914057e-01,3.405420986485929169e-01,8.776209537843587816e-01,3.239011950163231290e+02
-6.168231163744474443e+00,-5.703318288665276903e+00,-1.199474860121221909e+01,3.469314311961577135e-01,2.294189935806829062e-01,9.093973319920788390e-01,3.255105737869507720e+02
-5.930294526566154190e+00,-5.569190238952669070e+00,-1.238659480251135037e+01,3.518385404063183453e-01,1.152102693228961444e-01,9.289425360747919358e-01,3.271199525575784151e+02
-5.681194550232814500e+00,-5.449944240027123854e+00,-1.273712843914292492e+01,3.520135077923879363e-01,-5.479992337527160454e-04,9.359936912342581294e-01,3.287293313282060581e+02
-5.420918039938805499e+00,-5.348374362625265555e+00,-1.304112801142159661e+01,2.667117791109648306e-01,2.447389377469652225e-02,9.634645065623386184e-01,3.303387100988337011e+02
-5.149453526715062956e+00,-5.267009324459853481e+00,-1.329334450842018889e+01,1.791010901817740864e-01,4.928391228887925996e-02,9.825944715311299982e-01,3.319480888694613441e+02
-4.806601701748072664e+00,-5.203003682825877441e+00,-1.351161957473393649e+01,8.993987732009491032e-02,7.366727837904697707e-02,9.932179773654231658e-01,3.338834695940711299e+02
-4.444784601874275154e+00,-5.183752129005540610e+00,-1.362284089516072783e+01,0.000000000000000000e+00,9.741290686787916486e-02,9.952430484926604315e-01,3.358188503186809157e+02
-4.065350770651530610e+00,-5.214465225713580843e+00,-1.362819957489251266e+01,-0.000000000000000000e+00,-9.695091807975529663e-02,9.952881590151888558e-01,3.377542310432907016e+02
-3.750539786318934254e+00,-5.274424227849664248e+00,-1.356811031093936570e+01,-4.291282096655081070e-03,-2.252196961352708748e-01,9.742975281538440724e-01,3.393072186219453101e+02
-3.428908776489937082e+00,-5.363676896254971460e+00,-1.346401790861478531e+01,-8.509987894250357898e-03,-3.496795025689147796e-01,9.368296673276681474e-01,3.408602062005999187e+02
-3.101542667062899827e+00,-5.483478916116341750e+00,-1.332137470971457027e+01,-7.525276839494735026e-03,-2.888018937096377692e-01,9.573582591684978160e-01,3.424131937792545273e+02
-2.769539318266640127e+00,-5.635080069697987248e+00,-1.314563331369700627e+01,-6.509497914867861529e-03,-2.267319778936881802e-01,9.739344108497848262e-01,3.439661813579091358e+02
-2.433889326711395462e+00,-5.819039377918540978e+00,-1.294188608341603874e+01,-5.466844694432428445e-03,-1.637260063597008319e-01,9.864896899869861624e-01,3.455191689365637444e+02
-2.095346206522343824e+00,-6.034541155331744733e+00,-1.271450465326395296e+01,-4.401621693856015705e-03,-1.000440944872977578e-01,9.949722633745504696e-01,3.470721565152183530e+02
-1.719042297786727014e+00,-6.308833833997036677e+00,-1.244000716919880567e+01,-3.318226602569682160e-03,-3.594914811486257106e-02,9.993471109288953880e-01,3.487856200276899585e+02
-1.340475692840582767e+00,-6.621080639603275309e+00,-1.214510550765265862e+01,-2.221132131458964602e-03,2.829422165749335971e-02,9.995961702570690388e-01,3.504990835401615641e+02
-9.605171707322763819e-01,-6.969042738890919075e+00,-1.183574383248733675e+01,-1.114867550911389929e-03,9.242079070677156061e-02,9.957184112564252398e-01,3.522125470526331696e+02
-5.800113648609327432e-01,-7.350476296567700629e+00,-1.151786642508450775e+01,-3.999995304131439757e-06,1.561658166662475977e-01,9.877298404362626627e-01,3.539260105651047752e+02
-1.993065413983448053e-01,-7.762636718062947416e+00,-1.119591829259475801e+01,-3.431258075468773590e-06,1.373532654656963448e-01,9.905211155965775172e-01,3.556394740775763808e+02
1.822233150119449974e-01,-8.201786781190506304e+00,-1.087134578839259902e+01,-2.861279878233495316e-06,1.184910373819077628e-01,9.929541147710270188e-01,3.573529375900479863e+02
5.630030584411962469e-01,-8.660327088620480396e+00,-1.054641059831670447e+01,-2.290266830177746974e-06,9.958595345257659215e-02,9.950279583300892794e-01,3.590543796104893772e+02
9.468532861281803159e-01,-9.137060675460537240e+00,-1.021880223010725608e+01,-1.718425422772605465e-06,8.064485019431115453e-02,9.967418964421337346e-01,3.607558216309307682e+02
1.334979121610987196e+00,-9.627891525429600250e+00,-9.888469236801395112e+00,-1.145962446714471925e-06,6.167457713616028570e-02,9.980953093380336982e-01,3.624572636513721591e+02
1.728633176358867818e+00,-1.012873127479767277e+01,-9.555360193143183523e+00,-5.730849173465950719e-07,4.268199434934798892e-02,9.990877075345891978e-01,3.641587056718135500e+02
2.129115528476225094e+00,-1.063549946874685936e+01,-9.219423696001699753e+00,-0.000000000000000000e+00,2.367396997322678345e-02,9.997187320112477238e-01,3.658601476922549409e+02
2.536908545936735315e+00,-1.114432645550287759e+01,-8.879867650928373379e+00,-1.815685972366613410e-06,8.631051170094888869e-02,9.962672811885360247e-01,3.675615897126963318e+02
2.950808577044219838e+00,-1.165174919500011796e+01,-8.534418564660096962e+00,-3.624226711587903945e-06,1.486073979362688424e-01,9.888952630413665457e-01,3.692630317331377228e+02
3.344009292329996441e+00,-1.212535019441210871e+01,-8.201500380094627118e+00,-5.418505219052842428e-06,2.103194769713875589e-01,9.776316881000031156e-01,3.708643974005989890e+02
3.738942120367596544e+00,-1.259256630004011157e+01,-7.858788638043208152e+00,-7.191460618315129887e-06,2.712038983333718289e-01,9.625208805408472790e-01,3.724657630680602551e+02
4.134071743157628376e+00,-1.305081313903614593e+01,-7.503918222213163070e+00,-8.936115937843508848e-06,3.310210683394158027e-01,9.436223038035528310e-01,3.740671287355215213e+02
4.527890993485291560e+00,-1.349749747495184593e+01,-7.134524102670037671e+00,-1.064560556384511033e-05,3.895355928452018390e-01,9.210103266485138995e-01,3.756684944029827875e+02
4.918920877512060308e+00,-1.393001735081575454e+01,-6.748241352659248626e+00,-1.231320225525063741e-05,4.465172034807274315e-01,8.947739305789715880e-01,3.772698600704440537e+02
5.305710597062739176e+00,-1.434576223230621039e+01,-6.342705165427189762e+00,-1.393234361465973069e-05,5.017416637323274253e-01,8.650163597761567624e-01,3.788712257379053199e+02
5.686837571607742170e+00,-1.474211315101857345e+01,-5.915550871041697079e+00,-1.549665791116819078e-05,5.549916513083045233e-01,8.318547149214672309e-01,3.804725914053665861e+02
6.060907459940468200e+00,-1.511644284782548375e+01,-5.464413953211795238e+00,-1.699998915352857377e-05,6.060576133181894143e-01,7.954194924999823391e-01,3.820739570728278522e+02
6.426759527043795828e+00,-1.546637178641382704e+01,-4.987704624728984015e+00,-8.714160024713584786e-06,6.747554542646525544e-01,7.380400238874712526e-01,3.836753227402891184e+02
6.852857851150321977e+00,-1.584736446776196495e+01,-4.378145217817142054e+00,-3.585205410199641569e-07,7.380472384462178903e-01,6.747475630322210538e-01,3.855974869278406914e+02
7.262804584403021124e+00,-1.617915948750004418e+01,-3.725828609096789368e+00,7.999989140413108610e-06,7.954259202489223357e-01,6.060491773184206732e-01,3.875196511153922643e+02
7.654842848184720161e+00,-1.645929944050442373e+01,-3.033223572435892024e+00,6.003447275242286630e-06,8.086875497486893938e-01,5.882367268597092913e-01,3.894418153029438372e+02
7.965108940549975536e+00,-1.665490674889074185e+01,-2.433939353214696233e+00,4.003944591395868871e-06,8.215503719717091036e-01,5.701341826957058156e-01,3.910340298006260582e+02
8.261330105963569537e+00,-1.682111449711898388e+01,-1.816725881774745588e+00,2.002466653143350101e-06,8.340080464920200942e-01,5.517504674787980790e-01,3.926262442983082792e+02
8.541612464728972398e+00,-1.695803155670985518e+01,-1.184081658833745720e+00,0.000000000000000000e+00,8.460544322668346329e-01,5.330946422741880131e-01,3.942184587959905002e+02
8.804096039431600573e+00,-1.706601675746467706e+01,-5.388581908214128413e-01,-4.820826492293019128e-02,8.823206484469500177e-01,4.681711615612655364e-01,3.958106732936727212e+02
9.037879386317262842e+00,-1.714374186411577838e+01,8.847509510447379433e-02,-9.603787901766490387e-02,9.116568066446733010e-01,3.995705102891313198e-01,3.973379658955657874e+02
9.252862370294806738e+00,-1.719768415681210527e+01,7.204606734086413944e-01,-1.431131713361313007e-01,9.338324929755451587e-01,3.278315043644232096e-01,3.988652584974588535e+02
9.447536488992220427e+00,-1.722878413411732623e+01,1.353787765373752894e+00,-1.890643961725632649e-01,9.486735350473675110e-01,2.535176088587287602e-01,4.003925510993519197e+02
9.620382652059337403e+00,-1.723797379387326956e+01,1.985145583597836438e+00,-2.335306372001663133e-01,9.560633697694566058e-01,1.772125121850524065e-01,4.019198437012449858e+02
9.769871202275712818e+00,-1.722617658172866939e+01,2.611223353402326808e+00,-2.761626422186226892e-01,9.559439586337196149e-01,9.951554147806541961e-02,4.034471363031380520e+02
9.894461936763651266e+00,-1.719430733975392300e+01,3.228710334240041391e+00,-3.166255662481883837e-01,9.483162433044955986e-01,2.103695520210341341e-02,4.049744289050311181e+02
9.992604128306265210e+00,-1.714327225514232822e+01,3.834295841102989932e+00,-3.546016014287784457e-01,9.332401379573836975e-01,-5.760685003445976254e-02,4.065017215069241843e+02
1.006273654677043616e+01,-1.707396880899818115e+01,4.424669265929916939e+00,-3.897924730740328636e-01,9.108340584458703981e-01,-1.357981808105405142e-01,4.080290141088172504e+02
1.010328748063456139e+01,-1.698728572521216407e+01,4.996520099013468830e+00,-4.219217822837038057e-01,8.812739920112185876e-01,-2.129228983478907711e-01,4.095563067107103166e+02
1.011267475862094756e+01,-1.688410291942447472e+01,5.546537950406884576e+00,-4.507371767244026106e-01,8.447921148573285244e-01,-2.883752419941771894e-01,4.110835993126033827e+02
1.008930577143275897e+01,-1.676529144807606997e+01,6.071412571330103702e+00,-4.760123325391987792e-01,8.016749684599806525e-01,-3.615625868603486448e-01,4.126108919144964489e+02
1.003157749359536943e+01,-1.663171345754848929e+01,6.567833875575190383e+00,-4.975487318301110573e-01,7.522612089413860392e-01,-4.319100982591105309e-01,4.141381845163895150e+02
9.928436827918822871e+00,-1.647291879628807720e+01,7.062267864669878215e+00,-5.151772217625080197e-01,6.969389471894419374e-01,-4.988652464037193202e-01,4.157720594580900979e+02
9.779962171176332930e+00,-1.629850031058038695e+01,7.514250279591074388e+00,-4.711698250525133691e-01,6.409557283566804653e-01,-6.059478114891631018e-01,4.174059343997906808e+02
9.586652441162661020e+00,-1.611040809405128371e+01,7.921746423017925309e+00,-4.193704694032804325e-01,5.743727203469485287e-01,-7.030095216392946433e-01,4.190398093414912637e+02
9.349863208059163711e+00,-1.591088035184248994e+01,8.283488398209136960e+00,-3.606357834583678867e-01,4.982910355864810792e-01,-7.884452267249042468e-01,4.206736842831918466e+02
9.070923005105981929e+00,-1.570216311359456185e+01,8.598208647005945338e+00,-2.959370872987276413e-01,4.139688686939323459e-01,-8.608420390031479297e-01,4.223075592248924295e+02
8.751133308737919947e+00,-1.548651009269514134e+01,8.864639959210149911e+00,-2.263443299816221832e-01,3.228006900576384508e-01,-9.190026979204383162e-01,4.239414341665930124e+02
8.391768519028021345e+00,-1.526618254544167819e+01,9.081515481960202862e+00,-1.530083961310036433e-01,2.262941859352027851e-01,-9.619653695049218411e-01,4.255753091082935953e+02
7.994075940438921890e+00,-1.504344913011990492e+01,9.247568729105337226e+00,-7.714207405483466951e-02,1.260453262576606281e-01,-9.890195529615819492e-01,4.272091840499941782e+02
7.517223311488606008e+00,-1.480116872144610873e+01,9.366274019631342540e+00,-0.000000000000000000e+00,2.371197228180339442e-02,-9.997178313761895252e-01,4.289872703554020745e+02
6.994552223992443807e+00,-1.456176696871441578e+01,9.418652783963494812e+00,-7.892990921127130202e-03,0.000000000000000000e+00,-9.999678497920404530e-01,4.307653566608099709e+02
6.429561132575075888e+00,-1.432689638922291131e+01,9.411187446417315527e+00,-2.872728885472881633e-01,3.020151847007489232e-02,-9.573714826484192031e-01,4.325434429662178673e+02
