-2.626683072366083671e+00,1.736727866266897280e+01,-8.140047636029821732e+00,3.929044487389432572e-01,4.365734123405916323e-02,9.185413059394110791e-01,4.895812993759756182e+01
-2.610880143866423531e+00,1.737357259462568493e+01,-8.583725052975831105e+00,2.005502775541377347e-01,3.004255441678143138e-02,9.792216455410993614e-01,5.048795735967419773e+01
-2.573177213050767520e+00,1.734995175590716698e+01,-9.023984887241761399e+00,0.000000000000000000e+00,1.519999199371368896e-02,9.998834733317381041e-01,5.201778478175083364e+01
-2.515966638255187071e+00,1.729672782571828549e+01,-9.458016827382289549e+00,-0.000000000000000000e+00,6.377917058116652424e-03,9.999786608528554721e-01,5.354761220382746956e+01
-2.441149163242736009e+00,1.721479862215623768e+01,-9.882959653079819162e+00,-0.000000000000000000e+00,-2.444652874761686981e-03,9.999960118218210736e-01,5.507743962590410547e+01
-2.349638496673597032e+00,1.710621762894571063e+01,-1.029585030451412209e+01,-0.000000000000000000e+00,-1.126703122667802731e-02,9.999355249188323080e-01,5.660726704798074138e+01
-2.241836851330432534e+00,1.697361537915831065e+01,-1.069367485078110391e+01,-0.000000000000000000e+00,-2.008853143510555203e-02,9.997972048832026726e-01,5.813709447005737729e+01
-2.114471578716419664e+00,1.681510354184638700e+01,-1.108274141124788592e+01,-0.000000000000000000e+00,-2.890846700660624005e-02,9.995810625071457345e-01,5.970669106181776442e+01
-1.970283841506943245e+00,1.663642174288423092e+01,-1.144894258832727729e+01,-0.000000000000000000e+00,-3.772615157010862641e-02,9.992871146349184830e-01,6.127628765357815155e+01
-1.809624978667204287e+00,1.644049103656580257e+01,-1.178893906120279667e+01,-0.000000000000000000e+00,-4.654089893017572532e-02,9.989153841614963891e-01,6.284588424533853868e+01
-1.632814468442946199e+00,1.623023425447472690e+01,-1.209939168793997055e+01,-0.000000000000000000e+00,-5.535202312025905291e-02,9.984659000307835042e-01,6.441548083709892580e+01
-1.440139924460824394e+00,1.600857584660764488e+01,-1.237696152829347440e+01,-0.000000000000000000e+00,-6.415883845593449430e-02,9.979386972333547101e-01,6.598507742885931293e+01
-1.231857092160910438e+00,1.577844172248204302e+01,-1.261830986651322917e+01,-0.000000000000000000e+00,-7.296065958811630281e-02,9.973338168037325646e-01,6.755467402061970006e+01
-1.008189845561343390e+00,1.554275909222997853e+01,-1.282009823414936989e+01,-0.000000000000000000e+00,-8.175680155624505396e-02,9.966513058171966311e-01,6.912427061238008719e+01
-7.693301843551543229e-01,1.530445630767902543e+01,-1.297898843285593351e+01,-0.000000000000000000e+00,-9.054657984144540150e-02,9.958912173861287354e-01,7.069386720414047431e+01
-5.154382313392797954e-01,1.506646270342183946e+01,-1.309164255719315406e+01,-0.000000000000000000e+00,-9.932931041964995766e-02,9.950536106558915961e-01,7.226346379590086144e+01
-2.466422301757771052e-01,1.483170843787569559e+01,-1.315472301742827987e+01,-0.000000000000000000e+00,-1.081043098146848153e-01,9.941385508002410498e-01,7.383306038766124857e+01
3.839754695023221698e-02,1.460206911287894371e+01,-1.316467335201638456e+01,-0.000000000000000000e+00,-1.168708951513131450e-01,9.931461090162760907e-01,7.541019847128949039e+01
3.382377135452395711e-01,1.438157131754645057e+01,-1.311787826397433321e+01,-0.000000000000000000e+00,-5.842598549233594951e-02,9.982907413244255235e-01,7.698733655491773220e+01
6.523626631006419485e-01,1.417287165719508479e+01,-1.301193584458141750e+01,-0.000000000000000000e+00,2.200131365709311819e-04,9.999989757941887270e-01,7.856447463854597402e+01
9.801251446208827378e-01,1.397851897715065839e+01,-1.284477765337457100e+01,-0.000000000000000000e+00,5.886523909786058745e-02,9.982649365881264281e-01,8.014161272217421583e+01
1.116742251215011361e+00,1.390304524408336917e+01,-1.276186784128771201e+01,-0.000000000000000000e+00,1.173078338869206483e-01,9.930945937341473240e-01,8.078403856062790567e+01
1.462846843404178143e+00,1.372508739458133498e+01,-1.251799806719059482e+01,1.270998419732385096e-03,1.158168560016881454e-01,9.932687650413736247e-01,8.238127097373336483e+01
1.818167007108572042e+00,1.356301319074360201e+01,-1.221028538862987745e+01,-1.177648228227752558e-01,0.000000000000000000e+00,9.930405059701471471e-01,8.397850338683882399e+01
2.179215086867465789e+00,1.341472941390813745e+01,-1.184145332997646882e+01,-1.816074833447078318e-01,2.249536404289151706e-02,9.831127507010541944e-01,8.557573579994428314e+01
2.540507137680695582e+00,1.327837197049008289e+01,-1.141829090668702840e+01,-2.446001233135345621e-01,4.488543598003069679e-02,9.685835417315357132e-01,8.716453624033491110e+01
2.900373505740391433e+00,1.315039583639426546e+01,-1.094409709507521278e+01,-3.064479078803077350e-01,6.706541980010792547e-02,9.495208840379535387e-01,8.875333668072553905e+01
3.255236429176572965e+00,1.302813261260272881e+01,-1.042380097285556317e+01,-3.668613608084618227e-01,8.893150287289935951e-02,9.260140008358307417e-01,9.034213712111616701e+01
3.601489282805679260e+00,1.290893454413733288e+01,-9.862331940306981792e+00,-4.255577192520839658e-01,1.103813418047569217e-01,8.981729159620766012e-01,9.193093756150679496e+01
3.935496630469091706e+00,1.279017466551190907e+01,-9.264619685775212332e+00,-4.822622571119882240e-01,1.313145414164163249e-01,8.661279389208698110e-01,9.351973800189742292e+01
4.253594277678935498e+00,1.266924694596264445e+01,-8.635594151173767941e+00,-5.367095707810943805e-01,1.516331246029972435e-01,8.300290550074360674e-01,9.510853844228805087e+01
4.552089324570837370e+00,1.254356643445545139e+01,-7.980185497483579304e+00,-5.886448212658882406e-01,1.712419908787092826e-01,7.900452233626342746e-01,9.669733888267867883e+01
4.827260219163318489e+00,1.241056940446903667e+01,-7.303324070251468569e+00,-6.378249268744961009e-01,1.900493614616348692e-01,7.463635862412140165e-01,9.828613932306930678e+01
5.075356810923498330e+00,1.226771349855237503e+01,-6.609940365087669356e+00,-6.840197008926774958e-01,2.079672088167840993e-01,6.991885931912854568e-01,9.987493976345993474e+01
5.292600404638771572e+00,1.211247787265532949e+01,-5.904964993162551856e+00,-7.270129289257662997e-01,2.249116686481305305e-01,6.487410442400828314e-01,1.014637402038505627e+02
5.475637935242223975e+00,1.194283902710071210e+01,-5.193036014837199232e+00,-9.246034767262547582e-01,-1.743419773614379165e-01,3.386905457147098009e-01,1.030525406442411906e+02
5.643339060380535344e+00,1.171114279410363856e+01,-4.316906884043222981e+00,-8.498265231567917466e-01,-5.222387069684532035e-01,-7.113096008795406766e-02,1.050000257257920424e+02
5.739136762567075500e+00,1.144991805484436931e+01,-3.443929052036822203e+00,-9.097764572098885338e-01,-4.109769391039692077e-01,-5.833312464285502624e-02,1.069475108073428942e+02
5.763940533070742056e+00,1.119032820340261125e+01,-2.665692514260055379e+00,-9.550453190685268545e-01,-2.930832919055429975e-01,-4.459397415261633774e-02,1.087028936583431147e+02
5.732449238993740259e+00,1.091110362226489450e+01,-1.900121981703019491e+00,-9.849026284388019414e-01,-1.704602042659174865e-01,-3.013521620656858108e-02,1.104582765093433352e+02
5.644504148947170563e+00,1.061516895205020994e+01,-1.151361689187638593e+00,-9.988665941599867981e-01,-4.508642607873940278e-02,-1.519016967036251192e-02,1.122136593603435557e+02
5.499978096100030633e+00,1.030544958516046705e+01,-4.235557278685918026e-01,-9.967118863751273095e-01,8.101490948214877530e-02,-0.000000000000000000e+00,1.139690422113437762e+02
5.299854616868127088e+00,9.985223768161542779e+00,2.798850937149568452e-01,-9.932567570293234782e-01,8.139880434615835714e-02,-8.254240890503737604e-02,1.157244250623439967e+02
5.087611848419219207e+00,9.704049848269516332e+00,8.664823366584590847e-01,-9.830223045673989191e-01,8.122712403018601812e-02,-1.645214364331784862e-01,1.172373069545191839e+02
4.844052403461154732e+00,9.421167302737689653e+00,1.435567886416709849e+00,-9.660783830276251649e-01,8.050104033451617458e-02,-2.453775465544107415e-01,1.187501888466943711e+02
4.571572028601235793e+00,9.138939162388368231e+00,1.986473379886314783e+00,-9.425406411065262446e-01,7.922550907238744278e-02,-3.245588676588880839e-01,1.202630707388695583e+02
4.272589408746163109e+00,8.859715316717919009e+00,2.518530569332123825e+00,-9.125697327805535330e-01,7.740923624233604639e-02,-4.015249593220102109e-01,1.217759526310447455e+02
3.949546135449980788e+00,8.585832404137550000e+00,3.031071326622832629e+00,-8.763702207390996479e-01,7.506461860316120116e-02,-4.757505010370863263e-01,1.232888345232199327e+02
3.604906675042277353e+00,8.319613702341840167e+00,3.523427647466014445e+00,-8.341891801169368792e-01,7.220765905738532608e-02,-5.467288777362185881e-01,1.248017164153951200e+02
3.241158336536816620e+00,8.063369018805870425e+00,3.994931655642561807e+00,-7.863145120595614879e-01,6.885785742101434292e-02,-6.139756376252964998e-01,1.263145983075703072e+02
2.860811239320774302e+00,7.819394581411835077e+00,4.444915607240520927e+00,-7.330729786357232936e-01,6.503807732543331888e-02,-6.770317987314022901e-01,1.278274801997454944e+02
2.466398280624769512e+00,7.589972929206007635e+00,4.872711894888292150e+00,-6.748279725133988771e-01,6.077439016019298840e-02,-7.354669815944707700e-01,1.293403620919206674e+02
2.060475102773863032e+00,7.377372803286911029e+00,5.277653051987186927e+00,-6.119770366256332972e-01,5.609589712214067131e-02,-7.888823467226213637e-01,1.308532439840958546e+02
1.645620060219710190e+00,7.183849037825585704e+00,5.659071756943300002e+00,-5.449491507587007622e-01,5.103453058575693757e-02,-8.369133167640062654e-01,1.323661258762710418e+02
1.224434186354047771e+00,7.011642451218812688e+00,6.016300837398709689e+00,-4.742018035852761937e-01,4.562483615065762027e-02,-8.792320648181624065e-01,1.338790077684462290e+02
7.995411601037040183e-01,6.862979737376156741e+00,6.348673274461951621e+00,-4.002178701289689777e-01,3.990373685404841747e-02,-9.155497519066165824e-01,1.353918896606214162e+02
3.735872723073180302e-01,6.740073357141700860e+00,6.655522206937772189e+00,-3.235023159736916676e-01,3.391028115758249611e-02,-9.456184983349567030e-01,1.369047715527966034e+02
-5.075860812604724576e-02,6.645121429851334582e+00,6.936180935556124361e+00,-2.445787507129186800e-01,2.768537642874062746e-02,-9.692330754950132521e-01,1.384176534449717906e+02
-4.708050682762104922e-01,6.580307625026468266e+00,7.189982927200407659e+00,-1.639858541619299004e-01,2.127150973578075324e-02,-9.862323065638125552e-01,1.399305353371469778e+02
-8.838381854889066913e-01,6.547801054205027782e+00,7.416261819134897237e+00,-8.227369972366822826e-02,1.471245786181720958e-02,-9.965001665425308186e-01,1.414434172293221650e+02
-1.301111351749268730e+00,6.551161001837011888e+00,7.620360210199598860e+00,-0.000000000000000000e+00,8.052988517103476865e-03,-9.999665741302532496e-01,1.430104589938938489e+02
-1.704094791417966714e+00,6.594788144295174348e+00,7.793764497868933994e+00,1.984795552643255426e-02,-2.502312411574146231e-02,-9.994888203086398359e-01,1.445775007584655327e+02
-2.088763429340296796e+00,6.679817070930075040e+00,7.939901882611117401e+00,3.966637210066471797e-02,-5.806199530753911042e-02,-9.975236255981020372e-01,1.461445425230372166e+02
-2.450804789212477353e+00,6.806923286461900702e+00,8.063597611024492906e+00,5.942575608357240219e-02,-9.101445682225073330e-02,-9.940739148395347780e-01,1.477115842876089005e+02
-2.785898308901245901e+00,6.976758185471041429e+00,8.169677082425327086e+00,7.909670170042037984e-02,-1.238314690392284950e-01,-9.891448220846599249e-01,1.492786260521805843e+02
-3.089715399552583897e+00,7.189949012062909262e+00,8.262965815989229412e+00,9.864993479936944032e-02,-1.564641939287245986e-01,-9.827436829527518292e-01,1.508456678167522682e+02
-3.359314052434330122e+00,7.446270289516111696e+00,8.347199129026433795e+00,1.180563564139884697e-01,-1.888640677271934687e-01,-9.748800237121687529e-01,1.524127095813239521e+02
-3.594545200789804884e+00,7.743825783395154261e+00,8.423931822680639669e+00,1.372870860649880176e-01,-2.209828732043121191e-01,-9.655655471025326175e-01,1.539797513458956360e+02
-3.796675831629802378e+00,8.079892863661548574e+00,8.493628460206599229e+00,1.563135047367802954e-01,-2.527728114142484550e-01,-9.548141149186625265e-01,1.555467931104673198e+02
-3.967000305432808904e+00,8.451756416570034958e+00,8.556753652671451604e+00,1.751072974649543479e-01,-2.841865728244751810e-01,-9.426417273821817711e-01,1.571138348750390037e+02
-4.106840336510908074e+00,8.856708980366569506e+00,8.613772055790276383e+00,1.936404954713352999e-01,-3.151774077163534971e-01,-9.290664993314886599e-01,1.586808766396106876e+02
-4.218251069833113043e+00,9.295995184303997405e+00,8.665539787660440751e+00,2.118855177839669979e-01,-3.456991957527928983e-01,-9.141086332655016244e-01,1.602612433546739510e+02
-4.301213898562963323e+00,9.763664191916896939e+00,8.712001278349923439e+00,2.298152122801234709e-01,-3.757065146095286412e-01,-8.977903892812639786e-01,1.618416100697372144e+02
-4.357181195438110777e+00,1.025694001678601985e+01,8.753637311053656944e+00,2.474028960913110531e-01,-4.051547075679520216e-01,-8.801360519501076896e-01,1.634219767848004778e+02
-4.387633784660152081e+00,1.077305522319826103e+01,8.790928702280881524e+00,2.646223953101696225e-01,-4.339999499689659035e-01,-8.611718941816207673e-01,1.650023434998637413e+02
-4.394080919751953473e+00,1.130925106846789774e+01,8.824356298524742570e+00,2.814480839402158652e-01,-4.621993144290285072e-01,-8.409261381291346371e-01,1.665827102149270047e+02
-4.378060261117039609e+00,1.186277764516402833e+01,8.854400972931751213e+00,2.978549220304967937e-01,-4.897108347213858237e-01,-8.194289131948488958e-01,1.681630769299902681e+02
-4.341137853301201943e+00,1.243089402324297588e+01,8.881543621971085045e+00,3.138184929384293942e-01,-5.164935682274721662e-01,-7.967122111970159626e-01,1.697434436450535316e+02
-4.284908101956455440e+00,1.301086839208444168e+01,8.906265162103784050e+00,3.293150396653934386e-01,-5.425076568655753384e-01,-7.728098387658244306e-01,1.713238103601167950e+02
-4.210993750507490141e+00,1.359997820243013322e+01,8.929046526451838162e+00,3.443215002110234235e-01,-5.677143864061273693e-01,-7.477573670387459570e-01,1.729041770751800584e+02
-4.121045856520749062e+00,1.419551030822368176e+01,8.950368661467191345e+00,3.588155418935968788e-01,-5.920762440853672981e-01,-7.215920787301187689e-01,1.744845437902433218e+02
-4.016788419836287538e+00,1.479477318699609256e+01,8.970463315792235548e+00,3.246281171674334498e-01,-5.986529165201547320e-01,-7.322767721886745962e-01,1.760649105053065853e+02
-3.900062838463752346e+00,1.539510949937237783e+01,8.989063830846154346e+00,2.900101731225198654e-01,-6.044356563979763619e-01,-7.419903212044393070e-01,1.776452772203698487e+02
-3.772782973044407573e+00,1.599388465973782836e+01,9.005654350479856518e+00,2.550076198428287699e-01,-6.094167948162900750e-01,-7.507198438957448650e-01,1.792256439354331121e+02
-3.636890381755784940e+00,1.658847506634814195e+01,9.019719032356739774e+00,2.196668774511796596e-01,-6.135897259369349488e-01,-7.584537633741678109e-01,1.808060106504963755e+02
-3.494354292653607974e+00,1.717626824005292008e+01,9.030742051524953240e+00,1.840348145503888921e-01,-6.169489157450080974e-01,-7.651818230952986966e-01,1.823863773655596390e+02
-3.353800269039403759e+00,1.772941951593727339e+01,9.038038627020911875e+00,1.481586860699484753e-01,-6.194899093865237072e-01,-7.708951004587510925e-01,1.838965192883133568e+02
-3.210792340422052416e+00,1.827218846210830350e+01,9.041799885203692710e+00,1.120860706006303470e-01,-6.212093370751726740e-01,-7.755860186394252231e-01,1.854066612110670746e+02
-3.067039927427624324e+00,1.880242446034859682e+01,9.041595809254804550e+00,7.586480730007495732e-02,-6.221049185603583220e-01,-7.792483566343660906e-01,1.869168031338207925e+02
-2.924274407439162005e+00,1.931798618536828016e+01,9.036996407340962989e+00,3.954293245298649839e-02,-6.221754661505991546e-01,-7.818772575119012913e-01,1.884269450565745103e+02
-2.784249092458404018e+00,1.981674170997393958e+01,9.027571715333213120e+00,3.168615770015761716e-03,-6.214208862882928397e-01,-7.834692348521394845e-01,1.899370869793282282e+02
-2.648739206756417719e+00,2.029656861014824543e+01,9.012891799525949210e+00,-3.320990349024550287e-02,-6.198421796737618727e-01,-7.840221773702942265e-01,1.914472289020819460e+02
-2.519541864313261215e+00,2.075535407003957644e+01,8.992526759355770949e+00,-6.954438049149828938e-02,-6.174414399384111629e-01,-7.835353517167061854e-01,1.929573708248356638e+02
-2.398476046046801535e+00,2.119099498686071570e+01,8.966046730120190489e+00,-1.057866287974185415e-01,-6.142218508687596890e-01,-7.820094034498509261e-01,1.944675127475893817e+02
-2.287382576830816028e+00,2.160139807569576575e+01,8.933021885696172504e+00,-1.418885842719944945e-01,-6.101876821850156229e-01,-7.794463561810346386e-01,1.959776546703430995e+02
-2.188124102302501761e+00,2.198447997421457956e+01,8.893022441258480626e+00,-1.778023688178317352e-01,-6.053442838797847836e-01,-7.758496088919047962e-01,1.974877965930968173e+02
-2.102585065459521729e+00,2.233816734729371944e+01,8.845618655997842694e+00,-2.134803538679444779e-01,-5.996980791244060915e-01,-7.712239314283174663e-01,1.989979385158505352e+02
-2.032671683046720634e+00,2.266039699154318754e+01,8.790380835838897511e+00,-2.488752235468845997e-01,-5.932565557523028499e-01,-7.655754581765170652e-01,2.005080804386042530e+02
-1.980311921732636149e+00,2.294911593973810682e+01,8.726879336157926659e+00,-2.839400374174871344e-01,-5.860282563306241643e-01,-7.589116799299936433e-01,2.020182223613579708e+02
-1.947455474075937998e+00,2.320228156515447893e+01,8.654684564500335853e+00,-3.186282927300625456e-01,-5.780227668333187685e-01,-7.512414339577758726e-01,2.035283642841116887e+02
-1.936073734281932079e+00,2.341786168580819449e+01,8.573366983297916022e+00,-3.528939860915203397e-01,-5.692507039306371475e-01,-7.425748922873004476e-01,2.050385062068654065e+02
-1.948159773749256862e+00,2.359383466859649658e+01,8.482497112585816623e+00,-3.866916744726696109e-01,-5.597237009118894990e-01,-7.329235482173624971e-01,2.065486481296191243e+02
-1.985728316406911276e+00,2.372818953334102687e+01,8.381645532719270264e+00,-4.199765354728211553e-01,-5.494543922600975128e-01,-7.223002010789976168e-01,2.080587900523728422e+02
-2.055812244378691478e+00,2.382227796760716387e+01,8.262158061480924687e+00,-2.042315232335925046e-01,-5.918490498460435845e-01,-7.797449500413348167e-01,2.096707596792464301e+02
-2.155780042939388519e+00,2.386311907659165499e+01,8.129756494193822292e+00,2.206062339442155240e-02,-6.036787175315465603e-01,-7.969211597742492659e-01,2.112827293061200180e+02
-2.282024242384370183e+00,2.385051378985351533e+01,7.984186979485587088e+00,2.472134941618859549e-01,-5.843324823401598866e-01,-7.729418078919988444e-01,2.128946989329936059e+02
-2.430940945156534028e+00,2.378424165176056704e+01,7.825195760756716190e+00,4.595995113955018141e-01,-5.348094314391391713e-01,-7.090452462074303686e-01,2.145066685598671938e+02
-2.598929881761926186e+00,2.366406084020446343e+01,7.652529178010841981e+00,4.898930715208476006e-01,-5.554896580358100744e-01,-6.718883972000754268e-01,2.161186381867407817e+02
-2.783023198430865985e+00,2.349030762491450730e+01,7.466276532097346319e+00,5.188511784169956842e-01,-5.746556147585337726e-01,-6.328999755749415979e-01,2.177306078136143697e+02
-2.981505519156062434e+00,2.326450068735444177e+01,7.267212946483026847e+00,5.463948923180587114e-01,-5.922550552637985133e-01,-5.921862639104329418e-01,2.193425774404879576e+02
-3.193272166032281589e+00,2.298874893808418562e+01,7.056456499256692716e+00,5.724491290741240412e-01,-6.082400035056096943e-01,-5.498582478773602622e-01,2.209545470673615455e+02
-3.417196087727335296e+00,2.266515440958129801e+01,6.835125352662859477e+00,5.969428648232683043e-01,-6.225668845130326590e-01,-5.060313137003565886e-01,2.225665166942351334e+02
-3.638453616841268001e+00,2.231884373967769264e+01,6.617736699633690378e+00,6.198093295961850657e-01,-6.351966431714870520e-01,-4.608249336246611483e-01,2.240880029226550221e+02
-3.868105992175052688e+00,2.193576594859988305e+01,6.393282634788343799e+00,6.409861893259185539e-01,-6.460948506841963646e-01,-4.143623402455346438e-01,2.256094891510749108e+02
-4.105206962619538658e+00,2.151757318814859232e+01,6.162650823187560079e+00,6.604157157666824540e-01,-6.552317984236558646e-01,-3.667701905877965296e-01,2.271309753794947994e+02
-4.348793572252184880e+00,2.106591212503927579e+01,5.926728969481581011e+00,6.780449438586830802e-01,-6.625825789173264146e-01,-3.181782208508845966e-01,2.286524616079146881e+02
-4.597886174355019229e+00,2.058242386035350080e+01,5.686404812214290949e+00,6.938258161100365751e-01,-6.681271537467924349e-01,-2.687188927602726651e-01,2.301739478363345768e+02
-4.851488445595276922e+00,2.006874384904750031e+01,5.442566118127206032e+00,7.077153136022346080e-01,-6.718504081752655344e-01,-2.185270324889586613e-01,2.316954340647544655e+02
-5.108587400368606701e+00,1.952650181951863217e+01,5.196100676463316859e+00,7.196755732620272461e-01,-6.737421923544560931e-01,-1.677394631329913177e-01,2.332169202931743541e+02
-5.368153405304792791e+00,1.895732169323029837e+01,4.947896293270826362e+00,7.296739910799986406e-01,-6.737973489983849484e-01,-1.164946317425855221e-01,2.347384065215942428e+02
-5.629140193935874947e+00,1.836282150439607364e+01,4.698840785706813961e+00,7.376833109943747857e-01,-6.720157274485697441e-01,-6.493223192523900344e-02,2.362598927500141315e+02
-5.890484881526616867e+00,1.774461331972360156e+01,4.449821976340831320e+00,7.436816991976447078e-01,-6.684021840920901791e-01,-1.319282304935810723e-02,2.377813789784340202e+02
-6.151107980067220815e+00,1.710430315821896485e+01,4.201727687458490124e+00,7.476528036632843488e-01,-6.629665691312067732e-01,3.858255291379712737e-02,2.393028652068539088e+02
-6.409913413428201423e+00,1.644349091105214811e+01,3.955445735365034743e+00,7.495857987301239866e-01,-6.557236997404047862e-01,9.025275586556300023e-02,2.408243514352737975e+02
-6.665788532677345835e+00,1.576377026148424498e+01,3.711863924688953986e+00,7.494754146226160207e-01,-6.466933196838168252e-01,1.416769323247953627e-01,2.423458376636936862e+02
-6.917604131558659830e+00,1.506672860485708476e+01,3.471870042685643476e+00,7.473219518262993466e-01,-6.359000455028863685e-01,1.927148993935589305e-01,2.438673238921135749e+02
-7.164214462133212891e+00,1.435394696864587516e+01,3.236351853541156842e+00,7.431312802790274175e-01,-6.233732994207302758e-01,2.432275268969542326e-01,2.453888101205334635e+02
-7.404457250581805816e+00,1.362699993257554709e+01,3.006197092676066163e+00,7.369148233799113212e-01,-6.091472291458790433e-01,2.930771166553703955e-01,2.469102963489533522e+02
-7.637153713169364977e+00,1.288745554880141952e+01,2.782293461049460959e+00,7.286895268593145403e-01,-5.932606147937857788e-01,3.421277778552244686e-01,2.484317825773732409e+02
-7.861108572370961056e+00,1.213687526215487367e+01,2.565528619463114612e+00,9.955207354021456956e-01,9.453287991603503970e-02,0.000000000000000000e+00,2.499532688057931296e+02
-8.082208241946050364e+00,1.135090816921864132e+01,2.349530845235505261e+00,9.913008634114531814e-01,1.316077436555698199e-01,0.000000000000000000e+00,2.515261591115538238e+02
-8.292027343065814904e+00,1.055653560231769994e+01,2.141349738814018799e+00,9.857007492619630495e-01,1.684993557698928335e-01,0.000000000000000000e+00,2.530990494173145180e+02
-8.490360317568246273e+00,9.755853157079775073e+00,1.939933928390470186e+00,9.787281891584446170e-01,2.051563592407236736e-01,0.000000000000000000e+00,2.546719397230752122e+02
-8.676978703882612720e+00,8.950955147258104816e+00,1.744231995720701756e+00,9.703928888839234990e-01,2.415277234467198553e-01,0.000000000000000000e+00,2.562448300288359064e+02
-8.851631140496222017e+00,8.143934490280402727e+00,1.553192483339815855e+00,9.769128538952149832e-01,2.136335083477470254e-01,0.000000000000000000e+00,2.578177203345965722e+02
-9.014043369660930338e+00,7.336882592812837167e+00,1.365763901777610201e+00,9.826311646046371751e-01,1.855639898862600778e-01,0.000000000000000000e+00,2.593906106403572380e+02
-9.163918241339473525e+00,6.531889236340043148e+00,1.180894736774175113e+00,9.875431292009232420e-01,1.573422001971287454e-01,0.000000000000000000e+00,2.609635009461179038e+02
-9.300935717391521251e+00,5.731042462762128586e+00,9.975334564956220840e-01,9.916447173610906107e-01,1.289912963135745883e-01,0.000000000000000000e+00,2.625363912518785696e+02
-9.424752875999468316e+00,4.936428460009677721e+00,8.146285187499007208e-01,9.949325635558181613e-01,1.005345411835595754e-01,0.000000000000000000e+00,2.641092815576392354e+02
-9.535003916333934626e+00,4.150131447677748220e+00,6.311283782026725353e-01,9.974039698086810679e-01,7.199528459899393051e-02,0.000000000000000000e+00,2.656821718633999012e+02
-9.629981972098045517e+00,3.386681655008284775e+00,4.490350872820099704e-01,9.990569079092538329e-01,4.339694405382944764e-02,0.000000000000000000e+00,2.672294485174402894e+02
-9.711337983106254512e+00,2.635085158170650921e+00,2.643894777255161865e-01,9.998900210782709630e-01,1.476298554660309542e-02,0.000000000000000000e+00,2.687767251714806775e+02
-9.778794935712596725e+00,1.897322586543881417e+00,7.640857897395114673e-02,8.808491902946983254e-01,2.673097542801564433e-02,-4.726395655342977564e-01,2.703240018255210657e+02
-9.832312802959101816e+00,1.175442970067597681e+00,-1.152871662050596463e-01,8.586017000741579253e-01,2.421703666549421610e-02,-5.120689951201196077e-01,2.718712784795614539e+02
-9.871958554187264312e+00,4.715302399535020172e-01,-3.108755947894403793e-01,8.345889668483753576e-01,2.165330910737599257e-02,-5.504456291208008611e-01,2.734185551336018420e+02
-9.897776647056518939e+00,-2.123312354636274213e-01,-5.105345179141619338e-01,8.088603593861364294e-01,1.904506358068168773e-02,-5.876905687226433583e-01,2.749658317876422302e+02
-9.909789026219673502e+00,-8.740567614188005097e-01,-7.144417196886838628e-01,7.814687739147881951e-01,1.639766242822902897e-02,-6.237272417184045459e-01,2.765131084416826184e+02
-9.907995122226562756e+00,-1.511561427414770842e+00,-9.227749560145298569e-01,7.524705253870281885e-01,1.371654848636694700e-02,-6.584815598936918368e-01,2.780603850957230065e+02
-9.892037715212424587e+00,-2.129063433935675764e+00,-1.138066883838962706e+00,7.219252317248031625e-01,1.100723389739487364e-02,-6.918820713095650277e-01,2.796243950274525218e+02
-9.861723337674769496e+00,-2.717219914264799030e+00,-1.358299101232575801e+00,6.898956912776850192e-01,8.275288779613358681e-03,-7.238601071689310107e-01,2.811884049591820371e+02
-9.817224775857248176e+00,-3.274065021839454026e+00,-1.583794762026696556e+00,6.564477537470857493e-01,5.526329778247112551e-03,-7.543499229654547777e-01,2.827524148909115524e+02
-9.759182593635465253e+00,-3.798052527700890302e+00,-1.815152327457620451e+00,6.216501848410274089e-01,2.766008520725274887e-03,-7.832888336253912565e-01,2.843164248226410677e+02
-9.691008868665148768e+00,-4.273883744289209474e+00,-2.045616252798057033e+00,5.855745249369939120e-01,0.000000000000000000e+00,-8.106173423649849497e-01,2.858325664139024411e+02
-9.612099387461274347e+00,-4.717381294802287073e+00,-2.282740529102449401e+00,8.010230466218279943e-01,1.680977087608944570e-02,-5.983957807208056812e-01,2.873487080051638145e+02
-9.523195528530116860e+00,-5.127352993017304961e+00,-2.527175085907449326e+00,9.429866597446359133e-01,3.207743219650309452e-02,-3.312781276935125585e-01,2.888648495964251879e+02
-9.425025948326839043e+00,-5.502602402574290785e+00,-2.779569806130477883e+00,9.984418138771008477e-01,4.440234749862993768e-02,-3.376945127337916547e-02,2.903809911876865613e+02
-9.318598624941344610e+00,-5.842227077467384788e+00,-3.040531609739309804e+00,9.623011475947070847e-01,5.265384537069009441e-02,2.668371674009193950e-01,2.918971327789479346e+02
-9.205496992117431887e+00,-6.145914665713866576e+00,-3.310581537695417964e+00,8.378801759393996740e-01,5.607494484992718575e-02,5.429644659909178550e-01,2.934132743702093080e+02
-9.087594003158262268e+00,-6.413641562208464819e+00,-3.590197660815733549e+00,9.053473691449666072e-01,4.153717105648690455e-01,-8.837693841807206518e-02,2.949294159614706814e+02
-8.966762097407045218e+00,-6.645373670596923965e+00,-3.879857988908244959e+00,9.360722153546453539e-01,3.202522752089287938e-01,1.456203552547300495e-01,2.964455575527320548e+02
-8.837532016465113216e+00,-6.850463483589053659e+00,-4.198834370966731733e+00,9.061895982315796294e-01,2.043976334009164064e-01,3.701891672065157901e-01,2.980530021474328919e+02
-8.709349183715596965e+00,-7.012503640779153891e+00,-4.530955243816057632e+00,8.176343202152047684e-01,7.530893738781591074e-02,5.707895254430604970e-01,2.996604467421337290e+02
-8.583728292929466264e+00,-7.132186253498739248e+00,-4.877304034670904009e+00,7.843785636195371724e-01,1.014329603648742861e-01,6.119310610452609600e-01,3.012678913368345661e+02
-8.460496601305685260e+00,-7.211747779088687693e+00,-5.239923364925481053e+00,7.483923528909645073e-01,1.272038900111869819e-01,6.509424371525430741e-01,3.028753359315354032e+02
-8.292579934311834933e+00,-7.250006492468179964e+00,-5.776288561786308229e+00,0.000000000000000000e+00,9.983844631533018710e-01,-5.680196945670642344e-02,3.050836114631876512e+02
-8.121588160124586508e+00,-7.206743551429908301e+00,-6.368573406290113148e+00,4.081438505715209025e-02,9.978246683405279649e-01,5.175052872767943457e-02,3.072918869948398992e+02
-7.994116907989087473e+00,-7.137603890249842209e+00,-6.827681221512408527e+00,8.107982391399500000e-02,9.838443326184724835e-01,1.596069902250729367e-01,3.088811760806968891e+02
-7.861624299348446421e+00,-7.047622134709930819e+00,-7.308977608476102006e+00,1.202547528576992514e-01,9.566314911224695905e-01,2.653167627726186195e-01,3.104704651665538790e+02
-7.714559419357027714e+00,-6.933334705494573313e+00,-7.839048760542659977e+00,1.578122758224531907e-01,9.165521556103991552e-01,3.674580678744239770e-01,3.121493063977750353e+02
-7.558866597903953100e+00,-6.802220549396178484e+00,-8.385680287130789168e+00,1.932472512690127098e-01,8.641453910704877117e-01,4.646571240916265721e-01,3.138281476289961915e+02
-7.393572204064843056e+00,-6.657561927253600409e+00,-8.940844934118976184e+00,2.260830863773561072e-01,8.001160645898474089e-01,5.556066245465611786e-01,3.155069888602173478e+02
-7.217739495616060985e+00,-6.502646769682074002e+00,-9.496515380567480236e+00,2.558781471538286167e-01,7.253253641091970128e-01,6.390833200685656079e-01,3.171858300914385040e+02
-7.030468633550018609e+00,-6.340768480667064999e+00,-1.004466430144712064e+01,2.822316982334162616e-01,6.407792146972540737e-01,7.139644714727254593e-01,3.188646713226596603e+02
-6.831055909066452436e+00,-6.175440664633092602e+00,-1.057740574744747697e+01,3.047892924972596673e-01,5.476147482561699587e-01,7.792429497099214730e-01,3.205435125538808165e+02
-6.619166208457566647e+00,-6.010631108428356129e+00,-1.108747363687925969e+01,3.232475380382590080e-01,4.470850087367330139e-01,8.340407808473885298e-01,3.222223537851019728e+02
-6.394688991465774741e+00,-5.850565167878563955e+00,-1.156841760857358992e+01,3.373581783923914057e-01,3.405420986485929169e-01,8.776209537843587816e-01,3.239011950163231290e+02
-6.167863510059529375e+00,-5.705287557578109237e+00,-1.199722553935947111e+01,3.469314311961577135e-01,2.294189935806829062e-01,9.093973319920788390e-01,3.255105737869507720e+02
-5.929875817851417708e+00,-5.571550716704269490e+00,-1.238982770476094153e+01,3.518385404063183453e-01,1.152102693228961444e-01,9.289425360747919358e-01,3.271199525575784151e+02
-5.680732102757428237e+00,-5.452675943974620409e+00,-1.274103258515033055e+01,3.520135077923879363e-01,-5.479992337527160454e-04,9.359936912342581294e-01,3.287293313282060581e+02
-5.420419161884584724e+00,-5.351454406871489766e+00,-1.304558991181493788e+01,2.667117791109648306e-01,2.447389377469652225e-02,9.634645065623386184e-01,3.303387100988337011e+02
-5.148925680923430725e+00,-5.270412369185436319e+00,-1.329822022778304280e+01,1.791010901817740864e-01,4.928391228887925996e-02,9.825944715311299982e-01,3.319480888694613441e+02
-4.806048955035038261e+00,-5.206754909527377073e+00,-1.351671952279034272e+01,8.993987732009491032e-02,7.366727837904697707e-02,9.932179773654231658e-01,3.338834695940711299e+02
-4.444216957187573591e+00,-5.187798832416702588e+00,-1.362779579951644848e+01,0.000000000000000000e+00,9.741290686787916486e-02,9.952430484926604315e-01,3.358188503186809157e+02
-4.064774976338275003e+00,-5.218745749969904146e+00,-1.363264992816798227e+01,-0.000000000000000000e+00,-9.695091807975529663e-02,9.952881590151888558e-01,3.377542310432907016e+02
-3.749959298583305678e+00,-5.278845903930529104e+00,-1.357195905152553195e+01,-4.291282096655081070e-03,-2.252196961352708748e-01,9.742975281538440724e-01,3.393072186219453101e+02
-3.428322423579805989e+00,-5.368198544101538516e+00,-1.346715786626020517e+01,-8.509987894250357898e-03,-3.496795025689147796e-01,9.368296673276681474e-01,3.408602062005999187e+02
-3.100946377444423252e+00,-5.488056246722257114e+00,-1.332373230904724437e+01,-7.525276839494735026e-03,-2.888018937096377692e-01,9.573582591684978160e-01,3.424131937792545273e+02
-2.768926079633982518e+00,-5.639665699318948455e+00,-1.314716857471637823e+01,-6.509497914867861529e-03,-2.267319778936881802e-01,9.739344108497848262e-01,3.439661813579091358e+02
-2.433249743273815824e+00,-5.823584295477156836e+00,-1.294258929090415933e+01,-5.466844694432428445e-03,-1.637260063597008319e-01,9.864896899869861624e-01,3.455191689365637444e+02
-2.094669681013665574e+00,-6.038997638804876722e+00,-1.271438969513808104e+01,-4.401621693856015705e-03,-1.000440944872977578e-01,9.949722633745504696e-01,3.470721565152183530e+02
-1.718311226314585660e+00,-6.313138481113259814e+00,-1.243903217588408161e+01,-3.318226602569682160e-03,-3.594914811486257106e-02,9.993471109288953880e-01,3.487856200276899585e+02
-1.339674152273493624e+00,-6.625178070970050292e+00,-1.214334460428022666e+01,-2.221132131458964602e-03,2.829422165749335971e-02,9.995961702570690388e-01,3.504990835401615641e+02
-9.596285445043365447e-01,-6.972881590559576459e+00,-1.183330170897816913e+01,-1.114867550911389929e-03,9.242079070677156061e-02,9.957184112564252398e-01,3.522125470526331696e+02
-5.790184047195067185e-01,-7.354009222236052246e+00,-1.151487833529713711e+01,-3.999995304131439757e-06,1.561658166662475977e-01,9.877298404362626627e-01,3.539260105651047752e+02
-1.981935482357074507e-01,-7.765821203267804229e+00,-1.119254031771810887e+01,-3.431258075468773590e-06,1.373532654656963448e-01,9.905211155965775172e-01,3.556394740775763808e+02
1.834661739147920856e-01,-8.204586753252906206e+00,-1.086773536466321666e+01,-2.861279878233495316e-06,1.184910373819077628e-01,9.929541147710270188e-01,3.573529375900479863e+02
5.643766296338799116e-01,-8.662716734998255674e+00,-1.054271638316977366e+01,-2.290266830177746974e-06,9.958595345257659215e-02,9.950279583300892794e-01,3.590543796104893772e+02
9.483512917786305341e-01,-9.139018677809289670e+00,-1.021516203102961740e+01,-1.718425422772605465e-06,8.064485019431115453e-02,9.967418964421337346e-01,3.607558216309307682e+02
1.336587193630929704e+00,-9.629403494697321264e+00,-9.885012710375894684e+00,-1.145962446714471925e-06,6.167457713616028570e-02,9.980953093380336982e-01,3.624572636513721591e+02
1.730328746849003174e+00,-1.012978970365939091e+01,-9.552208844007919808e+00,-5.730849173465950719e-07,4.268199434934798892e-02,9.990877075345891978e-01,3.641587056718135500e+02
2.130867720297455747e+00,-1.063610368348854252e+01,-9.216690875874727240e+00,-0.000000000000000000e+00,2.367396997322678345e-02,9.997187320112477238e-01,3.658601476922549409e+02
2.538680812884516413e+00,-1.114448187967075654e+01,-8.877654441372278882e+00,-1.815685972366613410e-06,8.631051170094888869e-02,9.962672811885360247e-01,3.675615897126963318e+02
2.952564106174513814e+00,-1.165146594503350030e+01,-8.532805543619543798e+00,-3.624226711587903945e-06,1.486073979362688424e-01,9.888952630413665457e-01,3.692630317331377228e+02
3.345718417833039027e+00,-1.212466649860824397e+01,-8.200503107114730739e+00,-5.418505219052842428e-06,2.103194769713875589e-01,9.776316881000031156e-01,3.708643974005989890e+02
3.740577970119281837e+00,-1.259149720961216445e+01,-7.858434990126078823e+00,-7.191460618315129887e-06,2.712038983333718289e-01,9.625208805408472790e-01,3.724657630680602551e+02
4.135609274207765473e+00,-1.304937690806556283e+01,-7.504216887903615962e+00,-8.936115937843508848e-06,3.310210683394158027e-01,9.436223038035528310e-01,3.740671287355215213e+02
4.529306938494118029e+00,-1.349571556795558180e+01,-7.135464581993808508e+00,-1.064560556384511033e-05,3.895355928452018390e-01,9.210103266485138995e-01,3.756684944029827875e+02
4.920193691171053096e+00,-1.392791445006398732e+01,-6.749793957197647742e+00,-1.231320225525063741e-05,4.465172034807274315e-01,8.947739305789715880e-01,3.772698600704440537e+02
5.306820402500225242e+00,-1.434336624489050216e+01,-6.344821018528188361e+00,-1.393234361465973069e-05,5.017416637323274253e-01,8.650163597761567624e-01,3.788712257379053199e+02
5.687766106779831965e+00,-1.473945521567040018e+01,-5.918161908167456353e+00,-1.549665791116819078e-05,5.549916513083045233e-01,8.318547149214672309e-01,3.804725914053665861e+02
6.061638024007827141e+00,-1.511355734148510699e+01,-5.467432922422618802e+00,-1.699998915352857377e-05,6.060576133181894143e-01,7.954194924999823391e-01,3.820739570728278522e+02
6.427275950395305415e+00,-1.546329597143178525e+01,-4.991029625186665264e+00,-8.714160024713584786e-06,6.747554542646525544e-01,7.380400238874712526e-01,3.836753227402891184e+02
6.853090016088059677e+00,-1.584411706838146472e+01,-4.381675760361313010e+00,-3.585205410199641569e-07,7.380472384462178903e-01,6.747475630322210538e-01,3.855974869278406914e+02
7.262715067908924738e+00,-1.617580969789631951e+01,-3.729368557000224182e+00,7.999989140413108610e-06,7.954259202489223357e-01,6.060491773184206732e-01,3.875196511153922643e+02
7.654391780709824289e+00,-1.645591826068839225e+01,-3.036579023405718836e+00,6.003447275242286630e-06,8.086875497486893938e-01,5.882367268597092913e-01,3.894418153029438372e+02
7.964332986643720247e+00,-1.665154914425405863e+01,-2.437014408321655168e+00,4.003944591395868871e-06,8.215503719717091036e-01,5.701341826957058156e-01,3.910340298006260582e+02
8.260212923643438288e+00,-1.681782001662121573e+01,-1.819426572957654198e+00,2.002466653143350101e-06,8.340080464920200942e-01,5.517504674787980790e-01,3.926262442983082792e+02
8.540140887243744316e+00,-1.695483823673751544e+01,-1.186320360087459891e+00,0.000000000000000000e+00,8.460544322668346329e-01,5.330946422741880131e-01,3.942184587959905002e+02
8.802260312224930772e+00,-1.706296079460700099e+01,-5.405553233402804469e-01,-4.820826492293019128e-02,8.823206484469500177e-01,4.681711615612655364e-01,3.958106732936727212e+02
9.035688989502970614e+00,-1.714084886646028139e+01,8.736044658619473990e-02,-9.603787901766490387e-02,9.116568066446733010e-01,3.995705102891313198e-01,3.973379658955657874e+02
9.250315952422035082e+00,-1.719498166619259649e+01,7.199773319343787392e-01,-1.431131713361313007e-01,9.338324929755451587e-01,3.278315043644232096e-01,3.988652584974588535e+02
9.444636257269774404e+00,-1.722629730384826630e+01,1.353973523478642971e+00,-1.890643961725632649e-01,9.486735350473675110e-01,2.535176088587287602e-01,4.003925510993519197e+02
9.617134403691709466e+00,-1.723572540567590750e+01,1.986027203064280267e+00,-2.335306372001663133e-01,9.560633697694566058e-01,1.772125121850524065e-01,4.019198437012449858e+02
9.766284355760909364e+00,-1.722418706280038236e+01,2.612816565086887977e+00,-2.761626422186226892e-01,9.559439586337196149e-01,9.951554147806541961e-02,4.034471363031380520e+02
9.890549563152530865e+00,-1.719259477998062380e+01,3.231019837971684794e+00,-3.166255662481883837e-01,9.483162433044955986e-01,2.103695520210341341e-02,4.049744289050311181e+02
9.988382982423088308e+00,-1.714185242445377355e+01,3.837315305652665653e+00,-3.546016014287784457e-01,9.332401379573836975e-01,-5.760685003445976254e-02,4.065017215069241843e+02
1.005822709839437401e+01,-1.707285517486605997e+01,4.428381329051485515e+00,-3.897924730740328636e-01,9.108340584458703981e-01,-1.357981808105405142e-01,4.080290141088172504e+02
1.009851394564184268e+01,-1.698648947029077405e+01,5.000896367555966116e+00,-4.219217822837038057e-01,8.812739920112185876e-01,-2.129228983478907711e-01,4.095563067107103166e+02
1.010766513008740120e+01,-1.688363295933385189e+01,5.551539000498134868e+00,-4.507371767244026106e-01,8.447921148573285244e-01,-2.883752419941771894e-01,4.110835993126033827e+02
1.008409185069642966e+01,-1.676515444932741161e+01,6.076987948631669134e+00,-4.760123325391987792e-01,8.016749684599806525e-01,-3.615625868603486448e-01,4.126108919144964489e+02
1.002619492127894674e+01,-1.663191385561170677e+01,6.573922095608660143e+00,-4.975487318301110573e-01,7.522612089413860392e-01,-4.319100982591105309e-01,4.141381845163895150e+02
9.922918697459458315e+00,-1.647348243356250563e+01,7.068819714870413939e+00,-5.151772217625080197e-01,6.969389471894419374e-01,-4.988652464037193202e-01,4.157720594580900979e+02
9.774358656442904802e+00,-1.629942590608679609e+01,7.521162762481805153e+00,-4.711698250525133691e-01,6.409557283566804653e-01,-6.059478114891631018e-01,4.174059343997906808e+02
9.581013136489161752e+00,-1.611168881842961653e+01,7.928909877706296072e+00,-4.193704694032804325e-01,5.743727203469485287e-01,-7.030095216392946433e-01,4.190398093414912637e+02
9.344235317660668727e+00,-1.591250292024172985e+01,8.290789176825741791e+00,-3.606357834583678867e-01,4.982910355864810792e-01,-7.884452267249042468e-01,4.206736842831918466e+02
9.065351433586689822e+00,-1.570410777427347782e+01,8.605529115545692775e+00,-2.959370872987276413e-01,4.139688686939323459e-01,-8.608420390031479297e-01,4.223075592248924295e+02
8.745660751625409901e+00,-1.548875061606987558e+01,8.871858498402925619e+00,-2.263443299816221832e-01,3.228006900576384508e-01,-9.190026979204383162e-01,4.239414341665930124e+02
8.386435553332756143e+00,-1.526868621358020839e+01,9.088506488171045561e+00,-1.530083961310036433e-01,2.262941859352027851e-01,-9.619653695049218411e-01,4.255753091082935953e+02
7.988921115238063031e+00,-1.504617672668352668e+01,9.254202615264098597e+00,-7.714207405483466951e-02,1.260453262576606281e-01,-9.890195529615819492e-01,4.272091840499941782e+02
7.512304617873782675e+00,-1.480408515365582645e+01,9.372357383710744116e+00,-0.000000000000000000e+00,2.371197228180339442e-02,-9.997178313761895252e-01,4.289872703554020745e+02
6.989912342802914402e+00,-1.456480455094640192e+01,9.424017869498728217e+00,-7.892990921127130202e-03,0.000000000000000000e+00,-9.999678497920404530e-01,4.307653566608099709e+02
6.425240682513108759e+00,-1.432998048090708920e+01,9.415708327566413516e+00,-2.872728885472881633e-01,3.020151847007489232e-02,-9.573714826484192031e-01,4.325434429662178673e+02
5.839461919730504214e+00,-1.410549719400470359e+01,9.360122490887274438e+00,-5.434469747315679999e-01,5.796336819077416852e-02,-8.374387342386809818e-01,4.342762899229354048e+02
5.224282006685442958e+00,-1.388487454788190156e+01,9.268142745360526291e+00,-7.557215732820177223e-01,8.104295423911778151e-02,-6.498576330580629890e-01,4.360091368796529423e+02
4.585133305614807142e+00,-1.366747665120673183e+01,9.148539692601373119e+00,-6.115149142376264946e-01,9.641599621263295672e-02,-7.853352566502768140e-01,4.377419838363704798e+02
3.985126760710179461e+00,-1.347024537265911626e+01,9.021415609677251979e+00,-4.432229302732431653e-01,1.079915881966053010e-01,-8.898815937847283086e-01,4.393273710104307952e+02
3.376210291287009113e+00,-1.327330824491960470e+01,8.882686297869970105e+00,-2.574739619737981822e-01,1.153138048074176941e-01,-9.593789060240146549e-01,4.409127581844911106e+02
2.763021232985991116e+00,-1.307564314200524969e+01,8.736582425316894884e+00,-6.158395249877657296e-02,1.180942434069155444e-01,-9.910898881866269106e-01,4.424981453585514259e+02
2.150207555460326159e+00,-1.287625450431466945e+01,8.587334711445112845e+00,1.367316977029822134e-01,1.162233860325112417e-01,-9.837655042636471725e-01,4.440835325326117413e+02
1.542427795478077179e+00,-1.267417339192475723e+01,8.439173897486917042e+00,3.296620231152499469e-01,1.097749153141582001e-01,-9.376942030747426049e-01,4.456689197066720567e+02
9.443509899125087648e-01,-1.246845753760517717e+01,8.296330716995173660e+00,5.096081590780147108e-01,9.900281355549056528e-02,-8.546905680455579857e-01,4.472543068807323721e+02
3.606566086208230493e-01,-1.225819139955021697e+01,8.163035866358718806e+00,6.694826561777903473e-01,8.433135883447590020e-02,-7.380238444599726000e-01,4.488396940547926874e+02
-2.039655127883031049e-01,-1.204248621382751061e+01,8.043519975317966697e+00,8.029886460050812413e-01,6.633841231103834724e-02,-5.922891603235169722e-01,4.504250812288530028e+02
-3.546045002882912689e-01,-1.198280034566424312e+01,8.013304398222183877e+00,9.048678568021243374e-01,4.573265567638402918e-02,-4.232265184620244147e-01,4.508570014242857837e+02
-9.585080804939689614e-01,-1.172993681059297977e+01,7.901207833722011742e+00,9.711077085916172136e-01,2.332567623659526079e-02,-2.374946970797414125e-01,4.526471057173492909e+02
-1.520696313492222007e+00,-1.146632079090064416e+01,7.813104248815760933e+00,9.990993339585199084e-01,0.000000000000000000e+00,-4.240897172840243229e-02,4.544372100104127981e+02
-2.034855928373696443e+00,-1.119043121442610023e+01,7.745667281246115365e+00,9.990993332535061944e-01,-0.000000000000000000e+00,-4.240897169847657883e-02,4.562273143034763052e+02
-2.494371334618084912e+00,-1.090087363338378523e+01,7.692038862532263543e+00,6.921409340576635261e-01,-0.000000000000000000e+00,-7.217609904965988088e-01,4.580174185965398124e+02
-2.892466479781776734e+00,-1.059633937178865182e+01,7.643595040125979345e+00,5.299993955616641179e-04,-0.000000000000000000e+00,-9.999988595503095379e-01,4.598075228896033195e+02
-3.250368294229490473e+00,-1.023788409145951839e+01,7.587210813230452544e+00,4.169530785743756907e-01,4.529412474209571632e-02,-9.077976495522456224e-01,4.617980492884489081e+02
-3.506945870298141088e+00,-9.857051768966085703e+00,7.523543741673278440e+00,7.566728811008494038e-01,8.225587836747591530e-02,-6.485970409135887182e-01,4.637885756872944967e+02
-3.656520551101825056e+00,-9.454374499050997471e+00,7.450289854318087102e+00,7.550757964904738495e-01,2.554995927611568990e-02,-6.551379557806323861e-01,4.657791020861400852e+02
-3.702965108495592794e+00,-9.080437432851125479e+00,7.376209125804714439e+00,6.378742543269592113e-01,1.240828798227212038e-01,-7.600775451250559867e-01,4.675486979039659445e+02
-3.673255796320178845e+00,-8.694284490716009728e+00,7.293166513845919852e+00,4.986932446768944094e-01,2.183402531658568124e-01,-8.388269079866401690e-01,4.693182937217918038e+02
-3.590233971221200804e+00,-8.350641846240810295e+00,7.213532935354846742e+00,3.423285350037110764e-01,3.050742323934313438e-01,-8.886725419706992257e-01,4.708566169981860412e+02
-3.460545949972443580e+00,-8.001718544199780681e+00,7.127062721428261582e+00,1.741680032913324183e-01,3.812961925762965443e-01,-9.078968664758643170e-01,4.723949402745802786e+02
-3.287513155327595360e+00,-7.649074717577156513e+00,7.033441515628726215e+00,5.999996079955432846e-06,4.443797096684325432e-01,-8.958374147125192088e-01,4.739332635509745160e+02
-3.074436819404411825e+00,-7.294255079572816491e+00,6.932223900593684540e+00,-2.306513462730577085e-02,3.985177464148167426e-01,-9.168694592773080076e-01,4.754715868273687533e+02
-2.824563525643021489e+00,-6.938792194830477378e+00,6.822702293186556410e+00,-4.606527057889397980e-02,3.514291765664014910e-01,-9.350794216016892202e-01,4.770099101037629907e+02
