1.333656314263771847e+00,9.866026734374690577e+00,-1.743810549924882158e+00,2.174866797548291042e-01,-9.690342973590386766e-01,1.169190945549642285e-01,1.573468103808561125e+01
1.207496368914363849e+00,1.050814561302509631e+01,-1.915126796398752163e+00,2.548728286412904609e-01,-9.512622368537400064e-01,1.736029894812607943e-01,1.725757667961342534e+01
1.050070342193905493e+00,1.112612916264545682e+01,-2.068780230106984419e+00,2.910033109681257057e-01,-9.288036450972543268e-01,2.294316060616655162e-01,1.878047232114123943e+01
8.648725658122491389e-01,1.171861784871982692e+01,-2.213301698593771683e+00,3.257001244599182499e-01,-9.017691672274030790e-01,2.841298962889257096e-01,2.030336796266905353e+01
6.571669320271369408e-01,1.228456178515720332e+01,-2.359979854703545765e+00,3.587923299920197651e-01,-8.702919922411032072e-01,3.374283808162134579e-01,2.182626360419686762e+01
4.303008089345935483e-01,1.282255534685067744e+01,-2.518985379915517520e+00,3.901168937606270259e-01,-8.345271968294237785e-01,3.890644766036953639e-01,2.334915924572468171e+01
1.856798319619860915e-01,1.333126090994763935e+01,-2.696561650836463375e+00,4.195194905065810498e-01,-7.946509813748239281e-01,4.387837905910350056e-01,2.487205488725249580e+01
-7.344030846828580872e-02,1.381047914298975776e+01,-2.894451345895336036e+00,4.468552638350547501e-01,-7.508598018743336544e-01,4.863413730215024877e-01,2.639495052878030990e+01
-3.675731931571177835e-01,1.429954723530134153e+01,-3.135199833536106873e+00,4.719895398846724044e-01,-7.033694020654027712e-01,5.315029242421057676e-01,2.805963386483880839e+01
-6.667716633822922123e-01,1.475136198020824274e+01,-3.402620976183797996e+00,4.947984908294763562e-01,-6.524137505230371836e-01,5.740459490333810200e-01,2.972431720089730689e+01
-9.636838642501530661e-01,1.516657324679459329e+01,-3.696787606677703231e+00,5.151697449443770616e-01,-5.982438879652297592e-01,6.137608527810293202e-01,3.138900053695580539e+01
-1.250950749704941245e+00,1.554578644312630153e+01,-4.017772352289388671e+00,5.330029402280686002e-01,-5.411266904462633809e-01,6.504519740881913314e-01,3.305368387301430033e+01
-1.521206200913030937e+00,1.588956247852397752e+01,-4.365647634160245261e+00,5.482102188555738609e-01,-4.813435545320181586e-01,6.839385487404116004e-01,3.471836720907279528e+01
-1.767077144730463845e+00,1.619841772636018717e+01,-4.740485666740230641e+00,5.607166600242153853e-01,-4.191890109359158179e-01,7.140556002736854202e-01,3.638305054513129022e+01
-1.973195616142424447e+00,1.645994389155853099e+01,-5.119352444736753327e+00,5.704606490604534619e-01,-3.549692734466661226e-01,7.406547527577570511e-01,3.796094368375838002e+01
-2.151895219792430147e+00,1.669158893785891706e+01,-5.518300087931455877e+00,5.773941809691841565e-01,-2.890007302978197523e-01,7.636049617902332942e-01,3.953883682238546982e+01
-2.302863731938014524e+00,1.689275811028517538e+01,-5.934387153940592796e+00,5.814830969302080543e-01,-2.216083854126935371e-01,7.827931601002129369e-01,4.111672996101255961e+01
-2.425794022401233541e+00,1.706285466484846935e+01,-6.364672081986931573e+00,5.827072525770398137e-01,-1.531242572051277617e-01,7.981248145810122541e-01,4.269462309963964941e+01
-2.520384060192536690e+00,1.720127989373842325e+01,-6.806213213202844337e+00,5.810606172294330296e-01,-8.388574282553397377e-02,8.095243920080945621e-01,4.427251623826673921e+01
-2.586336919082856678e+00,1.730743315053794973e+01,-7.256068810933912872e+00,5.765513035912456230e-01,-1.423395591180482735e-02,8.169357311483508299e-01,4.585040937689382901e+01
-2.623360783123881212e+00,1.738071187546148977e+01,-7.711297081042930657e+00,5.692015277679184360e-01,5.548795396500057903e-02,8.203223194281856756e-01,4.742830251552091880e+01
-2.632450736904240252e+00,1.742048219189535274e+01,-8.154957199260254086e+00,3.929044487389432572e-01,4.365734123405916323e-02,9.185413059394110791e-01,4.895812993759756182e+01
-2.617319851904836625e+00,1.742999561048895529e+01,-8.598032863752827382e+00,2.005502775541377347e-01,3.004255441678143138e-02,9.792216455410993614e-01,5.048795735967419773e+01
-2.580376542998799039e+00,1.740951520651464435e+01,-9.037724986541020300e+00,0.000000000000000000e+00,1.519999199371368896e-02,9.998834733317381041e-01,5.201778478175083364e+01
-2.524025467472301276e+00,1.735931712508901370e+01,-9.471234501512654447e+00,-0.000000000000000000e+00,6.377917058116652424e-03,9.999786608528554721e-01,5.354761220382746956e+01
-2.450177212897147072e+00,1.728025708579362174e+01,-9.895707591216410748e+00,-0.000000000000000000e+00,-2.444652874761686981e-03,9.999960118218210736e-01,5.507743962590410547e+01
-2.359750135224308210e+00,1.717433326825379325e+01,-1.030818091401060776e+01,-0.000000000000000000e+00,-1.126703122667802731e-02,9.999355249188323080e-01,5.660726704798074138e+01
-2.253148844907117088e+00,1.704411429514774667e+01,-1.070563641465662563e+01,-0.000000000000000000e+00,-2.008853143510555203e-02,9.997972048832026726e-01,5.813709447005737729e+01
-2.127141425129869035e+00,1.688769275105157064e+01,-1.109437073699586662e+01,-0.000000000000000000e+00,-2.890846700660624005e-02,9.995810625071457345e-01,5.970669106181776442e+01
-1.984445144650501369e+00,1.671066986924626718e+01,-1.146028276819413350e+01,-0.000000000000000000e+00,-3.772615157010862641e-02,9.992871146349184830e-01,6.127628765357815155e+01
-1.825416070708569816e+00,1.651589815324137334e+01,-1.180002861180779661e+01,-0.000000000000000000e+00,-4.654089893017572532e-02,9.989153841614963891e-01,6.284588424533853868e+01
-1.650379108934521444e+00,1.630623190794490540e+01,-1.211026455001197633e+01,-0.000000000000000000e+00,-5.535202312025905291e-02,9.984659000307835042e-01,6.441548083709892580e+01
-1.459627999398303899e+00,1.608452708431767064e+01,-1.238764706643894442e+01,-0.000000000000000000e+00,-6.415883845593449430e-02,9.979386972333547101e-01,6.598507742885931293e+01
-1.253425312982700213e+00,1.585364112401187064e+01,-1.262883286901549162e+01,-0.000000000000000000e+00,-7.296065958811630281e-02,9.973338168037325646e-01,6.755467402061970006e+01
-1.032002448081409618e+00,1.561643280399530909e+01,-1.283047891279915298e+01,-0.000000000000000000e+00,-8.175680155624505396e-02,9.966513058171966311e-01,6.912427061238008719e+01
-7.955596276218930285e-01,1.537576208116255749e+01,-1.298924242281317021e+01,-0.000000000000000000e+00,-9.054657984144540150e-02,9.958912173861287354e-01,7.069386720414047431e+01
-5.442658964130046018e-01,1.513448993693440237e+01,-1.310178091688004898e+01,-0.000000000000000000e+00,-9.932931041964995766e-02,9.950536106558915961e-01,7.226346379590086144e+01
-2.782591188174209917e-01,1.489547822184693970e+01,-1.316475222845364357e+01,-0.000000000000000000e+00,-1.081043098146848153e-01,9.941385508002410498e-01,7.383306038766124857e+01
3.774780601534488602e-03,1.466050344905018932e+01,-1.317459478943284168e+01,-0.000000000000000000e+00,-1.168708951513131450e-01,9.931461090162760907e-01,7.541019847128949039e+01
3.004014534855700691e-01,1.443353088343811308e+01,-1.312767883112655021e+01,3.204669457962769537e-04,-5.880065388116560016e-02,9.982686914847954673e-01,7.698733655491773220e+01
6.111165345158493523e-01,1.421712537389212194e+01,-1.302156673120983221e+01,6.398446498911922750e-04,-5.306028803975711703e-04,9.999986545262882220e-01,7.856447463854597402e+01
9.352907953273810193e-01,1.401373651308765211e+01,-1.285414398683326453e+01,9.570477866497265193e-04,5.774124123053508278e-02,9.983301223121142653e-01,8.014161272217421583e+01
1.070404706078976753e+00,1.393425251287408884e+01,-1.277109701102685868e+01,1.270998420251536658e-03,1.158168560489946514e-01,9.932687654470839789e-01,8.078403856062790567e+01
1.413029283261383551e+00,1.374598972480426795e+01,-1.252622585966207680e+01,0.000000000000000000e+00,1.173078338390019654e-01,9.930945933284813787e-01,8.238127097373336483e+01
1.765710389695829940e+00,1.357372331670427634e+01,-1.221573092943185301e+01,-1.177648228227758248e-01,0.000000000000000000e+00,9.930405059701521431e-01,8.397850338683882399e+01
2.125158291729343674e+00,1.341587407944703614e+01,-1.184196418872690870e+01,-1.816074833447078318e-01,2.249536404289151706e-02,9.831127507010541944e-01,8.557573579994428314e+01
2.485711348723087966e+00,1.327056859936718247e+01,-1.141197428007837544e+01,-2.446001233135345621e-01,4.488543598003069679e-02,9.685835417315357132e-01,8.716453624033491110e+01
2.845524406787046434e+00,1.313415469975308625e+01,-1.092923803831342688e+01,-3.064479078803077350e-01,6.706541980010792547e-02,9.495208840379535387e-01,8.875333668072553905e+01
3.200857330588922078e+00,1.300391144710942370e+01,-1.039887752974103918e+01,-3.668613608084618227e-01,8.893150287289935951e-02,9.260140008358307417e-01,9.034213712111616701e+01
3.547940550926720782e+00,1.287713947429505446e+01,-9.826015153887853515e+00,-4.255577192520839658e-01,1.103813418047569217e-01,8.981729159620766012e-01,9.193093756150679496e+01
3.882975119388568430e+00,1.275116112879488384e+01,-9.215773607649817123e+00,-4.822622571119882240e-01,1.313145414164163249e-01,8.661279389208698110e-01,9.351973800189742292e+01
4.202132763325706399e+00,1.262332062076015582e+01,-8.573275849442314467e+00,-5.367095707810943805e-01,1.516331246029972435e-01,8.300290550074360674e-01,9.510853844228805087e+01
4.501555941138325245e+00,1.249098417081593304e+01,-7.903645063348887945e+00,-5.886448212658882406e-01,1.712419908787092826e-01,7.900452233626342746e-01,9.669733888267867883e+01
4.777357897873907078e+00,1.235154015763439972e+01,-7.212004623268810199e+00,-6.378249268744961009e-01,1.900493614616348692e-01,7.463635862412140165e-01,9.828613932306930678e+01
5.025622721137724014e+00,1.220239926527271557e+01,-6.503478057063651008e+00,-6.840197008926774958e-01,2.079672088167840993e-01,6.991885931912854568e-01,9.987493976345993474e+01
5.242405397315166304e+00,1.204099463027413286e+01,-5.783189010703030597e+00,-7.270129289257662997e-01,2.249116686481305305e-01,6.487410442400828314e-01,1.014637402038505627e+02
5.424199311900272491e+00,1.186526716032813056e+01,-5.056025568794363600e+00,-9.246034767262547582e-01,-1.743419773614379165e-01,3.386905457147098009e-01,1.030525406442411906e+02
5.588954592144548705e+00,1.162620394367070453e+01,-4.162010904488808727e+00,-8.498265231567917466e-01,-5.222387069684532035e-01,-7.113096008795406766e-02,1.050000257257920424e+02
5.679880069656318753e+00,1.135771656864099199e+01,-3.272913968824981534e+00,-9.225027107052581332e-01,-3.820525499434559435e-01,-5.497815768559451838e-02,1.069475108073428942e+02
5.698545426977754680e+00,1.109167708413100151e+01,-2.482424796498331698e+00,-9.719364694593536358e-01,-2.322406754257876627e-01,-3.744019247301075964e-02,1.087028936583431147e+02
5.659236211561698759e+00,1.080614045142605484e+01,-1.707676825531246001e+00,-9.968823582192178900e-01,-7.657756097871246115e-02,-1.895892997445768405e-02,1.104582765093433352e+02
5.561716995957533882e+00,1.050409873182990950e+01,-9.538998705255342658e-01,-9.967118863751273095e-01,8.101490948214877530e-02,-0.000000000000000000e+00,1.122136593603435557e+02
5.406843856733464904e+00,1.018885950785999128e+01,-2.252702479281770698e-01,-9.935909064848896799e-01,8.139279809092614393e-02,-7.842399486575242495e-02,1.139690422113437762e+02
5.197628584451668310e+00,9.864351040242933522e+00,4.761425785788059306e-01,-9.843491894992110192e-01,8.126928927329975239e-02,-1.563648801825682499e-01,1.157244250623439967e+02
4.979206626070303621e+00,9.580610652331881028e+00,1.059532530488395574e+00,-9.690436666902570995e-01,8.064514388862012439e-02,-2.333425225199094455e-01,1.172373069545191839e+02
4.730792332444760717e+00,9.296054959284909103e+00,1.624287473911056212e+00,-9.477686238613035608e-01,7.952420684081119850e-02,-3.088827223262657351e-01,1.187501888466943711e+02
4.454703359936960538e+00,9.012987270370967252e+00,2.169846866715992473e+00,-9.206551204992963200e-01,7.791338339109914191e-02,-3.825201351410187911e-01,1.202630707388695583e+02
4.153279773082285686e+00,8.733698194808194870e+00,2.695650288583753884e+00,-8.878701823842151120e-01,7.582259661745806290e-02,-4.538011382495300561e-01,1.217759526310447455e+02
3.828884014024252380e+00,8.460465534566678159e+00,3.201137444557545564e+00,-8.496157726316143632e-01,7.326472628303362655e-02,-5.222866251204036914e-01,1.232888345232199327e+02
3.483900871734575855e+00,8.195554177294548381e+00,3.685748168593943941e+00,-8.061275475093008236e-01,7.025552949030966499e-02,-5.875547104092730955e-01,1.248017164153951200e+02
3.120737451018780195e+00,7.941215989368259009e+00,4.148922427112997191e+00,-7.576734046951907331e-01,6.681354361001122510e-02,-6.492033288649762257e-01,1.263145983075703072e+02
2.741823141307539125e+00,7.699689709067913057e+00,4.590100322547693068e+00,-7.045518329220857856e-01,6.295997208294094871e-02,-7.068527121281976688e-01,1.278274801997454944e+02
2.349609585233917830e+00,7.473200839878473722e+00,5.008722096892780584e+00,-6.470900731785629301e-01,5.871855379845413586e-02,-7.601477281655009133e-01,1.293403620919206674e+02
1.946570646996691245e+00,7.263961543917719865e+00,5.404228135252930443e+00,-5.856421027958264025e-01,5.411541685443719413e-02,-8.087600689284755173e-01,1.308532439840958546e+02
1.535202380509911091e+00,7.074170535491781209e+00,5.776058969390205355e+00,-5.205864548410971127e-01,4.917891759984553690e-02,-8.523902727632276521e-01,1.323661258762710418e+02
1.118022997338904201e+00,6.906012974779121016e+00,6.123655281270837136e+00,-4.523238862522119264e-01,4.393946595148573442e-02,-8.907695691138756144e-01,1.338790077684462290e+02
6.975728344228783184e-01,6.761660361643792250e+00,6.446457906611288813e+00,-3.812749090793531859e-01,3.842933806123980528e-02,-9.236615341587349759e-01,1.353918896606214162e+02
2.764143215843141710e-01,6.643270429578827851e+00,6.743907838423583101e+00,-3.078772000425074040e-01,3.268247748780536005e-02,-9.508635471827900920e-01,1.369047715527966034e+02
-1.428680511746708570e-01,6.552987039780608924e+00,7.015446230559883922e+00,-2.325829043622278658e-01,2.673428609778935594e-02,-9.722080387175837668e-01,1.384176534449717906e+02
-5.576677665888131186e-01,6.492940075355042140e+00,7.260514401256321193e+00,-1.558558504719395055e-01,2.062140598421018101e-02,-9.875635227623282830e-01,1.399305353371469778e+02
-9.653563132588591778e-01,6.465245335656421233e+00,7.478553836676020694e+00,-7.816869276843597947e-02,1.438149374574877910e-02,-9.968354067298987875e-01,1.414434172293221650e+02
-1.377083598660095332e+00,6.473579817958543536e+00,7.674767386453226869e+00,-0.000000000000000000e+00,8.052988517103476865e-03,-9.999665741302532496e-01,1.430104589938938489e+02
-1.774589886199255284e+00,6.522122485867362762e+00,7.841032033117966371e+00,1.984795552643255426e-02,-2.502312411574146231e-02,-9.994888203086398359e-01,1.445775007584655327e+02
-2.153895560701362566e+00,6.611975715003429066e+00,7.980754775346484031e+00,3.966637210066471797e-02,-5.806199530753911042e-02,-9.975236255981020372e-01,1.461445425230372166e+02
-2.510715729710503386e+00,6.743792233426680660e+00,8.098692543788230225e+00,5.942575608357240219e-02,-9.101445682225073330e-02,-9.940739148395347780e-01,1.477115842876089005e+02
-2.840757653616723832e+00,6.918200829681866004e+00,8.199602417338606841e+00,7.909670170042037984e-02,-1.238314690392284950e-01,-9.891448220846599249e-01,1.492786260521805843e+02
-3.139720804323717029e+00,7.135806313663362488e+00,8.288241590745677456e+00,9.864993479936944032e-02,-1.564641939287245986e-01,-9.827436829527518292e-01,1.508456678167522682e+02
-3.404683271127666888e+00,7.396367070610233796e+00,8.368287492148098750e+00,1.180563564139884697e-01,-1.888640677271934687e-01,-9.748800237121687529e-01,1.524127095813239521e+02
-3.635499848570831194e+00,7.697983080050899041e+00,8.441257907965551865e+00,1.372870860649880176e-01,-2.209828732043121191e-01,-9.655655471025326175e-01,1.539797513458956360e+02
-3.833433238976919899e+00,8.037934052729100998e+00,8.507590822631064142e+00,1.563135047367802954e-01,-2.527728114142484550e-01,-9.548141149186625265e-01,1.555467931104673198e+02
-3.999773536177465338e+00,8.413507185282611545e+00,8.567724265676003981e+00,1.751072974649543479e-01,-2.841865728244751810e-01,-9.426417273821817711e-01,1.571138348750390037e+02
-4.135838205962816261e+00,8.821997295993027066e+00,8.622096308746669990e+00,1.936404954713352999e-01,-3.151774077163534971e-01,-9.290664993314886599e-01,1.586808766396106876e+02
-4.243649583395012748e+00,9.264678512044287828e+00,8.671519263532207589e+00,2.118855177839669979e-01,-3.456991957527928983e-01,-9.141086332655016244e-01,1.602612433546739510e+02
-4.323218648479496551e+00,9.735570797740150439e+00,8.715935475049757741e+00,2.298152122801234709e-01,-3.757065146095286412e-01,-8.977903892812639786e-01,1.618416100697372144e+02
-4.375993436354236543e+00,1.023190043101584124e+01,8.755798220023208955e+00,2.474028960913110531e-01,-4.051547075679520216e-01,-8.801360519501076896e-01,1.634219767848004778e+02
-4.403450452891338074e+00,1.075090220907526373e+01,8.791560806607026990e+00,2.646223953101696225e-01,-4.339999499689659035e-01,-8.611718941816207673e-01,1.650023434998637413e+02
-4.407094652643402277e+00,1.128981959076867980e+01,8.823676571246386047e+00,2.814480839402158652e-01,-4.621993144290285072e-01,-8.409261381291346371e-01,1.665827102149270047e+02
-4.388459416491869547e+00,1.184590483887698298e+01,8.852598875537168510e+00,2.978549220304967937e-01,-4.897108347213858237e-01,-8.194289131948488958e-01,1.681630769299902681e+02
-4.349106528997470633e+00,1.241641916230131670e+01,8.878781103085819026e+00,3.138184929384293942e-01,-5.164935682274721662e-01,-7.967122111970159626e-01,1.697434436450535316e+02
-4.290626155452933688e+00,1.299863285815682623e+01,8.902676656369093777e+00,3.293150396653934386e-01,-5.425076568655753384e-01,-7.728098387658244306e-01,1.713238103601167950e+02
-4.214636818638076932e+00,1.358982545376927398e+01,8.924738953593694291e+00,3.443215002110234235e-01,-5.677143864061273693e-01,-7.477573670387459570e-01,1.729041770751800584e+02
-4.122785375277442377e+00,1.418728584857332109e+01,8.945421425555846184e+00,3.588155418935968788e-01,-5.920762440853672981e-01,-7.215920787301187689e-01,1.744845437902433218e+02
-4.016791333180721679e+00,1.478832558097421312e+01,8.964935048604699475e+00,3.246281171674334498e-01,-5.986529165201547320e-01,-7.322767721886745962e-01,1.760649105053065853e+02
-3.898490980973833064e+00,1.539029243172883099e+01,8.983005879284876372e+00,2.900101731225198654e-01,-6.044356563979763619e-01,-7.419903212044393070e-01,1.776452772203698487e+02
-3.769792740977487622e+00,1.599055794425766841e+01,8.999117520129516379e+00,2.550076198428287699e-01,-6.094167948162900750e-01,-7.507198438957448650e-01,1.792256439354331121e+02
-3.632632707711467290e+00,1.658650460689579731e+01,9.012753587132470656e+00,2.196668774511796596e-01,-6.135897259369349488e-01,-7.584537633741678109e-01,1.808060106504963755e+02
-3.488974620345719924e+00,1.717552599144937986e+01,9.023397713324309066e+00,1.840348145503888921e-01,-6.169489157450080974e-01,-7.651818230952986966e-01,1.823863773655596390e+02
-3.347476442371833283e+00,1.772973910399443653e+01,9.030377205596810342e+00,1.481586860699484753e-01,-6.194899093865237072e-01,-7.708951004587510925e-01,1.838965192883133568e+02
-3.203641657391182562e+00,1.827346823705124024e+01,9.033863848053723444e+00,1.120860706006303470e-01,-6.212093370751726740e-01,-7.755860186394252231e-01,1.854066612110670746e+02
-3.059175046436966472e+00,1.880456772178015257e+01,9.033427172183078113e+00,7.586480730007495732e-02,-6.221049185603583220e-01,-7.792483566343660906e-01,1.869168031338207925e+02
-2.915803327520096744e+00,1.932090115057350133e+01,9.028636734192494018e+00,3.954293245298649839e-02,-6.221754661505991546e-01,-7.818772575119012913e-01,1.884269450565745103e+02
-2.775275133575441977e+00,1.982034148209902469e+01,9.019062117731168726e+00,3.168615770015761716e-03,-6.214208862882928397e-01,-7.834692348521394845e-01,1.899370869793282282e+02
-2.639360990197240575e+00,2.030077114625443357e+01,9.004272936611750211e+00,-3.320990349024550287e-02,-6.198421796737618727e-01,-7.840221773702942265e-01,1.914472289020819460e+02
-2.509853293163821331e+00,2.076008214903222893e+01,8.983838837532061916e+00,-6.954438049149828938e-02,-6.174414399384111629e-01,-7.835353517167061854e-01,1.929573708248356638e+02
-2.388566285751741791e+00,2.119617617729401005e+01,8.957329502796671505e+00,-1.057866287974185415e-01,-6.142218508687596890e-01,-7.820094034498509261e-01,1.944675127475893817e+02
-2.277336035839481188e+00,2.160696470345337517e+01,8.924314653038294409e+00,-1.418885842719944945e-01,-6.101876821850156229e-01,-7.794463561810346386e-01,1.959776546703430995e+02
-2.178020412800805605e+00,2.199036909006660423e+01,8.884364049939017960e+00,-1.778023688178317352e-01,-6.053442838797847836e-01,-7.758496088919047962e-01,1.974877965930968173e+02
-2.092499064187939073e+00,2.234432069433029255e+01,8.837047498951317692e+00,-2.134803538679444779e-01,-5.996980791244060915e-01,-7.712239314283174663e-01,1.989979385158505352e+02
-2.022673392204669351e+00,2.266676097248510757e+01,8.781934852018885351e+00,-2.488752235468845997e-01,-5.932565557523028499e-01,-7.655754581765170652e-01,2.005080804386042530e+02
-1.970466529969513658e+00,2.295564158412482314e+01,8.718596010297215315e+00,-2.839400374174871344e-01,-5.860282563306241643e-01,-7.589116799299936433e-01,2.020182223613579708e+02
-1.937823317569081327e+00,2.320892449640980715e+01,8.646600926873988513e+00,-3.186282927300625456e-01,-5.780227668333187685e-01,-7.512414339577758726e-01,2.035283642841116887e+02
-1.926710277901760637e+00,2.342458208818412402e+01,8.565519609489163244e+00,-3.528939860915203397e-01,-5.692507039306371475e-01,-7.425748922873004476e-01,2.050385062068654065e+02
-1.939115592311865477e+00,2.360059725399545982e+01,8.474922123254858164e+00,-3.866916744726696109e-01,-5.597237009118894990e-01,-7.329235482173624971e-01,2.065486481296191243e+02
-1.977049076014377960e+00,2.373496350801694987e+01,8.374378593374929736e+00,-4.199765354728211553e-01,-5.494543922600975128e-01,-7.223002010789976168e-01,2.080587900523728422e+02
-2.047567307223654431e+00,2.382903362622082710e+01,8.255261923707804428e+00,-2.042315232335925046e-01,-5.918490498460435845e-01,-7.797449500413348167e-01,2.096707596792464301e+02
-2.148006562678690390e+00,2.386982765694108721e+01,8.123280644413050311e+00,2.206062339442155240e-02,-6.036787175315465603e-01,-7.969211597742492659e-01,2.112827293061200180e+02
-2.274746879732897131e+00,2.385714989718769630e+01,7.978187611624247388e+00,2.472134941618859549e-01,-5.843324823401598866e-01,-7.729418078919988444e-01,2.128946989329936059e+02
-2.424171836566140659e+00,2.379078319978676603e+01,7.819735775843041026e+00,4.595995113955018141e-01,-5.348094314391391713e-01,-7.090452462074303686e-01,2.145066685598671938e+02
-2.592668608234720118e+00,2.367048899192969458e+01,7.647678183721074774e+00,4.898930715208476006e-01,-5.554896580358100744e-01,-6.718883972000754268e-01,2.161186381867407817e+02
-2.777259875110933418e+00,2.349660620375541953e+01,7.462106553373925699e+00,5.188511784169956842e-01,-5.746556147585337726e-01,-6.328999755749415979e-01,2.177306078136143697e+02
-2.976227003157422057e+00,2.327065507963554936e+01,7.263789847255012866e+00,5.463948923180587114e-01,-5.922550552637985133e-01,-5.921862639104329418e-01,2.193425774404879576e+02
-3.188465139884041566e+00,2.299474555661356590e+01,7.053835693084912428e+00,5.724491290741240412e-01,-6.082400035056096943e-01,-5.498582478773602622e-01,2.209545470673615455e+02
-3.412847020907033180e+00,2.267098069718878151e+01,6.833351802340683179e+00,5.969428648232683043e-01,-6.225668845130326590e-01,-5.060313137003565886e-01,2.225665166942351334e+02
-3.634524524616467911e+00,2.232449899423598438e+01,6.616794048149500007e+00,6.198093295961850657e-01,-6.351966431714870520e-01,-4.608249336246611483e-01,2.240880029226550221e+02
-3.864585075923995028e+00,2.194124142170132430e+01,6.393191629075919202e+00,6.409861893259185539e-01,-6.460948506841963646e-01,-4.143623402455346438e-01,2.256094891510749108e+02
-4.102082167139925239e+00,2.152286095497727203e+01,6.163423912153718653e+00,6.604157157666824540e-01,-6.552317984236558646e-01,-3.667701905877965296e-01,2.271309753794947994e+02
-4.346052556927091359e+00,2.107100508655596371e+01,5.928370303926261187e+00,6.780449438586830802e-01,-6.625825789173264146e-01,-3.181782208508845966e-01,2.286524616079146881e+02
-4.595516284309455024e+00,2.058731574536565034e+01,5.688910244803905059e+00,6.938258161100365751e-01,-6.681271537467924349e-01,-2.687188927602726651e-01,2.301739478363345768e+02
-4.849476682843600450e+00,2.007342921616432818e+01,5.445923203421242142e+00,7.077153136022346080e-01,-6.718504081752655344e-01,-2.185270324889586613e-01,2.316954340647544655e+02
-5.106920394953028186e+00,1.953097605899116118e+01,5.200288670994199336e+00,7.196755732620272461e-01,-6.737421923544560931e-01,-1.677394631329913177e-01,2.332169202931743541e+02
-5.366817386425158709e+00,1.896158102867642370e+01,4.952886155677037827e+00,7.296739910799986406e-01,-6.737973489983849484e-01,-1.164946317425855221e-01,2.347384065215942428e+02
-5.628120961070974815e+00,1.836686299441049997e+01,4.704595176919264432e+00,7.376833109943747857e-01,-6.720157274485697441e-01,-6.493223192523900344e-02,2.362598927500141315e+02
-5.889767775547207762e+00,1.774843485937268994e+01,4.456295259822494081e+00,7.436816991976447078e-01,-6.684021840920901791e-01,-1.319282304935810723e-02,2.377813789784340202e+02
-6.150677854341005890e+00,1.710790348042041487e+01,4.208865929497279446e+00,7.476528036632843488e-01,-6.629665691312067732e-01,3.858255291379712737e-02,2.393028652068539088e+02
-6.409754604916964915e+00,1.644686958783949038e+01,3.963186705419945444e+00,7.495857987301239866e-01,-6.557236997404047862e-01,9.025275586556300023e-02,2.408243514352737975e+02
-6.665884833026472833e+00,1.576692770515611031e+01,3.720137095789447290e+00,7.494754146226160207e-01,-6.466933196838168252e-01,1.416769323247953627e-01,2.423458376636936862e+02
-6.917938758179244196e+00,1.506966606901119121e+01,3.480596591884285385e+00,7.473219518262993466e-01,-6.359000455028863685e-01,1.927148993935589305e-01,2.438673238921135749e+02
-7.164770029276991359e+00,1.435666654909771367e+01,3.245444662419499249e+00,7.431312802790274175e-01,-6.233732994207302758e-01,2.432275268969542326e-01,2.453888101205334635e+02
-7.405215740409112790e+00,1.362950456816172995e+01,3.015560747903776928e+00,7.369148233799113212e-01,-6.091472291458790433e-01,2.930771166553703955e-01,2.469102963489533522e+02
-7.638096446810338058e+00,1.288974902206766693e+01,2.791824254996692289e+00,7.286895268593145403e-01,-5.932606147937857788e-01,3.421277778552244686e-01,2.484317825773732409e+02
-7.862216180980217572e+00,1.213896219992857084e+01,2.575114550866110630e+00,9.955207354021456956e-01,9.453287991603503970e-02,0.000000000000000000e+00,2.499532688057931296e+02
-8.083465247607881210e+00,1.135278724376159509e+01,2.359050768235765094e+00,9.913008634114531814e-01,1.316077436555698199e-01,0.000000000000000000e+00,2.515261591115538238e+02
-8.293412544844317225e+00,1.055821295512885349e+01,2.150684649738147325e+00,9.857007492619630495e-01,1.684993557698928335e-01,0.000000000000000000e+00,2.530990494173145180e+02
-8.491853517097283088e+00,9.757335057338464068e+00,1.948978707377599262e+00,9.787281891584446170e-01,2.051563592407236736e-01,0.000000000000000000e+00,2.546719397230752122e+02
-8.678560676070537383e+00,8.952247998335453261e+00,1.752895407443516573e+00,9.703928888839234990e-01,2.415277234467198553e-01,0.000000000000000000e+00,2.562448300288359064e+02
-8.853283604213251223e+00,8.145044836139438971e+00,1.561397177630333477e+00,9.769128538952149832e-01,2.136335083477470254e-01,0.000000000000000000e+00,2.578177203345965722e+02
-9.015748958409444569e+00,7.337817124297282056e+00,1.373446414157708961e+00,9.826311646046371751e-01,1.855639898862600778e-01,0.000000000000000000e+00,2.593906106403572380e+02
-9.165660473907397687e+00,6.532654797351683307e+00,1.188005488890873540e+00,9.875431292009232420e-01,1.573422001971287454e-01,0.000000000000000000e+00,2.609635009461179038e+02
-9.302698968489041320e+00,5.731646056326709981e+00,1.004036756461100577e+00,9.916447173610906107e-01,1.289912963135745883e-01,0.000000000000000000e+00,2.625363912518785696e+02
-9.426522346879256276e+00,4.936877254231252010e+00,8.205025613862689804e-01,9.949325635558181613e-01,1.005345411835595754e-01,0.000000000000000000e+00,2.641092815576392354e+02
-9.536765605395110867e+00,4.150432781581381292e+00,6.363652451914787456e-01,9.974039698086810679e-01,7.199528459899393051e-02,0.000000000000000000e+00,2.656821718633999012e+02
-9.631723197197072039e+00,3.386845199714964672e+00,4.536507678680086197e-01,9.990569079092538329e-01,4.339694405382944764e-02,0.000000000000000000e+00,2.672294485174402894e+02
-9.713046854584534984e+00,2.635118235076424398e+00,2.684026597802113834e-01,9.998900210782709630e-01,1.476298554660309542e-02,0.000000000000000000e+00,2.687767251714806775e+02
-9.780460163688761810e+00,1.897232708144542590e+00,7.984562790949176203e-02,8.808491902946983254e-01,2.673097542801564433e-02,-4.726395655342977564e-01,2.703240018255210657e+02
-9.833923539639490841e+00,1.175237875485925176e+00,-1.124028624179944924e-01,8.586017000741579253e-01,2.421703666549421610e-02,-5.120689951201196077e-01,2.718712784795614539e+02
-9.873504299857287947e+00,4.712179129078046813e-01,-3.085289531804624175e-01,8.345889668483753576e-01,2.165330910737599257e-02,-5.504456291208008611e-01,2.734185551336018420e+02
-9.899247220552810589e+00,-2.127425651656193462e-01,-5.087187606133347639e-01,8.088603593861364294e-01,1.904506358068168773e-02,-5.876905687226433583e-01,2.749658317876422302e+02
-9.911174535399016605e+00,-8.745586164970412524e-01,-7.131583739715445791e-01,7.814687739147881951e-01,1.639766242822902897e-02,-6.237272417184045459e-01,2.765131084416826184e+02
-9.909285934431789400e+00,-1.512145081845014616e+00,-9.220338542919709335e-01,7.524705253870281885e-01,1.371654848636694700e-02,-6.584815598936918368e-01,2.780603850957230065e+02
-9.893223196228987604e+00,-2.129720594220178675e+00,-1.137892493447950182e+00,7.219252317248031625e-01,1.100723389739487364e-02,-6.918820713095650277e-01,2.796243950274525218e+02
-9.862793976995188672e+00,-2.717941039329866637e+00,-1.358718827314362665e+00,6.898956912776850192e-01,8.275288779613358681e-03,-7.238601071689310107e-01,2.811884049591820371e+02
-9.818171579229499457e+00,-3.274840341134291677e+00,-1.584841918361444169e+00,6.564477537470857493e-01,5.526329778247112551e-03,-7.543499229654547777e-01,2.827524148909115524e+02
-9.759997732661670256e+00,-3.798872106607062982e+00,-1.816860613493525012e+00,6.216501848410274089e-01,2.766008520725274887e-03,-7.832888336253912565e-01,2.843164248226410677e+02
-9.691690383158418243e+00,-4.274736779109447049e+00,-2.047994929745946990e+00,5.855745249369939120e-01,0.000000000000000000e+00,-8.106173423649849497e-01,2.858325664139024411e+02
-9.612642805512198407e+00,-4.718258519294458608e+00,-2.285816022448572404e+00,8.010230466218279943e-01,1.680977087608944570e-02,-5.983957807208056812e-01,2.873487080051638145e+02
-9.523597654160862902e+00,-5.128245014316328287e+00,-2.530971721539091224e+00,9.429866597446359133e-01,3.207743219650309452e-02,-3.312781276935125585e-01,2.888648495964251879e+02
-9.425284845082828156e+00,-5.503499697134388136e+00,-2.784109810180881883e+00,9.984418138771008477e-01,4.440234749862993768e-02,-3.376945127337916547e-02,2.903809911876865613e+02
-9.318714243828887689e+00,-5.843120062148606131e+00,-3.045834325981822577e+00,9.623011475947070847e-01,5.265384537069009441e-02,2.668371674009193950e-01,2.918971327789479346e+02
-9.205472449763858478e+00,-6.146793840644620310e+00,-3.316661862491864898e+00,8.378801759393996740e-01,5.607494484992718575e-02,5.429644659909178550e-01,2.934132743702093080e+02
-9.087436224420534003e+00,-6.414497573542402797e+00,-3.597065260557272826e+00,9.053473691449666072e-01,4.153717105648690455e-01,-8.837693841807206518e-02,2.949294159614706814e+02
-8.966481816542742678e+00,-6.646197296502391438e+00,-3.887517299953691996e+00,9.360722153546453539e-01,3.202522752089287938e-01,1.456203552547300495e-01,2.964455575527320548e+02
-8.837138431576846642e+00,-6.851242495843874458e+00,-4.207331931788530710e+00,9.061895982315796294e-01,2.043976334009164064e-01,3.701891672065157901e-01,2.980530021474328919e+02
-8.708864454248077536e+00,-7.013227253298317088e+00,-4.540283542462759669e+00,8.176343202152047684e-01,7.530893738781591074e-02,5.707895254430604970e-01,2.996604467421337290e+02
-8.583177492411554255e+00,-7.132844143496853917e+00,-4.887435782177797172e+00,7.843785636195371724e-01,1.014329603648742861e-01,6.119310610452609600e-01,3.012678913368345661e+02
-8.459903921945493011e+00,-7.212330781574459948e+00,-5.250785153882587153e+00,7.483923528909645073e-01,1.272038900111869819e-01,6.509424371525430741e-01,3.028753359315354032e+02
-8.291969583945634881e+00,-7.250472265348964385e+00,-5.787849675027533003e+00,0.000000000000000000e+00,9.983844631533018710e-01,-5.680196945670642344e-02,3.050836114631876512e+02
-8.121001179263911851e+00,-7.207078384163036588e+00,-6.380245415676981224e+00,4.081438505715209025e-02,9.978246683405279649e-01,5.175052872767943457e-02,3.072918869948398992e+02
-7.993563055642475490e+00,-7.137840000368989912e+00,-6.839015258905846828e+00,8.107982391399500000e-02,9.838443326184724835e-01,1.596069902250729367e-01,3.088811760806968891e+02
-7.861110513770884545e+00,-7.047758709996919890e+00,-7.319637831948142548e+00,1.202547528576992514e-01,9.566314911224695905e-01,2.653167627726186195e-01,3.104704651665538790e+02
-7.714093035673768917e+00,-6.933366804542723472e+00,-7.848618004660244729e+00,1.578122758224531907e-01,9.165521556103991552e-01,3.674580678744239770e-01,3.121493063977750353e+02
-7.558451456059160911e+00,-6.802150048947883221e+00,-8.393801410450571154e+00,1.932472512690127098e-01,8.641453910704877117e-01,4.646571240916265721e-01,3.138281476289961915e+02
-7.393211182193713427e+00,-6.657391714985235076e+00,-8.947228096985275769e+00,2.260830863773561072e-01,8.001160645898474089e-01,5.556066245465611786e-01,3.155069888602173478e+02
-7.217434565459342366e+00,-6.502380746458419125e+00,-9.500938047377388784e+00,2.558781471538286167e-01,7.253253641091970128e-01,6.390833200685656079e-01,3.171858300914385040e+02
-7.030220915869954013e+00,-6.340411562560150927e+00,-1.004697124238961869e+01,2.822316982334162616e-01,6.407792146972540737e-01,7.139644714727254593e-01,3.188646713226596603e+02
-6.830865430330590904e+00,-6.174997993583231981e+00,-1.057750578690518317e+01,3.047892924972596673e-01,5.476147482561699587e-01,7.792429497099214730e-01,3.205435125538808165e+02
-6.619031688481817000e+00,-6.010107132390238860e+00,-1.108533718559102788e+01,3.232475380382590080e-01,4.470850087367330139e-01,8.340407808473885298e-01,3.222223537851019728e+02
-6.394608265779946343e+00,-5.849964171677449087e+00,-1.156408148519998669e+01,3.373581783923914057e-01,3.405420986485929169e-01,8.776209537843587816e-01,3.239011950163231290e+02
-6.167831926204853765e+00,-5.704617106375131641e+00,-1.199087744670942968e+01,3.469314311961577135e-01,2.294189935806829062e-01,9.093973319920788390e-01,3.255105737869507720e+02
-5.929890677993872927e+00,-5.570815432110546972e+00,-1.238162171495490504e+01,3.518385404063183453e-01,1.152102693228961444e-01,9.289425360747919358e-01,3.271199525575784151e+02
-5.680790329684524131e+00,-5.451880817341208996e+00,-1.273118647976872531e+01,3.520135077923879363e-01,-5.479992337527160454e-04,9.359936912342581294e-01,3.287293313282060581e+02
-5.420517208852338342e+00,-5.350604695698353730e+00,-1.303439359668601760e+01,2.667117791109648306e-01,2.447389377469652225e-02,9.634645065623386184e-01,3.303387100988337011e+02
-5.149059501028609986e+00,-5.269513546804049042e+00,-1.328603993907682401e+01,1.791010901817740864e-01,4.928391228887925996e-02,9.825944715311299982e-01,3.319480888694613441e+02
-4.806219018732727832e+00,-5.205805538660104759e+00,-1.350402317261902496e+01,8.993987732009491032e-02,7.366727837904697707e-02,9.932179773654231658e-01,3.338834695940711299e+02
-4.444415078180987244e+00,-5.186809874822807309e+00,-1.361546496356503333e+01,0.000000000000000000e+00,9.741290686787916486e-02,9.952430484926604315e-01,3.358188503186809157e+02
-4.064994621680884990e+00,-5.217729694175544886e+00,-1.362154207637078507e+01,-0.000000000000000000e+00,-9.695091807975529663e-02,9.952881590151888558e-01,3.377542310432907016e+02
-3.750193840251578425e+00,-5.277817177984494457e+00,-1.356231288468306850e+01,-4.291282096655081070e-03,-2.252196961352708748e-01,9.742975281538440724e-01,3.393072186219453101e+02
-3.428572042159753863e+00,-5.367164850782741858e+00,-1.345924976671877538e+01,-8.509987894250357898e-03,-3.496795025689147796e-01,9.368296673276681474e-01,3.408602062005999187e+02
-3.101212974728259297e+00,-5.487025846374057991e+00,-1.331775382810904240e+01,-7.525276839494735026e-03,-2.888018937096377692e-01,9.573582591684978160e-01,3.424131937792545273e+02
-2.769213299845701304e+00,-5.638647403659807544e+00,-1.314322643135854918e+01,-6.509497914867861529e-03,-2.267319778936881802e-01,9.739344108497848262e-01,3.439661813579091358e+02
-2.433562646767357673e+00,-5.822587187960668764e+00,-1.294071374879361080e+01,-5.466844694432428445e-03,-1.637260063597008319e-01,9.864896899869861624e-01,3.455191689365637444e+02
-2.095014055251767093e+00,-6.038030523586850329e+00,-1.271455131788599324e+01,-4.401621693856015705e-03,-1.000440944872977578e-01,9.949722633745504696e-01,3.470721565152183530e+02
-1.718697864154433042e+00,-6.312214536430681200e+00,-1.244133776233715416e+01,-3.318226602569682160e-03,-3.594914811486257106e-02,9.993471109288953880e-01,3.487856200276899585e+02
-1.340111786173932229e+00,-6.624307632749496300e+00,-1.214760951781420673e+01,-2.221132131458964602e-03,2.829422165749335971e-02,9.995961702570690388e-01,3.504990835401615641e+02
-9.601263692185418863e-01,-6.972074170136088433e+00,-1.183926529485035850e+01,-1.114867550911389929e-03,9.242079070677156061e-02,9.957184112564252398e-01,3.522125470526331696e+02
-5.795860373770908014e-01,-7.353273506493599676e+00,-1.152220392276833394e+01,-3.999995304131439757e-06,1.561658166662475977e-01,9.877298404362626627e-01,3.539260105651047752e+02
-1.988396836930743095e-01,-7.765164898904660440e+00,-1.120083946876361125e+01,-3.431258075468773590e-06,1.373532654656963448e-01,9.905211155965775172e-01,3.556394740775763808e+02
1.827364239847835692e-01,-8.204016283515267460e+00,-1.087661636907544427e+01,-2.861279878233495316e-06,1.184910373819077628e-01,9.929541147710270188e-01,3.573529375900479863e+02
5.635636711595624071e-01,-8.662236438012650197e+00,-1.055180949169001536e+01,-2.290266830177746974e-06,9.958595345257659215e-02,9.950279583300892794e-01,3.590543796104893772e+02
9.474598601400667786e-01,-9.138632096414950112e+00,-1.022412465688355532e+01,-1.718425422772605465e-06,8.064485019431115453e-02,9.967418964421337346e-01,3.607558216309307682e+02
1.335626986762516566e+00,-9.629112844422728301e+00,-9.893522666945939292e+00,-1.145962446714471925e-06,6.167457713616028570e-02,9.980953093380336982e-01,3.624572636513721591e+02
1.729314496941823487e+00,-1.012959589850012954e+01,-9.559964347419352748e+00,-5.730849173465950719e-07,4.268199434934798892e-02,9.990877075345891978e-01,3.641587056718135500e+02
2.129819265438107845e+00,-1.063600636199401706e+01,-9.223410547418062322e+00,-0.000000000000000000e+00,2.367396997322678345e-02,9.997187320112477238e-01,3.658601476922549409e+02
2.537621441607240236e+00,-1.114447956316939070e+01,-8.883087608922867418e+00,-1.815685972366613410e-06,8.631051170094888869e-02,9.962672811885360247e-01,3.675615897126963318e+02
2.951517169166695265e+00,-1.165155631829552618e+01,-8.536752841971688710e+00,-3.624226711587903945e-06,1.486073979362688424e-01,9.888952630413665457e-01,3.692630317331377228e+02
3.344702527096376610e+00,-1.212484146662044537e+01,-8.202927284197635061e+00,-5.418505219052842428e-06,2.103194769713875589e-01,9.776316881000031156e-01,3.708643974005989890e+02
3.739610005528894998e+00,-1.259175371756439255e+01,-7.859269571809456956e+00,-7.191460618315129887e-06,2.712038983333718289e-01,9.625208805408472790e-01,3.724657630680602551e+02
4.134704938293298326e+00,-1.304971135020748285e+01,-7.503443752846835402e+00,-8.936115937843508848e-06,3.310210683394158027e-01,9.436223038035528310e-01,3.740671287355215213e+02
4.528480796398170583e+00,-1.349612378653906752e+01,-7.133113961774729894e+00,-1.064560556384511033e-05,3.895355928452018390e-01,9.210103266485138995e-01,3.756684944029827875e+02
4.919459210603264410e+00,-1.392839173444515311e+01,-6.745944436097664365e+00,-1.231320225525063741e-05,4.465172034807274315e-01,8.947739305789715880e-01,3.772698600704440537e+02
5.306189993686700745e+00,-1.434390733079132829e+01,-6.339599532973461571e+00,-1.393234361465973069e-05,5.017416637323274253e-01,8.650163597761567624e-01,3.788712257379053199e+02
5.687251162407609861e+00,-1.474005428459994071e+01,-5.911743745826344210e+00,-1.549665791116819078e-05,5.549916513083045233e-01,8.318547149214672309e-01,3.804725914053665861e+02
6.061248959164064587e+00,-1.511420802032021982e+01,-5.460041720959314837e+00,-1.699998915352857377e-05,6.060576133181894143e-01,7.954194924999823391e-01,3.820739570728278522e+02
6.427022829460351971e+00,-1.546399139344191020e+01,-4.982925911729451762e+00,-8.714160024713584786e-06,6.747554542646525544e-01,7.380400238874712526e-01,3.836753227402891184e+02
6.853016367339531456e+00,-1.584485536669162897e+01,-4.373119176495554150e+00,-3.585205410199641569e-07,7.380472384462178903e-01,6.747475630322210538e-01,3.855974869278406914e+02
7.262842792522809177e+00,-1.617657741297874097e+01,-3.720838489837281937e+00,7.999989140413108610e-06,7.954259202489223357e-01,6.060491773184206732e-01,3.875196511153922643e+02
7.654744006301098302e+00,-1.645670164880235831e+01,-3.028549928514611356e+00,6.003447275242286630e-06,8.086875497486893938e-01,5.882367268597092913e-01,3.894418153029438372e+02
7.964886009490337315e+00,-1.665233623073066838e+01,-2.429717293140103429e+00,4.003944591395868871e-06,8.215503719717091036e-01,5.701341826957058156e-01,3.910340298006260582e+02
8.260976479457319499e+00,-1.681860375040947275e+01,-1.813100328195554445e+00,2.002466653143350101e-06,8.340080464920200942e-01,5.517504674787980790e-01,3.926262442983082792e+02
8.541122649759646634e+00,-1.695561187922166724e+01,-1.181187177945900890e+00,0.000000000000000000e+00,8.460544322668346329e-01,5.330946422741880131e-01,3.942184587959905002e+02
8.803465734322029945e+00,-1.706371796411092134e+01,-5.368162013340236349e-01,-4.820826492293019128e-02,8.823206484469500177e-01,4.681711615612655364e-01,3.958106732936727212e+02
9.037111723835229427e+00,-1.714158478149163045e+01,8.960406418067023981e-02,-9.603787901766490387e-02,9.116568066446733010e-01,3.995705102891313198e-01,3.973379658955657874e+02
9.251956302252452247e+00,-1.719569155356729340e+01,7.206040373312961878e-01,-1.431131713361313007e-01,9.338324929755451587e-01,3.278315043644232096e-01,3.988652584974588535e+02
9.446492216711012802e+00,-1.722697679784015179e+01,1.352891278541476616e+00,-1.890643961725632649e-01,9.486735350473675110e-01,2.535176088587287602e-01,4.003925510993519197e+02
9.619201641105270539e+00,-1.723637054073760311e+01,1.983173339901064480e+00,-2.335306372001663133e-01,9.560633697694566058e-01,1.772125121850524065e-01,4.019198437012449858e+02
9.768556197167633570e+00,-1.722479426621979925e+01,2.608157786455573834e+00,-2.761626422186226892e-01,9.559439586337196149e-01,9.951554147806541961e-02,4.034471363031380520e+02
9.893016975654512990e+00,-1.719316086447312486e+01,3.224552217495540329e+00,-3.166255662481883837e-01,9.483162433044955986e-01,2.103695520210341341e-02,4.049744289050311181e+02
9.991034557637158642e+00,-1.714237458069007403e+01,3.829064287845719949e+00,-3.546016014287784457e-01,9.332401379573836975e-01,-5.760685003445976254e-02,4.065017215069241843e+02
1.006104903589721999e+01,-1.707333096393582750e+01,4.418401729154016522e+00,-3.897924730740328636e-01,9.108340584458703981e-01,-1.357981808105405142e-01,4.080290141088172504e+02
1.010149003642694154e+01,-1.698691681610206317e+01,4.989272371180034860e+00,-4.219217822837038057e-01,8.812739920112185876e-01,-2.129228983478907711e-01,4.095563067107103166e+02
1.011077674003384175e+01,-1.688401014094833741e+01,5.538384163083158285e+00,-4.507371767244026106e-01,8.447921148573285244e-01,-2.883752419941771894e-01,4.110835993126033827e+02
1.008731790404976358e+01,-1.676548009323149202e+01,6.062445194710049279e+00,-4.760123325391987792e-01,8.016749684599806525e-01,-3.615625868603486448e-01,4.126108919144964489e+02
1.002951188414418127e+01,-1.663218692792351305e+01,6.558163717881463128e+00,-4.975487318301110573e-01,7.522612089413860392e-01,-4.319100982591105309e-01,4.141381845163895150e+02
9.926302877616405951e+00,-1.647369846181431896e+01,7.051993877912190456e+00,-5.151772217625080197e-01,6.969389471894419374e-01,-4.988652464037193202e-01,4.157720594580900979e+02
9.777776020523841538e+00,-1.629958454718936522e+01,7.503548117297191844e+00,-4.711698250525133691e-01,6.409557283566804653e-01,-6.059478114891631018e-01,4.174059343997906808e+02
9.584429903542844187e+00,-1.611179054432200175e+01,7.910803896602628171e+00,-4.193704694032804325e-01,5.743727203469485287e-01,-7.030095216392946433e-01,4.190398093414912637e+02
9.347619102293238669e+00,-1.591254915108293311e+01,8.272501610584511056e+00,-3.606357834583678867e-01,4.982910355864810792e-01,-7.884452267249042468e-01,4.206736842831918466e+02
9.068671202321814562e+00,-1.570410088173892582e+01,8.587381991129895198e+00,-2.959370872987276413e-01,4.139688686939323459e-01,-8.608420390031479297e-01,4.223075592248924295e+02
8.748886779262063484e+00,-1.548869392646510157e+01,8.854186116573538712e+00,-2.263443299816221832e-01,3.228006900576384508e-01,-9.190026979204383162e-01,4.239414341665930124e+02
8.389539379301023558e+00,-1.526858401077182315e+01,9.071655421012641440e+00,-1.530083961310036433e-01,2.262941859352027851e-01,-9.619653695049218411e-01,4.255753091082935953e+02
7.991875499953313700e+00,-1.504603425484743617e+01,9.238531703619610624e+00,-7.714207405483466951e-02,1.260453262576606281e-01,-9.890195529615819492e-01,4.272091840499941782e+02
7.515065406601114439e+00,-1.480390634971077901e+01,9.358412652193878856e+00,-0.000000000000000000e+00,2.371197228180339442e-02,-9.997178313761895252e-01,4.289872703554020745e+02
6.992447360394988820e+00,-1.456459868971864324e+01,9.412254927550876005e+00,-7.892990921127130202e-03,0.000000000000000000e+00,-9.999678497920404530e-01,4.307653566608099709e+02
6.427519617339632063e+00,-1.432975743920593814e+01,9.406479053557465164e+00,-2.872728885472881633e-01,3.020151847007489232e-02,-9.573714826484192031e-01,4.325434429662178673e+02
5.841464893831848748e+00,-1.410526663735399566e+01,9.353558894781183852e+00,-5.434469747315679999e-01,5.796336819077416852e-02,-8.374387342386809818e-01,4.342762899229354048e+02
5.225986030601920795e+00,-1.388464502861210370e+01,9.264297981164244078e+00,-7.557215732820177223e-01,8.104295423911778151e-02,-6.498576330580629890e-01,4.360091368796529423e+02
4.586518378965798171e+00,-1.366725616496132645e+01,9.147350731475199836e+00,-6.115149142376264946e-01,9.641599621263295672e-02,-7.853352566502768140e-01,4.377419838363704798e+02
3.986206096749969507e+00,-1.347003916867002893e+01,9.022541694480048946e+00,-4.432229302732431653e-01,1.079915881966053010e-01,-8.898815937847283086e-01,4.393273710104307952e+02
3.376974219096826157e+00,-1.327312102385697656e+01,8.885979568800097539e+00,-2.574739619737981822e-01,1.153138048074176941e-01,-9.593789060240146549e-01,4.409127581844911106e+02
2.763462903606228149e+00,-1.307547892230084763e+01,8.741854511513995618e+00,-6.158395249877657296e-02,1.180942434069155444e-01,-9.910898881866269106e-01,4.424981453585514259e+02
