-1.803995022107319990e+00,-6.267695379672069578e+00,-1.245476628870216729e+01,-2.855906169936776040e-01,2.424762050297097071e-01,9.271684256274177471e-01,3.773801737750063126e+02
-2.227279335174915165e+00,-6.766128306234627132e+00,-1.254421359285032977e+01,-1.922179557698740493e-01,2.818862926419102855e-01,9.399948805718414402e-01,3.860568378587913685e+02
-2.234930572397063830e+00,-6.862122583060078718e+00,-1.253048792532231737e+01,-9.683929059190536648e-02,3.183545692721505560e-01,9.430114103351520116e-01,3.873951322043604932e+02
-1.836259036903644448e+00,-7.552017251871500747e+00,-1.233300060365188244e+01,-4.499992964603603558e-04,3.515004504558069121e-01,9.361865363436262522e-01,3.960717962881455492e+02
-7.716790404955943261e-01,-8.410194745424654172e+00,-1.188209483707443681e+01,-2.483901848752573527e-01,5.848884288904497852e-01,7.721436665607205319e-01,4.047484603719306051e+02
2.059578238575142661e-01,-9.420245285391828816e+00,-1.112016240330811812e+01,-4.608466679423112722e-01,7.347223780088264489e-01,4.977965205800397586e-01,4.124121790381846040e+02
4.386442928880010528e-01,-1.096851183180047151e+01,-9.548554823912660083e+00,-6.074690999519222201e-01,7.795978449197799032e-01,1.523367742923535106e-01,4.210888431219696599e+02
-6.228508251224813552e-01,-1.257325902237300674e+01,-7.469612627264272220e+00,-3.307272325621861131e-01,9.189686139930205444e-01,2.147421340542721158e-01,4.297655072057547159e+02
-1.652111954192504450e+00,-1.312741624340627133e+01,-6.392771479109738308e+00,-2.094397647220330033e-02,9.665299142310507241e-01,2.556937127618195693e-01,4.350274833273855393e+02
-3.289836889520087571e+00,-1.275377591225224982e+01,-5.703033992188112578e+00,2.739875347888599544e-01,8.130576413732636398e-01,5.136789878771056417e-01,4.437041474111705952e+02
-4.829642498679979745e+00,-1.126237600108527559e+01,-5.954099878746248464e+00,5.203971143375245578e-01,5.155969956190622483e-01,6.806941908814079234e-01,4.523808114949556511e+02
-6.455843482974271907e+00,-9.468607791395712070e+00,-6.133342723276315134e+00,6.746469744003802393e-01,1.268268071976453026e-01,7.271618945670981216e-01,4.610574755787407071e+02
-7.237553829919357362e+00,-8.734836603951396938e+00,-6.010954965602744338e+00,8.077815046440450786e-01,1.081234692092996053e-01,5.794793837255493019e-01,4.649508163910221015e+02
-9.037481606387935074e+00,-7.369018837163706870e+00,-5.188184731226821889e+00,9.086978079204235392e-01,8.510764760043708355e-02,4.086844530959478639e-01,4.736274804748071574e+02
-1.079067472092193825e+01,-6.244824212567391619e+00,-3.754812601082702539e+00,9.733708687796730485e-01,5.869732137132332994e-02,2.215892061374117039e-01,4.823041445585922133e+02
-1.226209220302109770e+01,-5.220768191823983884e+00,-2.038075634121928381e+00,9.992212075264467197e-01,2.994585760051283324e-02,2.565587736558997203e-02,4.909808086423772693e+02
-1.321339717538064384e+01,-4.184909415143764910e+00,-3.652701036179442640e-01,9.852177632737224577e-01,0.000000000000000000e+00,-1.713007849691814133e-01,4.996574727261623252e+02
-1.349455038835282394e+01,-3.098327485314678054e+00,1.057183902642950812e+00,9.412827112319718248e-01,2.485111187312669680e-06,-3.376164355160241048e-01,5.083341368099473812e+02
-1.315500985764629682e+01,-2.047085082487938301e+00,2.237986985677281826e+00,8.694939315277796510e-01,4.896684889824882808e-06,-4.939415987879771652e-01,5.168135734390102698e+02
-1.230116706480034061e+01,-1.079390015807810022e+00,3.386571689339083147e+00,7.719757252521629587e-01,7.163359964826712552e-06,-6.356504381896357359e-01,5.254902375227953826e+02
-1.105460250195851124e+01,-3.029818910584665126e-01,4.629187286688256187e+00,6.516137487405884166e-01,9.218062815924029293e-06,-7.585496176042126892e-01,5.341669016065804954e+02
-9.542331973533507039e+00,2.139663626651374106e-01,6.122104824738047846e+00,5.119696326534545205e-01,1.099999210732660065e-05,-8.590023836518065892e-01,5.428435656903656081e+02
-7.894584230769721600e+00,4.490797253911047449e-01,7.925492706948298327e+00,5.097598941166457953e-01,3.320256971568747491e-03,-8.603091457137598264e-01,5.515202297741507209e+02
-6.265558502103536931e+00,4.569557813350192399e-01,9.882108947628575280e+00,5.075412139229181774e-01,6.629455065188536236e-03,-8.616008161847767965e-01,5.600851580535378389e+02
-4.746116917369895383e+00,3.379771444083281562e-01,1.181638912132399177e+01,5.053136308963310785e-01,9.938536356022802803e-03,-8.628773724467951878e-01,5.687618221373229517e+02
-3.489468695847443236e+00,2.079551466822457950e-01,1.347591989035729476e+01,5.030771840271827111e-01,1.324744292923872753e-02,-8.641387921638686853e-01,5.774384862211080645e+02
-2.624412365087158694e+00,1.999865751912027201e-01,1.463268396633857549e+01,5.008319124598016314e-01,1.655611687310010183e-02,-8.653850532631756076e-01,5.861151503048931772e+02
-2.276568785146532825e+00,4.631966199351634228e-01,1.505876912152219127e+01,4.985778554918791627e-01,1.986450027995303319e-02,-8.666161339353937176e-01,5.947918143886782900e+02
-2.275372058663798214e+00,4.721241205598543655e-01,1.505883808073620145e+01,4.963150525738014851e-01,2.317253524721160293e-02,-8.678320126350704822e-01,5.949680667067356126e+02
-2.568321120360129939e+00,1.173901270982486311e+00,1.452339504089392541e+01,4.940435433079764516e-01,2.648016387834342678e-02,-8.690326680809909998e-01,6.036447307905207253e+02
-3.621522545393494497e+00,2.496314945651649353e+00,1.279733211298492357e+01,4.917633674481610706e-01,2.978732828385511830e-02,-8.702180792565386014e-01,6.123213948743058381e+02
-5.549181295446765638e+00,4.636195646888189081e+00,9.653341294982864085e+00,4.894745648987840481e-01,3.309397058227765698e-02,-8.713882254100546731e-01,6.209980589580909509e+02
-8.092056538200548488e+00,7.464949854391153217e+00,5.301980696541930271e+00,8.624041727641009736e-01,-2.585142454941337029e-02,-5.055578568761787128e-01,6.296747230418760637e+02
-1.025950042096298809e+01,1.012646101740935656e+01,8.292005864763867251e-01,9.969795307178351829e-01,-7.765188556181246149e-02,-0.000000000000000000e+00,6.383513871256611765e+02
-1.114395026977638281e+01,1.171823726606610805e+01,-2.683417365917610375e+00,9.803655482648331310e-01,-6.315660161010168416e-02,1.867957051172876026e-01,6.470280512094462892e+02
-1.105193535172192476e+01,1.204850168202799310e+01,-4.337068950541387302e+00,9.290673679846152000e-01,-4.642691058902656542e-02,3.669827894071983065e-01,6.526254349302826085e+02
-1.020456887470925267e+01,1.173142879777813796e+01,-6.152511217253949560e+00,8.448998538058253294e-01,-2.805468803360896060e-02,5.341864576343312576e-01,6.613020990140677213e+02
-8.681645437898133366e+00,1.074301827936625386e+01,-7.213076798723197847e+00,7.308407389439952606e-01,-8.689920134174227567e-03,6.824912450642575124e-01,6.699787630978528341e+02
-6.860065000563055015e+00,9.465682295282773495e+00,-7.763796467003844626e+00,5.909252831686077068e-01,1.098229124231918027e-02,8.066502953526054620e-01,6.786554271816379469e+02
-5.106589591325195521e+00,8.327275176837481752e+00,-8.049807468819217604e+00,4.301035175188639981e-01,3.026596604827190215e-02,9.022709878512649162e-01,6.873320912654230597e+02
-3.670537551226535466e+00,7.621664156704057724e+00,-8.254981207321190340e+00,3.792975298609594370e-01,2.858512575893290900e-02,9.248320249782608915e-01,6.960087553492081724e+02
-2.582405101550736326e+00,7.311648303286174766e+00,-8.440563688311403467e+00,3.273183467256033374e-01,2.681586945926352911e-02,9.445324817287344965e-01,7.046854194329932852e+02
-2.560138479489414642e+00,7.307719663138851018e+00,-8.444756180666102452e+00,2.743267406900478100e-01,2.496366949334269392e-02,9.613114243295102224e-01,7.048924042306986166e+02
-1.746043030447875566e+00,7.174651724564729882e+00,-8.610634551602826647e+00,2.204866156156566059e-01,2.303425473712938931e-02,9.751169547503389934e-01,7.135690683144837294e+02
-1.137212402155246771e+00,6.991537167855352841e+00,-8.756782718280982536e+00,1.659644998151607875e-01,2.103359288349517658e-02,9.859063711985319722e-01,7.222457323982688422e+02
-6.717114008694053950e-01,6.525887359366435270e+00,-8.883138593686480178e+00,1.109290311058386269e-01,1.896787198907892713e-02,9.936463001935029737e-01,7.309223964820539550e+02
-3.623486388201908048e-01,5.772938441493995931e+00,-8.970577474024873155e+00,5.555043533688857477e-02,1.684348133984912496e-02,9.983127998117928836e-01,7.379002473021155311e+02
-1.262824169130381292e-02,4.142844811912855363e+00,-9.061626793237072874e+00,0.000000000000000000e+00,1.466699169439458252e-02,9.998914337827495835e-01,7.465769113859006438e+02
8.513014763047660471e-02,1.948391939437696951e+00,-9.124948458189695799e+00,-0.000000000000000000e+00,9.777854151386740703e-03,9.999511955267309515e-01,7.552535754696857566e+02
-1.080498492857203535e-01,8.052227276259783517e-01,-9.142598505258145991e+00,-0.000000000000000000e+00,4.888485347683178828e-03,9.999870512053840033e-01,7.600325983300808730e+02
-1.626271017556419896e+00,2.679669073905717892e-03,-9.119195035869893218e+00,-0.000000000000000000e+00,-9.999989999326389967e-07,9.999989999326391876e-01,7.687092624138659858e+02
-4.577412720081216690e+00,7.482537757299647652e-01,-9.136150386031749449e+00,4.999994996467595901e-07,-9.999989992935191802e-07,9.999989992935193195e-01,7.773859264976510985e+02
-4.773755684185314152e+00,8.211876571204405062e-01,-9.141915250127709669e+00,9.999989992928942817e-07,-9.999989992928942817e-07,9.999989992928942639e-01,7.778831474013238676e+02
-7.818558014995753425e+00,1.725657321410951406e+00,-9.371066222112309774e+00,2.802129632977686802e-01,-3.588700621606470964e-01,8.903319457852350016e-01,7.865598114851089804e+02
-9.949988716444126524e+00,2.137343878800874286e+00,-9.650118627024019347e+00,4.989649685196977380e-01,-6.390270664793962219e-01,5.853856579194511855e-01,7.952364755688940932e+02
-1.084744813993823875e+01,2.512853144211744105e+00,-9.570067784360819729e+00,6.082774653435700785e-01,-7.790243152625521139e-01,1.520448663574272274e-01,8.039131396526792059e+02
-1.080313084341244689e+01,2.847521298716321869e+00,-9.244403827557889031e+00,5.495679387846780228e-01,-8.320559301229025762e-01,7.520644790477032382e-02,8.090429698217538999e+02
-9.954129624935555753e+00,3.569847962033267930e+00,-8.152321950598542699e+00,4.841738487722463957e-01,-8.749669698854695143e-01,-2.546718237980990715e-03,8.177196339055390126e+02
-8.363804052593348359e+00,4.299356304433533893e+00,-6.384905970385523766e+00,4.128905968790096415e-01,-9.072355028656561293e-01,-8.026890648445932086e-02,8.263962979893241254e+02
-6.554907036511820273e+00,4.870545504298003259e+00,-4.000596766528255799e+00,3.365852128305096835e-01,-9.284690393758897597e-01,-1.570147681693106201e-01,8.350729620731092382e+02
-5.053301059439936793e+00,5.182495564360660723e+00,-1.057964108983622031e+00,2.561858103071208981e-01,-9.384093051544788455e-01,-2.318508283259674008e-01,8.437496261568943510e+02
-4.034948140554186935e+00,5.331408441074975357e+00,1.846134957918351249e+00,1.283283239993097680e-01,-9.079911778301084091e-01,-3.988506766232678968e-01,8.524262902406794637e+02
-3.184973027827695979e+00,5.573798524589230752e+00,3.717666894093949903e+00,-5.324672082127412422e-03,-8.365665217215753069e-01,-5.478376608109032375e-01,8.611029543244645765e+02
-3.048299820222376777e+00,5.629691186519761636e+00,3.890763275452554293e+00,-1.387371622425130346e-01,-7.273610345909399255e-01,-6.720832724988929918e-01,8.624486719149061855e+02
-2.121812525650470072e+00,6.103104588866342439e+00,4.543401601128578271e+00,-2.658840059116727716e-01,-5.853066539432054682e-01,-7.659763810010675744e-01,8.711253359986912983e+02
-1.094039429381284512e+00,6.779580425024555268e+00,4.573971537300753454e+00,-3.810230403300212121e-01,-4.168188139263647729e-01,-8.252766318611660656e-01,8.798020000824764111e+02
6.059647170631835694e-02,7.645688027886770932e+00,4.488353788830599100e+00,-4.789543995528241505e-01,-2.295067122760384437e-01,-8.473059377643092915e-01,8.884786641662615239e+02
1.337191083365497413e+00,8.660370521616943762e+00,4.642598037098706776e+00,-4.789543992146957363e-01,-2.295067121140131616e-01,-8.473059371661350037e-01,8.971553282500466366e+02
2.077180448468580742e+00,9.259445760190446961e+00,4.857000647133555837e+00,-4.789543992147292650e-01,-2.295067121140292321e-01,-8.473059371661945116e-01,9.019605574474145442e+02
3.396497884455947691e+00,1.032555665215742202e+01,5.404311114477125422e+00,-4.789543992147532459e-01,-2.295067121140406952e-01,-8.473059371662367001e-01,9.106372215311996570e+02
4.616743935747349425e+00,1.129569814931264560e+01,6.102275204369949080e+00,-4.789543992147676232e-01,-2.295067121140476063e-01,-8.473059371662622352e-01,9.193138856149847697e+02
5.635381809100648454e+00,1.208529237748210150e+01,6.857210247409772030e+00,-4.789543992147724527e-01,-2.295067121140499100e-01,-8.473059371662707839e-01,9.279905496987698825e+02
6.347807794983145513e+00,1.262222915132989343e+01,7.575421777322215000e+00,-4.789543992147676787e-01,-2.295067121140476063e-01,-8.473059371662622352e-01,9.366672137825549953e+02
6.574459529845381844e+00,1.276926767529986684e+01,7.883344161406331985e+00,-4.789543992147532459e-01,-2.295067121140406952e-01,-8.473059371662367001e-01,9.407814125213211582e+02
6.739355590892324166e+00,1.281315239935873329e+01,8.394887381401776594e+00,-4.789543992147292650e-01,-2.295067121140292321e-01,-8.473059371661944006e-01,9.494580766051062710e+02
6.331547031677562387e+00,1.247804720259369304e+01,8.637963091282740535e+00,-4.789543992146957363e-01,-2.295067121140131616e-01,-8.473059371661350037e-01,9.581347406888913838e+02
5.241059174795696052e+00,1.173575417272986776e+01,8.518985786948773509e+00,-4.789543992146525486e-01,-2.295067121139924560e-01,-8.473059371660587313e-01,9.668114047726764966e+02
3.494368802829792564e+00,1.058568457029840282e+01,8.024169793234896986e+00,-3.675564515657073761e-01,-3.068156286042169612e-01,-8.779319022319553856e-01,9.754880688564616094e+02
1.392490734003205111e+00,9.047079882794450967e+00,7.299256387681259284e+00,-2.490558033441299390e-01,-3.781955798932375434e-01,-8.915925696022065639e-01,9.841647329402467221e+02
-2.623371637155409442e-01,7.535609307785836819e+00,6.703624613440754665e+00,-1.257423532217308015e-01,-4.422672261940993055e-01,-8.880239643391869553e-01,9.910435143258105199e+02
-1.942676488654572209e+00,5.209036606501897815e+00,6.128067381126896862e+00,9.999988887663479212e-07,-4.977924468356665910e-01,-8.672950362314982842e-01,9.997201784095956327e+02
-3.007974457476487284e+00,2.407499987928306329e+00,5.867729248713125401e+00,6.997842319652719523e-02,-3.416248492725804109e-01,-9.372264841787657508e-01,1.008396842493380746e+03
-3.773703329960286457e+00,-7.578116403201166085e-01,5.894621115989482796e+00,1.375642869419407277e-01,-1.737820123452249732e-01,-9.751276219771970455e-01,1.017073506577165858e+03
-4.801772551917308895e+00,-4.049628557997514200e+00,6.096225514231554676e+00,2.004488266898622750e-01,-0.000000000000000000e+00,-9.797031529384774284e-01,1.025750170660950971e+03
-6.394786713063158601e+00,-7.175094442385325344e+00,6.379622428002396539e+00,2.796560363350245049e-01,1.244418882854247087e-02,-9.600185641463242492e-01,1.034426834744735970e+03
-7.494242731910885524e+00,-8.762838705927851635e+00,6.556149821432302183e+00,3.569570495012056033e-01,2.480355269720981720e-02,-9.337903665090234728e-01,1.039362803459668157e+03
-9.400008814577656580e+00,-1.101919238015403479e+01,6.866668575038883837e+00,4.318249772761854066e-01,3.699384916649292587e-02,-9.011973391686015633e-01,1.048039467543453156e+03
-1.092076238543592659e+01,-1.245905328610916207e+01,7.151903845861076192e+00,5.037495157227999121e-01,4.893198834348876786e-02,-8.624616431623362001e-01,1.056716131627238155e+03
-1.157905659471003013e+01,-1.292780491487638805e+01,7.377819950831852047e+00,5.722404237397743509e-01,6.053659917186493544e-02,-8.178473070197345152e-01,1.065392795711023155e+03
-1.154045049741320739e+01,-1.276959596509971107e+01,7.458646377142716943e+00,6.368308641563438233e-01,7.172858400024589853e-02,-7.676584270988437986e-01,1.069527337095564462e+03
-1.036563500784806280e+01,-1.158859936349631603e+01,7.546865416494698664e+00,6.970805853156339937e-01,8.243165765322511829e-02,-7.122370949292254894e-01,1.078204001179349461e+03
-7.131229890217536393e+00,-9.293923662982356504e+00,7.491542882107264489e+00,7.525789214881516420e-01,9.257286733493137743e-02,-6.519610656823969785e-01,1.086880665263134460e+03
-2.401024056845107779e+00,-6.531528672934054036e+00,7.273881718749190206e+00,-8.452989841296686124e-02,4.501064590673757859e-01,-8.889639316536507296e-01,1.095557329346919460e+03
-5.614601244500745381e-01,-5.631568009143537168e+00,7.157776297041261060e+00,-1.692856710195458358e-01,4.104522765959441877e-01,-8.960297373554915179e-01,1.098758131633647281e+03
3.753938705978982160e+00,-4.001017633778534588e+00,6.800189279752315130e+00,-2.525507088746741791e-01,3.671836851625728815e-01,-8.952051612888420884e-01,1.107434795717432280e+03
6.899946201648241129e+00,-3.384786440952348041e+00,6.441634373651733192e+00,-3.335917901719196998e-01,3.206817049109175755e-01,-8.864974685052907644e-01,1.116111459801217279e+03
8.887389927032648629e+00,-3.543074827827024986e+00,6.191547774818858763e+00,-4.116952776148754545e-01,2.713558278645691879e-01,-8.699833406879575737e-01,1.124788123885002278e+03
9.732105273632626563e+00,-4.239283557525543422e+00,6.159343182260697880e+00,-4.861734021204749401e-01,2.196404121514995422e-01,-8.458082007296727767e-01,1.133464787968787277e+03
9.572264152136479964e+00,-5.132295307308358367e+00,6.400051118052108023e+00,-5.563703187369850589e-01,1.659908573385144304e-01,-8.141849321312262244e-01,1.141209167397182000e+03
8.393433881371866079e+00,-6.221341934952503649e+00,7.075059200665110737e+00,-6.216678814916454243e-01,1.108795945338585248e-01,-7.753920044974648151e-01,1.149885831480966999e+03
6.145075888459750502e+00,-7.184949551239706800e+00,8.284098514859847384e+00,-6.814910863539269670e-01,5.479192654279781138e-02,-7.297710216270740791e-01,1.158562495564751998e+03
3.083987720785827946e+00,-7.825139436739799059e+00,9.833900685914302997e+00,-4.794766417577115969e-01,4.147431524759716270e-02,-8.765728898298599248e-01,1.167239159648536997e+03
-8.510792372098745229e-02,-8.033941581663583520e+00,1.092637138273306796e+01,-2.474766956193917566e-01,2.556298295930613945e-02,-9.685555322379676424e-01,1.175915823732321996e+03
-1.150136261983702168e-01,-8.033771330400075072e+00,1.093225710902579095e+01,-0.000000000000000000e+00,8.052988517099743740e-03,-9.999665741297896204e-01,1.176002597172595415e+03
-2.739623158267825431e+00,-7.879794318754229643e+00,1.092359792958101750e+01,4.193492468269741091e-02,-1.416378544173482745e-01,-9.890289077107263793e-01,1.184679261256380414e+03
-4.730846347401717722e+00,-7.614422770534989837e+00,1.009562325376161596e+01,8.285143867658267824e-02,-2.878889515326168991e-01,-9.540721097977619136e-01,1.193355925340165413e+03
-6.290822912159551805e+00,-7.543108069457725939e+00,9.197899942984211208e+00,1.217558766212737814e-01,-4.271485671580905197e-01,-8.959450921131094647e-01,1.202032589423950412e+03
-7.205305974956317527e+00,-7.722636113038690908e+00,8.815087303543826636e+00,2.427882910101824832e-01,-3.922655417434824376e-01,-8.872314188022997206e-01,1.207929869767793889e+03
-8.418366972668282600e+00,-8.305976153556816399e+00,8.615728750007669134e+00,3.599502384121139875e-01,-3.511291737708309157e-01,-8.643738364823336795e-01,1.216606533851578888e+03
-9.492066854033717860e+00,-9.123880055728349703e+00,8.646217407064403560e+00,4.713739723324733566e-01,-3.043952468200490369e-01,-8.277367407105780117e-01,1.225283197935363887e+03
-1.047129231060925392e+01,-1.002489776989945902e+01,8.638572493418049447e+00,5.752832254634744347e-01,-2.528087768056302975e-01,-7.779041926046178501e-01,1.233959862019148886e+03
-1.139708649366614956e+01,-1.085247294235167281e+01,8.324821380075297483e+00,6.700215250171087655e-01,-1.971921350912026194e-01,-7.156706071046157192e-01,1.242636526102933885e+03
-1.230655479952938869e+01,-1.144509148784313091e+01,7.437055504064125522e+00,7.540785981351876277e-01,-1.384319387168223559e-01,-6.420280883101573410e-01,1.251313190186718884e+03
-1.253663840897186788e+01,-1.154383548890390188e+01,7.110963540995829391e+00,8.261144466400051067e-01,-7.746491670656655004e-02,-5.581506138435601283e-01,1.253503822420338793e+03
-1.347043747477531461e+01,-1.162751019012491760e+01,5.247893926925494057e+00,8.849807075426920910e-01,-1.526297770940438295e-02,-4.653753203493267154e-01,1.262180486504123792e+03
-1.422010592862021028e+01,-1.138108561544112440e+01,2.603042900514429103e+00,9.699603113204490201e-01,-4.125040997248095864e-02,-2.397361010369448153e-01,1.270857150587908791e+03
-1.440561660340290473e+01,-1.134452525544755019e+01,8.573167567616627460e-01,9.978964962917117321e-01,-6.481190233636946463e-02,1.999996986248517972e-06,1.276364922682093948e+03
-1.387409132566090975e+01,-1.202860337628450793e+01,-1.312792712208627144e+00,9.727361971522692219e-01,1.776938996456160769e-01,1.490206991676493176e-01,1.285041586765878947e+03
-1.249994011405656380e+01,-1.359662019135504885e+01,-2.752381306260262228e+00,8.681531199210641425e-01,4.056911936903003224e-01,2.858720268500311024e-01,1.293718250849663946e+03
-1.087128597514309725e+01,-1.582078926301524646e+01,-3.701103264924871183e+00,6.926863227971112869e-01,6.005642983262308165e-01,3.993822502157638454e-01,1.302394914933448945e+03
-9.569612547701208172e+00,-1.840231724134125812e+01,-4.398715292141170963e+00,4.606624106662593476e-01,7.464020451143851265e-01,4.802833855647918315e-01,1.311071579017233944e+03
-8.951316920153956858e+00,-2.099166628232963916e+01,-5.021979479007573133e+00,4.172348226870536969e-01,7.278696866837701673e-01,5.441680089318342572e-01,1.319748243101018943e+03
-8.889966030429201638e+00,-2.286341546103065170e+01,-5.513985951997656620e+00,3.711742134430326967e-01,7.047439925504269675e-01,6.046185642533730142e-01,1.326825654046477666e+03
-9.076100785772288404e+00,-2.458480157652394027e+01,-6.085871267367171988e+00,3.227712547909927232e-01,6.771709017490963323e-01,6.612535723198923465e-01,1.335502318130262665e+03
-9.288678179983056893e+00,-2.544523532761953888e+01,-6.611658290499391022e+00,2.723313997141311171e-01,6.453244184477496814e-01,7.137156322273616738e-01,1.344178982214047664e+03
-9.204720584484364920e+00,-2.520830969332845939e+01,-7.079003900190519616e+00,2.201729548524689328e-01,6.094055139068029758e-01,7.616736765652282193e-01,1.352855646297832664e+03
-8.495714649870949486e+00,-2.367560096967679684e+01,-7.475577145871240781e+00,1.666250719489444365e-01,5.696408583099646927e-01,8.048250604589254342e-01,1.361532310381617663e+03
-8.484553391350617702e+00,-2.365317984832363507e+01,-7.479187251253530455e+00,1.120256708762911863e-01,5.262813904639718210e-01,8.428974712957342241e-01,1.361619784419703819e+03
-6.815065027766895156e+00,-2.066340944378019628e+01,-7.792586272020834315e+00,5.671930734060503382e-02,4.796007343853082028e-01,8.756506470918944407e-01,1.370296448503488818e+03
-3.846598680368565670e+00,-1.609454586644575258e+01,-8.010473933188952955e+00,1.054998706094199953e-03,4.298934727560758673e-01,9.028778926631518820e-01,1.378973112587273818e+03
-1.411112201030984836e-01,-1.082151102500989559e+01,-7.921172033489783715e+00,0.000000000000000000e+00,4.167097442637810595e-02,9.991303868302074953e-01,1.387649776671058817e+03
2.571891348062553817e+00,-7.069163836032126724e+00,-7.308405048248519442e+00,1.032406556290913251e-05,-2.779750678761719329e-01,9.605872482661308442e-01,1.395205345963566742e+03
4.478986777387826024e+00,-4.354047651742551928e+00,-5.914677335522670276e+00,1.957795075190678791e-05,-5.688065725834510200e-01,8.224701104604750235e-01,1.403882010047351741e+03
5.306856952088048196e+00,-2.933877417080263950e+00,-3.949519200855916345e+00,2.680239705031068863e-05,-8.006759287588272045e-01,5.990960326909358091e-01,1.412558674131136740e+03
5.369652772904146332e+00,-2.461632425238399868e+00,-1.598158192011328804e+00,3.124851756664310414e-05,-9.495475352928711699e-01,3.136199567013510103e-01,1.421235338214921740e+03
4.988966029478380193e+00,-2.631600005012804111e+00,9.540974301739163499e-01,3.245543101655662686e-05,-9.999894700321844132e-01,-4.365635202180351108e-03,1.429912002298706739e+03
4.493048236349475921e+00,-3.179622086982901941e+00,3.521897475654398590e+00,3.029803583939320408e-05,-9.467731442714601986e-01,-3.218984503977175282e-01,1.438588666382491738e+03
4.216026593859582228e+00,-3.883322175620015582e+00,5.919888607099328404e+00,2.499997267778497785e-05,-7.954151306989206693e-01,-6.060633376395629934e-01,1.447265330466276737e+03
4.383614625994549208e+00,-4.610280554797181019e+00,8.014194433048327681e+00,4.061322057178684878e-04,-7.559236060479873620e-01,-6.546581832352116326e-01,1.455941994550061736e+03
4.997338387220832345e+00,-5.347496772712434954e+00,9.773884803199017313e+00,7.856718874113837901e-04,-7.134679626483046988e-01,-7.006859845858360858e-01,1.464618658633846735e+03
5.945485141610559410e+00,-6.125488343291318749e+00,1.121954093994376755e+01,1.162130774489766307e-03,-6.682146773669469519e-01,-7.439662589152605809e-01,1.473295322717631734e+03
6.204347769678186353e+00,-6.317532899886513675e+00,1.152251094724891267e+01,1.534032704788402830e-03,-6.203411969311193319e-01,-7.843292970013882037e-01,1.475350588592802978e+03
7.372675944093017186e+00,-7.165025586803933422e+00,1.264774918853169261e+01,1.899919385305095902e-03,-5.700352421367644862e-01,-8.216168285943317162e-01,1.484027252676587977e+03
8.624753488165170623e+00,-8.070888903786544333e+00,1.350521790123779553e+01,2.258356110174726105e-03,-5.174940717787152034e-01,-8.556826429831227987e-01,1.492703916760372977e+03
9.848715397855015041e+00,-9.021050791016291370e+00,1.411569141429487395e+01,2.607937386148667137e-03,-4.629237091879941368e-01,-8.863931622791554332e-01,1.501380580844157976e+03
1.093319472101466694e+01,-9.987685197804447412e+00,1.449999570482018818e+01,2.947292443530410977e-03,-4.065381344081727688e-01,-9.136279651697329918e-01,1.510057244927942975e+03
1.176758011407654791e+01,-1.092923361997112863e+01,1.467900402734714405e+01,3.275090610967818037e-03,-3.485584451772127390e-01,-9.372802590890958463e-01,1.518733909011727974e+03
1.224227312214448382e+01,-1.179043309399967931e+01,1.467363253848203541e+01,3.590046533035761312e-03,-2.892119900033395252e-01,-9.572572989563206125e-01,1.527410573095512973e+03
1.224894512921673417e+01,-1.250235064702090959e+01,1.450483591450614185e+01,3.890925210158536780e-03,-2.287314767327870701e-01,-9.734807508387357533e-01,1.536087237179297972e+03
1.222806701977494015e+01,-1.255237397850185133e+01,1.448479094989422400e+01,4.176546841116904156e-03,-1.673540601032731945e-01,-9.858869991151483214e-01,1.536793681076719395e+03
1.165036777123417977e+01,-1.302302740966528383e+01,1.417254989083060934e+01,4.445791449157331272e-03,-1.053204118594335825e-01,-9.944273959344213099e-01,1.545470345160504394e+03
1.038409054523283892e+01,-1.315812224218047533e+01,1.374060269379741150e+01,4.697603273567935514e-03,-4.287377707485649780e-02,-9.990684519909033279e-01,1.554147009244289393e+03
8.326426695726912186e+00,-1.284688218899791501e+01,1.320999432913784233e+01,4.930994909503488323e-03,1.974097962046407820e-02,-9.997919678680230460e-01,1.562823673328074392e+03
5.600299128522904013e+00,-1.223059112890496003e+01,1.257142460382554638e+01,3.714969384385531041e-03,8.172670550310714987e-02,-9.966468504969527853e-01,1.571500337411859391e+03
2.769202533345945128e+00,-1.200513539888486925e+01,1.175488432541371431e+01,2.484628272542257002e-03,1.433974662741803741e-01,-9.896610496953736069e-01,1.580177001495644390e+03
9.731256051236760740e-01,-1.272898025904560804e+01,1.097927567442269314e+01,1.244712531213435468e-03,2.045156225366544234e-01,-9.788614870474835472e-01,1.586639509500936583e+03
-3.685399806249338717e-01,-1.587559261708508096e+01,9.625625809987669257e+00,0.000000000000000000e+00,2.648456641220581220e-01,-9.642897770852628669e-01,1.595316173584721582e+03
-5.434156660004246797e-01,-1.796040513255374194e+01,8.866901145486099978e+00,-0.000000000000000000e+00,3.410856895361299435e-01,-9.400311443624989050e-01,1.599338965808190324e+03
-2.163979291880558653e-01,-2.065314138586550285e+01,6.951726029470873591e+00,-3.230183608123804451e-01,4.467920794801609752e-01,-8.342865073179728252e-01,1.608015629891975323e+03
1.013933155077869186e+00,-2.048803189067625752e+01,4.747696232029842811e+00,-6.051112637003469574e-01,4.958913024062636676e-01,-6.228404087259294952e-01,1.616692293975760322e+03
2.818023990922112088e+00,-1.863308697779634926e+01,2.466808565219101634e+00,-8.105384596092877203e-01,4.821626669404919241e-01,-3.324824327753394537e-01,1.625368958059545321e+03
4.838691237497343423e+00,-1.621022626226747576e+01,3.210759505808149505e-01,-9.132730123892983665e-01,4.073455594977313243e-01,-0.000000000000000000e+00,1.634045622143330320e+03
6.791961359356834649e+00,-1.399213165008309545e+01,-1.502048034805678167e+00,-9.254906391312097691e-01,3.769718122377380132e-01,-3.684195513810738926e-02,1.642722286227115319e+03
8.440354970959148773e+00,-1.229719387654138529e+01,-2.783126150015813760e+00,-9.354600913199165868e-01,3.456823400673623703e-01,-7.359441088209089932e-02,1.650675198696688540e+03
1.008087278955165900e+01,-1.076010888218907269e+01,-3.704894591665599091e+00,-9.431571523763687681e-01,3.135531499058278881e-01,-1.101680902317116045e-01,1.659351862780473539e+03
1.154775127120152334e+01,-9.538914178014179512e+00,-4.139802938307335367e+00,-9.485631255377811044e-01,2.806622883475725638e-01,-1.464741505161173962e-01,1.668028526864258538e+03
1.283815726528007417e+01,-8.637009400324512143e+00,-4.124037332270923173e+00,-9.516648792574649018e-01,2.470896520949456554e-01,-1.824243991778918272e-01,1.676705190948043537e+03
1.394903818585454758e+01,-8.058059296538663929e+00,-3.693878170959426388e+00,-9.524548790919360464e-01,2.129167938998093312e-01,-2.179315079774601926e-01,1.685381855031828536e+03
1.487711546885491387e+01,-7.805979695974700761e+00,-2.885692403146705942e+00,-9.509312059973832332e-01,1.782267244845792964e-01,-2.529092250981945234e-01,1.694058519115613535e+03
1.561887824441650174e+01,-7.884923299822290232e+00,-1.735925892825301853e+00,-9.470975609911816973e-01,1.431037109232746185e-01,-2.872725846376523173e-01,1.702735183199398534e+03
1.617057723276951009e+01,-8.299265283792379932e+00,-2.810958139174741799e-01,-9.409632561671334994e-01,1.076330719717113610e-01,-3.209381129767113205e-01,1.711411847283183533e+03
1.650133848170541029e+01,-8.949114588208257004e+00,1.215701390371457080e+00,-9.325431920861364521e-01,7.190097084336118105e-02,-3.538240315259149060e-01,1.719019715874761914e+03
1.670018001724390544e+01,-1.002188286289766239e+01,3.140651903816479962e+00,-9.218578215969528422e-01,3.599420593359192733e-02,-3.858504553570895057e-01,1.727696379958546913e+03
1.669645821027730648e+01,-1.144404401215584421e+01,5.265284670571377390e+00,-9.089331001745973859e-01,0.000000000000000000e+00,-4.169395872382335444e-01,1.736373044042331912e+03
1.643162011345419415e+01,-1.318805808409954494e+01,7.330235732690780104e+00,-8.656576142462234502e-01,1.896880845669533799e-01,-4.633069452003869548e-01,1.745049708126116911e+03
1.599848055480949505e+01,-1.465543270371227891e+01,8.469805789520380657e+00,-7.877520994571296509e-01,3.717877453540496813e-01,-4.911400026527330542e-01,1.751545912523394691e+03
1.491669207017859300e+01,-1.669920244992935920e+01,8.638338756884973435e+00,-6.783331045798046688e-01,5.390142884848517779e-01,-4.993253408754618761e-01,1.760222576607179690e+03
1.318471391135145510e+01,-1.865186856684850270e+01,6.924073370622843449e+00,-5.010587216239249519e-01,7.839387708455912707e-01,-3.665762690780370314e-01,1.768899240690964689e+03
1.105168875873675560e+01,-2.026910274337524598e+01,3.908215054765225016e+00,-2.691505401649678109e-01,9.433851173730771755e-01,-1.938569241715241143e-01,1.777575904774749688e+03
8.924986328992391194e+00,-2.132097146518418640e+01,6.748048831228186106e-01,-7.894990794486694483e-03,9.999678340433270085e-01,-0.000000000000000000e+00,1.786252568858534687e+03
7.089207575614445034e+00,-2.170641775233297466e+01,-1.987950770418034585e+00,4.049498108585679323e-02,9.915157264317248087e-01,1.235100026162675863e-01,1.794929232942319686e+03
5.574960393206677800e+00,-2.151169726484561195e+01,-3.883724924548315194e+00,8.816949826877300278e-02,9.655457321741832688e-01,2.448378619740283202e-01,1.803605897026104685e+03
5.072873284076981015e+00,-2.132213116647136886e+01,-4.423671759262599146e+00,1.342862614991624237e-01,9.225166769406917266e-01,3.618399932835948962e-01,1.806808658367369162e+03
3.795592805133629621e+00,-2.059383327254919038e+01,-5.521805777679395177e+00,1.780304921275838170e-01,8.631887772659047053e-01,4.724492339663061147e-01,1.815485322451154161e+03
2.597670443724749312e+00,-1.964839520323229394e+01,-6.089402258423037395e+00,2.186293267797353723e-01,7.886102112906043793e-01,5.747113641821213204e-01,1.824161986534939160e+03
1.371101956756596740e+00,-1.861663341749970968e+01,-6.226461294013081904e+00,2.553654718238480004e-01,7.000986024120889883e-01,6.668196328097543146e-01,1.832838650618724159e+03
4.821302670192329116e-03,-1.761567179676429618e+01,-6.033072903861062208e+00,2.875898764463321600e-01,5.992177425655212941e-01,7.471466790126489732e-01,1.841515314702509158e+03
-1.566859429873211695e+00,-1.670329268713462056e+01,-5.593773037510706203e+00,4.400639851346996867e-01,5.130349765916145666e-01,7.369781555656124139e-01,1.850191978786294158e+03
-3.314357950987064427e+00,-1.584021866667542433e+01,-4.961902826361521690e+00,5.789932327127900180e-01,4.110613675086232099e-01,7.041259749609430907e-01,1.858868642870079157e+03
-4.702317972360307685e+00,-1.517289961626076256e+01,-4.380238972289646426e+00,7.001014736615680523e-01,2.964355981313713806e-01,6.496013106032730855e-01,1.865431305243040697e+03
-6.554305667598458562e+00,-1.420993634548787732e+01,-3.507222240274213032e+00,7.996610870621558842e-01,1.726857748183318053e-01,5.750824019340324833e-01,1.874107969326825696e+03
-8.360477480812503970e+00,-1.310282133112148983e+01,-2.545784086149638359e+00,8.746077098857921728e-01,4.362083208518902772e-02,4.828628965006000473e-01,1.882784633410610695e+03
-1.003772597509260578e+01,-1.181681425186651069e+01,-1.550335829682327304e+00,9.226345537434433863e-01,-8.678670553622493122e-02,3.757812501727443300e-01,1.891461297494395694e+03
-1.150255855513484171e+01,-1.036093310383549770e+01,-6.084617585367232406e-01,9.422634026543854624e-01,-2.145229953540138956e-01,2.571333593356545100e-01,1.900137961578180693e+03
-1.267196568237859466e+01,-8.771074174602022211e+00,1.756821353906816430e-01,9.328901075134486964e-01,-3.356564185110392229e-01,1.305711147868990341e-01,1.908814625661965692e+03
-1.346373804079750514e+01,-7.093113183777780328e+00,6.979728090474001112e-01,8.948031780342509123e-01,-4.464585898833639543e-01,-9.999990814013471954e-06,1.917491289745750692e+03
-1.383466637141522959e+01,-5.379566348506026330e+00,8.942054101385287224e-01,9.319137227596858697e-01,-3.626733924138301757e-01,1.680407036292922525e-03,1.926167953829535691e+03
-1.381860481747785840e+01,-3.679977822537264576e+00,7.799701981944262563e-01,9.611961653755706214e-01,-2.758417376750265104e-01,3.356698436048035760e-03,1.934844617913320690e+03
-1.348828430044022753e+01,-2.034802895090372932e+00,4.107858097894496741e-01,9.824045353203170183e-01,-1.866930127944546602e-01,5.004793356513694870e-03,1.943521281997105689e+03
-1.291710346210699178e+01,-4.755675270981538083e-01,-1.577758289891524890e-01,9.953606839403347228e-01,-9.597606763105509531e-02,6.610847804558831441e-03,1.952197946080890688e+03
-1.250017336718507899e+01,3.961627347456466719e-01,-5.644226285321674030e-01,9.999557807662704523e-01,-4.452924595020885459e-03,8.161370931359263406e-03,1.957337763481349839e+03
-1.172262043584968971e+01,1.768426157355918127e+00,-1.324512775762915373e+00,9.961512275710195929e-01,8.710762214067099829e-02,9.643338351254736665e-03,1.966014427565134838e+03
-1.089655175635181372e+01,3.015196890749521241e+00,-2.139753040021498798e+00,9.839789825403730816e-01,1.779364642872081903e-01,1.104430154243598965e-02,1.974691091648919837e+03
-1.009638269965768487e+01,4.137121420522896109e+00,-2.954477067061871853e+00,9.635412918374488545e-01,2.672706397197241457e-01,1.235249241083775928e-02,1.983367755732704836e+03
-9.396428116560931798e+00,5.143808625302487947e+00,-3.713018562159744462e+00,9.350098308146999049e-01,3.543597411425782884e-01,1.355692213920652034e-02,1.992044419816489835e+03
-8.870734984102861986e+00,6.053825303338146391e+00,-4.359722911042586801e+00,8.986242620810912518e-01,4.384722193253545175e-01,1.464747349125711945e-02,2.000721083900274834e+03
-8.592915070979509906e+00,6.894687559928752485e+00,-4.838958822917178715e+00,8.546902225257588803e-01,5.189015279780192502e-01,1.561498579573170238e-02,2.009397747984059833e+03
-8.595988427431963785e+00,7.704208164620789390e+00,-5.119022751469350041e+00,9.104877328356502098e-01,4.131679726262864061e-01,1.738720082429274713e-02,2.018074412067844833e+03
-8.832212145050393204e+00,8.525246953657850568e+00,-5.216038301968059621e+00,9.532688045840809199e-01,3.015277202777888466e-01,1.891084640469913730e-02,2.026751076151629832e+03
-9.213042831340384708e+00,9.394440182252029814e+00,-5.170060077174375657e+00,9.824218347422721820e-01,1.855767929116345361e-01,2.016414032601154815e-02,2.035427740235414831e+03
-9.262854981488009898e+00,9.498983607819669217e+00,-5.157475549044828966e+00,9.975300483158526799e-01,6.697283836882388097e-02,2.112916535560458581e-02,2.036431931246835802e+03
-9.693181257174593668e+00,1.044711671596447466e+01,-5.008349263302648957e+00,9.983774565935160661e-01,-5.258856755863495352e-02,2.179212538559890250e-02,2.045108595330620801e+03
-1.007896214205974594e+01,1.148483010489789180e+01,-4.801061335405974795e+00,9.849519449379061653e-01,-1.713981612567103130e-01,2.214354266332684701e-02,2.053785259414406028e+03
-1.033028338489384090e+01,1.261474338671719231e+01,-4.575730893176993774e+00,9.574454459765983083e-01,-2.877574270991798966e-01,2.217839328624284650e-02,2.062461923498191027e+03
-1.035721118283465536e+01,1.382853665770319296e+01,-4.372480830997381496e+00,9.162511957173816723e-01,-4.000028796039227230e-01,2.189617902424612420e-02,2.071138587581976026e+03
-1.006999678031323064e+01,1.510694898230958749e+01,-4.231429429676632381e+00,8.619581118139137965e-01,-5.065298447978004992e-01,2.130093444263199062e-02,2.079815251665761025e+03
-9.379281106854312711e+00,1.641978200535574217e+01,-4.192681981498841637e+00,7.953423743490031228e-01,-6.058154008111780175e-01,2.040116922381631989e-02,2.088491915749546024e+03
-8.196299412021978981e+00,1.772590870373363359e+01,-4.296322422117606621e+00,7.173563294952479685e-01,-6.964401497421360832e-01,1.920974651236516048e-02,2.097168579833331023e+03
-7.210002726584702870e+00,1.851448171486385519e+01,-4.444572071413796621e+00,6.291148746848450601e-01,-7.771085095378127416e-01,1.774369902246698480e-02,2.102574989166561409e+03
-5.156382492924080019e+00,1.969276660725435946e+01,-4.849263878172769715e+00,5.318795199250159200e-01,-8.466672357973101803e-01,1.602398553673470283e-02,2.111251653250346408e+03
-2.730998485672556431e+00,2.064046426677485258e+01,-5.409424831701786118e+00,3.652372134838542395e-01,-9.306234893399576436e-01,2.323142214921324403e-02,2.119928317334131407e+03
-9.635087019975395739e-01,2.110383725887395912e+01,-5.859555288385506877e+00,1.858590711659539041e-01,-9.821285770043370889e-01,2.962876806324361498e-02,2.127724495732276409e+03
-7.053457765286903491e-01,2.102962732124283818e+01,-5.990315404936365162e+00,0.000000000000000000e+00,-9.993865585864837309e-01,3.499294952972902689e-02,2.136401159816061408e+03
-2.592698351810156510e+00,2.044383610723435751e+01,-5.535304463884061832e+00,1.827982228700855694e-01,-9.826457967883658329e-01,3.146502455006772864e-02,2.145077823899846408e+03
-5.089036564577508415e+00,1.964624157447570596e+01,-4.516470619892191785e+00,3.594346980395716207e-01,-9.327820499952368394e-01,2.687647766864333793e-02,2.153754487983631407e+03
-5.247504525772603401e+00,1.958614002607390603e+01,-4.423963408219460547e+00,5.239554337632462699e-01,-8.514760798128615527e-01,2.138197689257443843e-02,2.154387382205320137e+03
-6.543264486796819490e+00,1.883942551358411421e+01,-2.948289307127848868e+00,6.005803766210718875e-01,-7.923179416914083451e-01,-1.073940896342563678e-01,2.163064046289105136e+03
-6.417823160633364665e+00,1.839490921020734859e+01,-1.066552978623531045e+00,6.616176487355824865e-01,-7.125956216704822932e-01,-2.333828760929364809e-01,2.171740710372890135e+03
-6.331789771136915768e+00,1.836987779107383645e+01,-8.037145961514364778e-01,5.504804618031569063e-01,-8.144063369516801876e-01,-1.836071335913982694e-01,2.172833140906843255e+03
-5.316666291996726024e+00,1.843803255423112830e+01,1.248344635481245968e+00,4.254742110411632305e-01,-8.956984042862681239e-01,-1.292055118717006790e-01,2.181509804990628254e+03
-3.754173650009891006e+00,1.889447174868353585e+01,2.836943161534342117e+00,2.897483733827497243e-01,-9.544237387483672785e-01,-7.154863406094286171e-02,2.190186469074413253e+03
-1.985672543190967643e+00,1.950680548098429767e+01,3.669769150407717451e+00,1.467224865904105391e-01,-9.891028080056791794e-01,-1.208913249403661613e-02,2.198863133158198252e+03
-6.177680885131799915e-01,2.003250799222099587e+01,4.419202010853214624e+00,0.000000000000000000e+00,-9.988619020525988379e-01,4.767494759577405039e-02,2.207539797241983251e+03
-1.125549862209511282e-01,2.024994523230549959e+01,5.304060058695601043e+00,0.000000000000000000e+00,-9.999498964259943001e-01,9.909824583016103514e-03,2.213652121309497488e+03
2.531975059467611935e-02,2.028112908903830558e+01,6.835027229865284326e+00,0.000000000000000000e+00,-9.996105710985341286e-01,-2.786944802730927095e-02,2.222328785393282487e+03
-2.523303553026348123e-01,1.995184633478802994e+01,7.958586926086900881e+00,0.000000000000000000e+00,-9.978444088153478608e-01,-6.560896112919958889e-02,2.231005449477067486e+03
-2.811109365234041313e-01,1.991145575655810873e+01,8.010952752752860562e+00,8.718407821220997000e-02,-9.783095233668360757e-01,-1.879026689439947106e-01,2.231662615805189489e+03
-6.656978508578172971e-01,1.917936238560489315e+01,8.149388070827646047e+00,1.723682802998075803e-01,-9.363337163805161012e-01,-3.058861675785229939e-01,2.240339279888974488e+03
-1.076990022824228399e+00,1.811769856324865202e+01,7.370731584601514008e+00,2.535986082757777926e-01,-8.728798570920230926e-01,-4.168530927845916501e-01,2.249015943972759487e+03
-1.546894721973800735e+00,1.684624533427584225e+01,6.025073104572704175e+00,3.290117626563644482e-01,-7.894034903268375425e-01,-5.182580336996329695e-01,2.257692608056544486e+03
-2.104380325608485425e+00,1.548809256880880447e+01,4.462620895112407560e+00,3.968778840635018845e-01,-6.878194461500475310e-01,-6.077749210357009657e-01,2.266369272140329485e+03
-2.775416212092809864e+00,1.416952912018061639e+01,3.033628660842831337e+00,4.556402332712093384e-01,-5.704579142111905199e-01,-6.833503829949799657e-01,2.275045936224114485e+03
-3.585814583096282426e+00,1.301218748441293904e+01,2.121534666670126246e+00,5.039508995459900387e-01,-4.400109908721749341e-01,-7.432508451119582693e-01,2.283722600307899484e+03
-3.852600603864151374e+00,1.271206150976994209e+01,1.982030091874203981e+00,5.407017183577607078e-01,-2.994709256391215324e-01,-7.861022938925307235e-01,2.286302034248829841e+03
-4.857401411317486151e+00,1.191714675305837012e+01,2.268797297216714082e+00,5.650496895145336040e-01,-1.520614836448382357e-01,-8.109217925130753901e-01,2.294978698332614840e+03
-6.067758548961208476e+00,1.153065778034759781e+01,4.148468433762519503e+00,5.764363129605555303e-01,-1.163998612660337249e-03,-8.171400260720623754e-01,2.303655362416399839e+03
-7.373252092776134248e+00,1.153191686727212861e+01,7.089001278673633166e+00,7.902887125949269453e-01,-8.376476087767247350e-04,-6.127324449484211621e-01,2.312332026500184838e+03
-7.856390098247736375e+00,1.159268330407660663e+01,8.169960716366233555e+00,9.349785373007953870e-01,-4.379893494797729853e-04,-3.547012023561022520e-01,2.315663338849083175e+03
-8.713270512782239408e+00,1.158630517572274599e+01,8.386251917829289582e+00,9.978431604534077071e-01,-0.000000000000000000e+00,-6.562794478318881297e-02,2.324340002932868174e+03
-8.733884910799618595e+00,1.157888599299277033e+01,8.296616369085336729e+00,9.978431597491095317e-01,-0.000000000000000000e+00,-6.562794473686725527e-02,2.324706374150830470e+03
-8.942071340844558236e+00,1.144166316711413423e+01,6.044286401464299630e+00,9.996731842912910393e-01,-0.000000000000000000e+00,-2.552497917224535659e-02,2.333027701794162112e+03
-8.816561931633289717e+00,1.145712020385659002e+01,4.315020602673522276e+00,9.988611377069980257e-01,-0.000000000000000000e+00,4.769095882953244825e-02,2.340429736949079143e+03
-8.597125530551139150e+00,1.156390940438448567e+01,2.699640770060110384e+00,9.919129090364577905e-01,-0.000000000000000000e+00,-1.269124930196784407e-01,2.349106401032864142e+03
-8.560519815048102998e+00,1.146877805448250065e+01,1.686402139360340779e+00,9.546769266706609525e-01,-0.000000000000000000e+00,-2.976406653669427804e-01,2.354278342309909476e+03
-8.682002083106395318e+00,1.138237228623496655e+01,4.567554775188860106e-01,9.706551006134579440e-01,-0.000000000000000000e+00,-2.404717771844190333e-01,2.360360353966545063e+03
-8.838973927943474251e+00,1.235013149970896684e+01,-1.699739140774186419e+00,9.722363324996369238e-01,-1.953871888802572454e-01,-1.287569811275708909e-01,2.369037018050330062e+03
-8.740375562937975573e+00,1.441932974153836611e+01,-4.158378119004547457e+00,9.245650992018533687e-01,-3.808762494256647813e-01,-1.051950384610287302e-02,2.377713682134115061e+03
-8.357011415290831025e+00,1.647939431245710651e+01,-6.300716285955124008e+00,8.300563437183797744e-01,-5.470705674602559521e-01,1.082509144117311389e-01,2.386390346217900060e+03
-7.718353637183510862e+00,1.777254510613611771e+01,-7.739480840346410595e+00,7.669240327213734387e-01,-6.083619976893147596e-01,2.042576994898911147e-01,2.395067010301685059e+03
-6.990472762633859638e+00,1.822825892708240048e+01,-8.504893491471126055e+00,6.907849783365456187e-01,-6.593357951168591358e-01,2.968003082571101237e-01,2.403130164613318811e+03
-6.195752218152616564e+00,1.822786689883416145e+01,-9.008925501822371729e+00,6.029304651332196840e-01,-6.991274818158479398e-01,3.843092743916288190e-01,2.411806828697103811e+03
-5.512906503729562147e+00,1.805556962475095517e+01,-9.475521099796607061e+00,5.048504550707269001e-01,-7.270622152181295261e-01,4.653004977604566772e-01,2.420483492780888810e+03
-5.171385220414263628e+00,1.797795486084405070e+01,-9.836952286745958673e+00,4.531914328363226274e-01,-6.723833600271276190e-01,5.852487867251717768e-01,2.425813156632938899e+03
-4.689619573561866872e+00,1.789144914920327878e+01,-1.057111649665825581e+01,3.924477124405110762e-01,-6.042258722186640840e-01,6.934651313099784442e-01,2.434489820716723898e+03
-4.204870301557503076e+00,1.770098344514149602e+01,-1.142164289782330400e+01,3.238369641484770134e-01,-5.239560392853069848e-01,7.877802292191113942e-01,2.443166484800508897e+03
-3.575232361768691636e+00,1.720987831991980954e+01,-1.229396352239172074e+01,2.487345587737843922e-01,-4.331829500318987169e-01,8.663034405300341634e-01,2.451843148884293896e+03
-2.663729012801159257e+00,1.620358873641142594e+01,-1.309350585859910332e+01,1.686459980254070290e-01,-3.337262399829316051e-01,9.274606860118926877e-01,2.460519812968078895e+03
-2.015557032903718238e+00,1.532376157960161933e+01,-1.348178872247595983e+01,8.517673649724177842e-02,-2.275796165978191399e-01,9.700260005120894258e-01,2.465369066212374946e+03
-5.070348788157775788e-01,1.299218508638824865e+01,-1.399806307340908873e+01,0.000000000000000000e+00,-1.168708951520591871e-01,9.931461090226156863e-01,2.474045730296159945e+03
