9.713817896972681609e+00,4.901219833690889094e-01,8.643241774807531863e-01,-9.998919759351018177e-01,1.462998501632728661e-02,-0.000000000000000000e+00,2.649877709955470095e+02
1.001784751835177900e+01,1.980023237956854143e-01,1.166747546735865892e+00,-9.998919679150287676e-01,1.463048489846496304e-02,-0.000000000000000000e+00,2.713461404703121502e+02
9.494040221665095203e+00,-7.857123071244044299e-01,9.545970684526343675e-01,-9.998919606002018012e-01,1.463098479091418103e-02,-0.000000000000000000e+00,2.800228045540972062e+02
8.109821533282687511e+00,-2.430258003462803185e+00,-2.718011188686402235e-01,-9.947726228045428165e-01,-3.433479874166002737e-03,-1.020472445880236667e-01,2.886994686378822621e+02
7.450865558260128196e+00,-3.471652476466797310e+00,-1.103782256782039672e+00,-9.789433609053522778e-01,-2.146098598938219609e-02,-2.029958674759157755e-01,2.929048761537363816e+02
6.844319338649055062e+00,-5.834365358502198617e+00,-2.690675832263478284e+00,-9.941929643894603652e-01,3.323291848502375745e-02,1.023421843033252149e-01,3.015815402375214376e+02
6.865663649251367850e+00,-7.979354493728350484e+00,-3.988186438274146095e+00,-9.135472703524510907e-01,8.472129717383410086e-02,3.978086055350292249e-01,3.102582043213064935e+02
6.949525779798460867e+00,-9.358777340422246738e+00,-4.983268884024866452e+00,-7.447850786012693014e-01,1.280378416000694519e-01,6.549041897959472225e-01,3.189348684050915494e+02
6.692387818235086883e+00,-9.692916152339096314e+00,-5.722266950150673104e+00,-7.159432701968800883e-01,1.123736965406986477e-01,6.890539791472011233e-01,3.276115324888766054e+02
6.646617411349512672e+00,-9.661249969206160415e+00,-5.779438639080506590e+00,-6.854952957433279037e-01,9.645744975067196969e-02,7.216579244311597252e-01,3.283969988504130129e+02
5.902951554779785504e+00,-8.944340247535464528e+00,-6.425902370731796154e+00,-6.535094550883364661e-01,8.032480416534724943e-02,7.526428887185023786e-01,3.370736629341980688e+02
5.154397702928435798e+00,-8.369566945228028132e+00,-6.924851107483617874e+00,-6.200574967865772891e-01,6.401194805050879066e-02,7.819393654098425461e-01,3.426735174398660888e+02
3.637310826293522759e+00,-7.630465692713949366e+00,-7.917599448134736484e+00,-5.440934846859657448e-01,1.108354042195011518e-01,8.316704834811404767e-01,3.513501815236511447e+02
1.921673985216989067e+00,-7.118462761748016732e+00,-9.066869770455452837e+00,-4.624512511705530238e-01,1.565021460263756881e-01,8.727221313684311310e-01,3.600268456074362007e+02
2.586050964721225420e-01,-6.823860458757613934e+00,-1.023067298943480097e+01,-3.759828297056721502e-01,2.005355914990202826e-01,9.046658987213365144e-01,3.687035096912212566e+02
-1.100563450019496070e+00,-6.747896291411199954e+00,-1.126701695861678054e+01,-2.855906169936776040e-01,2.424762050297097071e-01,9.271684256274177471e-01,3.773801737750063126e+02
-1.904456355547322177e+00,-6.902747819789693651e+00,-1.203393610551981219e+01,-1.922179557698740493e-01,2.818862926419102855e-01,9.399948805718414402e-01,3.860568378587913685e+02
-1.964165491939990238e+00,-6.959463102448217420e+00,-1.211516119312649131e+01,-9.683929059190536648e-02,3.183545692721505560e-01,9.430114103351520116e-01,3.873951322043604932e+02
-1.790267647942244356e+00,-7.554533595278621227e+00,-1.231960438866504681e+01,-4.499992964603603558e-04,3.515004504558069121e-01,9.361865363436262522e-01,3.960717962881455492e+02
-8.366794386629995417e-01,-8.443653175890823093e+00,-1.197157649044335770e+01,-2.483901848752573527e-01,5.848884288904497852e-01,7.721436665607205319e-01,4.047484603719306051e+02
1.158973982697941302e-01,-9.510961666123668223e+00,-1.111607696550603208e+01,-4.608466679423112722e-01,7.347223780088264489e-01,4.977965205800397586e-01,4.124121790381846040e+02
3.737002903570155743e-01,-1.103327280024478974e+01,-9.478568253374850983e+00,-6.074690999519222201e-01,7.795978449197799032e-01,1.523367742923535106e-01,4.210888431219696599e+02
-6.124634110670539311e-01,-1.255453387528307907e+01,-7.462040805907196983e+00,-3.307272325621861131e-01,9.189686139930205444e-01,2.147421340542721158e-01,4.297655072057547159e+02
-1.615065134508566702e+00,-1.302572116527632140e+01,-6.501717819046740843e+00,-2.094397647220330033e-02,9.665299142310507241e-01,2.556937127618195693e-01,4.350274833273855393e+02
-3.266987940064765450e+00,-1.258902563051400847e+01,-5.906394687872560390e+00,2.739875347888599544e-01,8.130576413732636398e-01,5.136789878771056417e-01,4.437041474111705952e+02
-4.834881775513317770e+00,-1.121363521838393318e+01,-6.004828575941003166e+00,5.203971143375245578e-01,5.155969956190622483e-01,6.806941908814079234e-01,4.523808114949556511e+02
-6.466487843864274332e+00,-9.507609795136101383e+00,-6.084675512548114895e+00,6.746469744003802393e-01,1.268268071976453026e-01,7.271618945670981216e-01,4.610574755787407071e+02
-7.261435004669133164e+00,-8.794624227413439854e+00,-5.907905176013138693e+00,8.077815046440450786e-01,1.081234692092996053e-01,5.794793837255493019e-01,4.649508163910221015e+02
-9.111598265417937270e+00,-7.438769962443554817e+00,-4.960840290544107134e+00,9.086978079204235392e-01,8.510764760043708355e-02,4.086844530959478639e-01,4.736274804748071574e+02
-1.087022958425387387e+01,-6.254786795731180682e+00,-3.584535007868355994e+00,9.733708687796730485e-01,5.869732137132332994e-02,2.215892061374117039e-01,4.823041445585922133e+02
-1.230973535827765453e+01,-5.185435013641060742e+00,-1.987355299474063974e+00,9.992212075264467197e-01,2.994585760051283324e-02,2.565587736558997203e-02,4.909808086423772693e+02
-1.320017541167903197e+01,-4.183394420139728176e+00,-3.777132277565585783e-01,9.852177632737224577e-01,0.000000000000000000e+00,-1.713007849691814133e-01,4.996574727261623252e+02
-1.340697090808427916e+01,-3.221574347630588697e+00,1.101948593700091905e+00,9.412827112319718248e-01,2.485111187312669680e-06,-3.376164355160241048e-01,5.083341368099473812e+02
-1.299926053886055222e+01,-2.318766371156006478e+00,2.410537550792854145e+00,8.694939315277796510e-01,4.896684889824882808e-06,-4.939415987879771652e-01,5.168135734390102698e+02
-1.211227035030375099e+01,-1.437208251660239355e+00,3.663827675984127730e+00,7.719757252521629587e-01,7.163359964826712552e-06,-6.356504381896357359e-01,5.254902375227953826e+02
-1.090863293398204092e+01,-5.956657738777785260e-01,4.886481391096562987e+00,6.516137487405884166e-01,9.218062815924029293e-06,-7.585496176042126892e-01,5.341669016065804954e+02
-9.543345922288146710e+00,2.149177312325094014e-01,6.134052722629845356e+00,5.119696326534545205e-01,1.099999210732660065e-05,-8.590023836518065892e-01,5.428435656903656081e+02
-8.168919024238743276e+00,1.011050542016071363e+00,7.402795958446009017e+00,5.075412139229181774e-01,6.629455065188536236e-03,-8.616008161847767965e-01,5.515202297741507209e+02
-6.948605919801412512e+00,1.807038990312403115e+00,8.556038675698992790e+00,5.030771840271827111e-01,1.324744292923872753e-02,-8.641387921638686853e-01,5.600851580535378389e+02
-5.994865789058877681e+00,2.655181658565050284e+00,9.443427714754133007e+00,4.985778554918791627e-01,1.986450027995303319e-02,-8.666161339353937176e-01,5.687618221373229517e+02
-5.467549147611785010e+00,3.582800595052003878e+00,9.868820986440953291e+00,4.940435433079764516e-01,2.648016387834342678e-02,-8.690326680809909998e-01,5.774384862211080645e+02
-5.509672037619919749e+00,4.634066329044962629e+00,9.650760490517459544e+00,4.894745648987840481e-01,3.309397058227765698e-02,-8.713882254100546731e-01,5.861151503048931772e+02
-6.157555112649929718e+00,5.821097160415219740e+00,8.705150458034566441e+00,6.350126994351561471e-01,1.366653104152221535e-02,-7.723795035383708152e-01,5.947918143886782900e+02
-6.176524706983904878e+00,5.846511392553917830e+00,8.678567364105976623e+00,7.606358057586176669e-01,-6.189505862635049857e-03,-6.491477959727236513e-01,5.949680667067356126e+02
-7.254675163495895696e+00,7.106294924418183889e+00,7.112873625512978748e+00,8.624041727641009736e-01,-2.585142454941337029e-02,-5.055578568761787128e-01,6.036447307905207253e+02
-8.483291574074025121e+00,8.323637937575600887e+00,5.142233900537883429e+00,9.371262156633992646e-01,-4.470259885802064376e-02,-3.461128913711962740e-01,6.123213948743058381e+02
-9.591413541064619963e+00,9.375085300226404073e+00,2.974602848825422807e+00,9.824585608820066707e-01,-6.215182979163335480e-02,-1.758133277225957525e-01,6.209980589580909509e+02
-1.031299270645631516e+01,1.012552987791463188e+01,8.179762267755502636e-01,9.969795307178351829e-01,-7.765188556181246149e-02,-0.000000000000000000e+00,6.296747230418760637e+02
-1.048473080812721570e+01,1.048903977597117532e+01,-1.171736033872377902e+00,9.848896877147136353e-01,-6.537706492768109723e-02,1.603625343291227023e-01,6.383513871256611765e+02
-1.014078347348404208e+01,1.049527311666331819e+01,-2.942825873314305341e+00,9.471798814793425114e-01,-5.140158925058702782e-02,3.165535479900630778e-01,6.470280512094462892e+02
-9.676706562102133091e+00,1.032541194266228501e+01,-3.949125021534790392e+00,8.848310558812244597e-01,-3.608900206810867345e-02,4.645100499231253899e-01,6.526254349302826085e+02
-8.685987256708445514e+00,9.872417970022979716e+00,-5.298216913707235243e+00,7.994650843517199235e-01,-1.983762900307772109e-02,6.003832504156387806e-01,6.613020990140677213e+02
-7.514215857521110209e+00,9.318169469623045487e+00,-6.429907922109030949e+00,6.933025823881638905e-01,-3.070216475057450153e-03,7.206386771650141743e-01,6.699787630978528341e+02
-6.279675494506547828e+00,8.769598082469682865e+00,-7.344745908354697761e+00,5.691051459498468468e-01,1.377706487124013071e-02,8.221481164231774219e-01,6.786554271816379469e+02
-5.096327122419298306e+00,8.338649110708999501e+00,-8.043323960842851506e+00,4.301035175188639981e-01,3.026596604827190215e-02,9.022709878512649162e-01,6.873320912654230597e+02
-4.040042458830586547e+00,8.078536052031838111e+00,-8.535480503912143746e+00,3.792975298609594370e-01,2.858512575893290900e-02,9.248320249782608915e-01,6.960087553492081724e+02
-3.118131127270727276e+00,7.918085369452097844e+00,-8.849497471722086672e+00,3.273183467256033374e-01,2.681586945926352911e-02,9.445324817287344965e-01,7.046854194329932852e+02
-3.097598987207490051e+00,7.914632798999504004e+00,-8.855067899248421526e+00,2.743267406900478100e-01,2.496366949334269392e-02,9.613114243295102224e-01,7.048924042306986166e+02
-2.287854054445672247e+00,7.715955681484214068e+00,-9.027287991338436512e+00,2.204866156156566059e-01,2.303425473712938931e-02,9.751169547503389934e-01,7.135690683144837294e+02
-1.572195540171912542e+00,7.343122770076500494e+00,-9.097332337346200504e+00,1.659644998151607875e-01,2.103359288349517658e-02,9.859063711985319722e-01,7.222457323982688422e+02
-9.388437867071147691e-01,6.659715979659734941e+00,-9.102771309104124242e+00,1.109290311058386269e-01,1.896787198907892713e-02,9.936463001935029737e-01,7.309223964820539550e+02
-4.880979082424474202e-01,5.757686376848414334e+00,-9.084124125521293891e+00,5.555043533688857477e-02,1.684348133984912496e-02,9.983127998117928836e-01,7.379002473021155311e+02
2.675144024009432965e-04,4.073995602548621697e+00,-9.066220780093752651e+00,0.000000000000000000e+00,1.466699169439458252e-02,9.998914337827495835e-01,7.465769113859006438e+02
2.158751455953993037e-01,1.991142207790403518e+00,-9.072218562509217321e+00,-0.000000000000000000e+00,9.777854151386740703e-03,9.999511955267309515e-01,7.552535754696857566e+02
-2.465055381196659678e-02,9.723804087337265534e-01,-9.083345484979496121e+00,-0.000000000000000000e+00,4.888485347683178828e-03,9.999870512053840033e-01,7.600325983300808730e+02
-1.686176994388783434e+00,1.919311760872085548e-01,-9.094488222056252624e+00,-0.000000000000000000e+00,-9.999989999326389967e-07,9.999989999326391876e-01,7.687092624138659858e+02
-4.551150451709013112e+00,6.349173046480334204e-01,-9.180608192002502221e+00,4.999994996467595901e-07,-9.999989992935191802e-07,9.999989992935193195e-01,7.773859264976510985e+02
-4.737763664216156023e+00,6.851568488758130737e-01,-9.191137181645190779e+00,9.999989992928942817e-07,-9.999989992928942817e-07,9.999989992928942639e-01,7.778831474013238676e+02
-7.666909034920745825e+00,1.406949434765104368e+00,-9.479126423210932018e+00,2.802129632977686802e-01,-3.588700621606470964e-01,8.903319457852350016e-01,7.865598114851089804e+02
-9.799585742194905080e+00,1.969851542211806805e+00,-9.734283421618211918e+00,4.989649685196977380e-01,-6.390270664793962219e-01,5.853856579194511855e-01,7.952364755688940932e+02
-1.082008719575555133e+01,2.523986248505317054e+00,-9.523055041489893568e+00,6.082774653435700785e-01,-7.790243152625521139e-01,1.520448663574272274e-01,8.039131396526792059e+02
-1.073412456977789020e+01,2.896751414539808334e+00,-8.975596271436884876e+00,5.495679387846780228e-01,-8.320559301229025762e-01,7.520644790477032382e-02,8.090429698217538999e+02
-9.638557510134766915e+00,3.578543574002093219e+00,-7.383843792738011835e+00,4.841738487722463957e-01,-8.749669698854695143e-01,-2.546718237980990715e-03,8.177196339055390126e+02
-7.975910666590162457e+00,4.227668307014103455e+00,-5.351178754202201127e+00,4.128905968790096415e-01,-9.072355028656561293e-01,-8.026890648445932086e-02,8.263962979893241254e+02
-6.294316610355732422e+00,4.773925064596310719e+00,-3.166153074086937469e+00,3.365852128305096835e-01,-9.284690393758897597e-01,-1.570147681693106201e-01,8.350729620731092382e+02
-5.144162101426777767e+00,5.170739343349683104e+00,-1.117350458901506638e+00,2.561858103071208981e-01,-9.384093051544788455e-01,-2.318508283259674008e-01,8.437496261568943510e+02
-4.575840865331421980e+00,5.448723795777165257e+00,5.957052347403711812e-01,1.283283239993097680e-01,-9.079911778301084091e-01,-3.988506766232678968e-01,8.524262902406794637e+02
-3.990209356084661430e+00,5.721251948700762036e+00,1.936539137482412354e+00,-5.324672082127412422e-03,-8.365665217215753069e-01,-5.478376608109032375e-01,8.611029543244645765e+02
-3.863161496101822578e+00,5.774220750257667234e+00,2.108298791245229786e+00,-1.387371622425130346e-01,-7.273610345909399255e-01,-6.720832724988929918e-01,8.624486719149061855e+02
-2.831039827163518652e+00,6.221831412681130935e+00,3.032790329994897505e+00,-2.658840059116727716e-01,-5.853066539432054682e-01,-7.659763810010675744e-01,8.711253359986912983e+02
-1.494354151596369640e+00,6.830127578047984649e+00,3.778845964127010681e+00,-3.810230403300212121e-01,-4.168188139263647729e-01,-8.252766318611660656e-01,8.798020000824764111e+02
5.597332766814266253e-02,7.659595154499645453e+00,4.494824536311675445e+00,-4.789543995528241505e-01,-2.295067122760384437e-01,-8.473059377643092915e-01,8.884786641662615239e+02
1.726938119162685803e+00,8.722954825090882380e+00,5.277163545314536464e+00,-4.789543992146957363e-01,-2.295067121140131616e-01,-8.473059371661350037e-01,8.971553282500466366e+02
2.668307388089260268e+00,9.405095659140547681e+00,5.745615344519239720e+00,-4.789543992147292650e-01,-2.295067121140292321e-01,-8.473059371661945116e-01,9.019605574474145442e+02
4.311972196307677585e+00,1.070055964097575618e+01,6.608899899909286724e+00,-4.789543992147532459e-01,-2.295067121140406952e-01,-8.473059371662367001e-01,9.106372215311996570e+02
5.800245229196878682e+00,1.193789427890784616e+01,7.438857081144797156e+00,-4.789543992147676232e-01,-2.295067121140476063e-01,-8.473059371662622352e-01,9.193138856149847697e+02
7.013991346513208214e+00,1.299110620936656169e+01,8.176118724134608939e+00,-4.789543992147724527e-01,-2.295067121140499100e-01,-8.473059371662707839e-01,9.279905496987698825e+02
7.828993929473500479e+00,1.373936820790181734e+01,8.761335961701973929e+00,-4.789543992147676787e-01,-2.295067121140476063e-01,-8.473059371662622352e-01,9.366672137825549953e+02
8.007957402591884488e+00,1.390682898769009412e+01,8.950096013444655441e+00,-4.789543992147532459e-01,-2.295067121140406952e-01,-8.473059371662367001e-01,9.407814125213211582e+02
7.848498294228925865e+00,1.378301014657938239e+01,9.117361223625431776e+00,-4.789543992147292650e-01,-2.295067121140292321e-01,-8.473059371661944006e-01,9.494580766051062710e+02
6.957258723319427851e+00,1.308161259562051093e+01,8.985916087800898566e+00,-4.789543992146957363e-01,-2.295067121140131616e-01,-8.473059371661350037e-01,9.581347406888913838e+02
5.193024261244128859e+00,1.170106874727122559e+01,8.496583898420638548e+00,-4.789543992146525486e-01,-2.295067121139924560e-01,-8.473059371660587313e-01,9.668114047726764966e+02
2.646698005886956473e+00,9.665417119334826168e+00,7.681110137749989519e+00,-3.287347517410809106e-01,-3.313384589688782578e-01,-8.843903485485886673e-01,9.754880688564616094e+02
-1.155522884273261774e-01,7.230543876351562815e+00,6.753003417875437009e+00,-1.672359138960871627e-01,-4.218016528497693374e-01,-8.911304701088831326e-01,9.841647329402467221e+02
-1.884188615682737877e+00,5.241837217456193798e+00,6.153294913839262748e+00,9.999988887663479212e-07,-4.977924468356665910e-01,-8.672950362314982842e-01,9.910435143258105199e+02
-3.183008191281165189e+00,2.842247330977998310e+00,5.740076219008380498e+00,5.261563195928309344e-02,-3.819780617194455385e-01,-9.226713150619963999e-01,9.997201784095956327e+02
-3.755262490908708450e+00,5.421811667077818253e-01,5.659241600133534611e+00,1.042175211117799816e-01,-2.588114367014032746e-01,-9.602881591092922164e-01,1.008396842493380746e+03
-4.127329401244909768e+00,-1.741472590145868748e+00,5.810076507863602302e+00,1.538134545375552109e-01,-1.306632343399690421e-01,-9.794215335566390790e-01,1.017073506577165858e+03
-4.828160345315592572e+00,-4.069089546531872159e+00,6.091818049977765881e+00,2.004488266898622750e-01,-0.000000000000000000e+00,-9.797031529384774284e-01,1.025750170660950971e+03
-6.149238083391542098e+00,-6.414520220441176868e+00,6.422349492390059034e+00,2.796560363350245049e-01,1.244418882854247087e-02,-9.600185641463242492e-01,1.034426834744735970e+03
-7.152974755036460408e+00,-7.684589096356124749e+00,6.614418201697988664e+00,3.569570495012056033e-01,2.480355269720981720e-02,-9.337903665090234728e-01,1.039362803459668157e+03
-9.019939923828692585e+00,-9.632673479757015045e+00,6.938664365518058652e+00,4.318249772761854066e-01,3.699384916649292587e-02,-9.011973391686015633e-01,1.048039467543453156e+03
-1.062932356788457255e+01,-1.110614453453812622e+01,7.225963001228802973e+00,5.037495157227999121e-01,4.893198834348876786e-02,-8.624616431623362001e-01,1.056716131627238155e+03
-1.153309836300499214e+01,-1.191990824602530274e+01,7.450216552809516557e+00,5.722404237397743509e-01,6.053659917186493544e-02,-8.178473070197345152e-01,1.065392795711023155e+03
-1.151862061989554142e+01,-1.193170349321610679e+01,7.519543413114359254e+00,6.368308641563438233e-01,7.172858400024589853e-02,-7.676584270988437986e-01,1.069527337095564462e+03
-1.021105357236243805e+01,-1.105609166199354476e+01,7.567021469809136036e+00,6.970805853156339937e-01,8.243165765322511829e-02,-7.122370949292254894e-01,1.078204001179349461e+03
-7.047917337417389128e+00,-9.152312675298768241e+00,7.486896152694660245e+00,7.525789214881516420e-01,9.257286733493137743e-02,-6.519610656823969785e-01,1.086880665263134460e+03
-2.469755108973672453e+00,-6.668639983178952235e+00,7.271709168272778356e+00,-8.452989841296686124e-02,4.501064590673757859e-01,-8.889639316536507296e-01,1.095557329346919460e+03
-7.429154160711995969e-01,-5.895196972559559434e+00,7.156107821871037444e+00,-1.692856710195458358e-01,4.104522765959441877e-01,-8.960297373554915179e-01,1.098758131633647281e+03
3.215933239592684512e+00,-4.643336582191573747e+00,6.797465033862049921e+00,-2.525507088746741791e-01,3.671836851625728815e-01,-8.952051612888420884e-01,1.107434795717432280e+03
6.237970541969786176e+00,-4.151405696593646333e+00,6.462159886868381165e+00,-3.335917901719196998e-01,3.206817049109175755e-01,-8.864974685052907644e-01,1.116111459801217279e+03
8.281590728249387467e+00,-4.252835780583217762e+00,6.244204513155017899e+00,-4.116952776148754545e-01,2.713558278645691879e-01,-8.699833406879575737e-01,1.124788123885002278e+03
9.310708366666123226e+00,-4.779641433344444579e+00,6.237586524692639856e+00,-4.861734021204749401e-01,2.196404121514995422e-01,-8.458082007296727767e-01,1.133464787968787277e+03
9.309949039240393631e+00,-5.481744035756029199e+00,6.500024950730479034e+00,-5.563703187369850589e-01,1.659908573385144304e-01,-8.141849321312262244e-01,1.141209167397182000e+03
8.255077872390847560e+00,-6.366675141771292346e+00,7.183545230198694398e+00,-6.216678814916454243e-01,1.108795945338585248e-01,-7.753920044974648151e-01,1.149885831480966999e+03
6.112194425960767674e+00,-7.182900159205371615e+00,8.349943997171889620e+00,-6.814910863539269670e-01,5.479192654279781138e-02,-7.297710216270740791e-01,1.158562495564751998e+03
3.106996806449976667e+00,-7.771178235318140892e+00,9.812115167904769564e+00,-4.794766417577115969e-01,4.147431524759716270e-02,-8.765728898298599248e-01,1.167239159648536997e+03
-4.959766472419250422e-02,-8.010798012851834571e+00,1.082127478107869045e+01,-2.474766956193917566e-01,2.556298295930613945e-02,-9.685555322379676424e-01,1.175915823732321996e+03
-7.952962900247223521e-02,-8.011207527282474317e+00,1.082651246244450860e+01,-0.000000000000000000e+00,8.052988517099743740e-03,-9.999665741297896204e-01,1.176002597172595415e+03
-2.712240463786776967e+00,-7.907148325589037796e+00,1.079123261286424018e+01,4.193492468269741091e-02,-1.416378544173482745e-01,-9.890289077107263793e-01,1.184679261256380414e+03
-4.718862641434324878e+00,-7.664410136893610392e+00,1.001891709304851297e+01,8.285143867658267824e-02,-2.878889515326168991e-01,-9.540721097977619136e-01,1.193355925340165413e+03
-6.294609723819796443e+00,-7.567605765018525332e+00,9.265487760753588375e+00,1.217558766212737814e-01,-4.271485671580905197e-01,-8.959450921131094647e-01,1.202032589423950412e+03
-7.191279636565472977e+00,-7.730168258765155009e+00,9.099051585374970941e+00,2.427882910101824832e-01,-3.922655417434824376e-01,-8.872314188022997206e-01,1.207929869767793889e+03
-8.343257038075567067e+00,-8.300343289787372569e+00,9.344213267886292584e+00,3.599502384121139875e-01,-3.511291737708309157e-01,-8.643738364823336795e-01,1.216606533851578888e+03
-9.372111444834635208e+00,-9.083370252877060125e+00,9.773286505317505757e+00,4.713739723324733566e-01,-3.043952468200490369e-01,-8.277367407105780117e-01,1.225283197935363887e+03
-1.033179012716118095e+01,-9.950398670244918975e+00,1.003440394421020976e+01,5.752832254634744347e-01,-2.528087768056302975e-01,-7.779041926046178501e-01,1.233959862019148886e+03
-1.127111293316977125e+01,-1.077041042805698368e+01,9.775733240381390132e+00,6.700215250171087655e-01,-1.971921350912026194e-01,-7.156706071046157192e-01,1.242636526102933885e+03
-1.223373989843700471e+01,-1.141038041943802739e+01,8.645550499453474202e+00,7.540785981351876277e-01,-1.384319387168223559e-01,-6.420280883101573410e-01,1.251313190186718884e+03
-1.248521348220265814e+01,-1.150593546515195875e+01,8.134928181172405459e+00,8.261144466400051067e-01,-7.746491670656655004e-02,-5.581506138435601283e-01,1.253503822420338793e+03
-1.353559235986435993e+01,-1.153792336927206996e+01,5.000083264983865128e+00,8.849807075426920910e-01,-1.526297770940438295e-02,-4.653753203493267154e-01,1.262180486504123792e+03
-1.433739805563837244e+01,-1.143695927487991426e+01,1.108684675912629869e+00,9.978964962917117321e-01,-6.481190233636946463e-02,1.999996986248517972e-06,1.270857150587908791e+03
-1.435714651486416926e+01,-1.165821716400719055e+01,-9.295890577410633737e-01,9.842838733157226461e-01,1.297267356343901890e-01,1.198091431993938277e-01,1.276364922682093948e+03
-1.353290628904505510e+01,-1.269687427420569925e+01,-2.864539504080626298e+00,9.191100942929432138e-01,3.174697010911591843e-01,2.333401454097311090e-01,1.285041586765878947e+03
-1.217672485274095528e+01,-1.428806929084018940e+01,-3.830463222927083855e+00,8.057892435783569063e-01,4.885822047769387555e-01,3.346477612513469868e-01,1.293718250849663946e+03
-1.071824448954063769e+01,-1.625554267678969822e+01,-4.220708702537733004e+00,6.502575451219111402e-01,6.341006231837181817e-01,4.184250526577707463e-01,1.302394914933448945e+03
-9.579785788511751221e+00,-1.840484806884864710e+01,-4.428744572733460672e+00,4.606624106662593476e-01,7.464020451143851265e-01,4.802833855647918315e-01,1.311071579017233944e+03
-9.009938381674324148e+00,-2.051868206755671764e+01,-4.735173453873443350e+00,4.172348226870536969e-01,7.278696866837701673e-01,5.441680089318342572e-01,1.319748243101018943e+03
-8.933841918347164679e+00,-2.203110294464288543e+01,-5.111009030129228137e+00,3.711742134430326967e-01,7.047439925504269675e-01,6.046185642533730142e-01,1.326825654046477666e+03
-9.075356783545526440e+00,-2.341229469800640217e+01,-5.673304929782152506e+00,3.227712547909927232e-01,6.771709017490963323e-01,6.612535723198923465e-01,1.335502318130262665e+03
-9.201799991336827134e+00,-2.410585773695976641e+01,-6.283145588215766963e+00,2.723313997141311171e-01,6.453244184477496814e-01,7.137156322273616738e-01,1.344178982214047664e+03
-9.030957388697510524e+00,-2.389900315348778292e+01,-6.882339719247517529e+00,2.201729548524689328e-01,6.094055139068029758e-01,7.616736765652282193e-01,1.352855646297832664e+03
-8.272272620004031296e+00,-2.259086258674775749e+01,-7.412698201146965538e+00,1.666250719489444365e-01,5.696408583099646927e-01,8.048250604589254342e-01,1.361532310381617663e+03
-8.260889622043469771e+00,-2.257158356462142024e+01,-7.417549988393130178e+00,1.120256708762911863e-01,5.262813904639718210e-01,8.428974712957342241e-01,1.361619784419703819e+03
-6.612932453041142189e+00,-1.995984785647036830e+01,-7.820334643691738918e+00,5.671930734060503382e-02,4.796007343853082028e-01,8.756506470918944407e-01,1.370296448503488818e+03
-3.768605939731103582e+00,-1.588001249190411990e+01,-8.037374320058990662e+00,1.054998706094199953e-03,4.298934727560758673e-01,9.028778926631518820e-01,1.378973112587273818e+03
-2.216838796840364390e-01,-1.103631049419656485e+01,-7.880473351867179232e+00,0.000000000000000000e+00,4.167097442637810595e-02,9.991303868302074953e-01,1.387649776671058817e+03
2.332028137113125510e+00,-7.494101464729689965e+00,-7.190268779798754117e+00,1.032406556290913251e-05,-2.779750678761719329e-01,9.605872482661308442e-01,1.395205345963566742e+03
4.085373293038994547e+00,-4.831676477060501185e+00,-5.731181046173622562e+00,1.957795075190678791e-05,-5.688065725834510200e-01,8.224701104604750235e-01,1.403882010047351741e+03
4.893852396116231240e+00,-3.321251726371365454e+00,-3.760644539417225207e+00,2.680239705031068863e-05,-8.006759287588272045e-01,5.990960326909358091e-01,1.412558674131136740e+03
5.028132030492074023e+00,-2.707070311915408478e+00,-1.444952114175990010e+00,3.124851756664310414e-05,-9.495475352928711699e-01,3.136199567013510103e-01,1.421235338214921740e+03
4.767900594898997646e+00,-2.745641141653614170e+00,1.049531335010399413e+00,3.245543101655662686e-05,-9.999894700321844132e-01,-4.365635202180351108e-03,1.429912002298706739e+03
4.401671595569153439e+00,-3.206014467539326063e+00,3.556403604957776299e+00,3.029803583939320408e-05,-9.467731442714601986e-01,-3.218984503977175282e-01,1.438588666382491738e+03
4.226583676847047499e+00,-3.870052666600453772e+00,5.909259918434057290e+00,2.499997267778497785e-05,-7.954151306989206693e-01,-6.060633376395629934e-01,1.447265330466276737e+03
4.444601825341861101e+00,-4.584389144245444747e+00,7.987588366682857988e+00,4.061322057178684878e-04,-7.559236060479873620e-01,-6.546581832352116326e-01,1.455941994550061736e+03
5.056023395462974079e+00,-5.306410170727041020e+00,9.762655762185625363e+00,7.856718874113837901e-04,-7.134679626483046988e-01,-7.006859845858360858e-01,1.464618658633846735e+03
5.958944484106416084e+00,-6.043760554274641983e+00,1.125165290672457274e+01,1.162130774489766307e-03,-6.682146773669469519e-01,-7.439662589152605809e-01,1.473295322717631734e+03
6.209022721028143899e+00,-6.221036385784194600e+00,1.155420220863196157e+01,1.534032704788402830e-03,-6.203411969311193319e-01,-7.843292970013882037e-01,1.475350588592802978e+03
7.354704134744352473e+00,-6.980509546016979705e+00,1.263044849594887786e+01,1.899919385305095902e-03,-5.700352421367644862e-01,-8.216168285943317162e-01,1.484027252676587977e+03
8.564369122863311645e+00,-7.757011405578439600e+00,1.345929852186404219e+01,2.258356110174726105e-03,-5.174940717787152034e-01,-8.556826429831227987e-01,1.492703916760372977e+03
9.736632714916353848e+00,-8.544009219396185628e+00,1.405813178796729446e+01,2.607937386148667137e-03,-4.629237091879941368e-01,-8.863931622791554332e-01,1.501380580844157976e+03
1.077041544564913700e+01,-9.330605642940229316e+00,1.444437571380085217e+01,2.947292443530410977e-03,-4.065381344081727688e-01,-9.136279651697329918e-01,1.510057244927942975e+03
1.156501136197684865e+01,-1.010154893921260566e+01,1.463550198899144839e+01,3.275090610967818037e-03,-3.485584451772127390e-01,-9.372802590890958463e-01,1.518733909011727974e+03
1.202015590746139218e+01,-1.083724481339485379e+01,1.464902291901150910e+01,3.590046533035761312e-03,-2.892119900033395252e-01,-9.572572989563206125e-01,1.527410573095512973e+03
1.203609367076443171e+01,-1.151376987256998063e+01,1.450248776494122360e+01,3.890925210158536780e-03,-2.287314767327870701e-01,-9.734807508387357533e-01,1.536087237179297972e+03
1.201619163929178136e+01,-1.156449445801897191e+01,1.448370852902938744e+01,4.176546841116904156e-03,-1.673540601032731945e-01,-9.858869991151483214e-01,1.536793681076719395e+03
1.145791340759688026e+01,-1.211942243649477291e+01,1.417845651938737461e+01,4.445791449157331272e-03,-1.053204118594335825e-01,-9.944273959344213099e-01,1.545470345160504394e+03
1.025524982396728824e+01,-1.255182765805978740e+01,1.374977893998909728e+01,4.697603273567935514e-03,-4.287377707485649780e-02,-9.990684519909033279e-01,1.554147009244289393e+03
8.310437386433338958e+00,-1.282455962070863009e+01,1.321531646138345018e+01,4.930994909503488323e-03,1.974097962046407820e-02,-9.997919678680230460e-01,1.562823673328074392e+03
5.714414441625446983e+00,-1.301109192930600145e+01,1.256883461042695949e+01,3.714969384385531041e-03,8.172670550310714987e-02,-9.966468504969527853e-01,1.571500337411859391e+03
2.928875243167061271e+00,-1.342116988918160736e+01,1.175632796465767171e+01,2.484628272542257002e-03,1.433974662741803741e-01,-9.896610496953736069e-01,1.580177001495644390e+03
1.137389610204876833e+00,-1.420603296849780151e+01,1.097714188793037593e+01,1.244712531213435468e-03,2.045156225366544234e-01,-9.788614870474835472e-01,1.586639509500936583e+03
-3.479522887860045377e-01,-1.631485654988283329e+01,9.629452989863359846e+00,0.000000000000000000e+00,2.648456641220581220e-01,-9.642897770852628669e-01,1.595316173584721582e+03
-5.431099861885176905e-01,-1.751435098851894168e+01,8.845158095865521375e+00,-0.000000000000000000e+00,3.410856895361299435e-01,-9.400311443624989050e-01,1.599338965808190324e+03
-5.649039085378825681e-02,-1.900662648509252151e+01,6.816302591472501504e+00,-3.230183608123804451e-01,4.467920794801609752e-01,-8.342865073179728252e-01,1.608015629891975323e+03
1.192637610179301033e+00,-1.891167879998326740e+01,4.572438204251992211e+00,-6.051112637003469574e-01,4.958913024062636676e-01,-6.228404087259294952e-01,1.616692293975760322e+03
2.922812312614557761e+00,-1.780146651614477449e+01,2.338137874615651590e+00,-8.105384596092877203e-01,4.821626669404919241e-01,-3.324824327753394537e-01,1.625368958059545321e+03
4.831066934375478183e+00,-1.623487955975647168e+01,3.379725261745121778e-01,-9.132730123892983665e-01,4.073455594977313243e-01,-0.000000000000000000e+00,1.634045622143330320e+03
6.678866979366224754e+00,-1.463126773635227273e+01,-1.264847090881966007e+00,-9.254906391312097691e-01,3.769718122377380132e-01,-3.684195513810738926e-02,1.642722286227115319e+03
8.242615058553683483e+00,-1.327052643712994318e+01,-2.334057227519659605e+00,-9.354600913199165868e-01,3.456823400673623703e-01,-7.359441088209089932e-02,1.650675198696688540e+03
9.806436146620139738e+00,-1.193381293075194094e+01,-3.084298388386384371e+00,-9.431571523763687681e-01,3.135531499058278881e-01,-1.101680902317116045e-01,1.659351862780473539e+03
1.122585621059461936e+01,-1.077597645738955023e+01,-3.436850589448444460e+00,-9.485631255377811044e-01,2.806622883475725638e-01,-1.464741505161173962e-01,1.668028526864258538e+03
1.249781798072261374e+01,-9.827161086948853708e+00,-3.412806422677975071e+00,-9.516648792574649018e-01,2.470896520949456554e-01,-1.824243991778918272e-01,1.676705190948043537e+03
1.361793791285779065e+01,-9.117437809642536806e+00,-3.033337138278191070e+00,-9.524548790919360464e-01,2.129167938998093312e-01,-2.179315079774601926e-01,1.685381855031828536e+03
1.458050675585135103e+01,-8.676762381594615547e+00,-2.319688155889140457e+00,-9.509312059973832332e-01,1.782267244845792964e-01,-2.529092250981945234e-01,1.694058519115613535e+03
1.537849062447391546e+01,-8.534933192299298810e+00,-1.293174631755322546e+00,-9.470975609911816973e-01,1.431037109232746185e-01,-2.872725846376523173e-01,1.702735183199398534e+03
1.600353259584766619e+01,-8.721549163618671940e+00,2.482298369796478305e-02,-9.409632561671334994e-01,1.076330719717113610e-01,-3.209381129767113205e-01,1.711411847283183533e+03
1.639430038080905305e+01,-9.197023027035463372e+00,1.416172753664861839e+00,-9.325431920861364521e-01,7.190097084336118105e-02,-3.538240315259149060e-01,1.719019715874761914e+03
1.665005978558976096e+01,-1.012216927337592587e+01,3.251638124662263429e+00,-9.218578215969528422e-01,3.599420593359192733e-02,-3.858504553570895057e-01,1.727696379958546913e+03
1.670059537137871075e+01,-1.145905075641459270e+01,5.316751917918063342e+00,-9.089331001745973859e-01,0.000000000000000000e+00,-4.169395872382335444e-01,1.736373044042331912e+03
1.648681857666156958e+01,-1.317922514470756390e+01,7.373205913548349422e+00,-8.656576142462234502e-01,1.896880845669533799e-01,-4.633069452003869548e-01,1.745049708126116911e+03
1.604246302508886401e+01,-1.465541736110843374e+01,8.459311331693740499e+00,-7.877520994571296509e-01,3.717877453540496813e-01,-4.911400026527330542e-01,1.751545912523394691e+03
1.490352214414137855e+01,-1.669660442389650967e+01,8.527472738763329119e+00,-6.783331045798046688e-01,5.390142884848517779e-01,-4.993253408754618761e-01,1.760222576607179690e+03
1.316192580204828921e+01,-1.861100016145586267e+01,6.833570066659046205e+00,-5.010587216239249519e-01,7.839387708455912707e-01,-3.665762690780370314e-01,1.768899240690964689e+03
1.104873708713864211e+01,-2.020504513078838116e+01,3.904345416364480403e+00,-2.691505401649678109e-01,9.433851173730771755e-01,-1.938569241715241143e-01,1.777575904774749688e+03
8.937262042707915910e+00,-2.130416400077957917e+01,7.382754253711091286e-01,-7.894990794486694483e-03,9.999678340433270085e-01,-0.000000000000000000e+00,1.786252568858534687e+03
7.089427109029744045e+00,-2.181787788001071249e+01,-1.937686557611361104e+00,4.049498108585679323e-02,9.915157264317248087e-01,1.235100026162675863e-01,1.794929232942319686e+03
5.534121684098763261e+00,-2.180129384357561761e+01,-3.939834905443119872e+00,8.816949826877300278e-02,9.655457321741832688e-01,2.448378619740283202e-01,1.803605897026104685e+03
5.025973081132327991e+00,-2.164521451217013492e+01,-4.482418207884831141e+00,1.342862614991624237e-01,9.225166769406917266e-01,3.618399932835948962e-01,1.806808658367369162e+03
3.764374758939738719e+00,-2.089793875982248750e+01,-5.480452888771447206e+00,1.780304921275838170e-01,8.631887772659047053e-01,4.724492339663061147e-01,1.815485322451154161e+03
2.574915468433800481e+00,-1.990454504825340720e+01,-6.013397702753633389e+00,2.186293267797353723e-01,7.886102112906043793e-01,5.747113641821213204e-01,1.824161986534939160e+03
1.355373864539086926e+00,-1.877735188675871925e+01,-6.169543577255303113e+00,2.553654718238480004e-01,7.000986024120889883e-01,6.668196328097543146e-01,1.832838650618724159e+03
-7.870999412031065351e-04,-1.762412788976124034e+01,-6.037260053663495718e+00,2.875898764463321600e-01,5.992177425655212941e-01,7.471466790126489732e-01,1.841515314702509158e+03
-1.556798413906763212e+00,-1.651285845623099036e+01,-5.687850279766258232e+00,4.400639851346996867e-01,5.130349765916145666e-01,7.369781555656124139e-01,1.850191978786294158e+03
-3.283136614868685577e+00,-1.543926021295375861e+01,-5.158409571822150319e+00,5.789932327127900180e-01,4.110613675086232099e-01,7.041259749609430907e-01,1.858868642870079157e+03
-4.662293055392057184e+00,-1.463227649969317490e+01,-4.638081173244206212e+00,7.001014736615680523e-01,2.964355981313713806e-01,6.496013106032730855e-01,1.865431305243040697e+03
-6.513795648513368342e+00,-1.354167756462399552e+01,-3.809234456297597049e+00,7.996610870621558842e-01,1.726857748183318053e-01,5.750824019340324833e-01,1.874107969326825696e+03
-8.319068701340480487e+00,-1.239357868798878748e+01,-2.855584335923008865e+00,8.746077098857921728e-01,4.362083208518902772e-02,4.828628965006000473e-01,1.882784633410610695e+03
-9.997341975300109596e+00,-1.116850260174224019e+01,-1.822633678757294984e+00,9.226345537434433863e-01,-8.678670553622493122e-02,3.757812501727443300e-01,1.891461297494395694e+03
-1.146742802464216382e+01,-9.867474047425812245e+00,-8.067244046626670384e-01,9.422634026543854624e-01,-2.145229953540138956e-01,2.571333593356545100e-01,1.900137961578180693e+03
-1.264829685792465241e+01,-8.503505899937339407e+00,7.039388978259132623e-02,9.328901075134486964e-01,-3.356564185110392229e-01,1.305711147868990341e-01,1.908814625661965692e+03
-1.345920911898412342e+01,-7.093075815727415190e+00,6.870005937135755802e-01,8.948031780342509123e-01,-4.464585898833639543e-01,-9.999990814013471954e-06,1.917491289745750692e+03
-1.385744097591281054e+01,-5.655469960656310136e+00,9.660908289893271883e-01,9.319137227596858697e-01,-3.626733924138301757e-01,1.680407036292922525e-03,1.926167953829535691e+03
-1.387598002834474364e+01,-4.209962038799747397e+00,9.200528679640633811e-01,9.611961653755706214e-01,-2.758417376750265104e-01,3.356698436048035760e-03,1.934844617913320690e+03
-1.358582166045634843e+01,-2.773206363924220597e+00,6.060042049995186808e-01,9.824045353203170183e-01,-1.866930127944546602e-01,5.004793356513694870e-03,1.943521281997105689e+03
-1.305824749831988463e+01,-1.358795739499992550e+00,8.111828865391434995e-02,9.953606839403347228e-01,-9.597606763105509531e-02,6.610847804558831441e-03,1.952197946080890688e+03
-1.265197467152189859e+01,-5.383245574838306791e-01,-3.209060970312629379e-01,9.999557807662704523e-01,-4.452924595020885459e-03,8.161370931359263406e-03,1.957337763481349839e+03
-1.186498793776725513e+01,8.109166312739477522e-01,-1.107784828913424668e+00,9.961512275710195929e-01,8.710762214067099829e-02,9.643338351254736665e-03,1.966014427565134838e+03
-1.102654630562394011e+01,2.116285215976980272e+00,-1.957104293540792295e+00,9.839789825403730816e-01,1.779364642872081903e-01,1.104430154243598965e-02,1.974691091648919837e+03
-1.020856862787195674e+01,3.375239432578859500e+00,-2.811583897137189147e+00,9.635412918374488545e-01,2.672706397197241457e-01,1.235249241083775928e-02,1.983367755732704836e+03
-9.483040364972801228e+00,4.588321589365661701e+00,-3.613941942916974792e+00,9.350098308146999049e-01,3.543597411425782884e-01,1.355692213920652034e-02,1.992044419816489835e+03
-8.921965643109931676e+00,5.759159769118205929e+00,-4.306907580961119031e+00,8.986242620810912518e-01,4.384722193253545175e-01,1.464747349125711945e-02,2.000721083900274834e+03
-8.597319274971500391e+00,6.894468389417784948e+00,-4.833232760276216844e+00,8.546902225257588803e-01,5.189015279780192502e-01,1.561498579573170238e-02,2.009397747984059833e+03
-8.542505157504901803e+00,8.004663010337068840e+00,-5.159637236909201619e+00,9.104877328356502098e-01,4.131679726262864061e-01,1.738720082429274713e-02,2.018074412067844833e+03
-8.713778003384756943e+00,9.102262787137295419e+00,-5.300748576446760119e+00,9.532688045840809199e-01,3.015277202777888466e-01,1.891084640469913730e-02,2.026751076151629832e+03
-9.028677703541035271e+00,1.019795422154095910e+01,-5.295166038893353466e+00,9.824218347422721820e-01,1.855767929116345361e-01,2.016414032601154815e-02,2.035427740235414831e+03
-9.071407981280199095e+00,1.032492623998074244e+01,-5.285821261994321674e+00,9.975300483158526799e-01,6.697283836882388097e-02,2.112916535560458581e-02,2.036431931246835802e+03
-9.448772767071195844e+00,1.142610239503457237e+01,-5.151474960177593765e+00,9.983774565935160661e-01,-5.258856755863495352e-02,2.179212538559890250e-02,2.045108595330620801e+03
-9.794735986395528116e+00,1.253623908454117064e+01,-4.952192703165097853e+00,9.849519449379061653e-01,-1.713981612567103130e-01,2.214354266332684701e-02,2.053785259414406028e+03
-1.002640995622002329e+01,1.365492009192323941e+01,-4.726643564184303870e+00,9.574454459765983083e-01,-2.877574270991798966e-01,2.217839328624284650e-02,2.062461923498191027e+03
-1.006088411476148892e+01,1.477815990907771138e+01,-4.513502056781484306e+00,9.162511957173816723e-01,-4.000028796039227230e-01,2.189617902424612420e-02,2.071138587581976026e+03
-9.815280644438137969e+00,1.589840320896323611e+01,-4.351440062417744059e+00,8.619581118139137965e-01,-5.065298447978004992e-01,2.130093444263199062e-02,2.079815251665761025e+03
-9.206810104473007073e+00,1.700452565020522400e+01,-4.279118759364885172e+00,7.953423743490031228e-01,-6.058154008111780175e-01,2.040116922381631989e-02,2.088491915749546024e+03
-8.152827063285988274e+00,1.808183601481574598e+01,-4.335180554164780098e+00,7.173563294952479685e-01,-6.964401497421360832e-01,1.920974651236516048e-02,2.097168579833331023e+03
-7.198199755796388821e+00,1.872819502671284297e+01,-4.467955602873478149e+00,6.291148746848450601e-01,-7.771085095378127416e-01,1.774369902246698480e-02,2.102574989166561409e+03
-5.121345993608538372e+00,1.970800773255256999e+01,-4.869387440262697986e+00,5.318795199250159200e-01,-8.466672357973101803e-01,1.602398553673470283e-02,2.111251653250346408e+03
-2.709168687288438182e+00,2.054183630041287145e+01,-5.414692798744471069e+00,3.652372134838542395e-01,-9.306234893399576436e-01,2.323142214921324403e-02,2.119928317334131407e+03
-1.007849721881913352e+00,2.099959238877659828e+01,-5.845547178568518909e+00,1.858590711659539041e-01,-9.821285770043370889e-01,2.962876806324361498e-02,2.127724495732276409e+03
-8.024687620604892269e-01,2.099065652703754736e+01,-5.970378468946047512e+00,0.000000000000000000e+00,-9.993865585864837309e-01,3.499294952972902689e-02,2.136401159816061408e+03
-2.614254051922537680e+00,2.045410824931876093e+01,-5.532806795562533964e+00,1.827982228700855694e-01,-9.826457967883658329e-01,3.146502455006772864e-02,2.145077823899846408e+03
-5.003512304860898929e+00,1.966187545644644175e+01,-4.498893332886941820e+00,3.594346980395716207e-01,-9.327820499952368394e-01,2.687647766864333793e-02,2.153754487983631407e+03
-5.153031732377981733e+00,1.960259947333608110e+01,-4.400819879727940531e+00,5.239554337632462699e-01,-8.514760798128615527e-01,2.138197689257443843e-02,2.154387382205320137e+03
-6.384671142335443861e+00,1.889093168751564633e+01,-2.846463766526015515e+00,6.005803766210718875e-01,-7.923179416914083451e-01,-1.073940896342563678e-01,2.163064046289105136e+03
-6.452317858675032269e+00,1.840707286091603478e+01,-1.094956609262650149e+00,6.616176487355824865e-01,-7.125956216704822932e-01,-2.333828760929364809e-01,2.171740710372890135e+03
-6.408473646723732209e+00,1.837778378399926638e+01,-8.750128867780745390e-01,5.837787970111794067e-01,-7.873083098841098248e-01,-1.983581138930337329e-01,2.172833140906843255e+03
-5.856527814389035136e+00,1.840020625110243913e+01,7.472810482207860039e-01,4.984281226807832366e-01,-8.518901853477633956e-01,-1.607809647593808067e-01,2.181509804990628254e+03
-4.983081874971077241e+00,1.866364843676512919e+01,2.100770152675865976e+00,4.066638884923418629e-01,-9.055102450122906044e-01,-1.211349576885602797e-01,2.190186469074413253e+03
-3.860775715794995566e+00,1.906834223701371656e+01,3.072638421823197241e+00,3.096668803422205629e-01,-9.474785378795635982e-01,-7.993024131729853377e-02,2.198863133158198252e+03
-2.565816564314221893e+00,1.951779814775939315e+01,3.550149569177065256e+00,2.086852137843077659e-01,-9.772550415574041693e-01,-3.769701976098357304e-02,2.207539797241983251e+03
-1.638319017695656132e+00,1.979962654200334171e+01,3.713649651666584450e+00,1.050182746034576675e-01,-9.944566098392026987e-01,5.021269449453581203e-03,2.213652121309497488e+03
-6.545571303637640614e-01,2.003368823474685456e+01,4.914985949768968965e+00,0.000000000000000000e+00,-9.988619020525988379e-01,4.767494759577405039e-02,2.222328785393282487e+03
-2.362035770440119309e-01,1.996053636701127942e+01,7.381646169185493989e+00,0.000000000000000000e+00,-9.999586662508812562e-01,-8.981412765683968735e-03,2.231005449477067486e+03
-2.260523176505056520e-01,1.993445759251717320e+01,7.585568368485319013e+00,0.000000000000000000e+00,-9.978444088153478608e-01,-6.560896112919958889e-02,2.231662615805189489e+03
-2.018931656324301216e-01,1.930328803774336066e+01,9.257941839648896831e+00,9.678404963110703862e-02,-9.747405135455089464e-01,-2.012753809840768515e-01,2.240339279888974488e+03
-3.880555632917452313e-01,1.832063794011290625e+01,9.331150121328750657e+00,1.908284849566411201e-01,-9.240452524546679536e-01,-3.312444123989248812e-01,2.249015943972759487e+03
-7.842990476921493093e-01,1.710065603274059853e+01,8.286302600874215329e+00,2.794712458660720822e-01,-8.471936367061168038e-01,-4.518370996933135375e-01,2.257692608056544486e+03
-1.386152866735013145e+00,1.575727773853944491e+01,6.604741993913108011e+00,3.602031783171365520e-01,-7.463610711738247749e-01,-5.596399036587953457e-01,2.266369272140329485e+03
-2.184921138641309657e+00,1.440409429505854177e+01,4.767943879474205282e+00,4.307390597009175259e-01,-6.244017725433873567e-01,-6.516013266511806457e-01,2.275045936224114485e+03
-3.167689570083077832e+00,1.315422203924742028e+01,3.257416221821818780e+00,4.890822843266345310e-01,-4.847679730256320152e-01,-7.251182879279615134e-01,2.283722600307899484e+03
-3.496954017984317264e+00,1.283572293676068554e+01,2.979533514981784759e+00,5.335813782197184052e-01,-3.314121976997632113e-01,-7.781098046125763945e-01,2.286302034248829841e+03
-4.715696772214680088e+00,1.201531401115937925e+01,2.932784957687710303e+00,5.629767439582115118e-01,-1.686753823031170996e-01,-8.090758933304477152e-01,2.294978698332614840e+03
-6.070233712808950521e+00,1.155602209860160912e+01,4.318007477086046819e+00,5.764363129605555303e-01,-1.163998612660337249e-03,-8.171400260720623754e-01,2.303655362416399839e+03
-7.442617366351210961e+00,1.146196704111657638e+01,6.845277947261903861e+00,7.902887125949269453e-01,-8.376476087767247350e-04,-6.127324449484211621e-01,2.312332026500184838e+03
-7.910179937986299592e+00,1.149938664492306017e+01,7.755086530445389315e+00,9.349785373007953870e-01,-4.379893494797729853e-04,-3.547012023561022520e-01,2.315663338849083175e+03
-8.707240160834976095e+00,1.155982705942525257e+01,8.166318388489852254e+00,9.978431604534077071e-01,-0.000000000000000000e+00,-6.562794478318881297e-02,2.324340002932868174e+03
-8.727539092600588688e+00,1.155835499698361701e+01,8.117562746273542018e+00,9.978431597491095317e-01,-0.000000000000000000e+00,-6.562794473686725527e-02,2.324706374150830470e+03
-8.940170756426903509e+00,1.148565734825116280e+01,6.282819504635650532e+00,9.996731842912910393e-01,-0.000000000000000000e+00,-2.552497917224535659e-02,2.333027701794162112e+03
-8.827335061920370762e+00,1.143612022338562006e+01,4.372445733974419824e+00,9.988611377069980257e-01,-0.000000000000000000e+00,4.769095882953244825e-02,2.340429736949079143e+03
-8.597211126817672522e+00,1.140180812102695285e+01,2.636104569593248570e+00,9.919129090364577905e-01,-0.000000000000000000e+00,-1.269124930196784407e-01,2.349106401032864142e+03
-8.558998571401827959e+00,1.135884805505808437e+01,1.676394509834683300e+00,9.546769266706609525e-01,-0.000000000000000000e+00,-2.976406653669427804e-01,2.354278342309909476e+03
