3.953766501126356747e+00,1.072273216127898188e+01,8.199866258592157564e+00,-3.675564515657073761e-01,-3.068156286042169612e-01,-8.779319022319553856e-01,9.494580766051062710e+02
2.021818761545572940e+00,9.102380126469789445e+00,7.559212119373381888e+00,-2.490558033441299390e-01,-3.781955798932375434e-01,-8.915925696022065639e-01,9.581347406888913838e+02
-1.128496879899555938e-01,7.170252366888962392e+00,6.800616217558145493e+00,-1.257423532217308015e-01,-4.422672261940993055e-01,-8.880239643391869553e-01,9.668114047726764966e+02
-1.991573817570251759e+00,5.213698668314076023e+00,6.123169119577364761e+00,9.999988887663479212e-07,-4.977924468356665910e-01,-8.672950362314982842e-01,9.754880688564616094e+02
-3.290846747286547913e+00,3.422430267736561227e+00,5.665549559305863347e+00,3.514015290458252089e-02,-4.215131910517246894e-01,-9.061400550813538679e-01,9.841647329402467221e+02
-3.881246916237443223e+00,2.125536821183922953e+00,5.481367478102232127e+00,6.997842319652719523e-02,-3.416248492725804109e-01,-9.372264841787657508e-01,9.910435143258105199e+02
-4.238212051222234322e+00,5.782099681957888482e-01,5.436158823721914501e+00,1.042175211117799816e-01,-2.588114367014032746e-01,-9.602881591092922164e-01,9.997201784095956327e+02
-4.365022517505174449e+00,-9.239807012563288069e-01,5.552213572175915601e+00,1.375642869419407277e-01,-1.737820123452249732e-01,-9.751276219771970455e-01,1.008396842493380746e+03
-4.465345091487191276e+00,-2.446884854940658105e+00,5.786861872903283022e+00,1.697332007446092084e-01,-8.726460886427001018e-02,-9.816178118820082510e-01,1.017073506577165858e+03
-4.752262921258663120e+00,-4.051424278375581167e+00,6.097409071700893080e+00,2.004488266898622750e-01,-0.000000000000000000e+00,-9.797031529384774284e-01,1.025750170660950971e+03
-5.343300386691566928e+00,-5.721391929518786945e+00,6.443467661571751215e+00,3.056611618144532971e-01,1.657757933984467871e-02,-9.519949779391456701e-01,1.034426834744735970e+03
-5.796566010374615274e+00,-6.659505526660901786e+00,6.643232815315171180e+00,4.071712243722767632e-01,3.295436125402968069e-02,-9.127560485243285671e-01,1.039362803459668157e+03
-6.625563639526020232e+00,-8.105945391280029000e+00,6.973269006247245549e+00,5.037495157227999121e-01,4.893198834348876786e-02,-8.624616431623362001e-01,1.048039467543453156e+03
-7.286409164523536930e+00,-9.096057133993431520e+00,7.250629235955479146e+00,5.942262733102727790e-01,6.431693823503058238e-02,-8.017209412036631067e-01,1.056716131627238155e+03
-7.495856133311873393e+00,-9.408631981654204779e+00,7.441901768700532216e+00,6.775056371875519678e-01,7.892286728681477403e-02,-7.312696442482701231e-01,1.065392795711023155e+03
-7.336834368132498341e+00,-9.314677465666408196e+00,7.492396399252503336e+00,7.525789214881516420e-01,9.257286733493137743e-02,-6.519610656823969785e-01,1.069527337095564462e+03
-6.332868539202191727e+00,-8.640963007559399500e+00,7.506007906103753236e+00,5.180755565873944590e-01,2.416166281999151677e-01,-8.204980942364191732e-01,1.078204001179349461e+03
-4.554593680318795634e+00,-7.525006881656977953e+00,7.421231839676031505e+00,2.288578106117855893e-01,3.651430610599828985e-01,-9.023816528959226480e-01,1.086880665263134460e+03
-2.215966108427133374e+00,-6.511559416645254394e+00,7.275086819093123935e+00,-8.452989841296686124e-02,4.501064590673757859e-01,-8.889639316536507296e-01,1.095557329346919460e+03
-1.257580792286566274e+00,-6.226314497996430219e+00,7.212720796939581902e+00,-1.972428620506671837e-01,3.964128217691640366e-01,-8.966326606296548540e-01,1.098758131633647281e+03
1.361195822632447427e+00,-5.773151166280317881e+00,7.068781117192500574e+00,-3.068697271671637639e-01,3.365169004058050084e-01,-8.902726247001838678e-01,1.107434795717432280e+03
3.751242475125541098e+00,-5.788423245297032338e+00,7.022688958473449539e+00,-4.116952776148754545e-01,2.713558278645691879e-01,-8.699833406879575737e-01,1.116111459801217279e+03
5.559262580757864392e+00,-6.135705785898859510e+00,7.163680609189033710e+00,-5.100794192986448650e-01,2.019491126932266012e-01,-8.360822578499145230e-01,1.124788123885002278e+03
6.451137886082324968e+00,-6.670462770870475566e+00,7.580953238113752768e+00,-6.004828389483709561e-01,1.293826888609915515e-01,-7.890997908709286301e-01,1.133464787968787277e+03
6.188043047115985296e+00,-7.185124761453973719e+00,8.266260032129444824e+00,-6.814910863539269670e-01,5.479192654279781138e-02,-7.297710216270740791e-01,1.141209167397182000e+03
4.664591397801888029e+00,-7.673610298108857641e+00,9.331755451979228511e+00,-4.794766417577115969e-01,4.147431524759716270e-02,-8.765728898298599248e-01,1.149885831480966999e+03
2.317932357112551411e+00,-7.978093175376971047e+00,1.038266350603385568e+01,-2.474766956193917566e-01,2.556298295930613945e-02,-9.685555322379676424e-01,1.158562495564751998e+03
-1.695187038304542537e-01,-8.035027108165802900e+00,1.095948239735899676e+01,-0.000000000000000000e+00,8.052988517099743740e-03,-9.999665741297896204e-01,1.167239159648536997e+03
-2.297852145192383677e+00,-7.855988657537346320e+00,1.082620766950569902e+01,2.522642347650952757e-02,-8.197163859895817417e-02,-9.963143469927271401e-01,1.175915823732321996e+03
-2.316555320727446965e+00,-7.853221065766882170e+00,1.082129176249222979e+01,5.023200919067417197e-02,-1.712786671229315494e-01,-9.839402235099464766e-01,1.176002597172595415e+03
-3.971178345126467502e+00,-7.578454135035844530e+00,1.019083284270948475e+01,7.479785807258813868e-02,-2.590863027140812846e-01,-9.629525264378679950e-01,1.184679261256380414e+03
-5.251050137941621010e+00,-7.408832264471867823e+00,9.500008651935994308e+00,9.870892012822064798e-02,-3.446258753909626771e-01,-9.335349779720014674e-01,1.193355925340165413e+03
-6.283027024241870429e+00,-7.541224407027944387e+00,9.183274977544956030e+00,1.217558766212737814e-01,-4.271485671580905197e-01,-8.959450921131094647e-01,1.202032589423950412e+03
-6.906143174251598182e+00,-7.839610364530588349e+00,9.342766789751156153e+00,2.427882910101824832e-01,-3.922655417434824376e-01,-8.872314188022997206e-01,1.207929869767793889e+03
-7.795009792754398426e+00,-8.532318195578049824e+00,9.988331120074878555e+00,3.599502384121139875e-01,-3.511291737708309157e-01,-8.643738364823336795e-01,1.216606533851578888e+03
-8.711105624789302837e+00,-9.432454123028032100e+00,1.073303853891363246e+01,4.713739723324733566e-01,-3.043952468200490369e-01,-8.277367407105780117e-01,1.225283197935363887e+03
-9.697470066623608886e+00,-1.036626992174301698e+01,1.115453408514278166e+01,5.752832254634744347e-01,-2.528087768056302975e-01,-7.779041926046178501e-01,1.233959862019148886e+03
-1.077123580331093500e+01,-1.115930882328729545e+01,1.083053016168719118e+01,6.700215250171087655e-01,-1.971921350912026194e-01,-7.156706071046157192e-01,1.242636526102933885e+03
-1.192362397053257972e+01,-1.163700701908035740e+01,9.338894685066842172e+00,7.540785981351876277e-01,-1.384319387168223559e-01,-6.420280883101573410e-01,1.251313190186718884e+03
-1.222422604076457553e+01,-1.170156693324379837e+01,8.744944565053987873e+00,8.261144466400051067e-01,-7.746491670656655004e-02,-5.581506138435601283e-01,1.253503822420338793e+03
-1.342375268493685780e+01,-1.162676206712846216e+01,5.267415275742072467e+00,8.849807075426920910e-01,-1.526297770940438295e-02,-4.653753203493267154e-01,1.262180486504123792e+03
-1.447848419882002169e+01,-1.134482716169237371e+01,8.382633877935546929e-01,9.978964962917117321e-01,-6.481190233636946463e-02,1.999996986248517972e-06,1.270857150587908791e+03
-1.494042978818029255e+01,-1.137176535094388186e+01,-1.518165100060361983e+00,9.955292075190718126e-01,5.702601656415305642e-02,7.528366631065755432e-02,1.276364922682093948e+03
-1.528678499715289618e+01,-1.202134594382921762e+01,-3.717262016685086490e+00,9.727361971522692219e-01,1.776938996456160769e-01,1.490206991676493176e-01,1.285041586765878947e+03
-1.526281445115040647e+01,-1.328980807403138265e+01,-4.553554682061506043e+00,9.299851210088583287e-01,2.947159550407255080e-01,2.197002060729716655e-01,1.293718250849663946e+03
-1.490214390895194896e+01,-1.486848472127014453e+01,-4.493444911719224777e+00,8.681531199210641425e-01,4.056911936903003224e-01,2.858720268500311024e-01,1.302394914933448945e+03
-1.419094332147973780e+01,-1.644849495416785601e+01,-4.003521600740341135e+00,7.885088236049018207e-01,5.083426901632178696e-01,3.461784864150707075e-01,1.311071579017233944e+03
-1.306793115118649951e+01,-1.772184581676464177e+01,-3.550463321676212480e+00,6.926863227971112869e-01,6.005642983262308165e-01,3.993822502157638454e-01,1.319748243101018943e+03
-1.175577776743770464e+01,-1.836609768682387056e+01,-3.541617940045875379e+00,5.826516434661624944e-01,6.804638635736877106e-01,4.443917109241254937e-01,1.326825654046477666e+03
-9.525794379759750186e+00,-1.839706911360950059e+01,-4.396569024733015141e+00,4.606624106662593476e-01,7.464020451143851265e-01,4.802833855647918315e-01,1.335502318130262665e+03
-6.735827076224778054e+00,-1.751242552320749724e+01,-6.164136436733890001e+00,2.464466591675598395e-01,6.278604382736283629e-01,7.382772610861598750e-01,1.344178982214047664e+03
-4.024275358191755636e+00,-1.613755613538403821e+01,-7.996821673072362024e+00,1.054998706094199953e-03,4.298934727560758673e-01,9.028778926631518820e-01,1.352855646297832664e+03
-2.053395342245187383e+00,-1.474515554242333160e+01,-9.010244445304717686e+00,8.523254725032466212e-04,3.558622050868928688e-01,9.345369786853804372e-01,1.361532310381617663e+03
-2.038227956306165822e+00,-1.473173137839712332e+01,-9.015111649815072070e+00,6.441266267421644253e-04,2.795238886763748432e-01,9.601374801341986398e-01,1.361619784419703819e+03
-8.757793312831727572e-01,-1.342536716464685576e+01,-9.128378125588076486e+00,4.317518835647992542e-04,2.013734106848819871e-01,9.795134317902535193e-01,1.370296448503488818e+03
-2.701481320515274898e-01,-1.213119728057415614e+01,-8.662545428655546331e+00,2.165780294865493909e-04,1.219174061234336998e-01,9.925392179535067472e-01,1.378973112587273818e+03
3.763985609202887689e-02,-1.078203151571242735e+01,-7.936820061865820897e+00,0.000000000000000000e+00,4.167097442637810595e-02,9.991303868302074953e-01,1.387649776671058817e+03
2.342929785154879430e-01,-9.543922349276922290e+00,-7.241670308941509759e+00,1.032406556290913251e-05,-2.779750678761719329e-01,9.605872482661308442e-01,1.395205345963566742e+03
4.977749941114260612e-01,-8.101142034130711878e+00,-6.280641519363364900e+00,1.957795075190678791e-05,-5.688065725834510200e-01,8.224701104604750235e-01,1.403882010047351741e+03
8.643546083373641054e-01,-6.724294175374335936e+00,-4.915059407736932506e+00,2.680239705031068863e-05,-8.006759287588272045e-01,5.990960326909358091e-01,1.412558674131136740e+03
1.386565259284288087e+00,-5.513190390653863737e+00,-2.897042603873584365e+00,3.124851756664310414e-05,-9.495475352928711699e-01,3.136199567013510103e-01,1.421235338214921740e+03
2.102380420806682082e+00,-4.568723294002265511e+00,-1.696851092298724273e-01,3.245543101655662686e-05,-9.999894700321844132e-01,-4.365635202180351108e-03,1.429912002298706739e+03
3.035202412840081188e+00,-3.992528401706383789e+00,2.942092597288447298e+00,3.029803583939320408e-05,-9.467731442714601986e-01,-3.218984503977175282e-01,1.438588666382491738e+03
4.193854963346970166e+00,-3.886645826304875762e+00,5.922450581752053189e+00,2.499997267778497785e-05,-7.954151306989206693e-01,-6.060633376395629934e-01,1.447265330466276737e+03
5.538368531465494904e+00,-4.298126597202582388e+00,8.401911045037484982e+00,5.012247140709626082e-04,-7.455812720936876303e-01,-6.664130216898169756e-01,1.455941994550061736e+03
6.956734948813235064e+00,-5.162648246773212435e+00,1.030377014226544041e+01,9.743790416795042927e-04,-6.911801839781829271e-01,-7.226804299704393530e-01,1.464618658633846735e+03
8.315582526414063480e+00,-6.358072391175684679e+00,1.169777924547312686e+01,1.441564546726803800e-03,-6.325451131550240413e-01,-7.745208852679893452e-01,1.473295322717631734e+03
8.618116730774181278e+00,-6.675007289595053628e+00,1.196242480529914864e+01,1.899919385305095902e-03,-5.700352421367644862e-01,-8.216168285943317162e-01,1.475350588592802978e+03
9.750442293585741993e+00,-8.077884933495106168e+00,1.284616760473199015e+01,2.346635808462783392e-03,-5.040334889386212103e-01,-8.636797643396322277e-01,1.484027252676587977e+03
1.059201475953542015e+01,-9.528623340545946618e+00,1.337844466121192966e+01,2.778977360889818646e-03,-4.349441615028673547e-01,-9.004520274064654606e-01,1.492703916760372977e+03
1.106899856302521812e+01,-1.089719777700320336e+01,1.362929509137481787e+01,3.194295642894070652e-03,-3.631904811188063631e-01,-9.317083615064489788e-01,1.501380580844157976e+03
1.112600180402511540e+01,-1.205204891787965593e+01,1.366881662243249274e+01,3.590046533035761312e-03,-2.892119900033395252e-01,-9.572572989563206125e-01,1.510057244927942975e+03
1.072609199779646261e+01,-1.286051107303174490e+01,1.356715095574497099e+01,3.963805772087437319e-03,-2.134618589156979662e-01,-9.769423335248311746e-01,1.518733909011727974e+03
9.850807192919498689e+00,-1.318924070476634114e+01,1.339446912368257792e+01,4.313283812893371760e-03,-1.364041112916175580e-01,-9.906428791478270046e-01,1.527410573095512973e+03
8.500162455698724528e+00,-1.290464513693970083e+01,1.322095684211661748e+01,4.636339845191259600e-03,-5.851078089337207605e-02,-9.982750086387968125e-01,1.536087237179297972e+03
8.370611475659437417e+00,-1.285339320087837400e+01,1.320829565849562393e+01,4.930994909503488323e-03,1.974097962046407820e-02,-9.997919678680230460e-01,1.536793681076719395e+03
6.626588674318255379e+00,-1.196021952597672566e+01,1.307084086048588389e+01,4.238150800463905653e-03,5.518605183787778784e-02,-9.984660924415885708e-01,1.545470345160504394e+03
4.736360755956661173e+00,-1.078496533580560879e+01,1.292703845429434395e+01,3.539972769390534960e-03,9.056165778173984326e-02,-9.958835548035114282e-01,1.554147009244289393e+03
2.952345157377338047e+00,-9.808128702713721836e+00,1.269547265836549954e+01,2.837339486337213043e-03,1.258232768249264721e-01,-9.920476059692343584e-01,1.562823673328074392e+03
1.454799186843675818e+00,-9.515340340092160787e+00,1.229474587983240497e+01,2.131135225806050221e-03,1.609265318424786817e-01,-9.869630740850851014e-01,1.571500337411859391e+03
3.517688976445392246e-01,-1.039568774385473660e+01,1.164349570989538307e+01,1.422248754692138082e-03,1.958272450174003143e-01,-9.806363583474979606e-01,1.580177001495644390e+03
-1.701064679459932116e-01,-1.198276883902842904e+01,1.093830595329368549e+01,7.115722146123264419e-04,2.304814933958156675e-01,-9.730754209528632570e-01,1.586639509500936583e+03
-4.856303458099286430e-01,-1.579258830812906922e+01,9.625068076506797965e+00,0.000000000000000000e+00,2.648456641220581220e-01,-9.642897770852628669e-01,1.595316173584721582e+03
-4.836967101987986739e-01,-1.804019378523678441e+01,8.872084216187175798e+00,-0.000000000000000000e+00,3.410856895361299435e-01,-9.400311443624989050e-01,1.599338965808190324e+03
-1.611815417166485853e-02,-2.097320058268377352e+01,7.032760032200730649e+00,-3.230183608123804451e-01,4.467920794801609752e-01,-8.342865073179728252e-01,1.608015629891975323e+03
1.125987541223610222e+00,-2.086550140189355673e+01,4.969896434972099541e+00,-6.051112637003469574e-01,4.958913024062636676e-01,-6.228404087259294952e-01,1.616692293975760322e+03
2.841906544586596972e+00,-1.888768919237708133e+01,2.719772910210778605e+00,-8.105384596092877203e-01,4.821626669404919241e-01,-3.324824327753394537e-01,1.625368958059545321e+03
4.857451563728201194e+00,-1.620579794699035858e+01,3.187079846596800881e-01,-9.132730123892983665e-01,4.073455594977313243e-01,-0.000000000000000000e+00,1.634045622143330320e+03
6.868986865294155031e+00,-1.365349851718266372e+01,-1.968498898814764697e+00,-9.264902559871328602e-01,3.741640279432839611e-01,-4.018812951435215414e-02,1.642722286227115319e+03
8.594764745192501110e+00,-1.161856860016849424e+01,-3.550541955275547945e+00,-9.370291994513092471e-01,3.399008667041471532e-01,-8.026007842769483647e-02,1.650675198696688540e+03
1.034228749385252577e+01,-9.723040806676761960e+00,-4.533948583489240569e+00,-9.448593779373180013e-01,3.046551230768834717e-01,-1.201000079383810482e-01,1.659351862780473539e+03
1.194170498727202023e+01,-8.214602601592781994e+00,-4.833719660604642421e+00,-9.499581568035746493e-01,2.685286846123270399e-01,-1.595927500316293990e-01,1.668028526864258538e+03
1.337514510735453754e+01,-7.134123100403063411e+00,-4.529325248585688968e+00,-9.523107970184753190e-01,2.316259846127344257e-01,-1.986241403610360112e-01,1.676705190948043537e+03
1.461808440816945520e+01,-6.521996610422429619e+00,-3.700361484418649205e+00,-9.519104977527843570e-01,1.940537002744849859e-01,-2.370813482283075091e-01,1.685381855031828536e+03
1.563935336742190074e+01,-6.417988187629273256e+00,-2.426533965733270737e+00,-9.487584160339117556e-01,1.559204443475833146e-01,-2.748532027085588414e-01,1.694058519115613535e+03
1.640114331419374949e+01,-6.861079324327578277e+00,-7.876411192703717257e-01,-9.428636634054103904e-01,1.173364512021915079e-01,-3.118305139796350156e-01,1.702735183199398534e+03
1.685901503023229964e+01,-7.889313803628528632e+00,1.136442444540050500e+00,-9.342432796012399843e-01,7.841325820852063089e-02,-3.479063889277317911e-01,1.711411847283183533e+03
1.696174378843539188e+01,-9.276945364654890724e+00,3.000279993714270343e+00,-9.229221833105349937e-01,3.926338334993369206e-02,-3.829765401180425521e-01,1.719019715874761914e+03
1.668567747776783960e+01,-1.144746862408974586e+01,5.252514530066008547e+00,-9.089331001745973859e-01,0.000000000000000000e+00,-4.169395872382335444e-01,1.727696379958546913e+03
1.598312299862043417e+01,-1.410675210651285383e+01,7.364080077668334390e+00,-8.308700935761591522e-01,2.821523797423960422e-01,-4.796278997375698627e-01,1.736373044042331912e+03
1.494696805277795981e+01,-1.669299657054475006e+01,8.667605324780526033e+00,-6.783331045798046688e-01,5.390142884848517779e-01,-4.993253408754618761e-01,1.745049708126116911e+03
1.404810625715333927e+01,-1.828414983899304858e+01,8.711174819453063378e+00,-5.797667082547859341e-01,6.949124157761270570e-01,-4.254001626715967488e-01,1.751545912523394691e+03
1.278033432183355877e+01,-1.983710198697252736e+01,7.586922329429084400e+00,-4.583084864830279104e-01,8.233722115256502105e-01,-3.346782522161718676e-01,1.760222576607179690e+03
1.148193954818224682e+01,-2.077728906469129910e+01,5.572102551361547640e+00,-3.187541529508309823e-01,9.193215163416461611e-01,-2.307417161444746678e-01,1.768899240690964689e+03
1.018432328490559513e+01,-2.123095661759114350e+01,3.113322773950402134e+00,-1.666139303281501671e-01,9.789718175841777281e-01,-1.176944289155398005e-01,1.777575904774749688e+03
8.899908623558069110e+00,-2.132483782448270659e+01,6.572829065237795199e-01,-7.894990794486694483e-03,9.999678340433270085e-01,-0.000000000000000000e+00,1.786252568858534687e+03
7.623736741947122475e+00,-2.116129424493598066e+01,-1.466118030104603953e+00,4.049498108585679323e-02,9.915157264317248087e-01,1.235100026162675863e-01,1.794929232942319686e+03
6.339953595806671949e+00,-2.079354634992845874e+01,-3.160651030376588011e+00,8.816949826877300278e-02,9.655457321741832688e-01,2.448378619740283202e-01,1.803605897026104685e+03
5.860400824068336512e+00,-2.061687514559282874e+01,-3.680563273813795444e+00,1.342862614991624237e-01,9.225166769406917266e-01,3.618399932835948962e-01,1.806808658367369162e+03
4.528645693114320636e+00,-2.004659241424329252e+01,-4.817244788808163314e+00,1.780304921275838170e-01,8.631887772659047053e-01,4.724492339663061147e-01,1.815485322451154161e+03
3.131871986746793457e+00,-1.933825554163577110e+01,-5.574144201064815896e+00,2.186293267797353723e-01,7.886102112906043793e-01,5.747113641821213204e-01,1.824161986534939160e+03
1.638871522447507445e+00,-1.851870435848574914e+01,-5.972117503860708609e+00,2.553654718238480004e-01,7.000986024120889883e-01,6.668196328097543146e-01,1.832838650618724159e+03
1.414711936382524043e-02,-1.761398383387733091e+01,-6.032095561396275230e+00,2.875898764463321600e-01,5.992177425655212941e-01,7.471466790126489732e-01,1.841515314702509158e+03
-1.753550734480242568e+00,-1.664226593562921863e+01,-5.782479132260252896e+00,4.400639851346996867e-01,5.130349765916145666e-01,7.369781555656124139e-01,1.850191978786294158e+03
-3.621253119230868123e+00,-1.560768301989612539e+01,-5.266532337130795938e+00,5.789932327127900180e-01,4.110613675086232099e-01,7.041259749609430907e-01,1.858868642870079157e+03
-5.059922792571071248e+00,-1.478384417598259759e+01,-4.722904502617780054e+00,7.001014736615680523e-01,2.964355981313713806e-01,6.496013106032730855e-01,1.865431305243040697e+03
-6.934330086711969265e+00,-1.363983150308169279e+01,-3.845934108598323409e+00,7.996610870621558842e-01,1.726857748183318053e-01,5.750824019340324833e-01,1.874107969326825696e+03
-8.713620230984915338e+00,-1.243249198199620054e+01,-2.842538047781550503e+00,8.746077098857921728e-01,4.362083208518902772e-02,4.828628965006000473e-01,1.882784633410610695e+03
-1.032705405315082814e+01,-1.116568953513034934e+01,-1.779868076254397247e+00,9.226345537434433863e-01,-8.678670553622493122e-02,3.757812501727443300e-01,1.891461297494395694e+03
-1.170423698678285795e+01,-9.846701706040647650e+00,-7.577537463238596116e-01,9.422634026543854624e-01,-2.145229953540138956e-01,2.571333593356545100e-01,1.900137961578180693e+03
-1.277533417192154275e+01,-8.485335783253669106e+00,1.076511502316051944e-01,9.328901075134486964e-01,-3.356564185110392229e-01,1.305711147868990341e-01,1.908814625661965692e+03
-1.347111083820526645e+01,-7.093042430944977106e+00,7.002255443916327593e-01,8.948031780342509123e-01,-4.464585898833639543e-01,-9.999990814013471954e-06,1.917491289745750692e+03
-1.375831849936461815e+01,-5.682733725169746286e+00,9.477355221911949457e-01,9.319137227596858697e-01,-3.626733924138301757e-01,1.680407036292922525e-03,1.926167953829535691e+03
-1.367509373163712993e+01,-4.267485165366829314e+00,8.656795987693380878e-01,9.611961653755706214e-01,-2.758417376750265104e-01,3.356698436048035760e-03,1.934844617913320690e+03
-1.329561343968157416e+01,-2.859015097173614350e+00,5.134552808837793414e-01,9.824045353203170183e-01,-1.866930127944546602e-01,5.004793356513694870e-03,1.943521281997105689e+03
-1.269471832438380687e+01,-1.467279483660903994e+00,-4.948353176895408517e-02,9.953606839403347228e-01,-9.597606763105509531e-02,6.610847804558831441e-03,1.952197946080890688e+03
-1.225913686364084576e+01,-6.532772975913576641e-01,-4.633423536058223213e-01,9.999557807662704523e-01,-4.452924595020885459e-03,8.161370931359263406e-03,1.957337763481349839e+03
-1.144982797998275537e+01,6.980156914126994794e-01,-1.250310475513777497e+00,9.961512275710195929e-01,8.710762214067099829e-02,9.643338351254736665e-03,1.966014427565134838e+03
-1.061601214003948357e+01,2.014833569516510270e+00,-2.093690584148127254e+00,9.839789825403730816e-01,1.779364642872081903e-01,1.104430154243598965e-02,1.974691091648919837e+03
-9.834745453018586048e+00,3.293671558456592763e+00,-2.933927411033336874e+00,9.635412918374488545e-01,2.672706397197241457e-01,1.235249241083775928e-02,1.983367755732704836e+03
-9.183652285513479896e+00,4.532852770934145958e+00,-3.711466320131798113e+00,9.350098308146999049e-01,3.543597411425782884e-01,1.355692213920652034e-02,1.992044419816489835e+03
-8.740904039811297821e+00,5.732541200192282638e+00,-4.366765731037115295e+00,8.986242620810912518e-01,4.384722193253545175e-01,1.464747349125711945e-02,2.000721083900274834e+03
-8.585197787541673620e+00,6.894754248661772777e+00,-4.840309541158504203e+00,8.546902225257588803e-01,5.189015279780192502e-01,1.561498579573170238e-02,2.009397747984059833e+03
-8.749962380211590229e+00,8.025205209577460863e+00,-5.098757772519213027e+00,9.104877328356502098e-01,4.131679726262864061e-01,1.738720082429274713e-02,2.018074412067844833e+03
-9.177138415455898368e+00,9.133698148558003993e+00,-5.161091755260968306e+00,9.532688045840809199e-01,3.015277202777888466e-01,1.891084640469913730e-02,2.026751076151629832e+03
-9.762309631997830195e+00,1.023012534622464642e+01,-5.072471934029954888e+00,9.824218347422721820e-01,1.855767929116345361e-01,2.016414032601154815e-02,2.035427740235414831e+03
-9.836241197977773965e+00,1.035665509754656277e+01,-5.054487060559078593e+00,9.975300483158526799e-01,6.697283836882388097e-02,2.112916535560458581e-02,2.036431931246835802e+03
-1.046969154075770270e+01,1.144993808527766177e+01,-4.857528369216581154e+00,9.983774565935160661e-01,-5.258856755863495352e-02,2.179212538559890250e-02,2.045108595330620801e+03
-1.103766698993105244e+01,1.254380898897410468e+01,-4.605254818102544334e+00,9.849519449379061653e-01,-1.713981612567103130e-01,2.214354266332684701e-02,2.053785259414406028e+03
-1.143343310915845379e+01,1.364037335897052650e+01,-4.342893067936711482e+00,9.574454459765983083e-01,-2.877574270991798966e-01,2.217839328624284650e-02,2.062461923498191027e+03
-1.154957140933290205e+01,1.473920341520990540e+01,-4.115671836502663439e+00,9.162511957173816723e-01,-4.000028796039227230e-01,2.189617902424612420e-02,2.071138587581976026e+03
-1.127800885601675596e+01,1.583732241395415308e+01,-3.968812459744606613e+00,8.619581118139137965e-01,-5.065298447978004992e-01,2.130093444263199062e-02,2.079815251665761025e+03
-1.051004754773925853e+01,1.692918965544412302e+01,-3.947519454006716444e+00,7.953423743490031228e-01,-6.058154008111780175e-01,2.040116922381631989e-02,2.088491915749546024e+03
-9.136394560056032788e+00,1.800668613616940306e+01,-4.096971080953524691e+00,7.173563294952479685e-01,-6.964401497421360832e-01,1.920974651236516048e-02,2.097168579833331023e+03
-7.901767122450270797e+00,1.866531030427302085e+01,-4.301276301595478913e+00,6.291148746848450601e-01,-7.771085095378127416e-01,1.774369902246698480e-02,2.102574989166561409e+03
-5.223072724370457109e+00,1.969191674271135639e+01,-4.844206775790449448e+00,5.318795199250159200e-01,-8.466672357973101803e-01,1.602398553673470283e-02,2.111251653250346408e+03
-2.208090019663478731e+00,2.057342890540441971e+01,-5.539651861163896740e+00,2.767570994085543634e-01,-9.605721288744796249e-01,2.654605726954617495e-02,2.119928317334131407e+03
-5.212064903860563758e-01,2.103168481894784847e+01,-5.996790220248380265e+00,0.000000000000000000e+00,-9.993865585864837309e-01,3.499294952972902689e-02,2.127724495732276409e+03
-9.238143611048909021e-01,2.098779416465291092e+01,-5.999007207336278569e+00,1.374376060292885615e-01,-9.899776712778374232e-01,3.245173062388309604e-02,2.136401159816061408e+03
-3.017012019174616810e+00,2.045338479081265248e+01,-5.461097373786429898e+00,2.722660736973150919e-01,-9.617749324252057308e-01,2.929444438976963605e-02,2.145077823899846408e+03
-5.261380017952703270e+00,1.965138983010583118e+01,-4.505366523449901628e+00,4.019258343497603136e-01,-9.153137356531990676e-01,2.558102825720593582e-02,2.153754487983631407e+03
-5.401022446226686924e+00,1.958676982618782958e+01,-4.422430529379786535e+00,5.239554337632462699e-01,-8.514760798128615527e-01,2.138197689257443843e-02,2.154387382205320137e+03
-6.580964687578899408e+00,1.878929961795771320e+01,-3.057001122121850933e+00,6.005803766210718875e-01,-7.923179416914083451e-01,-1.073940896342563678e-01,2.163064046289105136e+03
-6.396359325200591250e+00,1.839364500974538075e+01,-1.076356740804533585e+00,6.616176487355824865e-01,-7.125956216704822932e-01,-2.333828760929364809e-01,2.171740710372890135e+03
-6.286174216368257461e+00,1.838432242342700818e+01,-7.747452629625242171e-01,5.204114864283796438e-01,-8.367422601815224237e-01,-1.703885994412343563e-01,2.172833140906843255e+03
-4.876202394269787632e+00,1.863052870079600254e+01,1.680593644132233555e+00,3.587428675172140147e-01,-9.279882187276397021e-01,-1.006946915605179821e-01,2.181509804990628254e+03
-2.704380482901226124e+00,1.930749629429752545e+01,3.506450930114712872e+00,1.829685760700216768e-01,-9.827457744909251502e-01,-2.704150313093381386e-02,2.190186469074413253e+03
-5.618438035417212539e-01,2.003219514947482338e+01,4.390790478620735016e+00,0.000000000000000000e+00,-9.988619020525988379e-01,4.767494759577405039e-02,2.198863133158198252e+03
6.547636918091808145e-01,2.051297164170831167e+01,5.313628272213838599e+00,0.000000000000000000e+00,-9.996859356927795259e-01,2.502059079409769959e-02,2.207539797241983251e+03
8.160198527469790797e-01,2.066013939073878447e+01,6.226984811673189846e+00,0.000000000000000000e+00,-9.999962307946445028e-01,2.353376743026608028e-03,2.213652121309497488e+03
4.380860861377255389e-01,2.055958155532191256e+01,7.411096564506684636e+00,0.000000000000000000e+00,-9.997926278729734051e-01,-2.031504950133014228e-02,2.222328785393282487e+03
-2.220697908511636010e-01,2.001243294674549489e+01,7.969591736898454570e+00,0.000000000000000000e+00,-9.990752312138591051e-01,-4.297304224742326539e-02,2.231005449477067486e+03
-2.745106238163021461e-01,1.995287448374787331e+01,7.976389077766193658e+00,0.000000000000000000e+00,-9.978444088153478608e-01,-6.560896112919958889e-02,2.231662615805189489e+03
-9.041847441618411363e-01,1.895092819079491875e+01,7.540982646382731858e+00,1.087450793044585640e-01,-9.698904643020782590e-01,-2.179105205886639474e-01,2.240339279888974488e+03
-1.464423654079123338e+00,1.760392021161678500e+01,6.297535154858613815e+00,2.135967740124526115e-01,-9.072117810954813955e-01,-3.624102680298162960e-01,2.249015943972759487e+03
-2.044100296971833153e+00,1.608161195541840982e+01,4.677264838327364060e+00,3.108011017829400147e-01,-8.120524464704149681e-01,-4.939347115890234119e-01,2.257692608056544486e+03
-2.706529155353113225e+00,1.455555280259479467e+01,3.111468534275830145e+00,3.968778840635018845e-01,-6.878194461500475310e-01,-6.077749210357009657e-01,2.266369272140329485e+03
-3.492949827007416186e+00,1.319821261738333540e+01,2.043373419493115684e+00,4.687453459339904760e-01,-5.389606775884752121e-01,-6.998551197781199829e-01,2.275045936224114485e+03
-4.447044222509988209e+00,1.218163251340591557e+01,1.953395127491750038e+00,5.238304497136055948e-01,-3.708056971466840435e-01,-7.668786050722984360e-01,2.283722600307899484e+03
-4.770718917992557984e+00,1.195152960364219474e+01,2.173629056947484983e+00,5.601610128099084873e-01,-1.893749047509696026e-01,-8.064457732418744973e-01,2.286302034248829841e+03
-6.041370310333340932e+00,1.153081750994561716e+01,4.090468275304736778e+00,5.764363129605555303e-01,-1.163998612660337249e-03,-8.171400260720623754e-01,2.294978698332614840e+03
-7.439446027493503699e+00,1.162498875705947654e+01,7.254694533309208104e+00,7.902887125949269453e-01,-8.376476087767247350e-04,-6.127324449484211621e-01,2.303655362416399839e+03
-8.499816801045554371e+00,1.173852992976580012e+01,9.378387562404050470e+00,9.349785373007953870e-01,-4.379893494797729853e-04,-3.547012023561022520e-01,2.312332026500184838e+03
-8.698144393749752012e+00,1.168967372709453301e+01,9.307596180000775377e+00,9.978431604534077071e-01,-0.000000000000000000e+00,-6.562794478318881297e-02,2.315663338849083175e+03
-8.821335260141266232e+00,1.149796880638228735e+01,7.636392850383465714e+00,9.978431597493592209e-01,-0.000000000000000000e+00,-6.562794473688368657e-02,2.324340002932868174e+03
-8.819412060896482330e+00,1.149006370927319765e+01,7.544995395775491609e+00,9.978431597491095317e-01,-0.000000000000000000e+00,-6.562794473686725527e-02,2.324706374150830470e+03
-8.885386230770320637e+00,1.141934260372230625e+01,5.858108735744109730e+00,9.996731842912910393e-01,-0.000000000000000000e+00,-2.552497917224535659e-02,2.333027701794162112e+03
-8.865768622683457778e+00,1.146476334746426318e+01,4.391029949835466795e+00,9.988611377069980257e-01,-0.000000000000000000e+00,4.769095882953244825e-02,2.340429736949079143e+03
-8.517370249300327600e+00,1.154296016312892270e+01,2.563629404067975681e+00,9.919129090364577905e-01,-0.000000000000000000e+00,-1.269124930196784407e-01,2.349106401032864142e+03
-8.445506886652967893e+00,1.147976099283585327e+01,1.652435918447000329e+00,9.546769266706609525e-01,-0.000000000000000000e+00,-2.976406653669427804e-01,2.354278342309909476e+03
-8.757901245602919715e+00,1.136807591473771062e+01,4.911327354442111548e-01,9.706551006134579440e-01,-0.000000000000000000e+00,-2.404717771844190333e-01,2.360360353966545063e+03
-9.153901136915417069e+00,1.227129512398175848e+01,-1.662744672993796025e+00,9.722363324996369238e-01,-1.953871888802572454e-01,-1.287569811275708909e-01,2.369037018050330062e+03
-8.999813383748076490e+00,1.439131470461177464e+01,-4.138466709584402103e+00,9.245650992018533687e-01,-3.808762494256647813e-01,-1.051950384610287302e-02,2.377713682134115061e+03
-8.363868944145886886e+00,1.648364005356232198e+01,-6.313881882137293289e+00,8.300563437183797744e-01,-5.470705674602559521e-01,1.082509144117311389e-01,2.386390346217900060e+03
-7.466034795867762419e+00,1.771962006824836777e+01,-7.793556135545371966e+00,7.669240327213734387e-01,-6.083619976893147596e-01,2.042576994898911147e-01,2.395067010301685059e+03
-6.621609368831220088e+00,1.810411767348991319e+01,-8.580502427195275672e+00,6.907849783365456187e-01,-6.593357951168591358e-01,2.968003082571101237e-01,2.403130164613318811e+03
-5.897828635044946033e+00,1.810017562267863767e+01,-9.069214673290666440e+00,6.029304651332196840e-01,-6.991274818158479398e-01,3.843092743916288190e-01,2.411806828697103811e+03
-5.500029399031864941e+00,1.805474101165955858e+01,-9.469755483179424616e+00,5.048504550707269001e-01,-7.270622152181295261e-01,4.653004977604566772e-01,2.420483492780888810e+03
-5.442071029764238510e+00,1.811590946224868404e+01,-9.771579833510378066e+00,4.531914328363226274e-01,-6.723833600271276190e-01,5.852487867251717768e-01,2.425813156632938899e+03
-5.480458136312128303e+00,1.829392289471360300e+01,-1.039730991394386805e+01,3.924477124405110762e-01,-6.042258722186640840e-01,6.934651313099784442e-01,2.434489820716723898e+03
-5.411878826077376026e+00,1.835184847573093236e+01,-1.113950514848376905e+01,3.238369641484770134e-01,-5.239560392853069848e-01,7.877802292191113942e-01,2.443166484800508897e+03
-4.967959459405453693e+00,1.796838186195123654e+01,-1.194840962823552033e+01,2.487345587737843922e-01,-4.331829500318987169e-01,8.663034405300341634e-01,2.451843148884293896e+03
-3.927754796808756943e+00,1.681640219045308626e+01,-1.277425340075209625e+01,1.686459980254070290e-01,-3.337262399829316051e-01,9.274606860118926877e-01,2.460519812968078895e+03
-2.997323121040087024e+00,1.579534315644285414e+01,-1.322527914702729745e+01,8.517673649724177842e-02,-2.275796165978191399e-01,9.700260005120894258e-01,2.465369066212374946e+03
-5.958121012743423650e-01,1.303311456911449717e+01,-1.397467354308231613e+01,0.000000000000000000e+00,-1.168708951520591871e-01,9.931461090226156863e-01,2.474045730296159945e+03
-2.443552951883434243e-01,1.259795228801831968e+01,-1.406016155374708987e+01,-0.000000000000000000e+00,-0.000000000000000000e+00,9.999989999924441264e-01,2.475142349573290630e+03
1.443850231233098302e+00,1.138668443265174801e+01,-1.399156645826671763e+01,-1.161848472904061791e-01,1.341998236121057881e-03,9.932256945363709955e-01,2.483466312374177505e+03
2.523361682467480716e+00,1.073453810943341402e+01,-1.282353363910175759e+01,-2.826553964742132830e-01,2.868159485148781829e-01,9.153362980472599109e-01,2.492142976457962504e+03
3.759780088199753845e+00,7.996852542093066063e+00,-1.114711252086648052e+01,-4.165429136159047308e-01,5.392272748291847551e-01,7.319316547312996191e-01,2.500819640541747503e+03
4.630170729486628112e+00,5.121347100686207021e+00,-9.460954588445702029e+00,-5.024135394087867468e-01,7.294793312445945199e-01,4.641535744838837241e-01,2.509496304625532503e+03
4.972006041151646016e+00,3.435952204505072771e+00,-8.082989367681253867e+00,-5.194581936764174346e-01,7.759976313544066917e-01,3.577553090505007360e-01,2.518172968709317502e+03
4.935157436788907503e+00,2.986731331661497624e+00,-7.107668621715505175e+00,-5.293472608783005295e-01,8.118264779507222695e-01,2.464289899711577247e-01,2.525780380867860003e+03
4.687957183547267981e+00,3.121246621239015084e+00,-6.050280460144660921e+00,-5.319445292294052718e-01,8.364723470889017243e-01,1.317081257102006298e-01,2.534457044951645003e+03
4.332745822548624837e+00,3.462143569646320973e+00,-4.836417199220097274e+00,-5.272142253727853944e-01,8.495957517028961403e-01,1.517297770659270517e-02,2.543133709035430002e+03
3.970707523619410928e+00,3.622858854096906889e+00,-3.612366445882292609e+00,-3.618417898156491286e-01,9.318420076421419784e-01,2.718440613504652728e-02,2.550354779863506792e+03
3.420226017035836730e+00,3.612205999375010634e+00,-2.000705556335116597e+00,-1.840738171092483610e-01,9.821663054798877024e-01,3.826458199360006224e-02,2.559031443947291791e+03
2.705467733062342894e+00,3.478297329321866638e+00,-4.817356772682411248e-01,-0.000000000000000000e+00,9.988447030622311651e-01,4.803393763091728941e-02,2.567708108031076790e+03
2.119132271301461756e+00,3.371586669885408671e+00,4.006983315832091108e-01,-0.000000000000000000e+00,9.988447023580213635e-01,4.803393759705219118e-02,2.573602673824100748e+03
1.195531120045958628e+00,3.240758182375597762e+00,1.531850261489384524e+00,-0.000000000000000000e+00,9.988447023580838691e-01,4.803393759705520266e-02,2.582279337907885747e+03
3.460705001035609407e-01,3.163126658097099142e+00,2.644728089612918165e+00,-0.000000000000000000e+00,9.988447023580213635e-01,4.803393759705219118e-02,2.590956001991670746e+03
-2.633549875757990044e-01,3.161386768239039746e+00,3.937544936428929443e+00,-0.000000000000000000e+00,9.988447023578338468e-01,4.803393759704317062e-02,2.599632666075455745e+03
-2.957308405399335371e-01,3.164407018364879587e+00,4.042642185476978511e+00,-0.000000000000000000e+00,9.999491145485001065e-01,9.988408292940531910e-03,2.600267624125338443e+03
-5.600787674502772928e-01,3.210165709035500026e+00,5.646462801873114223e+00,-0.000000000000000000e+00,9.996049151424648560e-01,-2.807158010602221407e-02,2.608944288209123442e+03
-5.401542245479973303e-01,3.185515214118375571e+00,7.533925934630448573e+00,-0.000000000000000000e+00,9.978126036139498556e-01,-6.609090750926480129e-02,2.617620952292908441e+03
-5.297219204543668347e-01,3.177686802476721084e+00,7.692265916904815981e+00,-0.000000000000000000e+00,9.975180332451141219e-01,-7.039725279542478897e-02,2.618304636174612369e+03
-3.955930612146336123e-01,3.134726192996521554e+00,9.776326884644351622e+00,-0.000000000000000000e+00,9.972048777234554517e-01,-7.470228707698511883e-02,2.626981300258397368e+03
-3.634937503955135152e-01,3.498728065337622262e+00,1.196093469978565693e+01,-0.000000000000000000e+00,9.968731426564392262e-01,-7.900593205231017102e-02,2.635657964342182368e+03
-4.433208361191945945e-01,3.984109097511198350e+00,1.319346967719325647e+01,-0.000000000000000000e+00,9.649468274839307913e-01,-2.624416509044491530e-01,2.640509090032692711e+03
-7.004714431328056268e-01,5.321678462436775447e+00,1.532237077820705728e+01,-0.000000000000000000e+00,8.995677184873194232e-01,-4.367790286361392660e-01,2.649185754116477710e+03
-9.652824661959933383e-01,7.117200996558754156e+00,1.724738214740034437e+01,-0.000000000000000000e+00,8.030023856179612229e-01,-5.959741342480673332e-01,2.657862418200262709e+03
-1.124741523525908837e+00,9.022367552843634897e+00,1.882978586353041806e+01,-0.000000000000000000e+00,6.785985624686792228e-01,-7.345079924795707704e-01,2.666539082284047709e+03
-1.117932704034766855e+00,1.068681874909197482e+01,1.993093534643299591e+01,-0.000000000000000000e+00,5.306690854645246258e-01,-8.475779148451295653e-01,2.675215746367832708e+03
-9.360535304334467455e-01,1.175935463903010003e+01,2.041228428255198679e+01,-0.000000000000000000e+00,3.643423754924450808e-01,-9.312639977050134465e-01,2.683892410451617707e+03
-6.224188238664366546e-01,1.188914460953179386e+01,2.013541553457887190e+01,-0.000000000000000000e+00,1.853846458237053962e-01,-9.826650157066894042e-01,2.692569074535402706e+03
-4.518209474167710904e-01,1.161146860626517352e+01,1.970104101620106718e+01,-0.000000000000000000e+00,0.000000000000000000e+00,-9.999989999999968626e-01,2.696615665404746323e+03
-1.311811013311461049e-01,1.027071936474034786e+01,1.814525259605127161e+01,-0.000000000000000000e+00,3.643423754924450808e-01,-9.312639977050134465e-01,2.705292329488531323e+03
1.835961945686236801e-02,8.069110300366205024e+00,1.601613587973641728e+01,-0.000000000000000000e+00,6.785985624686792228e-01,-7.345079924795707704e-01,2.713968993572316322e+03
-8.939485438021992081e-02,5.602615056002984595e+00,1.370137667412343063e+01,-0.000000000000000000e+00,8.995677184873194232e-01,-4.367790286361392660e-01,2.722645657656101321e+03
-4.519487926994007476e-01,3.468179869137576254e+00,1.158869937412849183e+01,-0.000000000000000000e+00,9.968731427319694749e-01,-7.900593205829621601e-02,2.731322321739886320e+03
-9.758527052911037947e-01,2.072575495999855466e+00,9.930390720336534471e+00,-0.000000000000000000e+00,9.981436214386564254e-01,-6.088769143793030386e-02,2.739998985823671319e+03
-1.512276662096197155e+00,1.441482668114712595e+00,8.707851828073556177e+00,-0.000000000000000000e+00,9.990848268703691470e-01,-4.274937081418708068e-02,2.748675649907456318e+03
-1.786518979948197083e+00,1.332673570803605045e+00,8.105049942820819808e+00,-0.000000000000000000e+00,9.996964488910715652e-01,-2.459695229886062207e-02,2.754126479035926423e+03
-2.023883720786665563e+00,1.479482498951679270e+00,7.283005302682362014e+00,-0.000000000000000000e+00,9.999782859900377963e-01,-6.436422637078759341e-03,2.762803143119711422e+03
-1.947560925460902759e+00,1.945385910356338011e+00,6.491645929868258058e+00,-0.000000000000000000e+00,9.999302453406463398e-01,1.172622876188282939e-02,2.771479807203496421e+03
-1.477724634743993182e+00,2.556609790843209495e+00,5.576798495852818505e+00,-0.000000000000000000e+00,9.995523428305348457e-01,2.988501179408608807e-02,2.780156471287281420e+03
-5.594628810735752245e-01,3.137796277595097383e+00,4.384315392705489423e+00,-0.000000000000000000e+00,9.988447030562466189e-01,4.803393763062949878e-02,2.788833135371066419e+03
-3.761389401016778100e-01,3.218361664676776979e+00,4.167927438891439351e+00,-2.123723893365775661e-01,9.614850858188503935e-01,1.744774999726766140e-01,2.790185295074792521e+03
9.586311890742900133e-01,3.632770770961295081e+00,2.573327035097163318e+00,-4.114745060147212419e-01,8.640462335170727703e-01,2.900186843051864582e-01,2.798861959158577520e+03
2.400316349223754031e+00,3.858377453071921259e+00,6.476023332213962647e-01,-5.848653121375003705e-01,7.126166607898268834e-01,3.874378162027691808e-01,2.807538623242362519e+03
3.626368408524120568e+00,3.917059925801698039e+00,-1.522134157389680720e+00,-7.217103253060824786e-01,5.166585169996235072e-01,4.606475693616922662e-01,2.816215287326147518e+03
4.428924501775802547e+00,3.863785310226715897e+00,-3.813032220302239761e+00,-7.217103247967010526e-01,5.166585166349670910e-01,4.606475690365682829e-01,2.824891951409932517e+03
4.534230600832269253e+00,3.846512076372262889e+00,-4.265013864922689635e+00,-7.217103247967600055e-01,5.166585166350093905e-01,4.606475690366059195e-01,2.826593048671430552e+03
4.891932779904739625e+00,3.803013969700475894e+00,-6.447425390059889239e+00,-7.217103247967894264e-01,5.166585166350304847e-01,4.606475690366247377e-01,2.835269712755215551e+03
5.033340913072901657e+00,3.916768556705610305e+00,-8.281756760848240972e+00,-7.217103247967894264e-01,5.166585166350304847e-01,4.606475690366247377e-01,2.843946376839000550e+03
5.132777674754931851e+00,4.316987484649770224e+00,-9.538167976157675199e+00,-7.217103247967600055e-01,5.166585166350093905e-01,4.606475690366059195e-01,2.852623040922785549e+03
5.383494010940567343e+00,5.128553688364545948e+00,-9.986939596382969242e+00,-7.217103247967010526e-01,5.166585166349672020e-01,4.606475690365683384e-01,2.861299705006570548e+03
5.970285046615460445e+00,6.406138167981391796e+00,-9.431409115283910793e+00,-7.217103247966126789e-01,5.166585166349038083e-01,4.606475690365119391e-01,2.869672712387742195e+03
7.000818418136901755e+00,8.189738268987197145e+00,-7.816679559211470618e+00,-8.752799851284994714e-01,3.650035473605113823e-01,3.172622858898977438e-01,2.878349376471527194e+03
8.188186999027182722e+00,1.006779123894980899e+01,-5.557215803062329762e+00,-9.700812835978308568e-01,1.888414175900588465e-01,1.525753001509171924e-01,2.887026040555312193e+03
9.039005169560358155e+00,1.150078281461604135e+01,-3.266920578004951725e+00,-9.997490736130933975e-01,0.000000000000000000e+00,-2.235597928451544397e-02,2.895702704639097192e+03
9.212330183312635867e+00,1.216998616304961089e+01,-1.382624470077191914e+00,-9.957397261067453265e-01,-0.000000000000000000e+00,-9.219760218711314792e-02,2.904379368722882191e+03
8.821099746116972895e+00,1.220016186356546228e+01,-6.510566623900782002e-02,-9.868572963375098483e-01,-0.000000000000000000e+00,-1.615879842746555939e-01,2.912535634723868952e+03
8.148955053107471258e+00,1.189462652103992468e+01,9.455165019416666983e-01,-9.731452570424284909e-01,-0.000000000000000000e+00,-2.301875511239521443e-01,2.921212298807653951e+03
7.596566841068349341e+00,1.152049530613180650e+01,1.651138360473993982e+00,-9.546707119047576073e-01,-0.000000000000000000e+00,-2.976605983796341559e-01,2.929888962891438950e+03
7.449178071294825898e+00,1.130608170017076652e+01,2.248227054429485783e+00,-9.828251481208242213e-01,-0.000000000000000000e+00,-1.845338132140421916e-01,2.938163058196540987e+03
7.708913443535987398e+00,1.132634492120945957e+01,3.293363842108255835e+00,-9.976226283182406673e-01,-0.000000000000000000e+00,-6.889913979995591908e-02,2.946839722280325987e+03
8.025765063908847807e+00,1.145263456574261873e+01,4.392792225811675166e+00,-9.988620449086732522e-01,-0.000000000000000000e+00,4.767195441705847359e-02,2.952012313799725689e+03
8.094402442748130255e+00,1.170961804619717661e+01,6.163889864091077087e+00,-9.999375492545149458e-01,-0.000000000000000000e+00,1.108591748805865841e-02,2.960688977883510688e+03
8.023347903631231404e+00,1.174016550149986138e+01,6.307633398054965035e+00,-9.996734394190504025e-01,-0.000000000000000000e+00,-2.551498569211270093e-02,2.961763015716904647e+03
6.682734056667117173e+00,1.185153279270201665e+01,5.949658387724762854e+00,-9.440777764365472224e-01,0.000000000000000000e+00,-3.297198083811921920e-01,2.970439679800689646e+03
5.435575256803639732e+00,1.185343852415355137e+01,4.018576085184872859e+00,-7.981985109309881476e-01,0.000000000000000000e+00,-6.023928428760457754e-01,2.979116343884474645e+03
5.417400574108840239e+00,1.185405097371712202e+01,3.936434337569113762e+00,-5.759863546497749898e-01,0.000000000000000000e+00,-8.174580840985133934e-01,2.979457466509550159e+03
6.016911070406581352e+00,1.185734257070913600e+01,2.177704226067733728e+00,-9.295832893823247067e-01,0.000000000000000000e+00,-3.686094248698302267e-01,2.988134130593335158e+03
7.671115965400002068e+00,1.163413643527810315e+01,7.029187093143172138e-01,-9.796745246596755274e-01,0.000000000000000000e+00,2.005886979235580458e-01,2.996810794677120157e+03
8.086926308150996334e+00,1.151016523590513962e+01,2.729229796196792068e-01,-9.919216726385305938e-01,-0.000000000000000000e+00,1.268439803264406474e-01,2.999193198802010102e+03
8.977100186849570562e+00,1.118189814438328078e+01,-1.390953654097797143e+00,-9.986256781080270484e-01,-0.000000000000000000e+00,5.239040959916777679e-02,3.007869862885795101e+03
9.032419961303984834e+00,1.171475099289381561e+01,-2.924168348820043839e+00,-9.997490736100211883e-01,-0.000000000000000000e+00,-2.235597928444674545e-02,3.016546526969580100e+03
8.951677485088906039e+00,1.201931223205721544e+01,-3.227913164603321228e+00,-9.717502564625316586e-01,8.217542135502688139e-02,2.212388735978507992e-01,3.018571090606137659e+03
8.315852155907926146e+00,1.382988476878562700e+01,-4.309761024012795261e+00,-8.787654007226881614e-01,1.588552940050421136e-01,4.500381828916105165e-01,3.027247754689922658e+03
