-8.024423584156277656e+00,-8.490218532286009534e+00,1.006226522550106495e+01,3.599502384121139875e-01,-3.511291737708309157e-01,-8.643738364823336795e-01,1.216606533851578888e+03
-8.986139666980731633e+00,-9.316867046889147019e+00,1.078210807399742244e+01,4.713739723324733566e-01,-3.043952468200490369e-01,-8.277367407105780117e-01,1.225283197935363887e+03
-9.946352127094671758e+00,-1.018209425599473938e+01,1.115811557976821256e+01,5.752832254634744347e-01,-2.528087768056302975e-01,-7.779041926046178501e-01,1.233959862019148886e+03
-1.094289173343186050e+01,-1.094209780594919224e+01,1.076687325955519192e+01,6.700215250171087655e-01,-1.971921350912026194e-01,-7.156706071046157192e-01,1.242636526102933885e+03
-1.200418257576997405e+01,-1.145207452592800301e+01,9.185126676993792927e+00,7.540785981351876277e-01,-1.384319387168223559e-01,-6.420280883101573410e-01,1.251313190186718884e+03
-1.228260383717243265e+01,-1.153619173113560947e+01,8.595227190219928204e+00,8.261144466400051067e-01,-7.746491670656655004e-02,-5.581506138435601283e-01,1.253503822420338793e+03
-1.343714517590961144e+01,-1.160161190244839169e+01,5.239190945160443924e+00,8.849807075426920910e-01,-1.526297770940438295e-02,-4.653753203493267154e-01,1.262180486504123792e+03
-1.446373577414643563e+01,-1.136599385988134792e+01,8.657863635140791159e-01,9.978964962917117321e-01,-6.481190233636946463e-02,1.999996986248517972e-06,1.270857150587908791e+03
-1.490951409283469253e+01,-1.123372300130449020e+01,-1.707447147784660002e+00,9.968054440252644977e-01,4.350054886291693929e-02,6.696722341648884969e-02,1.276364922682093948e+03
-1.515182910943602934e+01,-1.127575654133865157e+01,-4.609952488546396943e+00,9.795490487570109872e-01,1.511075389088023246e-01,1.328464254923510668e-01,1.285041586765878947e+03
-1.484780850431129018e+01,-1.165456187269881028e+01,-6.118415738356445033e+00,9.464071614049668346e-01,2.562639929940783157e-01,1.965712357850585290e-01,1.293718250849663946e+03
-1.414261821281682607e+01,-1.233525299299931710e+01,-6.565197763833539035e+00,8.979172479907546744e-01,3.572645770422899214e-01,2.571082218705080247e-01,1.302394914933448945e+03
-1.317837420237600377e+01,-1.327873405452075595e+01,-6.282880996495918247e+00,8.348656736780872833e-01,4.524713525814437753e-01,3.134756481913710258e-01,1.311071579017233944e+03
-1.209408754474836556e+01,-1.444178239434360833e+01,-5.604199999624170481e+00,7.582749507105871478e-01,5.403403387720485673e-01,3.647593966196331916e-01,1.319748243101018943e+03
-1.120985060723940130e+01,-1.551353640931120381e+01,-4.976445579701693767e+00,6.693871569725353687e-01,6.194465509285905780e-01,4.101277906025595499e-01,1.326825654046477666e+03
-1.024632935851825088e+01,-1.693234108559777695e+01,-4.418072786179061850e+00,5.696437939592871036e-01,6.885071095488038972e-01,4.488450825239433395e-01,1.335502318130262665e+03
-9.536638561352795307e+00,-1.842770740200670687e+01,-4.400431583961066373e+00,4.606624106662593476e-01,7.464020451143851265e-01,4.802833855647918315e-01,1.344178982214047664e+03
-9.039987662356121945e+00,-1.975596632795234342e+01,-5.065356500994765199e+00,3.805832495055258002e-01,7.097300036650328048e-01,5.928218215401718227e-01,1.352855646297832664e+03
-8.361010685787086061e+00,-2.030553138795021084e+01,-6.172852651481745667e+00,2.927316625650895343e-01,6.585635467734259896e-01,6.932533653679321395e-01,1.361532310381617663e+03
-8.351755223813368545e+00,-2.030516368462425092e+01,-6.185162618009109714e+00,1.989017844505161503e-01,5.939476165056397639e-01,7.795269777182354254e-01,1.361619784419703819e+03
-6.880407199795489426e+00,-1.928889781144601656e+01,-7.302121446053346787e+00,1.010098369689698267e-01,5.172018180642133922e-01,8.498807517688982127e-01,1.370296448503488818e+03
-3.954535488597132886e+00,-1.593821967492957370e+01,-7.995443275698553620e+00,1.054998706094199953e-03,4.298934727560758673e-01,9.028778926631518820e-01,1.378973112587273818e+03
-2.946697280432271013e-02,-1.096031627416027376e+01,-7.934761830677404149e+00,0.000000000000000000e+00,4.167097442637810595e-02,9.991303868302074953e-01,1.387649776671058817e+03
2.925719348374877793e+00,-7.000360781874136684e+00,-7.237137682030367003e+00,1.032406556290913251e-05,-2.779750678761719329e-01,9.605872482661308442e-01,1.395205345963566742e+03
4.999254829008013878e+00,-3.933094327271907442e+00,-5.811537967687795181e+00,1.957795075190678791e-05,-5.688065725834510200e-01,8.224701104604750235e-01,1.403882010047351741e+03
5.857847484175409569e+00,-2.268620730799414620e+00,-3.838959181504087326e+00,2.680239705031068863e-05,-8.006759287588272045e-01,5.990960326909358091e-01,1.412558674131136740e+03
5.841265336143107056e+00,-1.710818768177182925e+00,-1.499329463154621012e+00,3.124851756664310414e-05,-9.495475352928711699e-01,3.136199567013510103e-01,1.421235338214921740e+03
5.306974021932128416e+00,-1.974127841772547631e+00,1.027346465243736739e+00,3.245543101655662686e-05,-9.999894700321844132e-01,-4.365635202180351108e-03,1.429912002298706739e+03
4.629988751864989815e+00,-2.784019302348102798e+00,3.561024851046731943e+00,3.029803583939320408e-05,-9.467731442714601986e-01,-3.218984503977175282e-01,1.438588666382491738e+03
4.202720916413344554e+00,-3.877464320790552588e+00,5.921660469080515021e+00,2.499997267778497785e-05,-7.954151306989206693e-01,-6.060633376395629934e-01,1.447265330466276737e+03
4.284628083522947328e+00,-5.061242287324569489e+00,7.975789620967780102e+00,6.594276699033897867e-04,-7.279391461337054725e-01,-6.856399672438280302e-01,1.455941994550061736e+03
4.846732800027948151e+00,-6.264252685850481228e+00,9.683103412032719959e+00,1.286676850517918082e-03,-6.525389176860599827e-01,-7.577527996442661173e-01,1.464618658633846735e+03
5.714054604038973473e+00,-7.470969553573512556e+00,1.104991070266693143e+01,1.899919385305095902e-03,-5.700352421367644862e-01,-8.216168285943317162e-01,1.473295322717631734e+03
5.945601278882302942e+00,-7.756526015379364480e+00,1.133145418426969009e+01,2.492479622424557777e-03,-4.813262418474493765e-01,-8.765368426115152101e-01,1.475350588592802978e+03
6.926593007522840573e+00,-8.945469642974668290e+00,1.234580684949165175e+01,3.057907054187384947e-03,-3.873775882268054027e-01,-9.219149924722115363e-01,1.484027252676587977e+03
7.827387401795163235e+00,-1.008423466233307586e+01,1.303401310364795052e+01,3.590046533035761312e-03,-2.892119900033395252e-01,-9.572572989563206125e-01,1.492703916760372977e+03
8.478650599486897477e+00,-1.114071733821096188e+01,1.340260041492991405e+01,4.083105272705793778e-03,-1.878980606891937077e-01,-9.821790300354782399e-01,1.501380580844157976e+03
8.712937072047168385e+00,-1.207779566830320483e+01,1.345816283265373592e+01,4.531715905505841711e-03,-8.453868636852077123e-02,-9.964088889902448232e-01,1.510057244927942975e+03
8.364756926232105982e+00,-1.285338039902095986e+01,1.320735960664700670e+01,4.930994909503488323e-03,1.974097962046407820e-02,-9.997919678680230460e-01,1.518733909011727974e+03
7.371920645359434587e+00,-1.344775569815411309e+01,1.268411406723319423e+01,4.238150800463905653e-03,5.518605183787778784e-02,-9.984660924415885708e-01,1.527410573095512973e+03
5.874549019469710309e+00,-1.389491015835828058e+01,1.197680681706290784e+01,3.539972769390534960e-03,9.056165778173984326e-02,-9.958835548035114282e-01,1.536087237179297972e+03
5.736902755513077601e+00,-1.392643956556260676e+01,1.191405814521282558e+01,2.837339486337213043e-03,1.258232768249264721e-01,-9.920476059692343584e-01,1.536793681076719395e+03
3.979923692836625726e+00,-1.429278804779607270e+01,1.114249593627775248e+01,2.131135225806050221e-03,1.609265318424786817e-01,-9.869630740850851014e-01,1.545470345160504394e+03
2.207375637583464556e+00,-1.465827567461400349e+01,1.042753868658956939e+01,1.422248754692138082e-03,1.958272450174003143e-01,-9.806363583474979606e-01,1.554147009244289393e+03
6.464209482081146874e-01,-1.510362771950096850e+01,9.884807381636715462e+00,7.115722146123264419e-04,2.304814933958156675e-01,-9.730754209528632570e-01,1.562823673328074392e+03
-4.809575376296562621e-01,-1.571625823777978148e+01,9.629886941324112826e+00,0.000000000000000000e+00,2.648456641220581220e-01,-9.642897770852628669e-01,1.571500337411859391e+03
-1.029662223462918469e+00,-1.650975915685584994e+01,9.630394517417165900e+00,-0.000000000000000000e+00,2.840838736695950328e-01,-9.587983900172106777e-01,1.580177001495644390e+03
-1.095594180497030612e+00,-1.714691254476450766e+01,9.640340174134591322e+00,-0.000000000000000000e+00,3.032083730870910876e-01,-9.529232301022695362e-01,1.586639509500936583e+03
-7.747418488650337220e-01,-1.786655831414632090e+01,9.251134834953269603e+00,-0.000000000000000000e+00,3.222115122643331997e-01,-9.466666474227826145e-01,1.595316173584721582e+03
-4.834048355055799440e-01,-1.812419058197895438e+01,8.865434052155643840e+00,-0.000000000000000000e+00,3.410856895361299435e-01,-9.400311443624989050e-01,1.599338965808190324e+03
4.051057411210745585e-01,-1.839874275922728941e+01,7.457298027996217549e+00,-3.230183608123804451e-01,4.467920794801609752e-01,-8.342865073179728252e-01,1.608015629891975323e+03
1.660966002892011240e+00,-1.818568206537132426e+01,5.308340454024176758e+00,-6.051112637003469574e-01,4.958913024062636676e-01,-6.228404087259294952e-01,1.616692293975760322e+03
3.179078883493208441e+00,-1.745925558395330057e+01,2.802112893041036390e+00,-8.105384596092877203e-01,4.821626669404919241e-01,-3.324824327753394537e-01,1.625368958059545321e+03
4.856542282678222300e+00,-1.619052088442925452e+01,3.222414327985758109e-01,-9.132730123892983665e-01,4.073455594977313243e-01,-0.000000000000000000e+00,1.634045622143330320e+03
6.614181489185094520e+00,-1.440574526602864225e+01,-1.839036339752208482e+00,-9.254906391312097691e-01,3.769718122377380132e-01,-3.684195513810738926e-02,1.642722286227115319e+03
8.262854552336031944e+00,-1.244411755420082955e+01,-3.459764813506905679e+00,-9.354600913199165868e-01,3.456823400673623703e-01,-7.359441088209089932e-02,1.650675198696688540e+03
1.007590623493760162e+01,-1.013824250755689960e+01,-4.817746138801827449e+00,-9.431571523763687681e-01,3.135531499058278881e-01,-1.101680902317116045e-01,1.659351862780473539e+03
1.186477943595811091e+01,-7.835307696339802952e+00,-5.713435436633585773e+00,-9.485631255377811044e-01,2.806622883475725638e-01,-1.464741505161173962e-01,1.668028526864258538e+03
1.357680077652662831e+01,-5.730825837528168876e+00,-6.129078052300783952e+00,-9.516648792574649018e-01,2.470896520949456554e-01,-1.824243991778918272e-01,1.676705190948043537e+03
1.514640638949091844e+01,-4.018586561699329707e+00,-6.047019481726334078e+00,-9.524548790919360464e-01,2.129167938998093312e-01,-2.179315079774601926e-01,1.685381855031828536e+03
1.649516639680625474e+01,-2.890310977528960379e+00,-5.449709052219132488e+00,-9.509312059973832332e-01,1.782267244845792964e-01,-2.529092250981945234e-01,1.694058519115613535e+03
1.753181333761981264e+01,-2.535306839167630333e+00,-4.319703587065146344e+00,-9.470975609911816973e-01,1.431037109232746185e-01,-2.872725846376523173e-01,1.702735183199398534e+03
1.815227454200063661e+01,-3.140124405751223424e+00,-2.639671053293337621e+00,-9.409632561671334994e-01,1.076330719717113610e-01,-3.209381129767113205e-01,1.711411847283183533e+03
1.829034564522339323e+01,-4.544371001784456965e+00,-7.274865644914113583e-01,-9.325431920861364521e-01,7.190097084336118105e-02,-3.538240315259149060e-01,1.719019715874761914e+03
1.786665681709858688e+01,-7.313010298872637982e+00,1.970182934918386808e+00,-9.218578215969528422e-01,3.599420593359192733e-02,-3.858504553570895057e-01,1.727696379958546913e+03
1.665899641635490269e+01,-1.156095982325196125e+01,5.267097209873863761e+00,-9.089331001745973859e-01,0.000000000000000000e+00,-4.169395872382335444e-01,1.736373044042331912e+03
1.497660203331051854e+01,-1.657991841614004258e+01,8.652390041172003166e+00,-6.783331045798046688e-01,5.390142884848517779e-01,-4.993253408754618761e-01,1.745049708126116911e+03
1.383125325193098831e+01,-1.998815618817831208e+01,1.072774498624168871e+01,-6.321778011725651680e-01,6.200311528936965910e-01,-4.646618094348698436e-01,1.751545912523394691e+03
1.279424102158593968e+01,-2.337375004431708447e+01,1.247127873304802570e+01,-5.797667082547859341e-01,6.949124157761270570e-01,-4.254001626715967488e-01,1.760222576607179690e+03
1.226968258845679216e+01,-2.544525944057975408e+01,1.304065097945757934e+01,-5.216184660444214138e-01,7.629170838376667652e-01,-3.819289188730807250e-01,1.768899240690964689e+03
1.208660411999095352e+01,-2.641502219999198786e+01,1.260994756929744831e+01,-4.583084864830279104e-01,8.233722115256502105e-01,-3.346782522161718676e-01,1.777575904774749688e+03
1.206083312377372074e+01,-2.648989551213843185e+01,1.135346297571923913e+01,-3.904632593411468400e-01,8.756795599047484391e-01,-2.841157360498864359e-01,1.786252568858534687e+03
1.199507771327616368e+01,-2.587090359158519348e+01,9.445663920984923578e+00,-3.187541529508309823e-01,9.193215163416461611e-01,-2.307417161444746678e-01,1.794929232942319686e+03
1.167900988560077025e+01,-2.475288719900266088e+01,7.061152969296321302e+00,-2.438907708894738346e-01,9.538662164440737667e-01,-1.750843596753532128e-01,1.803605897026104685e+03
1.148464701900684126e+01,-2.425813226466410910e+01,6.102244823278832442e+00,-1.666139303281501671e-01,9.789718175841777281e-01,-1.176944289155398005e-01,1.806808658367369162e+03
1.058723446594386708e+01,-2.282413921034684634e+01,3.410749425446421679e+00,-8.768833149918939251e-02,9.943898817214076313e-01,-5.913983133273109649e-02,1.815485322451154161e+03
8.888436287648042722e+00,-2.132858667175523593e+01,6.565203321111455770e-01,-7.894990794486694483e-03,9.999678340433270085e-01,-0.000000000000000000e+00,1.824161986534939160e+03
6.325164445987407902e+00,-1.991243690387543452e+01,-1.974862488150058493e+00,1.037557795227709301e-01,9.530667182585643715e-01,2.844232212112522418e-01,1.832838650618724159e+03
3.205475223968480503e+00,-1.865559589634053239e+01,-4.276255844050385946e+00,2.054914349128877382e-01,8.150882251588035254e-01,5.416663690733124481e-01,1.841515314702509158e+03
2.217270546761975630e-02,-1.761848279726047295e+01,-6.029790972739434096e+00,2.875898764463321600e-01,5.992177425655212941e-01,7.471466790126489732e-01,1.850191978786294158e+03
-2.866779238887672054e+00,-1.683985943252249839e+01,-7.098001271203536966e+00,3.869276113645260806e-01,5.457762759294846333e-01,7.432451010239847777e-01,1.858868642870079157e+03
-4.815557092693611985e+00,-1.639291704953769724e+01,-7.500591022469830449e+00,4.813361869272757554e-01,4.853820445656363836e-01,7.298751577958347836e-01,1.865431305243040697e+03
-7.106942769059412690e+00,-1.593654039523172194e+01,-7.587962932810563110e+00,5.696129095685509292e-01,4.188044261245988387e-01,7.072071732606032279e-01,1.874107969326825696e+03
-9.059869936683679015e+00,-1.560859475242716599e+01,-7.195420383656449204e+00,6.506332017735286799e-01,3.468915700305196248e-01,6.755299219070324268e-01,1.882784633410610695e+03
-1.069815690360849381e+01,-1.534865678805250333e+01,-6.426819814802402497e+00,7.233649285012345720e-01,2.705595923772168288e-01,6.352469497661545894e-01,1.891461297494395694e+03
-1.204115575617005796e+01,-1.509568026060476775e+01,-5.386096092343160002e+00,7.868815458181945832e-01,1.907809049881314667e-01,5.868714332312543469e-01,1.900137961578180693e+03
-1.310374503316413985e+01,-1.478811631885991318e+01,-4.177240820060569071e+00,8.403739042345739207e-01,1.085718273578598070e-01,5.310196412431954505e-01,1.908814625661965692e+03
-1.389632378546337321e+01,-1.436403395206458633e+01,-2.904280641845941702e+00,8.831605563893062394e-01,2.497963932331938655e-02,4.684030841677448431e-01,1.917491289745750692e+03
-1.442480702216328581e+01,-1.376124056025593134e+01,-1.671255538507864014e+00,9.146964377998523243e-01,-5.893076057168184639e-02,3.998194494209308947e-01,1.926167953829535691e+03
-1.469062254398906830e+01,-1.291740261337792894e+01,-5.821971225888569190e-01,9.345798101307239980e-01,-1.420904210433455161e-01,3.261424393488086548e-01,1.934844617913320690e+03
-1.469070916457114429e+01,-1.177016636782406067e+01,2.588930653796884807e-01,9.425573785771065305e-01,-2.234399555466112519e-01,2.483106408430922063e-01,1.943521281997105689e+03
-1.441751632005565931e+01,-1.025727860897549526e+01,7.480652559284033387e-01,9.385275182228438595e-01,-3.019430378031448536e-01,1.673155684969687418e-01,1.952197946080890688e+03
-1.414064365777590204e+01,-9.197992243428849690e+00,8.673137253141893765e-01,9.225415683190553162e-01,-3.765996034813366422e-01,8.418903362042653993e-02,1.957337763481349839e+03
-1.346896036100461558e+01,-7.083867168178696438e+00,6.981048697476853748e-01,8.948031780342509123e-01,-4.464585898833639543e-01,-9.999990814013471954e-06,1.966014427565134838e+03
-1.252498155102232857e+01,-4.511147292098805828e+00,-1.334177209366866311e-02,9.660904537554637628e-01,-2.581736359361008759e-01,3.689020301033928573e-03,1.974691091648919837e+03
-1.140867640054775300e+01,-1.622570536475700376e+00,-1.134308194420471150e+00,9.982057898340437330e-01,-5.942058408499629324e-02,7.238461824848228636e-03,1.983367755732704836e+03
-1.026971763275553151e+01,1.374256711106727868e+00,-2.453213717688427664e+00,9.898470270042915020e-01,1.417417742475964026e-01,1.049440635307285347e-02,1.992044419816489835e+03
-9.271212940358585897e+00,4.276395931688147911e+00,-3.758436329079085425e+00,9.413530852878370103e-01,3.371569628023280418e-01,1.332483597098582315e-02,2.000721083900274834e+03
-8.589639929661057494e+00,6.885935892462605956e+00,-4.838356845349251145e+00,8.546902225257588803e-01,5.189015279780192502e-01,1.561498579573170238e-02,2.009397747984059833e+03
-8.337082533621362757e+00,9.076083699954212491e+00,-5.552059492375959415e+00,9.104877328356502098e-01,4.131679726262864061e-01,1.738720082429274713e-02,2.018074412067844833e+03
-8.477683676283444214e+00,1.085412585382108830e+01,-5.900017727546608803e+00,9.532688045840809199e-01,3.015277202777888466e-01,1.891084640469913730e-02,2.026751076151629832e+03
-8.896644808060848675e+00,1.229116614988199707e+01,-5.953437716185518980e+00,9.824218347422721820e-01,1.855767929116345361e-01,2.016414032601154815e-02,2.035427740235414831e+03
-8.957895513373239638e+00,1.243964216098730091e+01,-5.944462244839095355e+00,9.975300483158526799e-01,6.697283836882388097e-02,2.112916535560458581e-02,2.036431931246835802e+03
-9.528566970840913086e+00,1.360426726473399306e+01,-5.775710376518451206e+00,9.983774565935160661e-01,-5.258856755863495352e-02,2.179212538559890250e-02,2.045108595330620801e+03
-1.012066656778272389e+01,1.456616056636353740e+01,-5.463255432595867767e+00,9.849519449379061653e-01,-1.713981612567103130e-01,2.214354266332684701e-02,2.053785259414406028e+03
-1.060677583498601706e+01,1.538504113468007972e+01,-5.078443576056728581e+00,9.574454459765983083e-01,-2.877574270991798966e-01,2.217839328624284650e-02,2.062461923498191027e+03
-1.085553016335596865e+01,1.611675704174056989e+01,-4.692636015468997890e+00,9.162511957173816723e-01,-4.000028796039227230e-01,2.189617902424612420e-02,2.071138587581976026e+03
-1.073167181702724271e+01,1.681318003388235383e+01,-4.377194112121240543e+00,8.619581118139137965e-01,-5.065298447978004992e-01,2.130093444263199062e-02,2.079815251665761025e+03
-1.009610415085051649e+01,1.752210142900861811e+01,-4.203464487159596530e+00,7.953423743490031228e-01,-6.058154008111780175e-01,2.040116922381631989e-02,2.088491915749546024e+03
-8.805947022412462744e+00,1.828712926726277388e+01,-4.242764131054002519e+00,7.173563294952479685e-01,-6.964401497421360832e-01,1.920974651236516048e-02,2.097168579833331023e+03
-7.671721861098104611e+00,1.879765821167845630e+01,-4.381992451888936380e+00,6.291148746848450601e-01,-7.771085095378127416e-01,1.774369902246698480e-02,2.102574989166561409e+03
-5.200577277262665277e+00,1.970451675922756607e+01,-4.847392739503897374e+00,5.318795199250159200e-01,-8.466672357973101803e-01,1.602398553673470283e-02,2.111251653250346408e+03
-2.091188511232740410e+00,2.065749702830376577e+01,-5.584954090706715668e+00,4.083279747329819909e-01,-9.125810551948042582e-01,2.149611010498349642e-02,2.119928317334131407e+03
4.386679721390319697e-01,2.134426697725636402e+01,-6.242268445704188373e+00,2.767570994085543634e-01,-9.605721288744796249e-01,2.654605726954617495e-02,2.127724495732276409e+03
1.532848222226319779e+00,2.158265270910757039e+01,-6.550440976842503815e+00,1.397508702369542888e-01,-9.896979642325862692e-01,3.107464983063418923e-02,2.136401159816061408e+03
-6.914146130671721124e-01,2.095790998926491611e+01,-5.984145619619584799e+00,0.000000000000000000e+00,-9.993865585864837309e-01,3.499294952972902689e-02,2.145077823899846408e+03
-4.901710675740694079e+00,1.975557445396085043e+01,-4.559728509959582787e+00,2.722660736973150919e-01,-9.617749324252057308e-01,2.929444438976963605e-02,2.153754487983631407e+03
-5.203479930331171843e+00,1.966221298864413214e+01,-4.433166480889598304e+00,5.239554337632462699e-01,-8.514760798128615527e-01,2.138197689257443843e-02,2.154387382205320137e+03
-7.184154233999033856e+00,1.875450353808371418e+01,-2.745360133242450651e+00,6.005803766210718875e-01,-7.923179416914083451e-01,-1.073940896342563678e-01,2.163064046289105136e+03
-6.447423671703275794e+00,1.837975603019571835e+01,-1.074709845821054222e+00,6.616176487355824865e-01,-7.125956216704822932e-01,-2.333828760929364809e-01,2.171740710372890135e+03
-6.282907837961182018e+00,1.835482097596918294e+01,-8.604923025042062745e-01,5.837787970111794067e-01,-7.873083098841098248e-01,-1.983581138930337329e-01,2.172833140906843255e+03
-5.133972976498751173e+00,1.825511067788463393e+01,8.158815220835040627e-01,4.984281226807832366e-01,-8.518901853477633956e-01,-1.607809647593808067e-01,2.181509804990628254e+03
-4.193710356404594108e+00,1.834874476483838990e+01,2.289586187613444235e+00,4.066638884923418629e-01,-9.055102450122906044e-01,-1.211349576885602797e-01,2.190186469074413253e+03
-3.265149262914425865e+00,1.862390580164253606e+01,3.259387882405904158e+00,3.096668803422205629e-01,-9.474785378795635982e-01,-7.993024131729853377e-02,2.198863133158198252e+03
-2.243809801252273584e+00,1.906172583281153265e+01,3.638068383566765540e+00,2.086852137843077659e-01,-9.772550415574041693e-01,-3.769701976098357304e-02,2.207539797241983251e+03
-1.496922969936997250e+00,1.944456625978211406e+01,3.709253886067256811e+00,1.050182746034576675e-01,-9.944566098392026987e-01,5.021269449453581203e-03,2.213652121309497488e+03
-5.562039987450237977e-01,2.007155199958063818e+01,4.422766401879365539e+00,0.000000000000000000e+00,-9.988619020525988379e-01,4.767494759577405039e-02,2.222328785393282487e+03
-6.912951589074633335e-03,2.051239553076412747e+01,6.284067760951526083e+00,0.000000000000000000e+00,-9.999498964259943001e-01,9.909824583016103514e-03,2.231005449477067486e+03
1.296016919806758372e-02,2.052748049066542535e+01,6.464458808126009259e+00,0.000000000000000000e+00,-9.996105710985341286e-01,-2.786944802730927095e-02,2.231662615805189489e+03
-2.938212015004235123e-01,1.987141334496349288e+01,7.945215301376667760e+00,0.000000000000000000e+00,-9.978444088153478608e-01,-6.560896112919958889e-02,2.240339279888974488e+03
-1.719297860106140385e+00,1.757370820358617891e+01,7.410951742945176335e+00,2.794712458660720822e-01,-8.471936367061168038e-01,-4.518370996933135375e-01,2.249015943972759487e+03
-3.884364302065354657e+00,1.436673247471508219e+01,5.537264110718041366e+00,4.890822843266345310e-01,-4.847679730256320152e-01,-7.251182879279615134e-01,2.257692608056544486e+03
-6.025277461215958752e+00,1.158524664887922206e+01,4.105932588658077087e+00,5.764363129605555303e-01,-1.163998612660337249e-03,-8.171400260720623754e-01,2.266369272140329485e+03
-7.556037810814754785e+00,1.009642379199371653e+01,4.242151105535246103e+00,6.754774030661203632e-01,-1.035121853985165093e-03,-7.373786045653268895e-01,2.275045936224114485e+03
-8.372096713790545763e+00,9.864657284960031802e+00,5.757798608659812523e+00,7.635952949225379705e-01,-8.895060763867440210e-04,-6.456929876900030507e-01,2.283722600307899484e+03
-8.512692846451763273e+00,9.956109595071072960e+00,6.356027242300559266e+00,8.393650353054481483e-01,-7.295060335714542016e-04,-5.435658242830638809e-01,2.286302034248829841e+03
-8.769970882147413604e+00,1.049723069674134557e+01,8.316929291620695608e+00,9.015613501737115287e-01,-5.577090842446010780e-04,-4.326486112705241749e-01,2.294978698332614840e+03
-8.753435874422184071e+00,1.120472727385181599e+01,9.716146237074649861e+00,9.491784577841152482e-01,-3.768933543673802728e-04,-3.147349888883854141e-01,2.303655362416399839e+03
-8.703694868151563568e+00,1.161341607351389094e+01,9.708790400509021978e+00,9.814463330920096817e-01,-1.899828147500832618e-04,-1.917317375062198848e-01,2.312332026500184838e+03
-8.711414139556049818e+00,1.164485110879299512e+01,9.285949316505078599e+00,9.978431604534077071e-01,-0.000000000000000000e+00,-6.562794478318881297e-02,2.315663338849083175e+03
-8.800671116070891031e+00,1.153775644572356995e+01,7.655310626758360826e+00,9.978431597493592209e-01,-0.000000000000000000e+00,-6.562794473688368657e-02,2.324340002932868174e+03
-8.806493282660929012e+00,1.152792100674348497e+01,7.571733936587706992e+00,9.978431597491095317e-01,-0.000000000000000000e+00,-6.562794473686725527e-02,2.324706374150830470e+03
-8.903529893120943228e+00,1.142540905456005085e+01,5.848293701254448251e+00,9.996731842912910393e-01,-0.000000000000000000e+00,-2.552497917224535659e-02,2.333027701794162112e+03
-8.828830945197879032e+00,1.145334050528099112e+01,4.391302173491858696e+00,9.988611377069980257e-01,-0.000000000000000000e+00,4.769095882953244825e-02,2.340429736949079143e+03
-8.560103974146551664e+00,1.145692119029736133e+01,2.647631755690316169e+00,9.919129090364577905e-01,-0.000000000000000000e+00,-1.269124930196784407e-01,2.349106401032864142e+03
-8.511120729833637100e+00,1.140858751090931378e+01,1.665641815898462053e+00,9.546769266706609525e-01,-0.000000000000000000e+00,-2.976406653669427804e-01,2.354278342309909476e+03
-8.712635883614833432e+00,1.146421910163543068e+01,4.752228925422016803e-01,9.706551006134579440e-01,-0.000000000000000000e+00,-2.404717771844190333e-01,2.360360353966545063e+03
-8.940332319008712503e+00,1.246842435074885813e+01,-1.651737461649060767e+00,9.722363324996369238e-01,-1.953871888802572454e-01,-1.287569811275708909e-01,2.369037018050330062e+03
-8.783740904497250312e+00,1.444570990493098606e+01,-4.129479073849876336e+00,9.245650992018533687e-01,-3.808762494256647813e-01,-1.051950384610287302e-02,2.377713682134115061e+03
-8.366579440578169269e+00,1.645665857896743134e+01,-6.308037575048100365e+00,8.300563437183797744e-01,-5.470705674602559521e-01,1.082509144117311389e-01,2.386390346217900060e+03
-7.822008426011731963e+00,1.783984163442785231e+01,-7.768612871233464112e+00,7.806285999484938731e-01,-5.968982760963820189e-01,1.852820469840285311e-01,2.395067010301685059e+03
-7.262449575613572073e+00,1.847782843278532283e+01,-8.528993795018616098e+00,7.227234694898639900e-01,-6.402438233739572437e-01,2.603010435616228135e-01,2.403130164613318811e+03
-6.618262463299063647e+00,1.862609820679909944e+01,-8.969970146806867106e+00,6.569697837451092814e-01,-6.766365006064531951e-01,3.324932319496404221e-01,2.411806828697103811e+03
-5.935161628511792742e+00,1.835288148997526392e+01,-9.266749324857064707e+00,5.840816013989285072e-01,-7.056811019518095529e-01,4.010746380097727215e-01,2.420483492780888810e+03
-5.499536649390638132e+00,1.805580052705136396e+01,-9.471986857466744070e+00,5.048504550707269001e-01,-7.270622152181295261e-01,4.653004977604566772e-01,2.425813156632938899e+03
-4.755461871242670391e+00,1.745469065384197549e+01,-9.977480936629792296e+00,4.436676085589408847e-01,-6.619261072840308957e-01,6.041613042990341409e-01,2.434489820716723898e+03
-3.951783333916411234e+00,1.670231191401592241e+01,-1.070597192062118808e+01,3.703866502330014354e-01,-5.787403219276727739e-01,7.265475683705776566e-01,2.443166484800508897e+03
-3.078902828222019217e+00,1.580317119556772099e+01,-1.158085385859915206e+01,2.870058323433269387e-01,-4.797732006331239529e-01,8.291220224768505176e-01,2.451843148884293896e+03
-2.126824365691188490e+00,1.476145911175166070e+01,-1.252549012383451554e+01,1.957988106946531026e-01,-3.677234113814306093e-01,9.090876296889043306e-01,2.460519812968078895e+03
-1.564769752680595705e+00,1.412649320434191225e+01,-1.305963275468472062e+01,9.925264828604696277e-02,-2.456463634500808957e-01,9.642638518230368661e-01,2.465369066212374946e+03
-4.965348104107253913e-01,1.289931083617250351e+01,-1.396672090215102457e+01,0.000000000000000000e+00,-1.168708951520591871e-01,9.931461090226156863e-01,2.474045730296159945e+03
-3.558140714832546680e-01,1.273696628151493648e+01,-1.407560374796499225e+01,-0.000000000000000000e+00,-5.853581561363283697e-02,9.982843073377095644e-01,2.475142349573290630e+03
4.916208939584251203e-01,1.214036862970902497e+01,-1.458932321664567056e+01,-0.000000000000000000e+00,-0.000000000000000000e+00,9.999989999924441264e-01,2.483466312374177505e+03
1.471129483473878619e+00,1.130453704696194528e+01,-1.397100977509954234e+01,-1.161848472904061791e-01,1.341998236121057881e-03,9.932256945363709955e-01,2.492142976457962504e+03
3.037261802634851016e+00,8.592169825772906222e+00,-1.189941189470742344e+01,-3.547482112034464619e-01,4.191047790379957561e-01,8.357648537936367417e-01,2.500819640541747503e+03
4.612789634138320771e+00,5.216179770417340045e+00,-9.477559274121032828e+00,-5.024135394087867468e-01,7.294793312445945199e-01,4.641535744838837241e-01,2.509496304625532503e+03
5.499801829976719070e+00,3.074256503164917831e+00,-7.905392742173985354e+00,-5.166155997796237909e-01,7.675306933432729517e-01,3.794772151780159697e-01,2.518172968709317502e+03
5.693967637405488169e+00,2.400901555975618606e+00,-7.235183201314408841e+00,-5.262612580650238847e-01,7.988126463277209766e-01,2.914540175156745128e-01,2.525780380867860003e+03
5.468346619782290752e+00,2.484178830061062548e+00,-6.728259806560661360e+00,-5.312654489786202694e-01,8.230493049207613376e-01,2.008603106403329952e-01,2.534457044951645003e+03
4.918211086533279541e+00,3.020051187369308554e+00,-5.979535407176090445e+00,-5.315840410219839773e-01,8.400269177377225338e-01,1.084950911627153985e-01,2.543133709035430002e+03
4.335297818377428669e+00,3.436675653171497036e+00,-4.823787073010657345e+00,-5.272142253727853944e-01,8.495957517028961403e-01,1.517297770659270517e-02,2.550354779863506792e+03
3.565426031466347734e+00,3.600294489788608665e+00,-2.708586462332921219e+00,-2.741342012018592178e-01,9.611286577054302116e-01,3.286553010700742072e-02,2.559031443947291791e+03
2.703239429244832959e+00,3.487770725602401090e+00,-4.935982754087376856e-01,-0.000000000000000000e+00,9.988447030622311651e-01,4.803393763091728941e-02,2.567708108031076790e+03
2.067315176421774314e+00,3.378663322739014152e+00,6.880271417327405992e-01,-0.000000000000000000e+00,9.988447023580213635e-01,4.803393759705219118e-02,2.573602673824100748e+03
1.133573922910288134e+00,3.253972303460876514e+00,1.928970120197211813e+00,-0.000000000000000000e+00,9.988447023580838691e-01,4.803393759705520266e-02,2.582279337907885747e+03
3.110028215110255401e-01,3.180845300484589799e+00,2.854654785657444016e+00,-0.000000000000000000e+00,9.988447023580213635e-01,4.803393759705219118e-02,2.590956001991670746e+03
-2.594463308236327204e-01,3.162811188192002909e+00,3.942344157659904980e+00,-0.000000000000000000e+00,9.988447023578338468e-01,4.803393759704317062e-02,2.599632666075455745e+03
-2.893003717968110622e-01,3.163515657877007836e+00,4.036723703528314999e+00,-0.000000000000000000e+00,9.999491145485001065e-01,9.988408292940531910e-03,2.600267624125338443e+03
-5.382572298626969731e-01,3.180810425570300026e+00,5.584313730483922988e+00,-0.000000000000000000e+00,9.996049151424648560e-01,-2.807158010602221407e-02,2.608944288209123442e+03
-5.402056525703160528e-01,3.175669458368286069e+00,7.533592191493808876e+00,-0.000000000000000000e+00,9.978126036139498556e-01,-6.609090750926480129e-02,2.617620952292908441e+03
-5.333371617161063449e-01,3.172938477212437824e+00,7.698690314018352687e+00,-0.000000000000000000e+00,9.975180332451141219e-01,-7.039725279542478897e-02,2.618304636174612369e+03
-4.323368085589650023e-01,3.195243450765722137e+00,9.833823547079802552e+00,-0.000000000000000000e+00,9.972048777234554517e-01,-7.470228707698511883e-02,2.626981300258397368e+03
-3.657936184719376982e-01,3.511432274948844245e+00,1.195985515114038655e+01,-0.000000000000000000e+00,9.968731426564392262e-01,-7.900593205231017102e-02,2.635657964342182368e+03
-3.654352054933950322e-01,3.873539108594694191e+00,1.310427406022550123e+01,-0.000000000000000000e+00,9.740607975202606461e-01,-2.262820424491076843e-01,2.640509090032692711e+03
-4.254953676781182970e-01,4.846556860589303461e+00,1.501038339365668506e+01,-0.000000000000000000e+00,9.296138819971914158e-01,-3.685322650717291482e-01,2.649185754116477710e+03
-5.403145940536530079e-01,6.190361921024849501e+00,1.667950816363619992e+01,-0.000000000000000000e+00,8.645195960947373859e-01,-5.025971229215566716e-01,2.657862418200262709e+03
-6.614420643560223745e-01,7.721691945428938553e+00,1.807812577999925097e+01,-0.000000000000000000e+00,7.802237321936638104e-01,-6.254989430228256042e-01,2.666539082284047709e+03
-7.524959002335269709e-01,9.256060154568990228e+00,1.917276994158592984e+01,-0.000000000000000000e+00,6.785985624686792228e-01,-7.345079924795707704e-01,2.675215746367832708e+03
-7.891770833500965088e-01,1.060807905667221007e+01,1.993003760728960572e+01,-0.000000000000000000e+00,5.619012539386907257e-01,-8.272031073582180039e-01,2.683892410451617707e+03
-7.592796716855689798e-01,1.159178444551485399e+01,2.031659595716573818e+01,-0.000000000000000000e+00,4.327237349480410056e-01,-9.015254678674415878e-01,2.692569074535402706e+03
-7.252069780520832287e-01,1.191246106331846022e+01,2.038538335318940753e+01,-0.000000000000000000e+00,2.939351266323157463e-01,-9.558243255602210109e-01,2.696615665404746323e+03
-6.120754906422464225e-01,1.216772432266397708e+01,2.026947140500058353e+01,-0.000000000000000000e+00,1.486180180067415424e-01,-9.888936670465409140e-01,2.705292329488531323e+03
-4.509584731688797143e-01,1.159581209794701984e+01,1.970097010287663508e+01,-0.000000000000000000e+00,0.000000000000000000e+00,-9.999989999999968626e-01,2.713968993572316322e+03
-2.835186753396493620e-01,1.016944825504969074e+01,1.866665188221218585e+01,-0.000000000000000000e+00,2.939351266323158018e-01,-9.558243255602210109e-01,2.722645657656101321e+03
-1.735434475638081009e-01,8.179053492989902807e+00,1.719302357838421358e+01,-0.000000000000000000e+00,5.619012539386908367e-01,-8.272031073582180039e-01,2.731322321739886320e+03
-1.742824341272282973e-01,6.074894108626048173e+00,1.532650221865553064e+01,-0.000000000000000000e+00,7.802237321936639214e-01,-6.254989430228254932e-01,2.739998985823671319e+03
-3.095989765613507139e-01,4.308359988077863356e+00,1.311358666247778260e+01,-0.000000000000000000e+00,9.296138819971915268e-01,-3.685322650717291482e-01,2.748675649907456318e+03
-4.555303336893760657e-01,3.491612543536324775e+00,1.158624800959068679e+01,-0.000000000000000000e+00,9.968731427319694749e-01,-7.900593205829621601e-02,2.754126479035926423e+03
-7.099929107663370820e-01,2.815877096278830205e+00,9.041089299100203647e+00,-0.000000000000000000e+00,9.993253334431474455e-01,-3.669983550950164930e-02,2.762803143119711422e+03
-8.226396660071620959e-01,2.824958877313790584e+00,6.537850881911214884e+00,-0.000000000000000000e+00,9.999829132298876377e-01,5.672145647144849825e-03,2.771479807203496421e+03
-5.529519189033705873e-01,3.124965516229464502e+00,4.388980135887628364e+00,-0.000000000000000000e+00,9.988447030562466189e-01,4.803393763062949878e-02,2.780156471287281420e+03
2.035050158610380577e-01,3.420671380460582167e+00,2.754290283815976625e+00,-1.705416569553164230e-01,9.738937489508970868e-01,1.498149158082180410e-01,2.788833135371066419e+03
3.592469844939495394e-01,3.458426005023358840e+00,2.540546754534803053e+00,-3.342503097990229821e-01,9.099223276316240616e-01,2.455933388306479892e-01,2.790185295074792521e+03
1.458948077892511686e+00,3.661073690932618696e+00,1.259836489514801317e+00,-4.845667538044484690e-01,8.094935342255448196e-01,3.315317166660907144e-01,2.798861959158577520e+03
2.627616675530397128e+00,3.802810175027297568e+00,3.395115835241641674e-03,-6.154683500556019649e-01,6.766311664062746312e-01,4.041868067222784688e-01,2.807538623242362519e+03
3.621044821126683022e+00,3.916316075460512192e+00,-1.526835585332856349e+00,-7.217103253060824786e-01,5.166585169996235072e-01,4.606475693616922662e-01,2.816215287326147518e+03
4.292076351721129335e+00,4.050710127185788600e+00,-3.462343597674983453e+00,-7.217103247967129320e-01,5.166585166349756397e-01,4.606475690365759434e-01,2.824891951409932517e+03
4.388632908452071213e+00,4.082455811831708026e+00,-3.880445562881726040e+00,-7.217103247967731061e-01,5.166585166350187164e-01,4.606475690366143572e-01,2.826593048671430552e+03
4.787683248913396916e+00,4.318161663447320109e+00,-5.989957902624351682e+00,-7.217103247967932012e-01,5.166585166350331493e-01,4.606475690366271247e-01,2.835269712755215551e+03
5.083875175651243694e+00,4.737435394594787574e+00,-7.862767399098196996e+00,-7.217103247967731061e-01,5.166585166350187164e-01,4.606475690366143017e-01,2.843946376839000550e+03
5.427981864925068400e+00,5.412899741013608157e+00,-9.130748397685319873e+00,-7.217103247967128210e-01,5.166585166349756397e-01,4.606475690365758879e-01,2.852623040922785549e+03
5.975458546864201637e+00,6.412680022666855884e+00,-9.425901420227038585e+00,-7.217103247966126789e-01,5.166585166349038083e-01,4.606475690365119391e-01,2.861299705006570548e+03
6.755323948228711295e+00,7.670226360752456785e+00,-8.658679419827310042e+00,-8.420573130954981389e-01,4.056464369547431170e-01,3.555115323708082364e-01,2.869672712387742195e+03
7.696459884848559696e+00,9.112511825203306159e+00,-7.049312023617956946e+00,-9.305233720150470900e-01,2.792763094034208526e-01,2.369155907494965296e-01,2.878349376471527194e+03
8.540722389360173139e+00,1.046473137075106408e+01,-5.086071020438506451e+00,-9.837591408452104336e-01,1.423325774433397140e-01,1.093498523188243671e-01,2.887026040555312193e+03
9.032357968085809929e+00,1.149334498217308642e+01,-3.271277231828029208e+00,-9.997490736130933975e-01,0.000000000000000000e+00,-2.235597928451544397e-02,2.895702704639097192e+03
9.025461893398588842e+00,1.206358083935950631e+01,-1.933871217030436629e+00,-9.976190902279458150e-01,-0.000000000000000000e+00,-6.895035031665305847e-02,2.904379368722882191e+03
8.655063941437177277e+00,1.223307465685984141e+01,-1.091301722309244937e+00,-9.933187120311354201e-01,-0.000000000000000000e+00,-1.153946979940363299e-01,2.912535634723868952e+03
8.094748601216730677e+00,1.215630945595774648e+01,-4.504861282657823818e-01,-9.868572963375098483e-01,-0.000000000000000000e+00,-1.615879842746555939e-01,2.921212298807653951e+03
7.582948299983099716e+00,1.193086946316759978e+01,1.019798571919886543e-01,-9.782489010062114243e-01,-0.000000000000000000e+00,-2.074297174388310960e-01,2.929888962891438950e+03
7.353197899100496926e+00,1.168929869771613461e+01,7.166178121391487688e-01,-9.675122538495032343e-01,-0.000000000000000000e+00,-2.528201705711900504e-01,2.938163058196540987e+03
7.629280693986746797e+00,1.152201323132608657e+01,1.640152090567457588e+00,-9.546707119047576073e-01,-0.000000000000000000e+00,-2.976605983796341559e-01,2.946839722280325987e+03
8.013775660210130880e+00,1.148483748311320873e+01,2.411628195963702925e+00,-9.919103751063531593e-01,-0.000000000000000000e+00,-1.269322959468154877e-01,2.952012313799725689e+03
8.031552070931443410e+00,1.158215944842028478e+01,5.098241189354955516e+00,-9.988620449086732522e-01,-0.000000000000000000e+00,4.767195441705847359e-02,2.960688977883510688e+03
7.949190732002850091e+00,1.161034549719535391e+01,5.578365247589687215e+00,-9.996734394190504025e-01,-0.000000000000000000e+00,-2.551498569211270093e-02,2.961763015716904647e+03
6.651133392227535523e+00,1.177333175706104562e+01,6.472602626160150585e+00,-9.440777764365472224e-01,0.000000000000000000e+00,-3.297198083811921920e-01,2.970439679800689646e+03
5.500872608818046849e+00,1.185693276664752993e+01,4.089283099563809643e+00,-7.981985109309881476e-01,0.000000000000000000e+00,-6.023928428760457754e-01,2.979116343884474645e+03
5.485713513098817273e+00,1.185932393881562597e+01,3.983325562453008839e+00,-5.759863546497749898e-01,0.000000000000000000e+00,-8.174580840985133934e-01,2.979457466509550159e+03
6.091821548664616337e+00,1.185448727416533998e+01,2.010361517689935429e+00,-9.295832893823247067e-01,0.000000000000000000e+00,-3.686094248698302267e-01,2.988134130593335158e+03
7.638918280099538549e+00,1.160382577633031786e+01,6.870157528270909308e-01,-9.796745246596755274e-01,0.000000000000000000e+00,2.005886979235580458e-01,2.996810794677120157e+03
8.038518090798302040e+00,1.148361733805709051e+01,2.955466629638672793e-01,-9.919216726385305938e-01,-0.000000000000000000e+00,1.268439803264406474e-01,2.999193198802010102e+03
8.962063404617405027e+00,1.120450675054065393e+01,-1.331659754905426096e+00,-9.986256781080270484e-01,-0.000000000000000000e+00,5.239040959916777679e-02,3.007869862885795101e+03
9.036562313903287347e+00,1.177979597556235802e+01,-2.915845639247224508e+00,-9.997490736100211883e-01,-0.000000000000000000e+00,-2.235597928444674545e-02,3.016546526969580100e+03
8.967706336905859388e+00,1.208379607051225335e+01,-3.230961483424741765e+00,-9.717502564625316586e-01,8.217542135502688139e-02,2.212388735978507992e-01,3.018571090606137659e+03
8.367869846305746151e+00,1.384753190121238831e+01,-4.334850820851912090e+00,-8.787654007226881614e-01,1.588552940050421136e-01,4.500381828916105165e-01,3.027247754689922658e+03
7.149319596035418556e+00,1.573975571038707244e+01,-5.230402007060643399e+00,-7.270129289257940552e-01,2.249116686481391070e-01,6.487410442401074784e-01,3.035924418773707657e+03
5.512871872207481871e+00,1.681211819983845501e+01,-6.148580269614882354e+00,-5.766679590211620798e-01,1.840762286713729101e-01,7.959698531213631467e-01,3.043893520388696743e+03
3.413137339318933261e+00,1.725810444319728632e+01,-7.260402101442799072e+00,-3.998265333040793013e-01,1.347829435961762079e-01,9.066257780270718936e-01,3.052570184472481742e+03
1.358881871905419869e+00,1.738040850335159249e+01,-8.343091096112853933e+00,-2.046140494825976486e-01,7.929671018452973119e-02,9.756244782239158475e-01,3.061246848556266741e+03
-2.027749730531346883e-01,1.765717206052115529e+01,-9.236207461306451094e+00,-0.000000000000000000e+00,2.016697227948319876e-02,9.997956257306721550e-01,3.069923512640051740e+03
-9.907690598459458764e-01,1.839398626066063969e+01,-9.826309560246391683e+00,-0.000000000000000000e+00,1.056116038666363166e-02,9.999432293153803775e-01,3.078600176723836739e+03
-1.116964428006147703e+00,1.949944917656237209e+01,-1.009441111233418908e+01,-0.000000000000000000e+00,9.543755874363009199e-04,9.999985445638068793e-01,3.086846896479906263e+03
-8.853070118760355545e-01,2.092081515059929586e+01,-1.009534722358976211e+01,-0.000000000000000000e+00,-8.652497010222309423e-03,9.999615663903944629e-01,3.095523560563691262e+03
-5.682487288559338046e-01,2.245584741238323190e+01,-9.827626416820237409e+00,-0.000000000000000000e+00,-1.825857229013155142e-02,9.998322981881307969e-01,3.104200224647476261e+03
-4.841100594629912379e-01,2.394990346858217478e+01,-9.318926468775783789e+00,-0.000000000000000000e+00,-2.786296520814821737e-02,9.996107518087591348e-01,3.112876888731261261e+03
-6.252855053314561040e-01,2.485183543529961625e+01,-8.889757446668857810e+00,1.330120560044519284e-01,-1.323655378480179945e-01,9.822347771021097129e-01,3.118472596435692594e+03
-1.161594899433032957e+00,2.612041038571071283e+01,-8.087241533931274873e+00,2.621780905406858042e-01,-2.330407788051620521e-01,9.364574973031477567e-01,3.127149260519477593e+03
-2.063623427131133337e+00,2.720851455578927869e+01,-7.108236274291037660e+00,3.837632787855045358e-01,-3.269776716119207061e-01,8.636025405959057988e-01,3.135825924603262592e+03
-3.214378659646643044e+00,2.811778091158743464e+01,-5.975139374255515889e+00,4.942519854352631081e-01,-4.114600305727614260e-01,7.657764805311472189e-01,3.144502588687047592e+03
-4.497267190578925877e+00,2.884633735372788266e+01,-4.710380630613792974e+00,5.904494181849229140e-01,-4.840450386062270516e-01,6.458079321018951324e-01,3.153179252770832591e+03
-5.796142219859142131e+00,2.938881836657396818e+01,-3.336417260400562856e+00,6.695740071273387217e-01,-5.426338830678116842e-01,5.071657696708191665e-01,3.161855916854617590e+03
-6.995350993808643558e+00,2.973637775467760846e+01,-1.875729226505370217e+00,7.293378384436751682e-01,-5.855324466887933399e-01,3.538588296033880476e-01,3.170532580938402589e+03
-7.979782092685296035e+00,2.987670246313291855e+01,-3.508145597569957141e-01,7.680128154946690433e-01,-6.115002978073890150e-01,1.903199963655649862e-01,3.179209245022187588e+03
-8.634912557117258913e+00,2.979402747829557185e+01,1.215815321777492519e+00,7.844806327361986131e-01,-6.197865621208620279e-01,2.127802329451385782e-02,3.187885909105972587e+03
-8.846854844838222931e+00,2.946915180514243815e+01,2.801640295597692898e+00,7.782651159459593737e-01,-6.101516375450204421e-01,-1.483792050859026324e-01,3.196562573189757586e+03
-8.545882131931664460e+00,2.891860651308707375e+01,4.312100633630034707e+00,7.495459925242153876e-01,-5.828741234524632553e-01,-3.137460139982114482e-01,3.204839683736362986e+03
-7.592789630864376527e+00,2.806444511530995811e+01,5.871019986303051219e+00,6.991536932645192604e-01,-5.387427636406384446e-01,-4.700407937818390502e-01,3.213516347820147985e+03
-5.978197344288553872e+00,2.691995192933077874e+01,7.372040831231428726e+00,6.434528662185273751e-01,-4.924563823403865781e-01,-5.860487355564417689e-01,3.222193011903932984e+03
-3.931372419876868918e+00,2.554081843955873765e+01,8.760963151572543239e+00,5.757176331190523300e-01,-4.369596615572720610e-01,-6.910958407397617131e-01,3.230869675987717983e+03
-1.790603615181662667e+00,2.401850014646549880e+01,9.973045751641029355e+00,4.972148498807600348e-01,-3.732905589922405065e-01,-7.832174357264335418e-01,3.239546340071502982e+03
1.122941669096794853e-01,2.245438111331474573e+01,1.094358425689551950e+01,4.094127527566018276e-01,-3.026398762706948853e-01,-8.606905966559670329e-01,3.248223004155287981e+03
1.452111569588583340e+00,2.095959874366039699e+01,1.160792460815679839e+01,3.139534966410026384e-01,-2.263289864367062088e-01,-9.220663706298863893e-01,3.256899668239072980e+03
1.910374460399298702e+00,1.965486557113457522e+01,1.190147654790631293e+01,2.126224414643632377e-01,-1.457851200810515446e-01,-9.661968723557528005e-01,3.265576332322857979e+03
1.493855936845625454e+00,1.879254178263639119e+01,1.184898714559866839e+01,1.073147612102030579e-01,-6.251467239026566036e-02,-9.922567499210126485e-01,3.272694965269143722e+03
-2.587294183429784677e-01,1.811729426223063300e+01,1.136882993901779493e+01,0.000000000000000000e+00,2.192496970816472032e-02,-9.997586187199435370e-01,3.281371629352928721e+03
-3.178207388303176284e+00,1.783241842730687665e+01,1.046339123987192465e+01,3.169908213566581257e-01,5.877059338972136920e-02,-9.466048999073018999e-01,3.290048293436713720e+03
-5.842281065284141484e+00,1.751196422806560093e+01,9.450102377822526378e+00,6.008035540474822023e-01,8.946493359374771415e-02,-7.943734103682975611e-01,3.298724957520498720e+03
-6.688184734395087538e+00,1.725591072390377079e+01,9.021275859963891364e+00,6.418919498950388380e-01,1.146379474236963181e-01,-7.581760123250599337e-01,3.302734939361821034e+03
-7.706686358425073102e+00,1.657895336071070602e+01,8.135585571093786328e+00,6.806488507332237869e-01,1.393945621765206866e-01,-7.192247896354880821e-01,3.311411603445606033e+03
