7.437453565506684239e-01,1.566057419261422901e+01,-1.988833300067361698e+00,-9.190016710373644093e-02,-9.957451545103819246e-01,-6.629219677889822832e-03,1.744912474395039226e+02
7.452997660095105337e-01,1.563450979934370899e+01,-1.986777074335718707e+00,-1.819942055794457059e-01,-9.768581189296436929e-01,-1.123580198097098304e-01,1.745738424909750393e+02
9.847993815329756373e-01,1.255164330060252986e+01,-1.839467965047730580e+00,-2.685116056350345115e-01,-9.387736212162941518e-01,-2.158786829373943172e-01,1.832505065747600952e+02
1.274142399954749871e+00,9.057817022630601400e+00,-1.707820604795606378e+00,-2.685116054458925317e-01,-9.387736205550135660e-01,-2.158786827853274304e-01,1.919271706585451511e+02
1.664357771763246729e+00,5.795528228452369035e+00,-1.433192770639447389e+00,-2.685116054458253632e-01,-9.387736205547787538e-01,-2.158786827852734458e-01,2.006038347423302071e+02
2.470174266245845907e+00,3.285960327948671988e+00,-1.051725242130632010e+00,-4.712556885827063891e-01,-8.593958630939068088e-01,-1.983805093183320378e-01,2.092804988261152630e+02
3.187935703016174571e+00,2.352255453319628042e+00,-8.277629626331018953e-01,-6.515150974908093806e-01,-7.390143696851707578e-01,-1.714171494984319533e-01,2.140452653255603650e+02
4.821494724183275515e+00,1.313922022319969907e+00,-4.014738565089657207e-01,-8.006892548187188874e-01,-5.833727960662762335e-01,-1.362750822024591801e-01,2.227219294093454209e+02
6.571092919703200863e+00,7.727199523931237435e-01,3.430764226388546834e-02,-9.116607128553168016e-01,-3.998971324930327143e-01,-9.463101004106820591e-02,2.313985934931304769e+02
8.195581924987235922e+00,5.576485490580616045e-01,4.693496440584217777e-01,-9.791347445456660692e-01,-1.973414059815317423e-01,-4.847186307438903358e-02,2.400752575769155328e+02
9.446918745951798257e+00,5.078745894144812700e-01,8.934204132548001498e-01,-9.998919759351018177e-01,1.462998501632728661e-02,-0.000000000000000000e+00,2.487519216607005887e+02
1.015574002833387013e+01,4.635803352708496305e-01,1.257893477558563733e+00,-9.998919715721606982e-01,1.463023495226474166e-02,-0.000000000000000000e+00,2.574285857444856447e+02
1.029411894742437106e+01,2.851690316681183002e-01,1.418982262672983552e+00,-9.998919679150287676e-01,1.463048489846496304e-02,-0.000000000000000000e+00,2.649877709955470095e+02
1.005513465898770953e+01,-9.808926573687792860e-02,1.319095802393606798e+00,-9.998919642577095424e-01,1.463073484466061516e-02,-0.000000000000000000e+00,2.713461404703121502e+02
9.297455794752160330e+00,-1.092786741735387590e+00,7.248523781494030649e-01,-9.998919606002018012e-01,1.463098479091418103e-02,-0.000000000000000000e+00,2.800228045540972062e+02
8.292844415191144236e+00,-2.611405815894432436e+00,-3.408514369740057171e-01,-9.947726228045428165e-01,-3.433479874166002737e-03,-1.020472445880236667e-01,2.886994686378822621e+02
7.872301561081381571e+00,-3.539304465743249306e+00,-9.862154688022736204e-01,-9.789433609053522778e-01,-2.146098598938219609e-02,-2.029958674759157755e-01,2.929048761537363816e+02
7.369631372640127687e+00,-5.615062850362722457e+00,-2.363299293067479212e+00,-9.941929643894603652e-01,3.323291848502375745e-02,1.023421843033252149e-01,3.015815402375214376e+02
7.116669696034164438e+00,-7.521793419891925403e+00,-3.662395235316476150e+00,-9.135472703524510907e-01,8.472129717383410086e-02,3.978086055350292249e-01,3.102582043213064935e+02
6.883598282232461507e+00,-8.858871552383074999e+00,-4.781798393992637841e+00,-7.447850786012693014e-01,1.280378416000694519e-01,6.549041897959472225e-01,3.189348684050915494e+02
6.493326947005634509e+00,-9.421034830445794483e+00,-5.696425387949119568e+00,-7.159432701968800883e-01,1.123736965406986477e-01,6.890539791472011233e-01,3.276115324888766054e+02
6.441615479488694618e+00,-9.416957842844663418e+00,-5.769043230279709000e+00,-6.854952957433279037e-01,9.645744975067196969e-02,7.216579244311597252e-01,3.283969988504130129e+02
5.655368762372638969e+00,-8.982106268553161854e+00,-6.570411088673529854e+00,-6.535094550883364661e-01,8.032480416534724943e-02,7.526428887185023786e-01,3.370736629341980688e+02
4.939810016007488258e+00,-8.586541237239616819e+00,-7.170236379275797489e+00,-6.200574967865772891e-01,6.401194805050879066e-02,7.819393654098425461e-01,3.426735174398660888e+02
3.518821103293355179e+00,-8.029594765812959167e+00,-8.300781960007560301e+00,-5.120714983611107662e-01,1.292679198728514944e-01,8.491587516230828525e-01,3.513501815236511447e+02
1.946603188768363468e+00,-7.614935032419572813e+00,-9.533528488322662753e+00,-3.936199446817038594e-01,1.918819085649877965e-01,8.990231767395124862e-01,3.600268456074362007e+02
4.551981517226950102e-01,-7.386232072729337794e+00,-1.069192346413758621e+01,-2.671237226598657255e-01,2.505742341054698619e-01,9.305135517528445588e-01,3.687035096912212566e+02
-7.252458324603141548e-01,-7.396710540991395355e+00,-1.159942980484573027e+01,-1.351681216348798176e-01,3.041453688906851083e-01,9.429863060920457007e-01,3.773801737750063126e+02
-1.366621379626303590e+00,-7.709090190778767671e+00,-1.207956268573593661e+01,-4.499992964603603558e-04,3.515004504558069121e-01,9.361865363436262522e-01,3.860568378587913685e+02
-1.370969448078306785e+00,-7.809330593840807744e+00,-1.207448015557303655e+01,-1.883972973626936442e-01,5.332446730398160417e-01,8.247148458850488417e-01,3.873951322043604932e+02
-8.956729210079699133e-01,-8.769995290715760561e+00,-1.153948596439667362e+01,-3.611256090034591359e-01,6.719127127645293518e-01,6.466216830183091346e-01,3.960717962881455492e+02
-2.379044802818054416e-01,-9.936354331569155818e+00,-1.059529873482173379e+01,-5.046817556012896944e-01,7.563028190826356356e-01,4.162936120250567695e-01,4.047484603719306051e+02
8.242848655288495530e-02,-1.100097337242915962e+01,-9.544681564727431677e+00,-6.074690999519222201e-01,7.795978449197799032e-01,1.523367742923535106e-01,4.124121790381846040e+02
-1.452755410985369366e-01,-1.205100218637012333e+01,-8.281728677941124772e+00,-0.000000000000000000e+00,4.167097442644203398e-02,9.991303868317403802e-01,4.210888431219696599e+02
-9.404139749169586615e-01,-1.270730130434568750e+01,-7.147833128453855878e+00,-1.301019926364900374e-02,6.262848031899089785e-01,7.794844963239286884e-01,4.297655072057547159e+02
-1.664729300017829816e+00,-1.272944730499792243e+01,-6.658303995167213607e+00,-2.094397647221669240e-02,9.665299142316687853e-01,2.556937127619831052e-01,4.350274833273855393e+02
-3.126268400231875688e+00,-1.209130462588817778e+01,-6.246828217085609758e+00,2.739875347888599544e-01,8.130576413732636398e-01,5.136789878771056417e-01,4.437041474111705952e+02
-4.752979447590487183e+00,-1.099096992075387647e+01,-6.106862678204345585e+00,5.203971143375245578e-01,5.155969956190622483e-01,6.806941908814079234e-01,4.523808114949556511e+02
-6.457761984535849820e+00,-9.773851197722382977e+00,-6.026573761326156742e+00,6.746469744003802393e-01,1.268268071976453026e-01,7.271618945670981216e-01,4.610574755787407071e+02
-7.229758213541391143e+00,-9.291730822575102522e+00,-5.944910963733906151e+00,7.728208791714574755e-01,1.139434599700014372e-01,6.243098402624210896e-01,4.649508163910221015e+02
-8.901493258270580355e+00,-8.405363414864838845e+00,-5.592010639324112020e+00,8.552426161816116812e-01,9.873764063464342267e-02,5.087326859860177297e-01,4.736274804748071574e+02
-1.043139716070382228e+01,-7.624590436145022743e+00,-5.037363570554112435e+00,9.202322169681387276e-01,8.151928381975225013e-02,3.827861977935019810e-01,4.823041445585922133e+02
-1.171375935753791531e+01,-6.867361720314698381e+00,-4.246799853663757673e+00,9.664650222730087892e-01,6.263934450855848657e-02,2.490374936511928483e-01,4.909808086423772693e+02
-1.263935940373571398e+01,-6.056048320694578990e+00,-3.186198778890681815e+00,9.929986812762120474e-01,4.248264495505418153e-02,1.102127209666681068e-01,4.996574727261623252e+02
-1.309553562625313639e+01,-5.117550377243282433e+00,-1.821495961931309360e+00,9.992923594179554669e-01,2.146003134476860003e-02,-3.085850717280670674e-02,5.083341368099473812e+02
-1.297013512136152968e+01,-4.009608649121276791e+00,-1.576176681597259432e-01,9.852177632737224577e-01,0.000000000000000000e+00,-1.713007849691814133e-01,5.168135734390102698e+02
-1.223112690679320202e+01,-2.678444619976692032e+00,1.846419517151701051e+00,8.964036235425649757e-01,4.105471192168438872e-06,-4.432364421883537298e-01,5.254902375227953826e+02
-1.103791115013714830e+01,-1.268454589781475850e+00,3.975726996376797384e+00,7.342303566837254936e-01,7.874963160389277043e-06,-6.788989492277610616e-01,5.341669016065804954e+02
-9.643463080431784462e+00,4.927684274824402355e-02,5.984286662225144937e+00,5.119696326534545205e-01,1.099999210732660065e-05,-8.590023836518065892e-01,5.428435656903656081e+02
-8.271463711721759537e+00,1.171679787026162600e+00,7.672205273888089927e+00,5.075412139229181774e-01,6.629455065188536236e-03,-8.616008161847767965e-01,5.515202297741507209e+02
-7.092252289987212244e+00,2.107163553767353648e+00,8.915857342770497240e+00,5.030771840271827111e-01,1.324744292923872753e-02,-8.641387921638686853e-01,5.600851580535378389e+02
-6.192152190168158654e+00,2.963625275132552694e+00,9.686649452389950454e+00,4.985778554918791627e-01,1.986450027995303319e-02,-8.666161339353937176e-01,5.687618221373229517e+02
-5.700739417436179401e+00,3.817162027205606378e+00,9.907189853118415712e+00,4.940435433079764516e-01,2.648016387834342678e-02,-8.690326680809909998e-01,5.774384862211080645e+02
-5.729383934139680612e+00,4.761113285571499709e+00,9.516256710942821329e+00,4.894745648987840481e-01,3.309397058227765698e-02,-8.713882254100546731e-01,5.861151503048931772e+02
-6.298473381411340277e+00,5.844000481928224744e+00,8.509919612062315508e+00,6.350126994351561471e-01,1.366653104152221535e-02,-7.723795035383708152e-01,5.947918143886782900e+02
-6.315400683411885652e+00,5.867550304442081810e+00,8.482995438005046296e+00,7.606358057586176669e-01,-6.189505862635049857e-03,-6.491477959727236513e-01,5.949680667067356126e+02
-7.289491750979015805e+00,7.049861436601871922e+00,6.924008747071332515e+00,8.624041727641009736e-01,-2.585142454941337029e-02,-5.055578568761787128e-01,6.036447307905207253e+02
-8.403384914331923028e+00,8.211270688494186842e+00,5.031352200326399071e+00,9.371262156633992646e-01,-4.470259885802064376e-02,-3.461128913711962740e-01,6.123213948743058381e+02
-9.421928158624472971e+00,9.234483860331815563e+00,2.972896145377084576e+00,9.824585608820066707e-01,-6.215182979163335480e-02,-1.758133277225957525e-01,6.209980589580909509e+02
-1.011485518743014822e+01,9.992609040414723864e+00,9.165454865541112772e-01,9.969795307178351829e-01,-7.765188556181246149e-02,-0.000000000000000000e+00,6.296747230418760637e+02
-1.033615919228071789e+01,1.040287174856645613e+01,-1.009679283013867224e+00,9.848896877147136353e-01,-6.537706492768109723e-02,1.603625343291227023e-01,6.383513871256611765e+02
-1.010056582490844335e+01,1.048463600891752989e+01,-2.757552723270080275e+00,9.471798814793425114e-01,-5.140158925058702782e-02,3.165535479900630778e-01,6.470280512094462892e+02
-9.708712160224141741e+00,1.037011723013132247e+01,-3.765535251247726478e+00,8.848310558812244597e-01,-3.608900206810867345e-02,4.645100499231253899e-01,6.526254349302826085e+02
-8.803249106050387240e+00,9.996204947033541899e+00,-5.135880858074302502e+00,7.994650843517199235e-01,-1.983762900307772109e-02,6.003832504156387806e-01,6.613020990140677213e+02
-7.678055537970951860e+00,9.496101328965565358e+00,-6.306004026881867119e+00,6.933025823881638905e-01,-3.070216475057450153e-03,7.206386771650141743e-01,6.699787630978528341e+02
-6.415737913481299515e+00,8.953543133479081817e+00,-7.267714075245585548e+00,5.691051459498468468e-01,1.377706487124013071e-02,8.221481164231774219e-01,6.786554271816379469e+02
-5.095273678918273319e+00,8.455566608746119428e+00,-8.012863759387691687e+00,4.301035175188639981e-01,3.026596604827190215e-02,9.022709878512649162e-01,6.873320912654230597e+02
-3.789133269674536120e+00,8.045084798058907083e+00,-8.544953834598695508e+00,3.792975298609594370e-01,2.858512575893290900e-02,9.248320249782608915e-01,6.960087553492081724e+02
-2.562974775553174211e+00,7.673331067855446719e+00,-8.890735186429823855e+00,3.273183467256033374e-01,2.681586945926352911e-02,9.445324817287344965e-01,7.046854194329932852e+02
-2.535188014799287348e+00,7.664278572159376246e+00,-8.896761402568397870e+00,2.743267406900478100e-01,2.496366949334269392e-02,9.613114243295102224e-01,7.048924042306986166e+02
-1.466223964641806710e+00,7.229577629626797730e+00,-9.075878050921495799e+00,2.204866156156566059e-01,2.303425473712938931e-02,9.751169547503389934e-01,7.135690683144837294e+02
-6.139377396180261126e-01,6.647666309434719700e+00,-9.146420445250342368e+00,1.659644998151607875e-01,2.103359288349517658e-02,9.859063711985319722e-01,7.222457323982688422e+02
-5.166307348638287528e-02,5.830874920917937132e+00,-9.146836763130261616e+00,1.109290311058386269e-01,1.896787198907892713e-02,9.936463001935029737e-01,7.309223964820539550e+02
1.104659441793906793e-01,4.921102284917794556e+00,-9.120281043439797841e+00,5.555043533688857477e-02,1.684348133984912496e-02,9.983127998117928836e-01,7.379002473021155311e+02
-1.217233826384300499e-01,3.401962302802570726e+00,-9.088526099394385938e+00,0.000000000000000000e+00,1.466699169439458252e-02,9.998914337827495835e-01,7.465769113859006438e+02
-8.469111575723660135e-01,1.684298098803752586e+00,-9.084953553666588633e+00,-0.000000000000000000e+00,7.333191487407806144e-03,9.999721116960981204e-01,7.552535754696857566e+02
-1.515213996803459251e+00,9.593109282724854303e-01,-9.103907594237140799e+00,-0.000000000000000000e+00,-9.999989999326389967e-07,9.999989999326391876e-01,7.600325983300808730e+02
-3.157409751191790015e+00,4.533253266246198843e-01,-9.184776748378387978e+00,4.999994996467595901e-07,-9.999989992935191802e-07,9.999989992935193195e-01,7.687092624138659858e+02
-5.119612421872354879e+00,5.767946710921467712e-01,-9.337154708547565463e+00,9.999989992928942817e-07,-9.999989992928942817e-07,9.999989992928942639e-01,7.773859264976510985e+02
-5.240842470225155481e+00,5.983670299740433407e-01,-9.349726883953724865e+00,2.136536391130217372e-01,-2.736271494305166363e-01,9.378050466857821288e-01,7.778831474013238676e+02
-7.355578880664527475e+00,1.105786609783688590e+00,-9.572238531239765535e+00,4.007305300104290202e-01,-5.132176219660787853e-01,7.589602854049946057e-01,7.865598114851089804e+02
-9.193261373555564830e+00,1.754079344767659032e+00,-9.625564086914671691e+00,5.379617392347881832e-01,-6.889704772059251914e-01,4.857106635220103108e-01,7.952364755688940932e+02
-1.032050092264097785e+01,2.477036712440887634e+00,-9.250487833479972721e+00,6.082774653435700785e-01,-7.790243152625521139e-01,1.520448663574272274e-01,8.039131396526792059e+02
-1.041237556623423899e+01,2.907227698226700685e+00,-8.679199299643098442e+00,5.495679387846780228e-01,-8.320559301229025762e-01,7.520644790477032382e-02,8.090429698217538999e+02
-9.686441823600324241e+00,3.591456710394010710e+00,-7.164635151813765646e+00,4.841738487722463957e-01,-8.749669698854695143e-01,-2.546718237980990715e-03,8.177196339055390126e+02
-8.396906668732531998e+00,4.199488421231576396e+00,-5.276726135323933420e+00,4.128905968790096415e-01,-9.072355028656561293e-01,-8.026890648445932086e-02,8.263962979893241254e+02
-6.907794354707557538e+00,4.710311445751244719e+00,-3.213036023827744891e+00,3.365852128305096835e-01,-9.284690393758897597e-01,-1.570147681693106201e-01,8.350729620731092382e+02
-5.583477205665094978e+00,5.117801860589278995e+00,-1.171165228749695864e+00,2.561858103071208981e-01,-9.384093051544788455e-01,-2.318508283259674008e-01,8.437496261568943510e+02
-4.579412190029113816e+00,5.452517891302045783e+00,6.794125684388995223e-01,1.283283239993097680e-01,-9.079911778301084091e-01,-3.988506766232678968e-01,8.524262902406794637e+02
-3.696515400096236359e+00,5.788939387246777812e+00,2.222916072920219754e+00,-5.324672082127412422e-03,-8.365665217215753069e-01,-5.478376608109032375e-01,8.611029543244645765e+02
-3.546295499488836267e+00,5.851909539950080230e+00,2.409048836097138047e+00,-1.387371622425130346e-01,-7.273610345909399255e-01,-6.720832724988929918e-01,8.624486719149061855e+02
-2.445153673747434198e+00,6.358272876647248495e+00,3.300185303595880804e+00,-2.658840059116727716e-01,-5.853066539432054682e-01,-7.659763810010675744e-01,8.711253359986912983e+02
-1.209861789372004282e+00,6.991579213527106873e+00,3.996847217299039023e+00,-3.810230403300212121e-01,-4.168188139263647729e-01,-8.252766318611660656e-01,8.798020000824764111e+02
1.376878209044817558e-01,7.792445825695814676e+00,4.676884130056484956e+00,-4.789543995528241505e-01,-2.295067122760384437e-01,-8.473059377643092915e-01,8.884786641662615239e+02
1.547783499595687617e+00,8.751128093422908094e+00,5.449119751774758491e+00,-4.789543992147192175e-01,-2.295067121140243749e-01,-8.473059371661764150e-01,8.971553282500466366e+02
2.309258769021532931e+00,9.321848263145001923e+00,5.917709247342625822e+00,-4.789543992147591300e-01,-2.295067121140435262e-01,-8.473059371662472472e-01,9.019605574474145442e+02
3.537961616776283957e+00,1.030228658247599682e+01,6.761352860065175996e+00,-4.789543992147724527e-01,-2.295067121140499100e-01,-8.473059371662707839e-01,9.106372215311996570e+02
4.492034085841911661e+00,1.109169699179782143e+01,7.515206137463423808e+00,-4.789543992147590745e-01,-2.295067121140434985e-01,-8.473059371662472472e-01,9.193138856149847697e+02
5.016841484898313830e+00,1.154342292628243705e+01,8.080991008302085277e+00,-4.789543992147191620e-01,-2.295067121140243749e-01,-8.473059371661765260e-01,9.279905496987698825e+02
4.951445793171506793e+00,1.151713460096402031e+01,8.360468579760649277e+00,-4.789543992146525486e-01,-2.295067121139924560e-01,-8.473059371660587313e-01,9.366672137825549953e+02
4.601040550340294466e+00,1.123989587704758009e+01,8.330805986357837867e+00,-3.904753909258227296e-01,-2.917818301860410912e-01,-8.731496622312627798e-01,9.407814125213211582e+02
3.277973474375594165e+00,1.014896032447868990e+01,7.965061481524351450e+00,-2.971644024326272060e-01,-3.504462412993863407e-01,-8.881884652966625104e-01,9.494580766051062710e+02
1.599717343278231896e+00,8.698149863727268283e+00,7.406697367806060583e+00,-2.001761117628173825e-01,-4.047740041109907372e-01,-8.922362522759679226e-01,9.581347406888913838e+02
-1.505024380925402139e-01,7.041304094977909322e+00,6.785923997847819855e+00,-1.007106995657811588e-01,-4.540928391164632538e-01,-8.852429318870057573e-01,9.668114047726764966e+02
-1.683493190478431378e+00,5.320440669585342341e+00,6.232964671908490573e+00,9.999988887663479212e-07,-4.977924468356665910e-01,-8.672950362314982842e-01,9.754880688564616094e+02
-2.812295470557160559e+00,3.628992091201043824e+00,5.839597816599575886e+00,3.514015290458252089e-02,-4.215131910517246894e-01,-9.061400550813538679e-01,9.841647329402467221e+02
-3.399199503030631231e+00,2.321603370650286102e+00,5.666935150695459278e+00,6.997842319652719523e-02,-3.416248492725804109e-01,-9.372264841787657508e-01,9.910435143258105199e+02
-3.870149843954204805e+00,6.958320099045456342e-01,5.603580199064379208e+00,1.042175211117799816e-01,-2.588114367014032746e-01,-9.602881591092922164e-01,9.997201784095956327e+02
-4.201066153080121879e+00,-9.201085197614631284e-01,5.672393732516443521e+00,1.375642869419407277e-01,-1.737820123452249732e-01,-9.751276219771970455e-01,1.008396842493380746e+03
-4.525674090581787823e+00,-2.536481756112431540e+00,5.849735754460202664e+00,1.697332007446092084e-01,-8.726460886427001018e-02,-9.816178118820082510e-01,1.017073506577165858e+03
-4.977988760767938281e+00,-4.158069552397461344e+00,6.111943550707658268e+00,2.004488266898622750e-01,-0.000000000000000000e+00,-9.797031529384774284e-01,1.025750170660950971e+03
-5.612985255470523960e+00,-5.747343267794920330e+00,6.430263119407860550e+00,3.262994420684224850e-01,1.987539733262067357e-02,-9.450564230175180214e-01,1.034426834744735970e+03
-6.025680867659950479e+00,-6.579978174482113751e+00,6.623900157601494421e+00,4.464613543368109450e-01,3.940428176389090820e-02,-8.939337568649881050e-01,1.039362803459668157e+03
-6.693392147789971602e+00,-7.804063966991541257e+00,6.951844014795597104e+00,5.588397039349914941e-01,5.824619309723534644e-02,-8.272264298824802964e-01,1.048039467543453156e+03
-7.136854314946151412e+00,-8.661618744911470102e+00,7.227973352286271691e+00,6.614753300133054958e-01,7.607264826383959566e-02,-7.460974064896549462e-01,1.056716131627238155e+03
-7.157409250661671329e+00,-9.021236014248023238e+00,7.408310722071293597e+00,7.525789214881516420e-01,9.257286733493137743e-02,-6.519610656823969785e-01,1.065392795711023155e+03
-6.898352662899023713e+00,-8.927910303427029959e+00,7.437529366718097279e+00,5.829198248099972668e-01,2.061670747374171886e-01,-7.859374117188454578e-01,1.069527337095564462e+03
-5.761402778696753657e+00,-8.292839841786722843e+00,7.404797644470419549e+00,3.784967832781635511e-01,3.074659596578007692e-01,-8.730423063640009307e-01,1.078204001179349461e+03
-4.070775972317627556e+00,-7.477958696696514806e+00,7.341058190692912433e+00,1.515010608934213576e-01,3.904283143199049899e-01,-9.080810315863022675e-01,1.086880665263134460e+03
-1.892505296259828773e+00,-6.776078431831250803e+00,7.319970526452823201e+00,-8.452989841296686124e-02,4.501064590673757859e-01,-8.889639316536507296e-01,1.095557329346919460e+03
-9.514847030995517985e-01,-6.629837108778151133e+00,7.348252439449140638e+00,-2.525507088746741791e-01,3.671836851625728815e-01,-8.952051612888420884e-01,1.098758131633647281e+03
1.719829930663038242e+00,-6.569959003408579079e+00,7.545858763227609955e+00,-4.116952776148754545e-01,2.713558278645691879e-01,-8.699833406879575737e-01,1.107434795717432280e+03
4.072980482768733701e+00,-6.774002963705413549e+00,7.874797912269039912e+00,-5.563703187369850589e-01,1.659908573385144304e-01,-8.141849321312262244e-01,1.116111459801217279e+03
5.582296261963495709e+00,-7.114475824035588758e+00,8.346016610074133979e+00,-6.814910863539269670e-01,5.479192654279781138e-02,-7.297710216270740791e-01,1.124788123885002278e+03
5.937761643633165498e+00,-7.470242275201905535e+00,8.942390203622759159e+00,-5.646393260534413594e-01,4.716349500984133580e-02,-8.239878859627867147e-01,1.133464787968787277e+03
5.321223683407589888e+00,-7.735166803435784111e+00,9.523497449550259120e+00,-4.350327400933866606e-01,3.846967108914055300e-02,-8.995913513670295014e-01,1.141209167397182000e+03
3.894436705504662033e+00,-7.933868685388151931e+00,1.013340496355991682e+01,-2.955990500638104868e-01,2.890684225427228582e-02,-9.548736021450807687e-01,1.149885831480966999e+03
2.050234167092520821e+00,-8.006179087911755587e+00,1.060355084374125667e+01,-1.494879576067057458e-01,1.869102560032454702e-02,-9.885858567133879449e-01,1.158562495564751998e+03
1.174102323535921033e-01,-7.937474855296838605e+00,1.083268558735571752e+01,-0.000000000000000000e+00,8.052988517099743740e-03,-9.999665741297896204e-01,1.167239159648536997e+03
-1.675633070456814977e+00,-7.759806677136438680e+00,1.076419757758865892e+01,2.522642347650952757e-02,-8.197163859895817417e-02,-9.963143469927271401e-01,1.175915823732321996e+03
-1.692534766195362472e+00,-7.757673517506903593e+00,1.076196042054340118e+01,5.023200919067417197e-02,-1.712786671229315494e-01,-9.839402235099464766e-01,1.176002597172595415e+03
-3.318453441086215427e+00,-7.579339911128554874e+00,1.042205723858258715e+01,7.479785807258813868e-02,-2.590863027140812846e-01,-9.629525264378679950e-01,1.184679261256380414e+03
-4.859979140994947322e+00,-7.539196535993474058e+00,9.895199156278710717e+00,9.870892012822064798e-02,-3.446258753909626771e-01,-9.335349779720014674e-01,1.193355925340165413e+03
-6.402587402587475829e+00,-7.773188513936845290e+00,9.258694657680056395e+00,1.217558766212737814e-01,-4.271485671580905197e-01,-8.959450921131094647e-01,1.202032589423950412e+03
-7.487652730134630730e+00,-8.167062135042057136e+00,8.787771746124779071e+00,3.136711860113177708e-01,-3.682942701586291445e-01,-8.751958167379476627e-01,1.207929869767793889e+03
-9.115788976698308232e+00,-9.010036793398466415e+00,8.040657885583369691e+00,4.928118871344079333e-01,-2.944408746081474404e-01,-8.188034045241580072e-01,1.216606533851578888e+03
-1.070247119443476436e+01,-9.934394735429268763e+00,7.212229458301989027e+00,6.518823414405642280e-01,-2.085961333910409943e-01,-7.290645143290308550e-01,1.225283197935363887e+03
-1.215758301150663456e+01,-1.075075352548696550e+01,6.273335545536550484e+00,7.844042972156781701e-01,-1.142561456077224175e-01,-6.096338505218306114e-01,1.233959862019148886e+03
-1.338321918400266597e+01,-1.127354633319711930e+01,5.194848210265016419e+00,8.849807075426920910e-01,-1.526297770940438295e-02,-4.653753203493267154e-01,1.242636526102933885e+03
-1.428942160315663834e+01,-1.144866417128378444e+01,3.974579964660702291e+00,9.343647041290175093e-01,-2.846673670068930462e-02,-3.551763570108807944e-01,1.251313190186718884e+03
-1.442819349200763313e+01,-1.144274857305931015e+01,3.640603653383540195e+00,9.699603113204490201e-01,-4.125040997248095864e-02,-2.397361010369448153e-01,1.253503822420338793e+03
-1.459652996808353898e+01,-1.143089443914238146e+01,2.264439996242292530e+00,9.912422606451662954e-01,-5.342535265000009775e-02,-1.207580738722864311e-01,1.262180486504123792e+03
-1.434437238365552680e+01,-1.169857705623137356e+01,8.966060720269063422e-01,9.978964962917117321e-01,-6.481190233636946463e-02,1.999996986248517972e-06,1.270857150587908791e+03
-1.392479677878713318e+01,-1.218583048356426346e+01,6.997331587584773582e-02,9.842838733157226461e-01,1.297267356343901890e-01,1.198091431993938277e-01,1.276364922682093948e+03
-1.295009025609542874e+01,-1.343533198488016112e+01,-1.152273742619789543e+00,9.191100942929432138e-01,3.174697010911591843e-01,2.333401454097311090e-01,1.285041586765878947e+03
-1.181640812789930273e+01,-1.500249710174207607e+01,-2.302715068511475227e+00,8.057892435783569063e-01,4.885822047769387555e-01,3.346477612513469868e-01,1.293718250849663946e+03
-1.068373407272052766e+01,-1.669600247251937830e+01,-3.390623614486449888e+00,6.502575451219111402e-01,6.341006231837181817e-01,4.184250526577707463e-01,1.302394914933448945e+03
-9.704109748180860251e+00,-1.831817942346484074e+01,-4.425285362191571537e+00,4.606624106662593476e-01,7.464020451143851265e-01,4.802833855647918315e-01,1.311071579017233944e+03
-8.960186073716540633e+00,-1.969568548340190262e+01,-5.405379433486879215e+00,4.172348226870536969e-01,7.278696866837701673e-01,5.441680089318342572e-01,1.319748243101018943e+03
-8.509550676881072917e+00,-2.052816271663838066e+01,-6.143284847818184069e+00,3.711742134430326967e-01,7.047439925504269675e-01,6.046185642533730142e-01,1.326825654046477666e+03
-8.046683221814612708e+00,-2.111700462642244602e+01,-6.942396150561377155e+00,3.227712547909927232e-01,6.771709017490963323e-01,6.612535723198923465e-01,1.335502318130262665e+03
-7.565853052293184611e+00,-2.120036281198781580e+01,-7.604228356047557646e+00,2.723313997141311171e-01,6.453244184477496814e-01,7.137156322273616738e-01,1.344178982214047664e+03
-6.949404848263428747e+00,-2.070454015012683158e+01,-8.095682648800522685e+00,2.201729548524689328e-01,6.094055139068029758e-01,7.616736765652282193e-01,1.352855646297832664e+03
-6.076631725655103899e+00,-1.956047525142891175e+01,-8.383695697791226920e+00,1.666250719489444365e-01,5.696408583099646927e-01,8.048250604589254342e-01,1.361532310381617663e+03
-6.066192542006159982e+00,-1.954534651058232697e+01,-8.385459343692922118e+00,1.120256708762911863e-01,5.262813904639718210e-01,8.428974712957342241e-01,1.361619784419703819e+03
-4.807015247621182930e+00,-1.765558474123024979e+01,-8.430660892361263592e+00,5.671930734060503382e-02,4.796007343853082028e-01,8.756506470918944407e-01,1.370296448503488818e+03
-3.039407582508552252e+00,-1.499320638715969878e+01,-8.206096834021790798e+00,1.054998706094199953e-03,4.298934727560758673e-01,9.028778926631518820e-01,1.378973112587273818e+03
-9.818615590871819787e-01,-1.189784595213710894e+01,-7.606295031996727296e+00,1.685414284486882281e-03,1.108642488697374195e-01,9.938331236673707547e-01,1.387649776671058817e+03
5.569731689640849970e-01,-9.459023414907404614e+00,-6.635917641042820669e+00,2.130345568853474810e-03,-2.203667120281967429e-01,9.754137449575420726e-01,1.395205345963566742e+03
1.795383873120370843e+00,-7.284996892421730763e+00,-5.020876188637163118e+00,2.340824790866743218e-03,-5.273462768686244528e-01,8.496460585468020854e-01,1.403882010047351741e+03
2.625099048952583392e+00,-5.680117713436302118e+00,-3.038470950538631143e+00,2.293686022495189814e-03,-7.762895391800804790e-01,6.303707562656571950e-01,1.412558674131136740e+03
3.169540977304397433e+00,-4.587901645431433195e+00,-8.269398316431287865e-01,1.994116413153585766e-03,-9.397985660966350352e-01,3.417201759540922645e-01,1.421235338214921740e+03
3.554021014318081484e+00,-3.957169764758326380e+00,1.475431464770128764e+00,1.475085922350009848e-03,-9.998783647304519961e-01,1.546220745461806753e-02,1.429912002298706739e+03
3.905655753302586408e+00,-3.742104086401334406e+00,3.730338280964131226e+00,7.937177581482617169e-04,-9.499174875591770428e-01,-3.124966189225977242e-01,1.438588666382491738e+03
4.353282545441389928e+00,-3.902301183729377954e+00,5.799485851622635302e+00,2.499997267776283641e-05,-7.954151306982162328e-01,-6.060633376390263116e-01,1.447265330466276737e+03
4.971892550080900364e+00,-4.396144772573078008e+00,7.587763911284424623e+00,6.594276699033897867e-04,-7.279391461337054725e-01,-6.856399672438280302e-01,1.455941994550061736e+03
5.727417334007227190e+00,-5.171149042473933477e+00,9.086412288796680059e+00,1.286676850517918082e-03,-6.525389176860599827e-01,-7.577527996442661173e-01,1.464618658633846735e+03
6.532714315224585455e+00,-6.166157644008554151e+00,1.032987695433044451e+01,1.899919385305095902e-03,-5.700352421367644862e-01,-8.216168285943317162e-01,1.473295322717631734e+03
6.721026451986843675e+00,-6.439672796299468871e+00,1.057220735970517111e+01,2.492479622424557777e-03,-4.813262418474493765e-01,-8.765368426115152101e-01,1.475350588592802978e+03
7.453838773168259380e+00,-7.712772148976689834e+00,1.139619882249082750e+01,3.057907054187384947e-03,-3.873775882268054027e-01,-9.219149924722115363e-01,1.484027252676587977e+03
8.049103716384699680e+00,-9.056409318139682085e+00,1.204225731462860516e+01,3.590046533035761312e-03,-2.892119900033395252e-01,-9.572572989563206125e-01,1.492703916760372977e+03
8.428347921044109015e+00,-1.039858533708362565e+01,1.254499060414434375e+01,4.083105272705793778e-03,-1.878980606891937077e-01,-9.821790300354782399e-01,1.501380580844157976e+03
8.515881279011267679e+00,-1.166413985599768743e+01,1.293903624779882477e+01,4.531715905505841711e-03,-8.453868636852077123e-02,-9.964088889902448232e-01,1.510057244927942975e+03
8.238844959405048129e+00,-1.277483624297500420e+01,1.325905435483791805e+01,4.930994909503488323e-03,1.974097962046407820e-02,-9.997919678680230460e-01,1.518733909011727974e+03
7.572856931066278108e+00,-1.367877805640400624e+01,1.352194039180763596e+01,4.446603908729481781e-03,4.455779565452370333e-02,-9.989959111804411762e-01,1.527410573095512973e+03
6.586069411261644468e+00,-1.438230356560274892e+01,1.370904169663773864e+01,3.959470591603140265e-03,6.934712588635962016e-02,-9.975837301797136902e-01,1.536087237179297972e+03
6.491069761806780747e+00,-1.442783694469650690e+01,1.371752637502871686e+01,3.469895377169399196e-03,9.409368262788460335e-02,-9.955562961033778135e-01,1.536793681076719395e+03
5.205137759424021127e+00,-1.486507319765658153e+01,1.371916397327316872e+01,2.978180189685054099e-03,1.187822045874372262e-01,-9.929148595482367723e-01,1.545470345160504394e+03
3.832758402914438367e+00,-1.518653110729690958e+01,1.356925111667979422e+01,2.484628272542257002e-03,1.433974662741803741e-01,-9.896610496953736069e-01,1.554147009244289393e+03
2.482621917756908214e+00,-1.544057300685884293e+01,1.323143437738247030e+01,1.989544001396378013e-03,1.679242873804358827e-01,-9.857968733051060140e-01,1.562823673328074392e+03
1.261381438327946691e+00,-1.567995244823134904e+01,1.266939940563830547e+01,1.493232696598648709e-03,1.923475421361571236e-01,-9.813247134796746485e-01,1.571500337411859391e+03
2.735862315252316490e-01,-1.596175102971019122e+01,1.184687851431686667e+01,9.960004350483984883e-04,2.166521686298168159e-01,-9.762473281944241688e-01,1.580177001495644390e+03
-2.169579562031129505e-01,-1.624745054883345574e+01,1.101544945851445689e+01,4.981538615800048088e-04,2.408231780900049190e-01,-9.705678485983810777e-01,1.586639509500936583e+03
-4.590190962586634948e-01,-1.679018053443899916e+01,9.573839484272211209e+00,0.000000000000000000e+00,2.648456641220581220e-01,-9.642897770852628669e-01,1.595316173584721582e+03
-3.444767363602633248e-01,-1.705943755555506769e+01,8.746037530214193723e+00,-0.000000000000000000e+00,3.410856895361299435e-01,-9.400311443624989050e-01,1.599338965808190324e+03
4.069465482226140574e-01,-1.737519175997982757e+01,6.669041891001117328e+00,-3.230183608123804451e-01,4.467920794801609752e-01,-8.342865073179728252e-01,1.608015629891975323e+03
1.594651579267057917e+00,-1.729894091043869508e+01,4.460994918674387577e+00,-6.051112637003469574e-01,4.958913024062636676e-01,-6.228404087259294952e-01,1.616692293975760322e+03
3.109215147993688255e+00,-1.687775128268033953e+01,2.333778167150799110e+00,-8.105384596092877203e-01,4.821626669404919241e-01,-3.324824327753394537e-01,1.625368958059545321e+03
4.839728700357408542e+00,-1.615402283989643095e+01,4.992562680630711625e-01,-9.132730123892983665e-01,4.073455594977313243e-01,-0.000000000000000000e+00,1.634045622143330320e+03
6.679995137850275988e+00,-1.518101181635540797e+01,-8.935227958292022432e-01,-9.254906391312097691e-01,3.769718122377380132e-01,-3.684195513810738926e-02,1.642722286227115319e+03
8.380172201491726369e+00,-1.413079549983309846e+01,-1.743138798012090929e+00,-9.354600913199165868e-01,3.456823400673623703e-01,-7.359441088209089932e-02,1.650675198696688540e+03
1.016045785044943450e+01,-1.290004975363092399e+01,-2.241994830435163344e+00,-9.431571523763687681e-01,3.135531499058278881e-01,-1.101680902317116045e-01,1.659351862780473539e+03
1.179456063773421626e+01,-1.167220625928886690e+01,-2.351345149279760349e+00,-9.485631255377811044e-01,2.806622883475725638e-01,-1.464741505161173962e-01,1.668028526864258538e+03
1.324856341955815431e+01,-1.053339015734733763e+01,-2.110972323421955732e+00,-9.516648792574649018e-01,2.470896520949456554e-01,-1.824243991778918272e-01,1.676705190948043537e+03
1.450706681188380465e+01,-9.568940886758026565e+00,-1.560801153298402077e+00,-9.524548790919360464e-01,2.129167938998093312e-01,-2.179315079774601926e-01,1.685381855031828536e+03
1.555099265376467521e+01,-8.863556132153590283e+00,-7.408210883681730641e-01,-9.509312059973832332e-01,1.782267244845792964e-01,-2.529092250981945234e-01,1.694058519115613535e+03
1.635759387819792465e+01,-8.501178174880552163e+00,3.089221148998960165e-01,-9.470975609911816973e-01,1.431037109232746185e-01,-2.872725846376523173e-01,1.702735183199398534e+03
1.690046574993738915e+01,-8.564880493938053618e+00,1.548334743856965234e+00,-9.409632561671334994e-01,1.076330719717113610e-01,-3.209381129767113205e-01,1.711411847283183533e+03
1.712001734457237845e+01,-9.063475600939687737e+00,2.767220541349506568e+00,-9.325431920861364521e-01,7.190097084336118105e-02,-3.538240315259149060e-01,1.719019715874761914e+03
1.704609470619157818e+01,-1.021287780654881949e+01,4.270366542382319608e+00,-9.218578215969528422e-01,3.599420593359192733e-02,-3.858504553570895057e-01,1.727696379958546913e+03
1.661086179773705851e+01,-1.202069202165904116e+01,5.847645470423120884e+00,-9.089331001745973859e-01,0.000000000000000000e+00,-4.169395872382335444e-01,1.736373044042331912e+03
1.580270832436172057e+01,-1.436375028838131129e+01,7.250723933910919072e+00,-8.308700935761591522e-01,2.821523797423960422e-01,-4.796278997375698627e-01,1.745049708126116911e+03
1.495822006011091609e+01,-1.616063930237117319e+01,7.715631081966527915e+00,-6.783331045798046688e-01,5.390142884848517779e-01,-4.993253408754618761e-01,1.751545912523394691e+03
1.359393132730462028e+01,-1.817066993867955560e+01,7.124505956631350223e+00,-5.513750340375843662e-01,7.298180596152058497e-01,-4.041647828559490896e-01,1.760222576607179690e+03
1.207979884962002792e+01,-1.967446424971283392e+01,5.500833392256247123e+00,-3.904632593411468400e-01,8.756795599047484391e-01,-2.841157360498864359e-01,1.768899240690964689e+03
1.051118083513047807e+01,-2.070544039071426923e+01,3.304309857731742461e+00,-2.055067112149174813e-01,9.676166543261186526e-01,-1.465708085453248655e-01,1.777575904774749688e+03
8.981947675148289179e+00,-2.130070393262036532e+01,9.947513476453146986e-01,-7.894990794486694483e-03,9.999678340433270085e-01,-0.000000000000000000e+00,1.786252568858534687e+03
7.555748652402835219e+00,-2.150885583421553093e+01,-1.086030900645978292e+00,3.446788810214617554e-02,9.935363084923443111e-01,1.081460512364310067e-01,1.794929232942319686e+03
6.236847637229717023e+00,-2.139622911553988516e+01,-2.832330054605826319e+00,7.636436326352878667e-02,9.736606727116103865e-01,2.148287188411268089e-01,1.803605897026104685e+03
5.780091471207851939e+00,-2.126283204474492905e+01,-3.358727178695986026e+00,1.172275121385373681e-01,9.406098716355373313e-01,3.186044252364526597e-01,1.806808658367369162e+03
4.605095144497475701e+00,-2.070286357525653997e+01,-4.473116576901898789e+00,1.565043939714170218e-01,8.948311277712095446e-01,4.180689266614072697e-01,1.815485322451154161e+03
3.471074877110042145e+00,-1.999574215771026786e+01,-5.282511904926488810e+00,1.936635315713537697e-01,8.369438905237640558e-01,5.118763138244399880e-01,1.824161986534939160e+03
2.344072405177312746e+00,-1.921217069117178866e+01,-5.799479693194787622e+00,2.282021027878846087e-01,7.677314553337951653e-01,5.987572235674543109e-01,1.832838650618724159e+03
1.187278488626258177e+00,-1.842137778327797548e+01,-6.036647460367038143e+00,2.596527444120118044e-01,6.881303658782828014e-01,6.775360151867946268e-01,1.841515314702509158e+03
-3.894370418645195370e-02,-1.769103055445304307e+01,-6.006701071652701174e+00,2.875898764463321600e-01,5.992177425655212941e-01,7.471466790126489732e-01,1.850191978786294158e+03
-1.358144122527584541e+00,-1.706039041515564847e+01,-5.731261849538776154e+00,3.943805619894054648e-01,5.413681231905277391e-01,7.425513635553814273e-01,1.858868642870079157e+03
-2.418938384665730634e+00,-1.665187400802771478e+01,-5.365102293145787904e+00,4.953454651213988758e-01,4.755214289243211989e-01,7.269870981092755313e-01,1.865431305243040697e+03
-3.876391761657637769e+00,-1.616612033323042752e+01,-4.714782513104200490e+00,5.889931329073808675e-01,4.026503480933769641e-01,7.006837992762527945e-01,1.874107969326825696e+03
-5.355953893412688238e+00,-1.569389785351290456e+01,-3.943359152369787957e+00,6.739402038288850871e-01,3.238313333195186328e-01,6.640300213270811103e-01,1.882784633410610695e+03
-6.822180772622678191e+00,-1.519682752983321095e+01,-3.099242676977974842e+00,7.489318429850461145e-01,2.402286996970190158e-01,6.175672161028834539e-01,1.891461297494395694e+03
-8.238082220120675814e+00,-1.463801299437308678e+01,-2.230858685120770790e+00,8.128602784745299070e-01,1.530774250917537882e-01,5.619817342279611605e-01,1.900137961578180693e+03
-9.565144897368419663e+00,-1.398208773499724167e+01,-1.386637807246475118e+00,8.647811651383598974e-01,6.366490669952501458e-02,4.980946858552884327e-01,1.908814625661965692e+03
-1.076335588078056915e+01,-1.319526172457077351e+01,-6.150056053617152241e-01,9.039275339681075438e-01,-2.668805659281604445e-02,4.268498107884636794e-01,1.917491289745750692e+03
-1.179122679335570645e+01,-1.224536748204327097e+01,3.562752688399279527e-02,9.297211211748551696e-01,-1.166467750817205828e-01,3.492995372241762819e-01,1.926167953829535691e+03
-1.260581848893971468e+01,-1.110190555236156129e+01,5.168764617264055561e-01,9.417809096410595382e-01,-2.048823841317577166e-01,2.665894351035963394e-01,1.934844617913320690e+03
-1.316276628447473840e+01,-9.736089392347418325e+00,7.803914308471454619e-01,9.399287566653525827e-01,-2.900914738417190719e-01,1.799412937561621906e-01,1.943521281997105689e+03
-1.341630573548235539e+01,-8.120889649750720807e+00,7.778681133987177532e-01,9.241920249497613815e-01,-3.710153425589755583e-01,9.063507381762955784e-02,1.952197946080890688e+03
-1.336667474457155969e+01,-7.003505239213870581e+00,5.937927835368957963e-01,8.948031780342509123e-01,-4.464585898833639543e-01,-9.999990814013471954e-06,1.957337763481349839e+03
-1.294325274920242919e+01,-4.858847133177319755e+00,-2.630779071808687919e-02,9.568706448729494829e-01,-2.904945599773977594e-01,3.078896656316667483e-03,1.966014427565134838e+03
-1.223817408774273297e+01,-2.527239111207315148e+00,-8.884407391641681029e-01,9.919670379817305816e-01,-1.263424587807273902e-01,6.081008778637854439e-03,1.974691091648919837e+03
-1.135407521409551812e+01,-1.045148400347886419e-01,-1.891753774808135002e+00,9.991031164482732096e-01,4.137081104253639147e-02,8.911716885258489859e-03,1.983367755732704836e+03
-1.039723997450396809e+01,2.317814534517937730e+00,-2.935365128896882503e+00,9.780777412370295076e-01,2.079179734076964381e-01,1.149123280912873850e-02,1.992044419816489835e+03
-9.477532214861996707e+00,4.652670841797126755e+00,-3.918384599580198913e+00,9.294835436534595319e-01,3.686046204701880491e-01,1.374684858719667571e-02,2.000721083900274834e+03
-8.708327083024139270e+00,6.817517717993040627e+00,-4.739934601895210875e+00,8.546902225257588803e-01,5.189015279780192502e-01,1.561498579573170238e-02,2.009397747984059833e+03
-8.163139831672896918e+00,8.760917859932870755e+00,-5.334265425382327841e+00,9.148521154723632254e-01,4.033739766165316820e-01,1.824943300857517076e-02,2.018074412067844833e+03
-7.830808568852687834e+00,1.048671135196234516e+01,-5.705863160337555584e+00,9.594861838717020364e-01,2.809999431697557948e-01,2.057413178625179181e-02,2.026751076151629832e+03
-7.656601957330693153e+00,1.202405083839853717e+01,-5.894354545246285326e+00,9.878348522157703870e-01,1.538564888622800109e-01,2.254962491245537590e-02,2.035427740235414831e+03
-7.648727311550076458e+00,1.218401591395571337e+01,-5.900355297989160697e+00,9.994169585272271172e-01,2.410162623621545444e-02,2.414238227406250228e-02,2.036431931246835802e+03
-7.656203715296541645e+00,1.342565800623417616e+01,-5.837704132536956969e+00,9.940359209854621181e-01,-1.060623091748798402e-01,2.532536996824878012e-02,2.045108595330620801e+03
-7.705265582996850604e+00,1.453425626954708072e+01,-5.675912294862156315e+00,9.717830742605293448e-01,-2.344260393865837955e-01,2.607850914586315808e-02,2.053785259414406028e+03
-7.738283764004020959e+00,1.553163104876014877e+01,-5.454707897664287763e+00,9.330361189661412480e-01,-3.588108422243880824e-01,2.638901680371103994e-02,2.062461923498191027e+03
-7.696777994421728941e+00,1.643717756685811793e+01,-5.213831394505100469e+00,8.784527105975813432e-01,-4.771055308296364705e-01,2.625162274248794836e-02,2.071138587581976026e+03
-7.521454723520078822e+00,1.726784026154316010e+01,-4.993027286190451441e+00,8.089592968204186718e-01,-5.873022867600620200e-01,2.566865900920566740e-02,2.079815251665761025e+03
-7.152245244320383222e+00,1.803808802807464673e+01,-4.832035826522823818e+00,7.257353926204728189e-01,-6.875307385113754721e-01,2.465002030733950619e-02,2.088491915749546024e+03
-6.528344121036384173e+00,1.875989037538203519e+01,-4.770584728720752565e+00,6.301935602466423036e-01,-7.760897070824357424e-01,2.321299604785483778e-02,2.097168579833331023e+03
-5.948735187356275489e+00,1.918668764711823371e+01,-4.816507442042134990e+00,5.239554337637222226e-01,-8.514760798136350450e-01,2.138197689259386386e-02,2.102574989166561409e+03
-4.661915647047510269e+00,1.984003814565989288e+01,-5.057564118788476115e+00,5.318795198762957810e-01,-8.466672357197554399e-01,1.602398553526690819e-02,2.111251653250346408e+03
-3.154669646804587835e+00,2.041193759509071270e+01,-5.427537845422897966e+00,3.652372134838542395e-01,-9.306234893399576436e-01,2.323142214921324403e-02,2.119928317334131407e+03
-2.061863975471085464e+00,2.073526072690894395e+01,-5.716035368965443730e+00,1.858590711659539041e-01,-9.821285770043370889e-01,2.962876806324361498e-02,2.127724495732276409e+03
-1.832308126794100822e+00,2.072840721976939093e+01,-5.742185038923180329e+00,0.000000000000000000e+00,-9.993865585864837309e-01,3.499294952972902689e-02,2.136401159816061408e+03
-2.851452218336180788e+00,2.032448863531873329e+01,-5.309882793939428858e+00,1.222724237106641021e-01,-9.924105104972720248e-01,-1.299357747080534010e-02,2.145077823899846408e+03
-4.482215126979398612e+00,1.969686273031158663e+01,-4.427510492246581997e+00,2.424293084340229110e-01,-9.682638196840605005e-01,-6.075529527449162470e-02,2.153754487983631407e+03
-4.594692663906498886e+00,1.964777193287210721e+01,-4.341066140465872358e+00,3.583917178984519225e-01,-9.273642597007084598e-01,-1.074658381632208892e-01,2.154387382205320137e+03
-5.734817117351218130e+00,1.902886391686914536e+01,-2.933863546109290343e+00,4.681532824306597340e-01,-8.704194551136141822e-01,-1.523170256711510184e-01,2.163064046289105136e+03
-6.316097024978909680e+00,1.858068729502775795e+01,-1.392104030810091153e+00,5.698149110523308414e-01,-7.984146412987721542e-01,-1.945328447895453561e-01,2.171740710372890135e+03
-6.329659948557573301e+00,1.855617792348241935e+01,-1.200726060017034413e+00,6.616176487367380066e-01,-7.125956216717268532e-01,-2.333828760933440993e-01,2.172833140906843255e+03
-5.988726249177641847e+00,1.863049887910722902e+01,2.217809941520964834e-01,5.700468026270404387e-01,-7.987996020156490351e-01,-1.922598206437754198e-01,2.181509804990628254e+03
-5.192233703859518990e+00,1.892159586733837884e+01,1.502158940620882843e+00,4.684959082256587859e-01,-8.710185852964166253e-01,-1.477707956398235933e-01,2.190186469074413253e+03
-4.042273419448558336e+00,1.933514683008289481e+01,2.601095464027035398e+00,3.587428675172140147e-01,-9.279882187276397021e-01,-1.006946915605179821e-01,2.198863133158198252e+03
-2.687317654694118207e+00,1.977947826088584549e+01,3.527760238828816952e+00,2.427091739394265368e-01,-9.687111253538175371e-01,-5.185568919396556925e-02,2.207539797241983251e+03
-1.745721597020971405e+00,2.005867791266590672e+01,4.140962530827136057e+00,1.224262731853084929e-01,-9.924743626241960825e-01,-2.108830980564451590e-03,2.213652121309497488e+03
-6.892182037017283713e-01,2.033601996012465563e+01,5.160120339888091934e+00,0.000000000000000000e+00,-9.988619020525988379e-01,4.767494759577405039e-02,2.222328785393282487e+03
-1.651010407692315163e-01,2.031689672891958054e+01,6.313712587843673063e+00,0.000000000000000000e+00,-9.999498964259943001e-01,9.909824583016103514e-03,2.231005449477067486e+03
-1.627862903930341054e-01,2.027987516660274991e+01,6.391362625131548292e+00,0.000000000000000000e+00,-9.996105710985341286e-01,-2.786944802730927095e-02,2.231662615805189489e+03
-7.155163283497660842e-01,1.906172703102273758e+01,6.856032956985922411e+00,0.000000000000000000e+00,-9.978444088153478608e-01,-6.560896112919958889e-02,2.240339279888974488e+03
-2.035795648356536702e+00,1.696449939062007672e+01,6.448815914560245055e+00,2.794712458660720822e-01,-8.471936367061168038e-01,-4.518370996933135375e-01,2.249015943972759487e+03
-3.827589109829922620e+00,1.443691225837462611e+01,5.541415936728375513e+00,4.890822843266345310e-01,-4.847679730256320152e-01,-7.251182879279615134e-01,2.257692608056544486e+03
-5.615462964598550322e+00,1.222294643911845746e+01,4.897297588098085797e+00,5.764363129605555303e-01,-1.163998612660337249e-03,-8.171400260720623754e-01,2.266369272140329485e+03
-7.045413338838774742e+00,1.080473564732932701e+01,4.996798062503534865e+00,6.909630740091605716e-01,-1.011954553338913773e-03,-7.228879624843083107e-01,2.275045936224114485e+03
