-8.705862243313548632e+00,-2.806729164829242507e+00,-2.808625612668629312e+00,9.863095190599172613e-01,-7.600500822147297775e-02,-1.463378670685639427e-01,9.984135725493004543e+01
-8.740473838388105321e+00,-2.410336736268519076e+00,-2.775020947940647797e+00,9.810877962790985896e-01,-1.515234962632968641e-01,-1.204382251344312538e-01,1.013489747699834425e+02
-8.749149154206284251e+00,-2.012662162858614767e+00,-2.753699497871259005e+00,9.695860202968120678e-01,-2.260720636589862720e-01,-9.376764516148687612e-02,1.028565922850368395e+02
-8.729757464019009205e+00,-1.575615300439287880e+00,-2.744554508925503455e+00,9.518778151841050805e-01,-2.991735185161292221e-01,-6.649684789652213213e-02,1.045178692362587043e+02
-8.681446252543789655e+00,-1.142677158630518885e+00,-2.750483442198247808e+00,9.280765324539319572e-01,-3.703599319213058960e-01,-3.880039608884684049e-02,1.061791461874805691e+02
-8.607211853302921156e+00,-7.168777458358170929e-01,-2.770773249537040073e+00,8.983345255365923210e-01,-4.391756330612130443e-01,-1.085557715121686709e-02,1.078404231387024339e+02
-8.509778392944191694e+00,-3.010059010509836264e-01,-2.803993447891700352e+00,8.628421746353160948e-01,-5.051801258964653263e-01,1.715873161989795934e-02,1.095017000899242987e+02
-8.391283592274392689e+00,1.026129700569807374e-01,-2.847278805304417570e+00,8.218266681989240263e-01,-5.679509087256513489e-01,4.506320800422924933e-02,1.111629770411461635e+02
-8.253602446269226789e+00,4.918892399932282000e-01,-2.897041190948306255e+00,7.755505488046160467e-01,-6.270861785973430580e-01,7.267923267198866943e-02,1.128242539923680283e+02
-8.114384305425851096e+00,8.313079843865032181e-01,-2.944826393876633919e+00,7.243100327505929137e-01,-6.822074032630326412e-01,9.983003250805402851e-02,1.143302178281148826e+02
-7.963548252342567579e+00,1.157050669396903375e+00,-2.992683520946965992e+00,6.684331141058037495e-01,-7.329617442097775548e-01,1.263418121298217067e-01,1.158361816638617370e+02
-7.802450486480017489e+00,1.467726536467055976e+00,-3.038541253619881033e+00,6.082774653434431800e-01,-7.790243152623896883e-01,1.520448663573955306e-01,1.173421454996085913e+02
-7.632631769539784727e+00,1.762198729380927587e+00,-3.080178833617422729e+00,5.379617392347881832e-01,-6.889704772059251914e-01,4.857106635220103108e-01,1.188481093353554456e+02
-7.455982096232802725e+00,2.039832578369919158e+00,-3.115076624605479072e+00,4.007305300104290202e-01,-5.132176219660787853e-01,7.589602854049946057e-01,1.203540731711023000e+02
-7.274566226111054412e+00,2.300250268383125629e+00,-3.140565580321581063e+00,2.136536391130217372e-01,-2.736271494305166363e-01,9.378050466857821288e-01,1.218600370068491543e+02
-7.041839435387171164e+00,2.600378129531121019e+00,-3.152115713132781938e+00,9.999989999989881463e-07,-9.999989999989881463e-07,9.999989999989882250e-01,1.237621414765324772e+02
-6.808966760220312331e+00,2.864870015157425343e+00,-3.133037581707446506e+00,4.301733712429316875e-02,-1.575698894956862051e-01,9.865694291999536070e-01,1.256642459462158001e+02
-6.580225094369020589e+00,3.094093051633061808e+00,-3.077995132825873004e+00,8.487828518112892906e-02,-3.109066591076523056e-01,9.466418150641771057e-01,1.275663504158991230e+02
-6.358341437225455195e+00,3.289784958168537443e+00,-2.981324559511474792e+00,1.244595108527124100e-01,-4.558928727562540084e-01,8.812885558822428633e-01,1.294794431795102696e+02
-6.147591418421611387e+00,3.451333353688470051e+00,-2.838779553680084611e+00,1.606979102009583327e-01,-5.886343757739282978e-01,7.922649514618327338e-01,1.313925359431214019e+02
-5.985167303011709627e+00,3.559327396766982510e+00,-2.691708055462108895e+00,1.926201624413151903e-01,-7.055658875141138653e-01,6.819620600868731009e-01,1.329355150966478618e+02
-5.827354266116677728e+00,3.649869549429803683e+00,-2.518943771703516799e+00,2.193688725104995796e-01,-8.035467617544693741e-01,5.533424793450442136e-01,1.344784942501743217e+02
-5.647542856428191982e+00,3.731266672810586105e+00,-2.283254311718601937e+00,2.402256001849453482e-01,-8.799453425754532043e-01,4.098607752589123465e-01,1.362741049894825949e+02
-5.469288992738128741e+00,3.784706405574811416e+00,-2.009233716256984437e+00,2.546301570898127364e-01,-9.327096495562776646e-01,2.553706966848160453e-01,1.380697157287908681e+02
-5.290003485780101045e+00,3.809479297661180652e+00,-1.699594173955872867e+00,2.621956531668353518e-01,-9.604224932660684333e-01,9.402166712672758997e-02,1.398653264680991413e+02
-5.134799735462416415e+00,3.808793145391323076e+00,-1.410314351279235323e+00,2.627188883548209897e-01,-9.623395402889494132e-01,-6.985266564992126392e-02,1.414041005170149106e+02
-4.978043392626437580e+00,3.788926650764334880e+00,-1.103495087223700155e+00,2.561858103073463289e-01,-9.384093051553045184e-01,-2.318508283261714042e-01,1.429428745659306799e+02
-4.819538354605061414e+00,3.749368844406030910e+00,-7.815629666644622331e-01,2.379079178175701470e-01,-9.224412462774707056e-01,-3.041380768758646935e-01,1.444816486148464492e+02
-4.659094628782144198e+00,3.689607651147099432e+00,-4.469446736922362828e-01,2.182467089711459529e-01,-9.011096401941760536e-01,-3.746568968703617442e-01,1.460204226637622185e+02
-4.496551781436820328e+00,3.609176431930555928e+00,-1.020942772234485901e-01,1.973165045292237518e-01,-8.745385221809544030e-01,-4.429972576238061510e-01,1.475591967126779878e+02
-4.331801635239465043e+00,3.507700686129325174e+00,2.504794835692389920e-01,1.752390035875674712e-01,-8.428823921579734479e-01,-5.087617955508335621e-01,1.490979707615937571e+02
-4.146094313949161503e+00,3.368629657192333315e+00,6.479187316711159106e-01,1.521425759586633453e-01,-8.063253162675804164e-01,-5.715681244848868081e-01,1.508056497649079972e+02
-3.958176454393680821e+00,3.199792544231707669e+00,1.048686088334615185e+00,1.281615157807663441e-01,-7.650798565753178515e-01,-6.310510588978246460e-01,1.525133287682222374e+02
-3.771342060095512760e+00,3.000248756140168283e+00,1.449221445005010267e+00,1.034352606927506218e-01,-7.193858351195749901e-01,-6.868647371028590021e-01,1.542210077715364775e+02
-3.590241311045990091e+00,2.768875567829715223e+00,1.846110177679051612e+00,7.810758111325498410e-02,-6.695089394965009211e-01,-7.386846321046416364e-01,1.559286867748507177e+02
-3.422418049608575430e+00,2.509737024174965470e+00,2.229311936186678889e+00,5.232574433585331780e-02,-6.157391780861576347e-01,-7.862094384132840563e-01,1.576064998735415656e+02
-3.268715832102908170e+00,2.218525642821327359e+00,2.602825697966220542e+00,2.623965829794213528e-02,-5.583891938982328274e-01,-8.291628238595211142e-01,1.592843129722324136e+02
-3.132549449974149525e+00,1.894910914731158469e+00,2.963902202359096183e+00,9.999988887668967986e-07,-4.977924468359398724e-01,-8.672950362319745699e-01,1.609621260709232615e+02
-3.016114663710004251e+00,1.539234788000869880e+00,3.310260415012860058e+00,0.000000000000000000e+00,9.988447030629378220e-01,4.803393763095126917e-02,1.626399391696141095e+02
-2.917147317512110316e+00,1.137772735914471811e+00,3.651440560967174065e+00,-0.000000000000000000e+00,9.999581091659919263e-01,-9.043223972639461566e-03,1.643777764761805429e+02
-2.840072031461014390e+00,7.039376724150524511e-01,3.972998901402247984e+00,-0.000000000000000000e+00,9.978126036139498556e-01,-6.609090750926480129e-02,1.661156137827469763e+02
-2.784378858287815728e+00,2.396163413469764303e-01,4.273461357966342078e+00,4.894745649099760398e-01,3.309397058303437111e-02,-8.713882254299792907e-01,1.678534510893134097e+02
-2.749438584947018871e+00,-2.530571653392496012e-01,4.551481616691781973e+00,5.119696326419089782e-01,1.099999210707853858e-05,-8.590023836324349737e-01,1.695912883958798432e+02
-2.734403349053277310e+00,-7.714516705997712664e-01,4.805968727052595924e+00,0.000000000000000000e+00,9.968731427319702521e-01,-7.900593205829628540e-02,1.713291257024462766e+02
-2.737522430492596914e+00,-1.291014520388085396e+00,5.027986984771334988e+00,2.125118096249407104e-05,7.763515772878237797e-01,-6.302985229150376290e-01,1.729997892893018445e+02
-2.756669957003600846e+00,-1.828423428549967866e+00,5.227416529476223594e+00,3.501018573176461563e-05,2.821232798859937274e-01,-9.593771175703994514e-01,1.746704528761574124e+02
-2.790946790035714553e+00,-2.381231290735568162e+00,5.403434961865065667e+00,3.642617516713529289e-05,-3.115687874564956328e-01,-9.502225472774562531e-01,1.763411164630129804e+02
-2.839422500817928352e+00,-2.946996239015006402e+00,5.555220063747924542e+00,2.499997267777999052e-05,-7.954151306987617964e-01,-6.060633376394419791e-01,1.780117800498685483e+02
-2.901135384291244179e+00,-3.523281801619166931e+00,5.681949804408049864e+00,1.122871430989938191e-01,-4.455190708781650577e-01,-8.882017535331525604e-01,1.796824436367241162e+02
-2.978525435850097658e+00,-4.131574057268651678e+00,5.785745750846487567e+00,2.004488266899933369e-01,-0.000000000000000000e+00,-9.797031529391179161e-01,1.814207000302306767e+02
-3.068612519853341158e+00,-4.746143562823456286e+00,5.859456312720896953e+00,1.079760946362622320e-01,1.569198861895872432e-01,-9.816900286265829445e-01,1.831589564237372372e+02
-3.170787228644123434e+00,-5.364140770666291580e+00,5.902183496179245203e+00,1.192085831904171785e-02,3.086332520282131231e-01,-9.511053616078374295e-01,1.848972128172437976e+02
-3.280792219709745883e+00,-5.963605260774560435e+00,5.913673593960332653e+00,-8.452989841290621531e-02,4.501064590670528776e-01,-8.889639316530130175e-01,1.865816617169487870e+02
-3.401478951333432921e+00,-6.561218525514050270e+00,5.895493615424244993e+00,-4.344806017481340349e-02,2.354922897159885398e-01,-9.709035212373219315e-01,1.882661106166537763e+02
-3.533546512275438367e+00,-7.154911528295571976e+00,5.847243759768397275e+00,-0.000000000000000000e+00,8.052988517093670473e-03,-9.999665741290355570e-01,1.899505595163587657e+02
-3.691886471603959219e+00,-7.794475857243494232e+00,5.758724411957609313e+00,1.217558766212737814e-01,-4.271485671580905197e-01,-8.959450921131094647e-01,1.917852667561002704e+02
-3.866758285183412802e+00,-8.423816491532905459e+00,5.631110036347877212e+00,3.698982379086732664e-01,-2.721274050884779361e-01,-8.883242476668695708e-01,1.936199739958417751e+02
-4.059108337940448230e+00,-9.040203856049869202e+00,5.464329002450510231e+00,5.863533815208138433e-01,-9.379468871456028700e-02,-8.046056601524752550e-01,1.954546812355832799e+02
-4.268338966185276639e+00,-9.640789443811650372e+00,5.258550108991753014e+00,7.525789214884025524e-01,9.257286733496225550e-02,-6.519610656826143602e-01,1.972893884753247846e+02
-4.512276261187267323e+00,-1.027428770719446760e+01,4.987772779734524597e+00,4.138801747575812096e-01,1.965620109246590808e-01,-8.888557682804019144e-01,1.992943888671479442e+02
-4.765768879133342573e+00,-1.087877103107059007e+01,4.668226913621177587e+00,0.000000000000000000e+00,2.648456641227858177e-01,-9.642897770879123032e-01,2.012993892589711038e+02
-5.020367192286879998e+00,-1.144954111770604577e+01,4.301950551127475819e+00,-0.000000000000000000e+00,3.032083730870910876e-01,-9.529232301022695362e-01,2.033043896507942634e+02
-5.246780170186937653e+00,-1.194069018798397863e+01,3.929145025789018586e+00,-0.000000000000000000e+00,3.410856895361299435e-01,-9.400311443624989050e-01,2.051442253461085556e+02
-5.458004570454244586e+00,-1.239795123717307668e+01,3.526070098269971531e+00,5.228867818629204800e-01,1.925107402488664410e-01,-8.303776419457155056e-01,2.069840610414228479e+02
-5.645953203360563499e+00,-1.281728934033828615e+01,3.096298048001061343e+00,8.849807075427553738e-01,-1.526297770940547235e-02,-4.653753203493599666e-01,2.088238967367371401e+02
-5.784484571878819814e+00,-1.314521655573523162e+01,2.711373986536999237e+00,9.343647041290175093e-01,-2.846673670068930462e-02,-3.551763570108807944e-01,2.103996389417758337e+02
-5.899384745786033335e+00,-1.344372457562206158e+01,2.315247692090738330e+00,9.699603113204490201e-01,-4.125040997248095864e-02,-2.397361010369448153e-01,2.119753811468145273e+02
-5.986394475127986503e+00,-1.371021710675540106e+01,1.910633590722611075e+00,9.912422606451662954e-01,-5.342535265000009775e-02,-1.207580738722864311e-01,2.135511233518532208e+02
-6.041815211858108547e+00,-1.394204860619800712e+01,1.500402924876061306e+00,9.978964962917117321e-01,-6.481190233636946463e-02,1.999996986248517972e-06,2.151268655568919144e+02
-6.063102261322580233e+00,-1.413644855234587716e+01,1.087740491585576619e+00,9.842838733157226461e-01,1.297267356343901890e-01,1.198091431993938277e-01,2.167026077619306079e+02
-6.030812225725991738e+00,-1.431443167676182249e+01,5.727200840782078473e-01,9.191100942929432138e-01,3.174697010911591843e-01,2.333401454097311090e-01,2.186786926985779189e+02
-5.922025501254124080e+00,-1.440607155026463992e+01,6.775576317434339746e-02,8.057892435783569063e-01,4.885822047769387555e-01,3.346477612513469868e-01,2.206547776352252299e+02
-5.763244928378005838e+00,-1.441587442302447108e+01,-3.640281649833350119e-01,6.502575451219111402e-01,6.341006231837181817e-01,4.184250526577707463e-01,2.223994826581620430e+02
-5.549306967549404668e+00,-1.436437477963264975e+01,-7.772802969611167789e-01,4.606624106662593476e-01,7.464020451143851265e-01,4.802833855647918315e-01,2.241441876810988560e+02
-5.281252065143409169e+00,-1.425523089181008451e+01,-1.166126340973073550e+00,3.945158471438137138e-01,7.168725548395641356e-01,5.748469243815452767e-01,2.258888927040356691e+02
-4.960683206881522977e+00,-1.409271375869495202e+01,-1.524942381149552384e+00,3.227712547909927232e-01,6.771709017490963323e-01,6.612535723198923465e-01,2.276335977269724822e+02
-4.590281522668118619e+00,-1.388150650108052986e+01,-1.848557313866358243e+00,2.464466591675598395e-01,6.278604382736283629e-01,7.382772610861598750e-01,2.293783027499092952e+02
-4.235730728102806708e+00,-1.366626554564579088e+01,-2.097710810242202850e+00,1.666250719489444365e-01,5.696408583099646927e-01,8.048250604589254342e-01,2.308820833231763459e+02
-3.853079776060117201e+00,-1.342581592112884969e+01,-2.318423301682936977e+00,8.443912469623178485e-02,5.033382695900919801e-01,8.599526850863593586e-01,2.323858638964433965e+02
-3.444181669122094114e+00,-1.316312559494636147e+01,-2.508413073332543153e+00,1.054998706094199953e-03,4.298934727560758673e-01,9.028778926631518820e-01,2.338896444697104471e+02
-3.010949341861585360e+00,-1.288182680204331199e+01,-2.666505862207547928e+00,-7.075177419336859709e-03,6.695311951756766078e-01,7.427488946826031890e-01,2.353934250429774977e+02
-2.416262021010472161e+00,-1.249609772511235839e+01,-2.814915902653444046e+00,-1.461716641904600711e-02,8.535082292327378362e-01,5.208723846384167855e-01,2.373288210211753722e+02
-1.780346854523993327e+00,-1.209006569248894181e+01,-2.894469710263608331e+00,-2.094397647221116210e-02,9.665299142314137670e-01,2.556937127619156591e-01,2.392642169993732466e+02
-1.109185937822777523e+00,-1.167509232129111574e+01,-2.904923501641764272e+00,-1.301019926364900374e-02,6.262848031899089785e-01,7.794844963239286884e-01,2.411996129775711211e+02
-5.556855810410147312e-01,-1.134564628768711003e+01,-2.868226878702341942e+00,-0.000000000000000000e+00,4.167097442644080579e-02,9.991303868317111814e-01,2.427390917806250172e+02
1.023182472078804778e-02,-1.102230773140288278e+01,-2.796734561876162317e+00,-6.074690999519724022e-01,7.795978449198442961e-01,1.523367742923661117e-01,2.442785705836789134e+02
5.861163528418013025e-01,-1.070953167611066803e+01,-2.690995745435468933e+00,-6.533344496386256361e-01,7.212447780462653002e-01,2.301261981127505352e-01,2.458180493867328096e+02
1.169507972878678803e+00,-1.041174305471336403e+01,-2.551775193926276497e+00,-6.916472968070203065e-01,6.545541796824351222e-01,3.052553728950612721e-01,2.473575281897867058e+02
1.757893443566867386e+00,-1.013335401534506452e+01,-2.379837891904088121e+00,-7.219647512631202080e-01,5.802969863130259531e-01,3.768558154136925076e-01,2.488970069928406019e+02
2.348707726756771752e+00,-9.878418155482181717e+00,-2.176670708927872955e+00,-7.439363474016689182e-01,4.993316018169699499e-01,4.440998338696355852e-01,2.504364857958944981e+02
2.939340988110801689e+00,-9.650284774635245810e+00,-1.945204059811358244e+00,-7.573080952902251362e-01,4.125939749523945821e-01,5.062100953579006246e-01,2.519759645989483943e+02
3.527145623693146437e+00,-9.451944199776450617e+00,-1.689090215360087299e+00,-7.619254167110942610e-01,3.210867805806336128e-01,5.624686113084244043e-01,2.535154434020022904e+02
4.109438684062411085e+00,-9.286129809305240457e+00,-1.412199915420041529e+00,-7.577349322276493160e-01,2.258678296164836619e-01,6.122250370797917007e-01,2.550549222050561866e+02
4.675438323401484020e+00,-9.156457359769474280e+00,-1.123222302184943011e+00,-7.447850786012123470e-01,1.280378416000596542e-01,6.549041897958970404e-01,2.565723690986664565e+02
5.230983777955693803e+00,-9.061967782216472145e+00,-8.227447977772016641e-01,-8.450401104098343996e-01,1.346865181256319266e-01,5.174599053407145099e-01,2.580898159922767263e+02
5.773467031792316462e+00,-9.004513192569394420e+00,-5.150398937913936992e-01,-9.208005836004082845e-01,1.374311354449775924e-01,3.650163944988950582e-01,2.596072628858869962e+02
6.300152475156448162e+00,-8.984993796685696310e+00,-2.041833814390653923e-01,-9.698704866678681258e-01,1.361921376684764873e-01,2.019924274062769864e-01,2.611247097794972660e+02
6.808087002902185603e+00,-9.002418344250942894e+00,1.061424209981978312e-01,-9.908274691483766050e-01,1.310054391237115701e-01,3.311346104864550804e-02,2.626421566731075359e+02
7.294227505062095496e+00,-9.054810539127819524e+00,4.124543506587790009e-01,-9.830640695968084763e-01,1.220213832271198617e-01,-1.367253345387404451e-01,2.641596035667178057e+02
7.755553899391569139e+00,-9.140116238795021886e+00,7.112740813197584444e-01,-9.468053228285482348e-01,1.095003844824215256e-01,-3.026009690390764062e-01,2.656770504603280756e+02
8.242985016706958490e+00,-9.276654131381228297e+00,1.035939531498279997e+00,-8.831022362608297316e-01,9.380537995571498755e-02,-4.597053306240453385e-01,2.674004949065883352e+02
8.684795151042543182e+00,-9.454526007244538732e+00,1.338757259216758255e+00,-7.938013246396613543e-01,7.539130905181287701e-02,-6.034845545011554568e-01,2.691239393528485948e+02
9.076051076346692170e+00,-9.670348328248282499e+00,1.614737222976483366e+00,-6.814910863542437136e-01,5.479192654282327712e-02,-7.297710216274132522e-01,2.708473837991088544e+02
9.412155174377932809e+00,-9.920831933612596742e+00,1.860107500935402891e+00,-7.277892248657786833e-01,4.602399515056430218e-02,-6.842533420000682653e-01,2.725708282453691140e+02
9.691688409947939675e+00,-1.020164472107326148e+01,2.071266739742862129e+00,-7.709634972892719373e-01,3.705851759762394254e-02,-6.357986726312168102e-01,2.742942726916293736e+02
9.959167737964785161e+00,-1.059805795180837151e+01,2.276962661557515588e+00,-8.108285934660200978e-01,2.793397510678910858e-02,-5.846149887329601391e-01,2.764897229564932672e+02
1.010549298687592490e+01,-1.094312892599420906e+01,2.388388947690700093e+00,-8.472134056335824948e-01,1.868953158405130960e-02,-5.309219779989639010e-01,2.782646988824751020e+02
1.019879661996621856e+01,-1.130003439071169069e+01,2.454724915167477928e+00,-8.799617626493130285e-01,9.364865572846702360e-03,-4.749500979745712725e-01,2.800396748084569367e+02
1.023986598790209079e+01,-1.166239022803126346e+01,2.475966321870260778e+00,-9.089331001738548688e-01,0.000000000000000000e+00,-4.169395872378929835e-01,2.818146507344387715e+02
1.022682052207453651e+01,-1.202445381445562589e+01,2.453517476594881952e+00,4.930994909504183947e-03,1.974097962046686416e-02,-9.997919678681640443e-01,2.835896266604206062e+02
1.015647818965423355e+01,-1.238084103419260984e+01,2.389264803933392134e+00,-3.879469427327386088e-01,3.218988955106735217e-01,-8.636412858905593293e-01,2.853646025864024409e+02
1.003496171883050003e+01,-1.270991259218217095e+01,2.292092117258931694e+00,-6.783331045802174497e-01,5.390142884851797378e-01,-4.993253408757656331e-01,2.870524924873593022e+02
9.858944901961629981e+00,-1.302513829037552640e+01,2.162669721611528040e+00,-6.104530415839739543e-01,6.529191028921453865e-01,-4.483767713662004106e-01,2.887403823883161635e+02
9.625994169864515726e+00,-1.332220424798258307e+01,2.003076613914707593e+00,-5.302553839240981004e-01,7.536494321447917422e-01,-3.883809486172066783e-01,2.904282722892730249e+02
9.333227591866842587e+00,-1.359691097470458665e+01,1.815288674498334309e+00,-4.393583419138511470e-01,8.391727685669643222e-01,-3.205484548205468909e-01,2.921161621902298862e+02
8.978555942459733430e+00,-1.384551262976918018e+01,1.601329767872481158e+00,-3.395960126512301835e-01,9.077634451686814598e-01,-2.462479965569111806e-01,2.938040520911867475e+02
8.562923580162141945e+00,-1.406481124709854846e+01,1.363629552937593248e+00,-2.329813733862760028e-01,9.580374543269601917e-01,-1.669787883626887293e-01,2.954919419921436088e+02
8.089058358320889042e+00,-1.425183206216044240e+01,1.104872347412251710e+00,-1.216656658565168914e-01,9.889803734189264173e-01,-8.434030320670060643e-02,2.971798318931004701e+02
7.494400952223096546e+00,-1.441566608189703658e+01,7.950277175180384681e-01,-7.894990794486694483e-03,9.999678340433270085e-01,-0.000000000000000000e+00,2.990541810862090415e+02
6.828148685625351710e+00,-1.452705199331638042e+01,4.641109666065421080e-01,-3.792753852188076036e-01,9.252827579548139614e-01,-0.000000000000000000e+00,3.009285302793176129e+02
6.095918831450934938e+00,-1.458169306174688806e+01,1.169696029852024394e-01,-6.962291560581238548e-01,7.178181958238901705e-01,-0.000000000000000000e+00,3.028028794724261843e+02
5.430890214825231155e+00,-1.458383709901277392e+01,-1.857183382700721697e-01,-9.132730123892169871e-01,4.073455594976950200e-01,-0.000000000000000000e+00,3.043951603683539702e+02
4.735475575442616325e+00,-1.454643571174172578e+01,-4.907213005133130856e-01,-8.289004758545376328e-01,5.335031064225195241e-01,1.682154468731589803e-01,3.059874412642817560e+02
4.014709382245801983e+00,-1.446755884762912281e+01,-7.943168332015181354e-01,-7.019796375778233344e-01,6.322754211482966014e-01,3.277962480547303992e-01,3.075797221602095419e+02
3.273648768939131148e+00,-1.434530320795045810e+01,-1.092782495680309829e+00,-5.390254383999510956e-01,6.985924149173680098e-01,4.705509691609395251e-01,3.091720030561373278e+02
2.517841416381256803e+00,-1.417804131226215425e+01,-1.382310808331887797e+00,-3.484024520421014071e-01,7.290499454296434090e-01,5.891518551956114180e-01,3.107642839520651137e+02
1.753789279934866885e+00,-1.396467389341275656e+01,-1.658924204320907814e+00,-1.398955393349004261e-01,7.220845644498801175e-01,6.775109739757058103e-01,3.123565648479928996e+02
9.421853246272388072e-01,-1.368550228252004075e+01,-1.933009900613937182e+00,7.579241090012663051e-02,6.780537851173837893e-01,7.310927266344855457e-01,3.140456542926685870e+02
1.378650665251295315e-01,-1.334957043317101544e+01,-2.181727451803087359e+00,2.875898764464029367e-01,5.992177425656688428e-01,7.471466790128329372e-01,3.157347437373442745e+02
-6.520810708230068142e-01,-1.295662747356255018e+01,-2.400947161413778730e+00,3.454648207124490500e-01,5.493638258922091122e-01,7.608228732432096297e-01,3.174238331820199619e+02
-1.423807258375856755e+00,-1.250766669671205200e+01,-2.588903753418796860e+00,4.012593620119103699e-01,4.962016787011440666e-01,7.699174101494486999e-01,3.191129226266956493e+02
-2.174500045204807552e+00,-1.200452122478108663e+01,-2.746008354500731219e+00,4.546375122063878171e-01,4.400514436398236806e-01,7.743755286971146790e-01,3.208020120713713368e+02
-2.900765709226274858e+00,-1.144950305425640735e+01,-2.873630897194273892e+00,5.052778353322920912e-01,3.812512558783108241e-01,7.741703875847258942e-01,3.224911015160470242e+02
-3.559028088869787165e+00,-1.088352700512529658e+01,-2.968981588553812223e+00,5.528753829331641834e-01,3.201552069035860093e-01,7.693032265883529286e-01,3.240799573945994325e+02
-4.190345984360374310e+00,-1.027836338885961709e+01,-3.042739848576788031e+00,5.971435300856747785e-01,2.571312123150819029e-01,7.598033588571544428e-01,3.256688132731518408e+02
-4.791178147745359439e+00,-9.636037765528303822e+00,-3.096537964744124238e+00,6.378157010825009632e-01,1.925587964542377906e-01,7.457279942185889299e-01,3.272576691517042491e+02
-5.358007179775417406e+00,-8.958594321610874545e+00,-3.132008364222623520e+00,6.746469743999266022e-01,1.268268071975600375e-01,7.271618945666092904e-01,3.288465250302566574e+02
-5.887339574308881218e+00,-8.248095754251000500e+00,-3.150783602437089659e+00,6.999328430108802124e-01,1.541439768392620924e-01,6.973748272488093924e-01,3.304353809088090657e+02
-6.375705762475518235e+00,-7.506623155325518937e+00,-3.154496351641819629e+00,7.236278500288794158e-01,1.811107956820321163e-01,6.660027134715287289e-01,3.320242367873614739e+02
-6.819660156599503864e+00,-6.736275895329836949e+00,-3.144779389491488164e+00,7.456781399869074622e-01,2.076659718255837728e-01,6.331168578491961352e-01,3.336130926659138822e+02
-7.215781193881334765e+00,-5.939171507080768464e+00,-3.123265587611478544e+00,7.660335955768367011e-01,2.337491489656682297e-01,5.987920054633947275e-01,3.352019485444662905e+02
-7.560671379838425743e+00,-5.117445569237775160e+00,-3.091587900167748870e+00,7.846479515518495207e-01,2.593010435666140423e-01,5.631061719890412265e-01,3.367908044230186988e+02
-7.852445625669155049e+00,-4.273597316639093258e+00,-3.051056148641300148e+00,8.014788998753259452e-01,2.842635795961496736e-01,5.261404663881920074e-01,3.383796603015711071e+02
-8.083749207857417574e+00,-3.449253029136240212e+00,-3.004787176797071080e+00,8.164881858776149581e-01,3.085800205165241672e-01,4.879789065744719045e-01,3.398989494162532310e+02
-8.271827324446725527e+00,-2.611286739829890013e+00,-2.951622077724397997e+00,8.296416952022241942e-01,3.321950982321053569e-01,4.487082284667792687e-01,3.414182385309353549e+02
-8.419076750617907834e+00,-1.762650447594221959e+00,-2.891826761928789846e+00,8.409095313438552655e-01,3.550551387005341786e-01,4.084176888659258320e-01,3.429375276456174788e+02
-8.527927533125620130e+00,-9.062837779984999065e-01,-2.825667182322293414e+00,8.502660836020483615e-01,3.771081839220765675e-01,3.671988626018984903e-01,3.444568167602996027e+02
-8.600842961206577542e+00,-4.511382903922148135e-02,-2.753409332521328245e+00,8.576900852959356003e-01,3.983041100300135362e-01,3.251454344124458662e-01,3.459761058749817266e+02
-8.640319537178536180e+00,8.179449830110163688e-01,-2.675319245145137081e+00,8.631646621076949355e-01,4.185947412137500656e-01,2.823529860256666635e-01,3.474953949896638505e+02
-8.648886946732801562e+00,1.679991077636716401e+00,-2.591662990114160792e+00,8.666773704446864013e-01,4.379339592157586725e-01,2.389187789301913389e-01,3.490146841043459744e+02
-8.629108028921828932e+00,2.538135863993542074e+00,-2.502706672947859534e+00,8.682202257328971440e-01,4.562778081535080466e-01,1.949415333263587180e-01,3.505339732190280984e+02
-8.583578745840764412e+00,3.389503894702037723e+00,-2.408716433062359386e+00,8.677897205771746281e-01,4.735845944281158459e-01,1.505212037604989617e-01,3.520532623337102223e+02
-8.508129704707018348e+00,4.293537336982779173e+00,-2.302151122874411815e+00,8.653868327467167942e-01,4.898149814926031076e-01,1.057587519519982422e-01,3.536867832669289555e+02
-8.407762332570255737e+00,5.181804282692020536e+00,-2.190016680381381864e+00,8.610170229673974607e-01,5.049320792642820743e-01,6.075591732923537464e-02,3.553203042001476888e+02
-8.286082793949585579e+00,6.050519233777828632e+00,-2.072668838074429143e+00,8.546902225256396424e-01,5.189015279779468637e-01,1.561498579572952530e-02,3.569538251333664221e+02
-8.146772112936618626e+00,6.895949788831581273e+00,-1.950612436646913528e+00,8.914116734204926562e-01,4.530388824485439558e-01,1.178980390126027102e-02,3.585873460665851553e+02
-7.993613011790842826e+00,7.714450378122970520e+00,-1.824650490917770096e+00,9.230511790031867836e-01,3.845934890974356257e-01,7.897409797425742825e-03,3.602208669998038886e+02
-7.830461545876028495e+00,8.502429497828599025e+00,-1.695735114234325325e+00,9.494283740791515935e-01,3.139555397583295715e-01,3.959993092368503664e-03,3.618543879330226218e+02
-7.661219308106208992e+00,9.256316740076011129e+00,-1.564818441771959057e+00,9.703928888871868885e-01,2.415277234475320944e-01,0.000000000000000000e+00,3.634879088662413551e+02
-7.434617146118357667e+00,1.018880694084687732e+01,-1.389091554353181213e+00,9.969795307158221265e-01,-7.765188556165565636e-02,0.000000000000000000e+00,3.656618007839354050e+02
-7.216471989861794611e+00,1.102314022548183559e+01,-1.214464436809892023e+00,9.706551006259609427e-01,-0.000000000000000000e+00,-2.404717771875165555e-01,3.678356927016294549e+02
-7.071050514602349679e+00,1.155750079621469339e+01,-1.093524975291223278e+00,9.546769266573601476e-01,-0.000000000000000000e+00,-2.976406653627959864e-01,3.693721637586841666e+02
-6.933930819372418064e+00,1.205314096193679241e+01,-9.761801289959566308e-01,9.955207354002849618e-01,9.453287991585836159e-02,0.000000000000000000e+00,3.709086348157388784e+02
-6.806255795368265638e+00,1.250939351567838287e+01,-8.643780167452994601e-01,9.988611377112049938e-01,0.000000000000000000e+00,4.769095882973330841e-02,3.724451058727935902e+02
-6.684719603037959423e+00,1.294001062623683751e+01,-7.567190200260071054e-01,5.764363129604497260e-01,-1.163998612660123661e-03,-8.171400260719122732e-01,3.740395342029160020e+02
-6.575233546953073827e+00,1.332602908740216563e+01,-6.603394448153588892e-01,6.125605779659334393e-01,-8.448124865281779472e-02,-7.858946856602797570e-01,3.756339625330384138e+02
-6.469604157731483340e+00,1.369869848604484908e+01,-5.716287446223873303e-01,6.430351866335155542e-01,-1.670193265439546548e-01,-7.474010257639148724e-01,3.773981333598889591e+02
-6.381621465937818094e+00,1.401219800106632718e+01,-5.071251368674896121e-01,6.675790721159869934e-01,-2.480169856883781554e-01,-7.020140719983435362e-01,3.791623041867395045e+02
-6.311805461039197596e+00,1.426755824984959986e+01,-4.716883626118018591e-01,6.859658656372911167e-01,-3.267271862652909031e-01,-6.501524259252078330e-01,3.809264750135900499e+02
-6.260663533568589401e+00,1.446628134682797295e+01,-4.702615605588136849e-01,6.980259842664892078e-01,-4.024239848230081185e-01,-5.922944046068788770e-01,3.826906458404405953e+02
-6.230517540567897861e+00,1.459843171550984486e+01,-4.992650307134815502e-01,7.036481950566492172e-01,-4.744092293767664392e-01,-5.289736294713938136e-01,3.842474504765693837e+02
-6.213336532315374861e+00,1.469406719717584231e+01,-5.578762398657447497e-01,7.027806411168260325e-01,-5.420189982882384072e-01,-4.607741051386458619e-01,3.858042551126981721e+02
-6.207681646615158755e+00,1.475524607727278514e+01,-6.494736505908287327e-01,6.954313201399148214e-01,-6.046297235574479290e-01,-3.883248335599579493e-01,3.873785761281259283e+02
-6.210921859585070592e+00,1.478283954005741663e+01,-7.748077873374413782e-01,6.816680109522881281e-01,-6.616639420585382902e-01,-3.122940131090458649e-01,3.889528971435536846e+02
-6.219578900424991730e+00,1.477937017242212825e+01,-9.345446923623929036e-01,6.616176487368623516e-01,-7.125956216718607461e-01,-2.333828760933879531e-01,3.905272181589814409e+02
-6.230143619510992714e+00,1.474734190181438542e+01,-1.129350171476402709e+00,6.391842393756093088e-01,-7.468312249756395849e-01,-1.835337285936528284e-01,3.921015391744091971e+02
-6.239061393498594121e+00,1.468913036465666977e+01,-1.359647399304748649e+00,6.140916564286835744e-01,-7.779597877278949802e-01,-1.329210524322679832e-01,3.936758601898369534e+02
-6.242719340610458190e+00,1.460687317467079716e+01,-1.625374526215011661e+00,5.864442911338012543e-01,-8.058518147919112584e-01,-8.175540343021807377e-02,3.952501812052647097e+02
-6.236071860187804461e+00,1.449308021251793654e+01,-1.951614477750304610e+00,5.563571614583451286e-01,-8.303912742505019651e-01,-3.024963701578816180e-02,3.969421508560849929e+02
-6.213416466085114109e+00,1.435458556523630058e+01,-2.321047291086125508e+00,5.239554337625932368e-01,-8.514760798118004015e-01,2.138197689254779307e-02,3.986341205069052762e+02
-6.170073139967704456e+00,1.419389410830614295e+01,-2.732544629726791907e+00,5.318795198762957810e-01,-8.466672357197554399e-01,1.602398553526690819e-02,4.003260901577255595e+02
-6.108940295459053260e+00,1.402821585494656986e+01,-3.146741294877503758e+00,6.183519599116198417e-01,-7.848777499679225889e-01,4.007207602708368760e-02,4.018894274981638546e+02
-6.033928793826515147e+00,1.386352165856687968e+01,-3.552090746430841772e+00,6.974822247562603161e-01,-7.137688295784352377e-01,6.364435614979566114e-02,4.033279978224805404e+02
-5.952350642086268628e+00,1.370874267996567575e+01,-3.928049805845513109e+00,7.683307614089691651e-01,-6.341847892352375782e-01,8.646094016159694418e-02,4.046076431591168330e+02
-5.740762982059496089e+00,1.339129870679242273e+01,-4.668114848883291756e+00,8.300563437177401749e-01,-5.470705674598344004e-01,1.082509144116477473e-01,4.070017554401334792e+02
-5.623692856460992040e+00,1.324070535184436714e+01,-5.005033835825060784e+00,5.537518733890118838e-01,-3.835529121193340663e-01,7.390832336916269840e-01,4.080531984137069799e+02
-5.390796313451233779e+00,1.296344555124579223e+01,-5.596090041607946652e+00,0.000000000000000000e+00,-2.786296520870016821e-02,9.996107518285608506e-01,4.099016829047124020e+02
-5.118666158747092076e+00,1.266754527404757802e+01,-6.172301248792394723e+00,5.048504550711633287e-01,-7.270622152187579124e-01,4.653004977608588000e-01,4.117501673957178241e+02
-4.810238027864911281e+00,1.235312451662290201e+01,-6.714766822444802052e+00,3.794731911047499184e-01,-5.383771387425254629e-01,7.524281717968546168e-01,4.135986518867232462e+02
-4.468979507954338182e+00,1.202058975383337547e+01,-7.204551127598406879e+00,2.033361127284958603e-01,-2.776766396292935091e-01,9.389079342865590538e-01,4.154471363777286683e+02
-4.075319680587726978e+00,1.164866315631209126e+01,-7.642302043619663365e+00,0.000000000000000000e+00,2.016697227948724414e-02,9.997956257308727723e-01,4.174078258605113092e+02
-3.654532084455814456e+00,1.125799981842951780e+01,-7.970419322618847779e+00,-0.000000000000000000e+00,-2.559783184275926660e-02,9.996713214823221838e-01,4.193685153432939501e+02
-3.272271260662163339e+00,1.090438813008834451e+01,-8.159617880148960722e+00,-0.000000000000000000e+00,-7.130902736876293391e-02,9.974532683813635003e-01,4.210780970384075204e+02
-2.882545951043429255e+00,1.054159167274875308e+01,-8.262093310151742642e+00,-0.000000000000000000e+00,-1.168708951513450084e-01,9.931461090165466521e-01,4.227876787335210906e+02
-2.490744168063086850e+00,1.017194454861645703e+01,-8.279792776328978476e+00,4.301035175183857140e-01,3.026596604823824505e-02,9.022709878502616077e-01,4.244972604286346609e+02
-2.102016494617517051e+00,9.797978619093621333e+00,-8.215031181783075453e+00,0.000000000000000000e+00,0.000000000000000000e+00,9.999989999986806932e-01,4.262068421237482312e+02
-1.725405375104760664e+00,9.426961694224074151e+00,-8.073427582647248357e+00,-1.161848472904061791e-01,1.341998236121057881e-03,9.932256945363709955e-01,4.278964229234440495e+02
-1.412952100322066640e+00,9.111843506855326069e+00,-7.898815352496260545e+00,-9.302458479231964783e-02,4.014339024324637371e-03,9.956547150960320947e-01,4.293354488072124582e+02
-1.031095582863454485e+00,8.715982253557722714e+00,-7.607062784316165782e+00,-6.981320943674672319e-02,6.684474332361906371e-03,9.975366828229664806e-01,4.311642364071363431e+02
-6.701450616096931157e-01,8.328500706472103943e+00,-7.235988866497129024e+00,-4.656347076063446083e-02,9.350937505758039753e-03,9.988705637591858144e-01,4.329930240070602281e+02
-3.323174091966403232e-01,7.952024625585039530e+00,-6.794214536481937294e+00,-2.328813938002751924e-02,1.201226390240998920e-02,9.996556247357402114e-01,4.348218116069841130e+02
-1.979320907390779913e-02,7.589193375845707301e+00,-6.290361387225545720e+00,-0.000000000000000000e+00,1.466699169430323718e-02,9.998914337765223426e-01,4.366505992069079980e+02
3.055901956710235234e-01,7.190559660965929467e+00,-5.633628205617458029e+00,-4.786744931378699164e-01,-2.325607537444741302e-01,8.466311035134508334e-01,4.387747795449688510e+02
5.856307024683289342e-01,6.822355346125293707e+00,-4.909436331374453566e+00,-7.217103253060231927e-01,5.166585169995810967e-01,4.606475693616544631e-01,4.408989598830297041e+02
8.095340344750761030e-01,6.504857813919186604e+00,-4.178860262756385779e+00,-5.024135394077114958e-01,7.294793312430333243e-01,4.641535744828904630e-01,4.429084787836207511e+02
9.961019346671071695e-01,6.219447016861850308e+00,-3.420481419116844002e+00,-8.640238959902303284e-01,1.424557520291948147e-02,5.032472262632251558e-01,4.449179976842117981e+02
1.117455759920675806e+00,6.021781843846476967e+00,-2.831080099160597108e+00,-6.693304655660944347e-01,-7.101616072892911191e-01,2.183236574288964782e-01,4.464545876710864150e+02
1.224647426564464014e+00,5.839996152720128286e+00,-2.240772510756957381e+00,-4.368697578786884250e-02,-9.773284583464662001e-01,-2.071678851837208402e-01,4.479911776579610319e+02
1.319303636619376219e+00,5.674533858581598089e+00,-1.654317495389663106e+00,-1.571261495725260748e-01,-9.643530046557341473e-01,-2.129146672417542852e-01,4.495277676448356488e+02
1.404260747835451184e+00,5.523828297406157439e+00,-1.068089569753185364e+00,-2.685116056345077662e-01,-9.387736212144522918e-01,-2.158786829369707672e-01,4.510868644251565343e+02
1.479681565269890475e+00,5.390842739043703702e+00,-4.954682770433652683e-01,-5.019516136385371308e-01,-7.877551922558253539e-01,-3.570494848534851995e-01,4.526459612054774198e+02
1.561215888386537909e+00,5.254788610519773862e+00,1.806222896244715492e-01,-6.865874504554446700e-01,-5.601420263994217885e-01,-4.635046743316877937e-01,4.545652864476153354e+02
1.633544901945535699e+00,5.151937228668760582e+00,8.144943139755890238e-01,-8.044661251533606894e-01,-2.780639580095519703e-01,-5.248930259779570617e-01,4.564846116897532511e+02
1.690986309474786342e+00,5.088881248861034656e+00,1.313241978269025889e+00,-8.441248279987034753e-01,3.105235780018392872e-02,-5.352448279162121958e-01,4.581012057756331615e+02
1.748124706350381086e+00,5.044971489580891699e+00,1.779016233384726586e+00,-8.017065174502226998e-01,3.371499636529904920e-01,-4.935529980317618359e-01,4.597177998615130718e+02
1.807247898587223789e+00,5.019842532034957117e+00,2.208485282544899064e+00,-6.813357326158541172e-01,6.104649551177712130e-01,-4.038714622457345582e-01,4.613343939473929822e+02
1.870446609853015696e+00,5.013059349257032338e+00,2.598821425315288813e+00,-4.947174464470727173e-01,8.244217198471910368e-01,-2.749208540891341368e-01,4.629509880332728926e+02
1.939421011977322085e+00,5.024061411009739686e+00,2.948204911366616443e+00,-2.599980547326616320e-01,9.582175319228685151e-01,-1.192399808977271242e-01,4.645675821191528030e+02
2.015671697623687031e+00,5.052222118930287387e+00,3.255320120380824633e+00,-0.000000000000000000e+00,9.988447030609834965e-01,4.803393763085728879e-02,4.661841762050327134e+02
2.103073801018410016e+00,5.098445821395364952e+00,3.524290385162021089e+00,-0.000000000000000000e+00,9.998666912531375406e-01,1.626652115488350786e-02,4.678412304909839463e+02
2.201554835767971952e+00,5.161763583433540248e+00,3.744872425411544192e+00,-0.000000000000000000e+00,9.998785989052459966e-01,-1.551732706256052190e-02,4.694982847769351793e+02
2.312745632637212001e+00,5.241456950410542603e+00,3.915615022454336902e+00,-0.000000000000000000e+00,9.988804136984218429e-01,-4.728550641803026117e-02,4.711553390628864122e+02
2.437999211844239511e+00,5.337064868177568755e+00,4.035967607690689185e+00,-0.000000000000000000e+00,9.968731427251079635e-01,-7.900593205775242878e-02,4.728123933488376451e+02
2.577843415432699015e+00,5.448574475364654113e+00,4.107611239584381124e+00,-6.452316326471750629e-02,9.788418623416318409e-01,-1.941735562081668975e-01,4.744694476347888781e+02
2.731972737382254657e+00,5.576082270524589823e+00,4.133989022348884212e+00,-1.279009144926901431e-01,9.434341965796075868e-01,-3.058942183120691993e-01,4.761265019207401110e+02
2.889108409007284273e+00,5.710180174252614371e+00,4.121961428902198854e+00,-1.890081708977013053e-01,8.912787018987849974e-01,-4.121846514320524069e-01,4.776849414182245255e+02
3.057212418320052194e+00,5.857591054485641102e+00,4.078528758522266706e+00,-2.467601557258966571e-01,8.233012439636963054e-01,-5.111579865703402836e-01,4.792433809157089399e+02
3.235827367799127607e+00,6.018336450616555311e+00,4.006722743290805688e+00,-3.001316555955500509e-01,7.407085612470768465e-01,-6.010572490250084554e-01,4.808018204131933544e+02
3.424205943545715503e+00,6.192346936446234906e+00,3.909592165742233671e+00,-3.481752203599035589e-01,6.449668422955405767e-01,-6.802865486451236121e-01,4.823602599106777689e+02
3.622990353605390013e+00,6.381309277362934296e+00,3.788869307795212027e+00,-3.900379823612452612e-01,5.377756970785634305e-01,-7.474394102187698063e-01,4.839337802713719157e+02
3.828762107956876548e+00,6.583322369469795099e+00,3.648474384192548658e+00,-4.249767964779013751e-01,4.210379846254412306e-01,-8.013237410429003837e-01,4.855073006320660625e+02
4.039830324567881270e+00,6.798044344386461546e+00,3.491628901239976379e+00,-4.523714322037314384e-01,2.968260327174370161e-01,-8.409829924727063588e-01,4.870808209927602093e+02
4.254500211513896346e+00,7.025142359934537062e+00,3.321554478143621036e+00,-4.717355836078319098e-01,1.673448494305360967e-01,-8.657131398613118201e-01,4.886543413534543561e+02
4.510662828175631134e+00,7.310804474224408267e+00,3.106291967270145449e+00,-4.827255017817143612e-01,3.489297968460284421e-02,-8.750751795701291469e-01,4.905162175005103791e+02
4.766008384202780057e+00,7.615196896536034821e+00,2.879011050910837088e+00,-4.851460966005810005e-01,-9.817829829363315663e-02,-8.689029213317365219e-01,4.923780936475664021e+02
5.016782346548700922e+00,7.936904260025881008e+00,2.644264765446444176e+00,-4.789543995528390274e-01,-2.295067122760456046e-01,-8.473059377643357148e-01,4.942399697946224251e+02
5.259209244442274667e+00,8.274534897563885494e+00,2.406606218952178189e+00,-6.509222340726116274e-01,-1.969283730888180539e-01,-7.331558231806472037e-01,4.961018459416784481e+02
5.488412931978467135e+00,8.624878936133516305e+00,2.171750783721282829e+00,-7.944678098032289526e-01,-1.557512265364217607e-01,-5.869927210961396469e-01,4.979543546617159109e+02
5.701922401816273300e+00,8.988237523269022589e+00,1.942973765425501487e+00,-9.033232668712338764e-01,-1.077732469164460610e-01,-4.151987509360130502e-01,4.998068633817533737e+02
5.896016586222136091e+00,9.363148447595957435e+00,1.723724177685416636e+00,-9.727354457819958888e-01,-5.508936527200998523e-02,-2.252751969335927418e-01,5.016593721017908365e+02
6.067031118973040371e+00,9.747835747385593663e+00,1.515424633273265709e+00,-9.996734394315608396e-01,-0.000000000000000000e+00,-2.551498569243200801e-02,5.035118808218282993e+02
6.231676021787086128e+00,1.021893397918281465e+01,1.282930111292683417e+00,-9.988620448979329547e-01,-0.000000000000000000e+00,4.767195441654587668e-02,5.057270832796972968e+02
6.343489697733795118e+00,1.069995034941580947e+01,1.069860816490509237e+00,-5.759863546498104059e-01,0.000000000000000000e+00,-8.174580840985634644e-01,5.079422857375662943e+02
6.396745841000992527e+00,1.122751167233360370e+01,8.603678294852064035e-01,-9.546707119066457636e-01,0.000000000000000000e+00,-2.976605983802228517e-01,5.103365104308559239e+02
6.394634535115233831e+00,1.160186337414342361e+01,7.237511362388775460e-01,-9.796745246587165168e-01,-0.000000000000000000e+00,2.005886979233616751e-01,5.120221874069994783e+02
6.370938278726746340e+00,1.194222501987281859e+01,6.058306691085857398e-01,-9.959696389898720081e-01,-0.000000000000000000e+00,8.967986510537995226e-02,5.135516736204031076e+02
6.327837196798596686e+00,1.228260283802178421e+01,4.942057999433110416e-01,-9.997490736100211883e-01,-0.000000000000000000e+00,-2.235597928444674545e-02,5.150811598338067370e+02
6.255710489196869339e+00,1.266146141137700099e+01,3.792197098558506840e-01,-9.997490729075863003e-01,-0.000000000000000000e+00,-2.235597926873918173e-02,5.167870918690236977e+02
6.156973685229690574e+00,1.303857085159362050e+01,2.769098353115705957e-01,-9.909530590087407553e-01,4.966131286078914742e-02,1.246747321898982741e-01,5.184930239042406583e+02
6.034583377728114151e+00,1.340618744729763812e+01,1.910762778020059782e-01,-9.582139580104870324e-01,9.812270453430434192e-02,2.686930321567311819e-01,5.201680246548465902e+02
5.887726273933985510e+00,1.377011158254974532e+01,1.220242587470431184e-01,-9.023228240496341535e-01,1.442132737262058761e-01,4.062192177646606894e-01,5.218430254054525221e+02
5.654471781061628732e+00,1.423622880494645315e+01,6.619258321172750981e-02,-8.246300880931816124e-01,1.868194040866075489e-01,5.339304524648490480e-01,5.240318645899048988e+02
5.372812107298331696e+00,1.468683753947568071e+01,5.812569313284609435e-02,-7.270129289257940552e-01,2.249116686481391070e-01,6.487410442401074784e-01,5.262207037743572755e+02
5.102550164393718113e+00,1.505500169982345682e+01,8.883276548534610462e-02,-8.203162417059495226e-01,-3.095213459477167417e-01,4.809114263540644196e-01,5.280771218491685204e+02
4.810199549139241526e+00,1.540913975155690174e+01,1.523612176848720690e-01,-6.490744455543411284e-01,-7.441363635195958892e-01,1.579918878231157953e-01,5.299335399239797653e+02
4.499606942470601112e+00,1.574720116070791676e+01,2.493678589126215872e-01,-2.685116056354199254e-01,-9.387736212176415185e-01,-2.158786829377041527e-01,5.317899579987910101e+02
4.174587508778547118e+00,1.606711136122774874e+01,3.805091784208270433e-01,-2.166398856265110695e-01,-9.618579310061685650e-01,-1.670164079215979980e-01,5.336463760736022550e+02
3.845216801920882776e+00,1.636169103858798479e+01,5.427785911362239535e-01,-1.635525907453698191e-01,-9.795451623801563201e-01,-1.172169992664201799e-01,5.354688333942036707e+02
3.508705997319365277e+00,1.663524530601352680e+01,7.377584570852455670e-01,-1.095475909811550186e-01,-9.917360757291101558e-01,-6.675987871882835267e-02,5.372912907148050863e+02
3.166772495863467540e+00,1.688602321414656160e+01,9.636097247496590024e-01,-5.492790490210795046e-02,-9.983622684410144998e-01,-1.592815793219920159e-02,5.391137480354065019e+02
2.851896917284362232e+00,1.709409927401583928e+01,1.192837788090947537e+00,-0.000000000000000000e+00,-9.993865585856310796e-01,3.499294952969916883e-02,5.407727398335346152e+02
2.534270705058541129e+00,1.728296232346725958e+01,1.440926852484029741e+00,-0.000000000000000000e+00,-9.977421425580064174e-01,6.714623545744059785e-02,5.424317316316627284e+02
2.213654158818494810e+00,1.745231499244586004e+01,1.704246063100059327e+00,-0.000000000000000000e+00,-9.950635238487695045e-01,9.922995251713799536e-02,5.440907234297908417e+02
1.889479036789700306e+00,1.760214975925628167e+01,1.978562158181558894e+00,-0.000000000000000000e+00,-9.956171299688436616e-01,9.351219426474643992e-02,5.457497152279189550e+02
1.561176802494273597e+00,1.773246213677289163e+01,2.259641792020842477e+00,-0.000000000000000000e+00,-9.961378812625399926e-01,8.779135195262122160e-02,5.474087070260470682e+02
1.228178631965512135e+00,1.784325067395961639e+01,2.543251567263859148e+00,-0.000000000000000000e+00,-9.966257605955015642e-01,8.206761408476483111e-02,5.490676988241751815e+02
8.899154209659189130e-01,1.793451695735848261e+01,2.825158067214353252e+00,-0.000000000000000000e+00,-9.970807519154688547e-01,7.634116926009386350e-02,5.507266906223032947e+02
5.458177922086884237e-01,1.800626561254684077e+01,3.101127888138165201e+00,-0.000000000000000000e+00,-9.975028402490037083e-01,7.061220616595793864e-02,5.523856824204314080e+02
1.964651492129506904e-01,1.805847943700626601e+01,3.367551511983596590e+00,-0.000000000000000000e+00,-9.978920117019677294e-01,6.488091357203389087e-02,5.540446742185595213e+02
