-5.713914265509923318e+00,1.837308063823039628e-01,-3.323144226446440808e+00,3.273360294955847682e-01,2.303404181379217763e-02,9.446261465313597894e-01,1.173421454996085913e+02
-5.829035760911761344e+00,2.120089599418857607e-01,-3.317903060513629931e+00,3.793085076387587851e-01,2.669143236443555917e-02,9.248841135352978693e-01,1.188481093353554456e+02
-5.940518696351016814e+00,2.331934127405149437e-01,-3.312417345600870533e+00,4.301035175183419712e-01,3.026596604823517112e-02,9.022709878501697922e-01,1.203540731711023000e+02
-6.048505284887355948e+00,2.469323169804737983e-01,-3.306425437160685377e+00,5.901692235524157448e-01,1.566813013100470109e-01,7.919275581721498813e-01,1.218600370068491543e+02
-6.180667339960450590e+00,2.545793575770314288e-01,-3.297927095256846020e+00,7.184970109356203505e-01,2.746706784054134820e-01,6.389961374703806429e-01,1.237621414765324772e+02
-6.308806127500831806e+00,2.522296090443867378e-01,-3.288204083860476690e+00,8.081857275614985348e-01,3.778889193157918269e-01,4.517010011338304376e-01,1.256642459462158001e+02
-6.433090323830263024e+00,2.395418140664368756e-01,-3.276991833770272589e+00,8.544121211579119857e-01,4.607851942315455140e-01,2.401144143867919578e-01,1.275663504158991230e+02
-6.554292312688094313e+00,2.161019567562053878e-01,-3.264039480688082584e+00,8.546902225258377062e-01,5.189015279780672119e-01,1.561498579573314394e-02,1.294794431795102696e+02
-6.671725024890460709e+00,1.817318318305787550e-01,-3.249278358081808538e+00,9.652377531612574835e-01,2.547878172082397863e-01,5.828591661224118148e-02,1.313925359431214019e+02
-6.763376012002594528e+00,1.449588451600422601e-01,-3.235842496598607010e+00,9.949004988875450595e-01,-3.067653653300389180e-02,9.607261535181169099e-02,1.329355150966478618e+02
-6.851886331815582487e+00,9.891452437976817891e-02,-3.220874124651393444e+00,9.411927937870143701e-01,-3.135702639555563720e-01,1.258086423386866326e-01,1.344784942501743217e+02
-6.951144730115986548e+00,3.437075493427805412e-02,-3.201748960157845936e+00,8.086152182767397667e-01,-5.701875086871813769e-01,1.450021851876020784e-01,1.362741049894825949e+02
-7.046538754668111970e+00,-4.131225068898803504e-02,-3.181078732211281679e+00,6.082774653435730761e-01,-7.790243152625558887e-01,1.520448663574279768e-01,1.380697157287908681e+02
-7.137933666248815534e+00,-1.283299793830345592e-01,-3.159110800408092778e+00,6.448633265663314962e-01,-7.519669907856911806e-01,1.367294219212747408e-01,1.398653264680991413e+02
-7.212731563639569465e+00,-2.127721457384390280e-01,-3.139448980539355727e+00,6.799626512099778974e-01,-7.231762410898957549e-01,1.210987914187648951e-01,1.414041005170149106e+02
-7.283933622761349369e+00,-3.072196333859665840e-01,-3.119241252504243889e+00,7.134945291161419734e-01,-6.927184347459249825e-01,1.051890064839312855e-01,1.429428745659306799e+02
-7.351501022745683400e+00,-4.117797138533170198e-01,-3.098765346148975919e+00,7.453816634364618388e-01,-6.606637831360622215e-01,8.903674222313420761e-02,1.444816486148464492e+02
-7.415395598133438959e+00,-5.265600729020327719e-01,-3.078298993141589168e+00,7.755505488046160467e-01,-6.270861785973430580e-01,7.267923267198866943e-02,1.460204226637622185e+02
-7.475567599243565731e+00,-6.516402259267931596e-01,-3.058109974164562761e+00,8.039316407677273846e-01,-5.920630240813050671e-01,5.615418496455189257e-02,1.475591967126779878e+02
-7.531943176283979469e+00,-7.870430520544183794e-01,-3.038446166174788576e+00,8.304595160867009884e-01,-5.556750547228532788e-01,3.949969241257856450e-02,1.490979707615937571e+02
-7.590230678096169470e+00,-9.487463637473222411e-01,-3.017477480504835885e+00,8.550730235362421494e-01,-5.180061517296077334e-01,2.275414669518274410e-02,1.508056497649079972e+02
-7.644174234039800453e+00,-1.121870420927764345e+00,-2.997647502150431631e+00,8.777154248572008877e-01,-4.791431490207693211e-01,5.956149361283525658e-03,1.525133287682222374e+02
-7.693667313407856589e+00,-1.306410813963637008e+00,-2.979249244958675824e+00,8.983345255365923210e-01,-4.391756330612130443e-01,-1.085557715121686709e-02,1.542210077715364775e+02
-7.738555241819352837e+00,-1.502309115783062143e+00,-2.962529723751283761e+00,9.168827951140788857e-01,-3.981957363521692050e-01,-2.764227877446952253e-02,1.559286867748507177e+02
-7.777880163635548350e+00,-1.705778965204276743e+00,-2.947903938916187183e+00,9.333174767378321635e-01,-3.562979250544371368e-01,-4.436525914224686423e-02,1.576064998735415656e+02
-7.812127527395470672e+00,-1.920034881324810261e+00,-2.935185294138205503e+00,9.476006857174524844e-01,-3.135787812335710245e-01,-6.098596878819752265e-02,1.592843129722324136e+02
-7.841004972590656763e+00,-2.144867281172558648e+00,-2.924479017954453752e+00,9.596994968469718668e-01,-2.701367802288408004e-01,-7.746609400525976408e-02,1.609621260709232615e+02
-7.864140028133078886e+00,-2.379986649388110553e+00,-2.915822183249478616e+00,9.695860202968120678e-01,-2.260720636589862720e-01,-9.376764516148687612e-02,1.626399391696141095e+02
-7.881617685593427680e+00,-2.633698830856437301e+00,-2.908873874386549208e+00,9.772374658999049002e-01,-1.814862085878144460e-01,-1.098530442687980363e-01,1.643777764761805429e+02
-7.891976577331313969e+00,-2.897028504096230250e+00,-2.903765564282630773e+00,9.826361956838864931e-01,-1.364819933815250852e-01,-1.256852116028860378e-01,1.661156137827469763e+02
-7.894553016114443267e+00,-3.169413797470174377e+00,-2.900317672739720187e+00,9.857697645283439725e-01,-9.116316079725962640e-02,-1.412276511747027063e-01,1.678534510893134097e+02
-7.888640562452534866e+00,-3.450245029350639037e+00,-2.898292991941935792e+00,9.866309488534279470e-01,-4.563417884874166469e-02,-1.564445348565842164e-01,1.695912883958798432e+02
-7.873451623585610903e+00,-3.738811738035440868e+00,-2.897339075984565859e+00,9.852177632736904833e-01,-0.000000000000000000e+00,-1.713007849691758899e-01,1.713291257024462766e+02
-7.849116087159701216e+00,-4.022938459787757104e+00,-2.897061253241453915e+00,9.864648765177365108e-01,-7.740688218226002282e-02,-1.445448787992610895e-01,1.729997892893018445e+02
-7.814240281436327429e+00,-4.313077337977876624e+00,-2.897040590326686704e+00,9.810935288103819207e-01,-1.542944130092765709e-01,-1.168191843833191051e-01,1.746704528761574124e+02
-7.768216746058496547e+00,-4.608564024592217478e+00,-2.897040901798075385e+00,9.691397582806691169e-01,-2.301467414719018389e-01,-8.830971808899132358e-02,1.763411164630129804e+02
-7.710942242434824401e+00,-4.908815773635173407e+00,-2.897041268175220896e+00,9.506837635125726660e-01,-3.044549615287199251e-01,-5.920775450354947428e-02,1.780117800498685483e+02
-7.642808998844108359e+00,-5.213336040653468118e+00,-2.897040546940099937e+00,9.258493656549898754e-01,-3.767205258075659313e-01,-2.970854339224788740e-02,1.796824436367241162e+02
-7.561227969865973897e+00,-5.534131731017508216e+00,-2.897073829479552831e+00,8.948031780332501572e-01,-4.464585898828646315e-01,-9.999990814002286037e-06,1.814207000302306767e+02
-7.469569814315316414e+00,-5.858381700368990863e+00,-2.897346396405453994e+00,9.187249332292825033e-01,-3.948955520025316246e-01,-8.338972865281546389e-06,1.831589564237372372e+02
-7.368422475020290463e+00,-6.185569327184081700e+00,-2.898141603855455717e+00,9.396782777361085692e-01,-3.420566244133598777e-01,-6.651012277865294023e-06,1.848972128172437976e+02
-7.261750040326805156e+00,-6.504967972919501129e+00,-2.899691507741088081e+00,9.575955157099995674e-01,-2.881125270902479829e-01,-4.941562755902893858e-06,1.865816617169487870e+02
-7.146948194943663069e+00,-6.826218264027602345e+00,-2.902227000439673077e+00,9.724187602269356301e-01,-2.332375500368373544e-01,-3.216147413710416640e-06,1.882661106166537763e+02
-7.024557728141537893e+00,-7.148872780361361201e+00,-2.905827358563394913e+00,9.841001201908452511e-01,-1.776089903047856633e-01,-1.480340935646665805e-06,1.899505595163587657e+02
-6.883648728909820491e+00,-7.501378319457499444e+00,-2.910927023921596302e+00,9.926018549738473418e-01,-1.214065793164981200e-01,2.602484301630627232e-07,1.917852667561002704e+02
-6.735825087598342087e+00,-7.854466544041830645e+00,-2.917223931795156044e+00,9.978964962912724168e-01,-6.481190233634093190e-02,1.999996986247637058e-06,1.936199739958417751e+02
-6.581682734776483024e+00,-8.207600860072307825e+00,-2.924665594857591255e+00,8.849807075418427704e-01,-1.526297770938973321e-02,-4.653753203488801282e-01,1.954546812355832799e+02
-6.421748205018709577e+00,-8.560220645706573706e+00,-2.933054432392777855e+00,9.977606801094787148e-01,4.343201392690657775e-02,-5.084570184182028718e-02,1.972893884753247846e+02
-6.241267755610137691e+00,-8.944400206102034900e+00,-2.942954242095393358e+00,9.229620626284348317e-01,9.396179802221375776e-02,3.732428317640058557e-01,1.992943888671479442e+02
-6.055627356115354409e+00,-9.326753882054845235e+00,-2.953174661008932222e+00,6.746469744003881219e-01,1.268268071976468014e-01,7.271618945671066703e-01,2.012993892589711038e+02
-5.865080534429785608e+00,-9.706541436908464604e+00,-2.963107256232958342e+00,-4.499992964603929360e-04,3.515004504558323917e-01,9.361865363436940868e-01,2.033043896507942634e+02
-5.685783081003020101e+00,-1.005197427608456451e+01,-2.971325716446468590e+00,-6.960992109711262865e-02,4.217091896338380774e-01,9.040541014039107370e-01,2.051442253461085556e+02
-5.502042699685214977e+00,-1.039363675630294104e+01,-2.977943341684298861e+00,-1.380218879468393667e-01,4.873867109683671650e-01,8.622077199962309146e-01,2.069840610414228479e+02
-5.313852637608249552e+00,-1.073082704673114307e+01,-2.981981457443775074e+00,-2.049508231951406578e-01,5.478273197602502309e-01,8.110970273635899064e-01,2.088238967367371401e+02
-5.148736431835423843e+00,-1.101511135482510184e+01,-2.982200069216539795e+00,-2.696775854285180518e-01,6.023815912249851356e-01,7.512712016794212966e-01,2.103996389417758337e+02
-4.979555137296072687e+00,-1.129424633089604058e+01,-2.978156013161675553e+00,-3.315066953479962608e-01,6.504633482430828284e-01,6.833730632194940924e-01,2.119753811468145273e+02
-4.806273152201502086e+00,-1.156766278796351166e+01,-2.968866823592433146e+00,-3.897738083979360169e-01,6.915559595546930671e-01,6.081321674549733380e-01,2.135511233518532208e+02
-4.628895737714874947e+00,-1.183479199304967011e+01,-2.953306808929330618e+00,-4.438528528742963219e-01,7.252178907454672752e-01,5.263569662692144657e-01,2.151268655568919144e+02
-4.447514658088930872e+00,-1.209508258436297545e+01,-2.930670059008726902e+00,-4.931627568331020672e-01,7.510874483940378488e-01,4.389261215053577025e-01,2.167026077619306079e+02
-4.215367658721654642e+00,-1.241234651186039706e+01,-2.893114624901345522e+00,-5.371736915345596275e-01,7.688866664143004792e-01,3.467790641538065488e-01,2.186786926985779189e+02
-3.978889062470956084e+00,-1.271981072951044922e+01,-2.846494268710073605e+00,-5.754127643479589604e-01,7.784242928353074520e-01,2.509059005905482920e-01,2.206547776352252299e+02
-3.766434881518529121e+00,-1.298187585823580292e+01,-2.797400386777398662e+00,-6.074690999519222201e-01,7.795978449197799032e-01,1.523367742923535106e-01,2.223994826581620430e+02
-3.550595247146374867e+00,-1.323381763506506736e+01,-2.740392407105018524e+00,4.606624106662677853e-01,7.464020451143988932e-01,4.802833855648006578e-01,2.241441876810988560e+02
-3.331782122051360151e+00,-1.347497660750706139e+01,-2.675461282892298787e+00,0.000000000000000000e+00,4.167097442643595551e-02,9.991303868315947190e-01,2.258888927040356691e+02
-3.110441854600149991e+00,-1.370472137361971399e+01,-2.602609100659910357e+00,-2.094397647221669240e-02,9.665299142316687853e-01,2.556937127619831052e-01,2.276335977269724822e+02
-2.887095472240452487e+00,-1.392247978427951516e+01,-2.521860146559792071e+00,1.054998706094426334e-03,4.298934727561680713e-01,9.028778926633456159e-01,2.293783027499092952e+02
-2.693270227910710801e+00,-1.409932882650177710e+01,-2.445485517253209284e+00,4.292481280428828150e-02,4.582717969902966315e-01,8.877738566363230222e-01,2.308820833231763459e+02
-2.498497639736957598e+00,-1.426485948681399130e+01,-2.362362687898287739e+00,8.467501601062568661e-02,4.853731255600509109e-01,8.701959955352168707e-01,2.323858638964433965e+02
-2.303184751407048036e+00,-1.441866083058618209e+01,-2.272518022793005521e+00,1.261892727851817442e-01,5.111219412727465716e-01,8.501932889533025950e-01,2.338896444697104471e+02
-2.107743905736235046e+00,-1.456032707627986511e+01,-2.176005305498632136e+00,1.673519048711871737e-01,5.354464952610846762e-01,8.278214726896623299e-01,2.353934250429774977e+02
-1.856758500200307749e+00,-1.472687000332070717e+01,-2.043410769478589906e+00,2.080482135190734883e-01,5.582790068541371165e-01,8.031428835236258390e-01,2.373288210211753722e+02
-1.607193475946967709e+00,-1.487788912553624598e+01,-1.902797531209507564e+00,2.481647989892089290e-01,5.795558524071615647e-01,7.762262856152400969e-01,2.392642169993732466e+02
-1.359890031476866490e+00,-1.501368846518324141e+01,-1.754639445711717372e+00,2.875898764458944545e-01,5.992177425646092459e-01,7.471466790115117718e-01,2.411996129775711211e+02
-1.165542830646891570e+00,-1.510968635858585962e+01,-1.631216738531983124e+00,2.756325026074389895e-01,6.398097467125507531e-01,7.174037994863720069e-01,2.427390917806250172e+02
-9.740564462159507775e-01,-1.519370162229633614e+01,-1.502637593597664578e+00,2.629377215707699444e-01,6.786900410838089259e-01,6.857416297035390240e-01,2.442785705836789134e+02
-7.859419572868926451e-01,-1.526585216931303535e+01,-1.369292550435373013e+00,2.495394963926148013e-01,7.157546086609284375e-01,6.522448772666070704e-01,2.458180493867328096e+02
-6.017113917493605024e-01,-1.532625204082387427e+01,-1.231572180128281513e+00,2.354736720316516208e-01,7.509042902148981291e-01,6.170031577850243476e-01,2.473575281897867058e+02
-4.218777122317226014e-01,-1.537501140165739066e+01,-1.089867087072467156e+00,2.207778794459221705e-01,7.840450495698697564e-01,5.801107551083427571e-01,2.488970069928406019e+02
-2.469082269380054595e-01,-1.541224624173890945e+01,-9.446308653735563388e-01,2.054914349128877660e-01,8.150882251588035254e-01,5.416663690733125591e-01,2.504364857958944981e+02
-7.717119766416574711e-02,-1.543808959718604612e+01,-7.964481782205685700e-01,1.896552348420278422e-01,8.439507671985024828e-01,5.017728514401137430e-01,2.519759645989483943e+02
8.702434328097287397e-02,-1.545268365072374550e+01,-6.459769269352936272e-01,1.733116463614704228e-01,8.705554598500934160e-01,4.605369307243942223e-01,2.535154434020022904e+02
2.453750603581243139e-01,-1.545616927368919313e+01,-4.938801599655165964e-01,1.565043939714170218e-01,8.948311277712095446e-01,4.180689266614072697e-01,2.550549222050561866e+02
3.953992772304242842e-01,-1.544878761422385871e+01,-3.430090821699443016e-01,1.392784425676105997e-01,9.167128265079029781e-01,3.744824550661863816e-01,2.565723690986664565e+02
5.390649688630634317e-01,-1.543071740030259065e+01,-1.918335605749172945e-01,1.216798771477722446e-01,9.361420162175470017e-01,3.298941238793047792e-01,2.580898159922767263e+02
6.760739603382852625e-01,-1.540208866400490706e+01,-4.099781294487212652e-02,1.037557795227709578e-01,9.530667182585643715e-01,2.844232212112522973e-01,2.596072628858869962e+02
8.061442017840552143e-01,-1.536297313340273618e+01,1.088829815098086573e-01,8.555410236227264931e-02,9.674416542286257137e-01,2.381913962197907408e-01,2.611247097794972660e+02
9.290275682982417349e-01,-1.531332836229139893e+01,2.572517224615737952e-01,6.712354091171243708e-02,9.792283670798749284e-01,1.913223336737366886e-01,2.626421566731075359e+02
1.044493407188742840e+00,-1.525305400462979755e+01,4.035803556312773099e-01,4.851340272363854206e-02,9.883953239876256402e-01,1.439414230734430700e-01,2.641596035667178057e+02
1.152311550594053546e+00,-1.518204792787073920e+01,5.473408397693165783e-01,2.977347575176321481e-02,9.949180006977255131e-01,9.617542321275047990e-02,2.656770504603280756e+02
1.265832100154263617e+00,-1.508912091442127767e+01,7.070802193542484737e-01,1.095389516041544650e-02,9.987789471272516817e-01,4.815212307931739100e-02,2.674004949065883352e+02
1.370154078163901890e+00,-1.498380814262873528e+01,8.626216731588605136e-01,-7.894990794486266006e-03,9.999678340432726076e-01,0.000000000000000000e+00,2.691239393528485948e+02
1.465026574515782221e+00,-1.486595744598406199e+01,1.013361598590342583e+00,-9.132730123892169871e-01,4.073455594976950200e-01,-0.000000000000000000e+00,2.708473837991088544e+02
1.550287568350678491e+00,-1.473538805550766639e+01,1.158851496774455203e+00,-8.399204047181648702e-01,4.718896048667552412e-01,-2.680520743399454897e-01,2.725708282453691140e+02
1.625820147853013875e+00,-1.459190455814147036e+01,1.298720444171985511e+00,-6.981994378397939904e-01,4.980224894193079899e-01,-5.142850814810089322e-01,2.742942726916293736e+02
1.709575492046386147e+00,-1.439246874176588520e+01,1.469314522057399763e+00,-4.996459869787653885e-01,4.836170298199095052e-01,-7.186560068386153022e-01,2.764897229564932672e+02
1.767034733122051060e+00,-1.421756339176034345e+01,1.600862454482588015e+00,-2.604220092282534260e-01,4.298457992099454783e-01,-8.645293320715016216e-01,2.782646988824751020e+02
1.813964662864751443e+00,-1.402876928611882690e+01,1.725855721761712758e+00,-0.000000000000000000e+00,3.410856895400514732e-01,-9.400311443733065930e-01,2.800396748084569367e+02
1.850174388388087898e+00,-1.382592957562422598e+01,1.844170564312282989e+00,-2.530193903473854644e-01,4.451456436977996867e-01,-8.589671379080189295e-01,2.818146507344387715e+02
1.875462996765906665e+00,-1.360895595487361298e+01,1.955768326737402196e+00,-4.854381389842505334e-01,5.129623416611309716e-01,-7.079671244190135493e-01,2.835896266604206062e+02
1.889654307797864474e+00,-1.337781720556852960e+01,2.060637701595811500e+00,-6.783331045801083148e-01,5.390142884850930294e-01,-4.993253408756853640e-01,2.853646025864024409e+02
1.892425987270221377e+00,-1.314453170030162710e+01,2.153943682866995335e+00,-3.763582426798396940e-01,4.460040530459311592e-01,-8.120547135722799847e-01,2.870524924873593022e+02
1.884306645484158160e+00,-1.289774124945722455e+01,2.240812174232061249e+00,-0.000000000000000000e+00,2.648456641227965869e-01,-9.642897770879513830e-01,2.887403823883161635e+02
1.865154182772313041e+00,-1.263742755186457245e+01,2.321223943032537651e+00,-5.427938214030166852e-01,1.581597480381450871e-01,-8.248383851086108498e-01,2.904282722892730249e+02
1.834826202312433763e+00,-1.236357096274503853e+01,2.395159808184295525e+00,-9.089331001752346539e-01,0.000000000000000000e+00,-4.169395872385258661e-01,2.921161621902298862e+02
1.793269457765261032e+00,-1.207615632500900382e+01,2.462650652312876609e+00,-5.378732258159389934e-01,1.174570809038515649e-02,-8.429427212408506787e-01,2.938040520911867475e+02
1.740609239635736882e+00,-1.177517974859916272e+01,2.523827433988256264e+00,4.930994909504183947e-03,1.974097962046686416e-02,-9.997919678681640443e-01,2.954919419921436088e+02
1.677059841010330121e+00,-1.146064419664823042e+01,2.578871175773957525e+00,-7.447850786012079061e-01,1.280378416000589326e-01,6.549041897958932656e-01,2.971798318931004701e+02
1.594721116059167665e+00,-1.109629431570718694e+01,2.633390990278117627e+00,-8.692953762615867053e-01,1.358747006321175399e-01,4.752490026710825544e-01,2.990541810862090415e+02
1.500949910980709179e+00,-1.071686713482291609e+01,2.681523403419680207e+00,-9.522183093528348019e-01,1.372112715894259205e-01,2.728577619998790449e-01,3.009285302793176129e+02
1.396108392581530744e+00,-1.032241753735129386e+01,2.723536273450890999e+00,-9.895868234431293153e-01,1.319836132640415938e-01,5.741293146228540478e-02,3.028028794724261843e+02
1.297981032996035955e+00,-9.974715895286209388e+00,2.754319244984398285e+00,-9.796132037172129436e-01,1.204418193168230317e-01,-1.607785410562795891e-01,3.043951603683539702e+02
1.191171189555732202e+00,-9.614581025773409451e+00,2.780498146703505924e+00,-9.227745971882934661e-01,1.031380533464205385e-01,-3.712783116983286447e-01,3.059874412642817560e+02
1.076152553443682658e+00,-9.242157470083016690e+00,2.802362705492874806e+00,-8.217901833323290051e-01,8.090013293623944668e-02,-5.640160131336695581e-01,3.075797221602095419e+02
9.533974160391684993e-01,-8.857593148296363239e+00,2.820202678590236989e+00,-6.814910863542437136e-01,5.479192654282327712e-02,-7.297710216274132522e-01,3.091720030561373278e+02
8.234190910049877798e-01,-8.461106286804298549e+00,2.834296254511766477e+00,-4.794766417577115969e-01,4.147431524759716270e-02,-8.765728898298599248e-01,3.107642839520651137e+02
6.868136673132042569e-01,-8.053052769004201750e+00,2.844898454057705806e+00,-2.474766956193917566e-01,2.556298295930613945e-02,-9.685555322379676424e-01,3.123565648479928996e+02
5.356070810366400092e-01,-7.608363715050771248e+00,2.852703458438213158e+00,-0.000000000000000000e+00,8.052988517099743740e-03,-9.999665741297896204e-01,3.140456542926685870e+02
3.788560438945935971e-01,-7.152310760787370825e+00,2.857336395673276463e+00,4.139442660373621186e-01,5.534767827244359284e-02,-9.086169595193860360e-01,3.157347437373442745e+02
2.172674905735076933e-01,-6.685385864124086197e+00,2.859071266055826843e+00,7.525789214883846778e-01,9.257286733496004894e-02,-6.519610656825988171e-01,3.174238331820199619e+02
5.154420718256706724e-02,-6.208086425967453970e+00,2.858182092837770139e+00,4.833293411425172437e-01,-1.849522353444200684e-01,-8.556771696341357591e-01,3.191129226266956493e+02
-1.176155920460515980e-01,-5.720984067102165227e+00,2.854889291131994522e+00,1.217558766213858862e-01,-4.271485671584838162e-01,-8.959450921139343604e-01,3.208020120713713368e+02
-2.895194177977861161e-01,-5.224793399467976052e+00,2.849306037250840085e+00,-8.452989841296362772e-02,4.501064590673585775e-01,-8.889639316536166458e-01,3.224911015160470242e+02
-4.532228142167477603e-01,-4.750248549084294503e+00,2.841955084725642955e+00,2.499997267779205227e-05,-7.954151306991456005e-01,-6.060633376397345229e-01,3.240799573945994325e+02
-6.183713617243619121e-01,-4.268637074275556387e+00,2.832558979124758292e+00,5.772616529653712414e-02,-6.378149999818046867e-01,-7.680219499722915621e-01,3.256688132731518408e+02
-7.843585317253013445e-01,-3.780665658524182682e+00,2.821201495763934641e+00,1.122871430989938191e-01,-4.455190708781650577e-01,-8.882017535331525604e-01,3.272576691517042491e+02
-9.505587291451181864e-01,-3.287033854091233831e+00,2.808045224831076325e+00,1.607399398219624131e-01,-2.289878023307753974e-01,-9.600652363930128885e-01,3.288465250302566574e+02
-1.116333805801964285e+00,-2.788421982233266316e+00,2.793317248401956387e+00,2.004488266899933369e-01,-0.000000000000000000e+00,-9.797031529391179161e-01,3.304353809088090657e+02
-1.281046968433153577e+00,-2.285503027663663200e+00,2.777261378835243821e+00,2.332145121862537196e-01,1.120719404647779247e-06,-9.724242856393880974e-01,3.320242367873614739e+02
-1.444131590226490847e+00,-1.778980166140009089e+00,2.760110352475636741e+00,2.657174601260933744e-01,2.240176094637206851e-06,-9.640499112473528420e-01,3.336130926659138822e+02
-1.605156608962831744e+00,-1.269611584273253602e+00,2.742074742569462487e+00,2.979210548749204879e-01,3.357108962889316954e-06,-9.545894641404344405e-01,3.352019485444662905e+02
-1.763761789560322812e+00,-7.581839757239551281e-01,2.723354043335226571e+00,3.297890180242481484e-01,4.470259746196047138e-06,-9.440536020627352531e-01,3.367908044230186988e+02
-1.919592729227501016e+00,-2.454866855466995568e-01,2.704147754073143783e+00,3.612854492426289532e-01,5.578374442103478695e-06,-9.324541941197055372e-01,3.383796603015711071e+02
-2.065658014217913507e+00,2.452156086616024966e-01,2.685506945352391650e+00,3.923748667014475000e-01,6.680204720996111783e-06,-9.198043074118226192e-01,3.398989494162532310e+02
-2.208503227341720887e+00,7.356243992664746045e-01,2.666775386536794468e+00,4.230222470298650728e-01,7.774509331798110787e-06,-9.061181923205265942e-01,3.414182385309353549e+02
-2.347820028634687528e+00,1.225011292945670460e+00,2.648135493066050117e+00,4.531930647540908796e-01,8.860055499714526210e-06,-8.914112664629185723e-01,3.429375276456174788e+02
-2.483305201988776467e+00,1.712645690379867247e+00,2.629769679964951479e+00,4.828533311767300717e-01,9.935620314444349249e-06,-8.757000973332046412e-01,3.444568167602996027e+02
-2.614660661076578574e+00,2.197794813708715100e+00,2.611860360634374434e+00,5.119696326525752239e-01,1.099999210730770842e-05,-8.590023836503311028e-01,3.459761058749817266e+02
-2.741593455214499375e+00,2.679723734017030345e+00,2.594589945668627884e+00,0.000000000000000000e+00,9.988447030631238954e-01,4.803393763096022034e-02,3.474953949896638505e+02
-2.863815775172212863e+00,3.157695398842616630e+00,2.578140841681722417e+00,-0.000000000000000000e+00,9.988447023578338468e-01,4.803393759704317062e-02,3.490146841043459744e+02
-2.981044958947378198e+00,3.630970659687014379e+00,2.562695450154212296e+00,-0.000000000000000000e+00,9.968731427251079635e-01,-7.900593205775242878e-02,3.505339732190280984e+02
-3.093021864719846192e+00,4.098803535877628690e+00,2.548463525469302660e+00,-0.000000000000000000e+00,9.978126035461040155e-01,-6.609090750477097931e-02,3.520532623337102223e+02
-3.207467246650546944e+00,4.595146187103027913e+00,2.534756159003638487e+00,-0.000000000000000000e+00,9.968731426564392262e-01,-7.900593205231017102e-02,3.536867832669289555e+02
-3.315676429673992676e+00,5.083971059217279986e+00,2.522974541303971030e+00,9.999988887671346031e-07,-4.977924468360583332e-01,-8.672950362321808493e-01,3.553203042001476888e+02
-3.417432452381399255e+00,5.564392897214276879e+00,2.513456012994838673e+00,4.894745649097406170e-01,3.309397058301844635e-02,-8.713882254295601815e-01,3.569538251333664221e+02
-3.512554089087642328e+00,6.035532254159600818e+00,2.506496408722250546e+00,2.561858103073414439e-01,-9.384093051552866438e-01,-2.318508283261669911e-01,3.585873460665851553e+02
-3.600924913200762134e+00,6.496523408748006823e+00,2.502308564745068686e+00,-4.368697578779399265e-02,-9.773284583447918727e-01,-2.071678851833659019e-01,3.602208669998038886e+02
-3.682464049022331487e+00,6.946507270071443862e+00,2.501063807152864804e+00,2.188588191330583521e-01,-9.516234709492501498e-01,-2.156654511646392547e-01,3.618543879330226218e+02
-3.757096999908119184e+00,7.384623982990379254e+00,2.502933440440564095e+00,4.661581842368996975e-01,-8.596251586708485437e-01,-2.091390299512689288e-01,3.634879088662413551e+02
-3.846772184036882702e+00,7.950698045768580080e+00,2.509810937449024060e+00,6.809833641974556429e-01,-7.077424559605554055e-01,-1.880432761821520804e-01,3.656618007839354050e+02
-3.926359631327084099e+00,8.498542573493804042e+00,2.521286743380318551e+00,8.483689017898361495e-01,-5.065560780728394219e-01,-1.538478022065088435e-01,3.678356927016294549e+02
-3.975723554201034293e+00,8.872047742060187758e+00,2.532707416440495241e+00,9.566541961383684400e-01,-2.700813950863849011e-01,-1.089347926045852455e-01,3.693721637586841666e+02
-4.018441181723310329e+00,9.231288791067715493e+00,2.547402112174961264e+00,9.982958014094018839e-01,-1.479203780201972761e-02,-5.643304446048678230e-02,3.709086348157388784e+02
-4.054447860358349587e+00,9.575918766473865418e+00,2.565247720896249195e+00,9.703928888894380878e-01,2.415277234480924240e-01,0.000000000000000000e+00,3.724451058727935902e+02
-4.084741698753820316e+00,9.918088062091600321e+00,2.586862508310699305e+00,9.965477758079671622e-01,8.300921954803046343e-02,0.000000000000000000e+00,3.740395342029160020e+02
-4.107865304750079716e+00,1.024454389000164056e+01,2.611358635012597684e+00,9.969795307158221265e-01,-7.765188556165565636e-02,0.000000000000000000e+00,3.756339625330384138e+02
-4.125378897037364823e+00,1.058819792763462964e+01,2.641317919357875077e+00,9.935477857746806141e-01,-5.223812938403317452e-02,-1.006577131585819490e-01,3.773981333598889591e+02
-4.134689187637127894e+00,1.091417560115765362e+01,2.673738623897399247e+00,9.793960248432415083e-01,-2.626074252507917470e-02,-2.002293682771856265e-01,3.791623041867395045e+02
-4.135745791167808605e+00,1.122239796146490143e+01,2.708193001085180462e+00,9.546769266703332146e-01,-0.000000000000000000e+00,-2.976406653668405844e-01,3.809264750135900499e+02
-4.128528002401721686e+00,1.151288382959948109e+01,2.744203909060583868e+00,9.706551006134579440e-01,-0.000000000000000000e+00,-2.404717771844190333e-01,3.826906458404405953e+02
-4.114909747613118896e+00,1.175363352598607136e+01,2.776926326532452194e+00,9.988611377171598971e-01,-0.000000000000000000e+00,4.769095883001762959e-02,3.842474504765693837e+02
-4.094075616683860552e+00,1.197889129850963741e+01,2.810198147975717209e+00,5.764363129604497260e-01,-1.163998612660123661e-03,-8.171400260719122732e-01,3.858042551126981721e+02
-4.065642923646402451e+00,1.219119902424621671e+01,2.844028684268592677e+00,9.978431604534077071e-01,-0.000000000000000000e+00,-6.562794478318881297e-02,3.873785761281259283e+02
-4.029758426678378136e+00,1.238824724228938656e+01,2.877678657119237648e+00,9.996731842912910393e-01,-0.000000000000000000e+00,-2.552497917224535659e-02,3.889528971435536846e+02
-3.986336569477835212e+00,1.257026130466000780e+01,2.910782183071692231e+00,9.978431604298453328e-01,-0.000000000000000000e+00,-6.562794478163910816e-02,3.905272181589814409e+02
-3.935270331350316564e+00,1.273750436349564730e+01,2.942999933220161068e+00,9.955207353948231086e-01,9.453287991533970702e-02,0.000000000000000000e+00,3.921015391744091971e+02
-3.876422352195580068e+00,1.289030949019246641e+01,2.974051680605732884e+00,8.300563437183928750e-01,-5.470705674602646118e-01,1.082509144117328598e-01,3.936758601898369534e+02
-3.809655018494482626e+00,1.302903451099234822e+01,3.003695745587612986e+00,7.429301180668868021e-01,-6.265461117362475241e-01,2.355691183845560477e-01,3.952501812052647097e+02
-3.729226830699990725e+00,1.316336724402414582e+01,3.033783791554556686e+00,6.334288717749341213e-01,-6.871517416853971660e-01,3.557925635816819865e-01,3.969421508560849929e+02
-3.639959226159118266e+00,1.328332614329549699e+01,3.061832632088441475e+00,5.048504550707269001e-01,-7.270622152181295261e-01,4.653004977604566772e-01,3.986341205069052762e+02
-3.541726357397518843e+00,1.338930337329690801e+01,3.087607948488097609e+00,6.246596241927537818e-01,-7.709564934050673335e-01,1.241951656868164056e-01,4.003260901577255595e+02
-3.442628576829442899e+00,1.347465656887175989e+01,3.109179067241418348e+00,6.616176487366802750e-01,-7.125956216716644587e-01,-2.333828760933236712e-01,4.018894274981638546e+02
-3.343784152958065192e+00,1.354193682838882218e+01,3.126888439166830125e+00,5.239554337625932368e-01,-8.514760798118004015e-01,2.138197689254779307e-02,4.033279978224805404e+02
-3.249119164410562366e+00,1.359199850222160322e+01,3.140720512556438582e+00,5.318795198762957810e-01,-8.466672357197554399e-01,1.602398553526690819e-02,4.046076431591168330e+02
-3.059637148800693041e+00,1.366748768214695176e+01,3.163066121822367904e+00,5.077529151098356675e-01,-8.610134657455345009e-01,-2.899636189452491422e-02,4.070017554401334792e+02
-2.971214597993615314e+00,1.369282834160059004e+01,3.171375877586418479e+00,4.821971152994919962e-01,-8.729361626880952629e-01,-7.393509227030184427e-02,4.080531984137069799e+02
-2.807128852348211634e+00,1.372390769671420330e+01,3.183385314362610075e+00,4.552840536294064377e-01,-8.824017671946893238e-01,-1.186657143544452286e-01,4.099016829047124020e+02
-2.635020163985602348e+00,1.374149385924689781e+01,3.192783405184863366e+00,4.270894836042898879e-01,-8.893836359618310095e-01,-1.630623226828425698e-01,4.117501673957178241e+02
-2.455627043543388677e+00,1.374572578578418280e+01,3.199548179139811932e+00,3.976927658674579980e-01,-8.938621168084660562e-01,-2.069999519617719552e-01,4.135986518867232462e+02
-2.269729046242272119e+00,1.373676858641838017e+01,3.203588954135906164e+00,3.671766448164186514e-01,-8.958246039922302950e-01,-2.503549288197239875e-01,4.154471363777286683e+02
-2.066579936905265757e+00,1.371348005626122557e+01,3.204738417001502082e+00,3.356270156936135840e-01,-8.952655736906381945e-01,-2.930052199224342235e-01,4.174078258605113092e+02
-1.858469211030723489e+00,1.367664287156401315e+01,3.202421611641712573e+00,3.031326828080245228e-01,-8.921865995473509114e-01,-3.348307754711118966e-01,4.193685153432939501e+02
-1.673550924137820362e+00,1.363302580793094343e+01,3.197019988301676996e+00,2.697851095683221345e-01,-8.865963482398099282e-01,-3.757138671168602784e-01,4.210780970384075204e+02
-1.486022458981403060e+00,1.357827274662126271e+01,3.187739697827749019e+00,2.356781610312917441e-01,-8.785105550807915664e-01,-4.155394193400153147e-01,4.227876787335210906e+02
-1.296767701138231255e+00,1.351263950894970911e+01,3.174546169906342641e+00,2.009078396903380692e-01,-8.679519797226522559e-01,-4.541953333615476596e-01,4.244972604286346609e+02
-1.106725800053908859e+00,1.343623416005355509e+01,3.158469890086723186e+00,1.655720152478941665e-01,-8.549503420890754990e-01,-4.915728026747126500e-01,4.262068421237482312e+02
-9.190774749259911225e-01,1.335012025652072687e+01,3.141169758896445785e+00,1.297701491324909917e-01,-8.395422387147962739e-01,-5.275666193087468203e-01,4.278964229234440495e+02
-7.601430408863761867e-01,1.326783096364291481e+01,3.126163185458791016e+00,9.360301453602322408e-02,-8.217710397289457180e-01,-5.620754699625242212e-01,4.293354488072124582e+02
-5.600800085191697253e-01,1.315227500687923445e+01,3.107504851586011085e+00,5.717241275934809713e-02,-8.016867667721566670e-01,-5.950022211746213152e-01,4.311642364071363431e+02
-3.624791152075258482e-01,1.302686278192059000e+01,3.089824101461739581e+00,2.058088666472321707e-02,-7.793459521912371457e-01,-6.262541927271364495e-01,4.329930240070602281e+02
-1.676766635091894442e-01,1.289321691293571526e+01,3.073537041914303991e+00,-1.606856795827549603e-02,-7.548114799079346238e-01,-6.557434185137442917e-01,4.348218116069841130e+02
2.403870123874070341e-02,1.275295228030847916e+01,3.058815943269017179e+00,-5.267279230087122677e-02,-7.281524084098776051e-01,-6.833868941377863049e-01,4.366505992069079980e+02
2.427613408622755209e-01,1.258420805503867435e+01,3.043596805474606537e+00,-8.912875490118257749e-02,-6.994437763621150772e-01,-7.091068105435684998e-01,4.387747795449688510e+02
4.571867036236281212e-01,1.241158767398562901e+01,3.030203832815448362e+00,-1.253338416509786335e-01,-6.687663913865685705e-01,-7.328307730233738493e-01,4.408989598830297041e+02
6.558174777671382794e-01,1.224647457759934888e+01,3.018994191563284080e+00,-1.611861446268068598e-01,-6.362066026040819056e-01,-7.544920049838800269e-01,4.429084787836207511e+02
8.501646562908794502e-01,1.208121741577846819e+01,3.008808205935792568e+00,-1.965847489325372455e-01,-6.018560575794380529e-01,-7.740295358985852525e-01,4.449179976842117981e+02
9.955602450651457325e-01,1.195588283840123012e+01,3.001399255766813212e+00,-2.314300167459861779e-01,-5.658114443535929849e-01,-7.913883729173674109e-01,4.464545876710864150e+02
1.137842578240059410e+00,1.183249307864962496e+01,2.993955497658771225e+00,-2.656238677701760476e-01,-5.281742192893238430e-01,-8.065196556503138048e-01,4.479911776579610319e+02
1.277063862374459458e+00,1.171173359183749696e+01,2.986054503125841642e+00,-2.990700552999200901e-01,-4.890503214963996537e-01,-8.193807936903171329e-01,4.495277676448356488e+02
1.415281960283324203e+00,1.159252493352219382e+01,2.977125886635403784e+00,-3.316744371267839053e-01,-4.485498746401252457e-01,-8.299355864875221922e-01,4.510868644251565343e+02
1.550517644560866382e+00,1.147724776318191964e+01,2.966839088270619929e+00,-3.633452405200165991e-01,-4.067868769725921929e-01,-8.381543252383696352e-01,4.526459612054774198e+02
1.713335697521139345e+00,1.134079393840812600e+01,2.951932166060855511e+00,-3.939933205377276204e-01,-3.638788804590958326e-01,-8.440138765026079515e-01,4.545652864476153354e+02
1.872481791254690497e+00,1.121036936970350162e+01,2.934190712858435468e+00,-4.235324109413686200e-01,-3.199466599028358282e-01,-8.474977473130501648e-01,4.564846116897532511e+02
2.003487696007885344e+00,1.110608780177599186e+01,2.916415665391525192e+00,-4.518793670074019997e-01,-2.751138729991525200e-01,-8.485961315949362982e-01,4.581012057756331615e+02
2.131496918876760738e+00,1.100778456437678088e+01,2.895428409619736243e+00,-4.789543995528441345e-01,-2.295067122760480471e-01,-8.473059377643447077e-01,4.597177998615130718e+02
2.256517651810563851e+00,1.091580342356148314e+01,2.870864733480428921e+00,-4.789543992147424767e-01,-2.295067121140355326e-01,-8.473059371662177153e-01,4.613343939473929822e+02
2.378546020249043380e+00,1.083044719366609776e+01,2.842410678603576102e+00,-4.789543992147724527e-01,-2.295067121140499100e-01,-8.473059371662707839e-01,4.629509880332728926e+02
2.497535458994204038e+00,1.075194128034169339e+01,2.809945927164321233e+00,-4.789543992147424767e-01,-2.295067121140355326e-01,-8.473059371662177153e-01,4.645675821191528030e+02
2.613395083993942158e+00,1.068047941267790613e+01,2.773586731746597867e+00,-4.789543992146525486e-01,-2.295067121139924560e-01,-8.473059371660587313e-01,4.661841762050327134e+02
2.728834859323311601e+00,1.061464894550663907e+01,2.732541516402509085e+00,-5.353151025072234725e-01,-2.203438164673961475e-01,-8.154044049264602689e-01,4.678412304909839463e+02
2.840843852459213892e+00,1.055644161419989935e+01,2.687938892875235020e+00,-5.893856180387365695e-01,-2.102382449525897756e-01,-7.800144060269398327e-01,4.694982847769351793e+02
2.949314597857574327e+00,1.050606840107704443e+01,2.639998972626492524e+00,-6.409346223953430455e-01,-1.992332312376434433e-01,-7.412873460317084273e-01,4.711553390628864122e+02
3.054141147734851458e+00,1.046374124548391471e+01,2.588941892505260967e+00,-6.897415791609786684e-01,-1.873758567671834074e-01,-6.993889063163870601e-01,4.728123933488376451e+02
3.155198614536596224e+00,1.042963244891517860e+01,2.535040059471680429e+00,-7.355976827115094929e-01,-1.747168495132206401e-01,-6.544983358930146489e-01,4.744694476347888781e+02
3.252322290922507797e+00,1.040383429372472257e+01,2.478670394923772946e+00,-7.783067514943380338e-01,-1.613103669653825900e-01,-6.068076845993685131e-01,4.761265019207401110e+02
3.339796608968447433e+00,1.038744718922009724e+01,2.423732344387261151e+00,-8.176860673113021116e-01,-1.472137644503963005e-01,-5.565209815292290196e-01,4.776849414182245255e+02
3.423237059144204508e+00,1.037899525039464699e+01,2.367257125801499829e+00,-8.535671570151383003e-01,-1.324873497713579817e-01,-5.038533622161252001e-01,4.792433809157089399e+02
3.502480744476599739e+00,1.037852814761087217e+01,2.309624374411598069e+00,-8.857965132756620008e-01,-1.171941252158208435e-01,-4.490301483022115514e-01,4.808018204131933544e+02
3.577344044467115847e+00,1.038605973075842748e+01,2.251224388379335029e+00,-9.142362513319904904e-01,-1.013995180357654402e-01,-3.922858836271730376e-01,4.823602599106777689e+02
3.648280930584635762e+00,1.040167927722534458e+01,2.191901203741840831e+00,-9.387646989204964099e-01,-8.517110055185853068e-02,-3.338633308585650661e-01,4.839337802713719157e+02
3.714315873148428704e+00,1.042521682875451638e+01,2.132649367816793262e+00,-9.592769168535956181e-01,-6.857830107884056725e-02,-2.740124329539594950e-01,4.855073006320660625e+02
3.775195903972790923e+00,1.045657834455660229e+01,2.073899365234932901e+00,-9.756851480207260341e-01,-5.169210690822147874e-02,-2.129892438959671841e-01,4.870808209927602093e+02
3.830666325334428191e+00,1.049563754214795530e+01,2.016062852418103901e+00,-9.879191928887228746e-01,-3.458476061853529154e-02,-1.510548332729862442e-01,4.886543413534543561e+02
3.889603061713475363e+00,1.055070105040070771e+01,1.949169435563065100e+00,-9.959267098929373008e-01,-1.732945101205750696e-02,-8.847416939079939813e-02,4.905162175005103791e+02
3.941512301225965409e+00,1.061428776348500769e+01,1.884295262917230263e+00,-9.996734394315608396e-01,-0.000000000000000000e+00,-2.551498569243200801e-02,4.923780936475664021e+02
3.986026386543810140e+00,1.068608618648512376e+01,1.821937630737322955e+00,-9.999983782048603720e-01,-0.000000000000000000e+00,-1.115151621577876399e-03,4.942399697946224251e+02
4.022774583139267612e+00,1.076578822301412508e+01,1.762593811057437510e+00,-9.997278595533185541e-01,-0.000000000000000000e+00,2.328533462705568297e-02,4.961018459416784481e+02
4.051238580464882055e+00,1.085265072150427379e+01,1.707041350234317800e+00,-9.988620448979329547e-01,-0.000000000000000000e+00,4.767195441654587668e-02,4.979543546617159109e+02
4.071228658021551539e+00,1.094677642451288690e+01,1.655474540116385951e+00,-5.759863546498104059e-01,0.000000000000000000e+00,-8.174580840985634644e-01,4.998068633817533737e+02
4.082382435311071589e+00,1.104783751142916337e+01,1.608305107833113645e+00,-8.415381445548819617e-01,0.000000000000000000e+00,-5.401958452826741697e-01,5.016593721017908365e+02
4.084361521773753445e+00,1.115544340129044798e+01,1.565783833886258192e+00,-9.830535805537571337e-01,0.000000000000000000e+00,-1.833130048913357013e-01,5.035118808218282993e+02
4.075407478000605543e+00,1.129141628861851920e+01,1.520708443625303774e+00,-9.796745246596755274e-01,0.000000000000000000e+00,2.005886979235580458e-01,5.057270832796972968e+02
4.054791049992855001e+00,1.143412025204963101e+01,1.481586931986169420e+00,-9.546707119062373126e-01,-0.000000000000000000e+00,-2.976605983800955091e-01,5.079422857375662943e+02
4.019621532598950608e+00,1.159499155520342306e+01,1.445843463439286491e+00,-9.997490736108965992e-01,-0.000000000000000000e+00,-2.235597928446631660e-02,5.103365104308559239e+02
3.985601060496868797e+00,1.171247368008558887e+01,1.425338050822014369e+00,-9.997490729075863003e-01,-0.000000000000000000e+00,-2.235597926873918173e-02,5.120221874069994783e+02
3.946214994931119158e+00,1.182253866807873699e+01,1.411062399125255773e+00,-9.940947399876993718e-01,4.143555500091311572e-02,1.002833122256364812e-01,5.135516736204031076e+02
3.898357510550375604e+00,1.193578088638684065e+01,1.401274178118912417e+00,-9.717502564625316586e-01,8.217542135502688139e-02,2.212388735978507992e-01,5.150811598338067370e+02
3.835667066406810655e+00,1.206532317907686647e+01,1.395583092878675879e+00,-9.330907856381870369e-01,1.215356092549160771e-01,3.384799572221574016e-01,5.167870918690236977e+02
3.763822813350050644e+00,1.219777465845487541e+01,1.395382228675941416e+00,-8.787654007226881614e-01,1.588552940050421136e-01,4.500381828916105165e-01,5.184930239042406583e+02
3.684446236241056827e+00,1.233033301276703675e+01,1.400850673359222753e+00,-8.096861870363288860e-01,1.935079098618398830e-01,5.540405827596341926e-01,5.201680246548465902e+02
3.596429554099798587e+00,1.246504686111176241e+01,1.412248989749936623e+00,-7.270129289257940552e-01,2.249116686481391070e-01,6.487410442401074784e-01,5.218430254054525221e+02
3.470600506717949951e+00,1.264346955797265082e+01,1.435211925448220516e+00,-7.994363462820918143e-01,-5.388081887726305953e-03,6.007249760235995328e-01,5.240318645899048988e+02
3.334587585733425286e+00,1.282375188846451586e+01,1.466525701360670286e+00,-8.234228822933993275e-01,-2.353613916512674042e-01,5.163117006589980074e-01,5.262207037743572755e+02
3.211032255610620112e+00,1.297768004373583395e+01,1.500335200766584443e+00,-7.975192117896634514e-01,-4.510744482616329543e-01,4.006157123149260424e-01,5.280771218491685204e+02
3.079729886823657115e+00,1.313216167325446726e+01,1.541450156889543788e+00,-7.232948025699530437e-01,-6.394574463026808653e-01,2.606468932197025246e-01,5.299335399239797653e+02
2.941201961908154416e+00,1.328681020723827899e+01,1.589866629486639482e+00,-6.052468254659727487e-01,-7.890964775433864098e-01,1.048857921443770019e-01,5.317899579987910101e+02
2.795966207960743688e+00,1.344123452745377456e+01,1.645580608514615628e+00,-4.505276742476574392e-01,-8.909250912925668064e-01,-5.723020569736811392e-02,5.336463760736022550e+02
2.647298078838797863e+00,1.359222136101270095e+01,1.707435465270404018e+00,-2.685116056354199254e-01,-9.387736212176415185e-01,-2.158786829377041527e-01,5.354688333942036707e+02
2.493008262835166633e+00,1.374223096263167143e+01,1.776369611589630360e+00,-2.579742731719263382e-01,-8.901739976846365643e-01,3.755496348409178564e-01,5.372912907148050863e+02
2.333525140743092585e+00,1.389095914749450245e+01,1.852148404742719912e+00,-1.565626024703271335e-01,-5.280005723446337118e-01,8.346864963044061669e-01,5.391137480354065019e+02
2.183953039138510466e+00,1.402490392539017705e+01,1.927084015828300689e+00,-0.000000000000000000e+00,2.016697227948908988e-02,9.997956257309640327e-01,5.407727398335346152e+02
2.030302138029812742e+00,1.415713717173787067e+01,2.007709216473435809e+00,-0.000000000000000000e+00,1.330581605227486308e-02,9.999104736032654595e-01,5.424317316316627284e+02
1.872904368370251094e+00,1.428742218440974909e+01,2.093765760885998084e+00,-0.000000000000000000e+00,6.444034424027646722e-03,9.999782369545813232e-01,5.440907234297908417e+02
1.712089652256375993e+00,1.441551963884170107e+01,2.184995361808148573e+00,-0.000000000000000000e+00,-4.180500526387888869e-04,9.999989125977337689e-01,5.457497152279189550e+02
1.548173299285267035e+00,1.454124314471250656e+01,2.281072748725299082e+00,-0.000000000000000000e+00,-7.280114810800972225e-03,9.999724995672640837e-01,5.474087070260470682e+02
1.381443981544624888e+00,1.466451493294401054e+01,2.381538726586263088e+00,-0.000000000000000000e+00,-1.414183728447153919e-02,9.998989990996902666e-01,5.490676988241751815e+02
1.212177190219897671e+00,1.478531051429728294e+01,2.485867123072118545e+00,-0.000000000000000000e+00,-2.100289492344588338e-02,9.997784146334518507e-01,5.507266906223032947e+02
1.040648114142375569e+00,1.490360320281757822e+01,2.593531736377082897e+00,-0.000000000000000000e+00,-2.786296520814821737e-02,9.996107518087591348e-01,5.523856824204314080e+02
8.671316332731642262e-01,1.501936411770696012e+01,2.704006339228890887e+00,-0.000000000000000000e+00,-9.950635238632261625e-01,9.922995251857963384e-02,5.540446742185595213e+02
6.901292401900014362e-01,1.513371295582485310e+01,2.817906202167194341e+00,-0.000000000000000000e+00,-9.993865585728350931e-01,3.499294952925112445e-02,5.557204815715816721e+02
5.116811612266636278e-01,1.524544596753417380e+01,2.933575855121925535e+00,-0.000000000000000000e+00,-9.993584838163313000e-01,3.578576073915133021e-02,5.573962889246038230e+02
3.320668933772378262e-01,1.535452692420956744e+01,3.050478291218246873e+00,-0.000000000000000000e+00,-9.993297801891410925e-01,3.657854937716364246e-02,5.590720962776259739e+02
1.515556440041873065e-01,1.546098652639760651e+01,3.168120228837493446e+00,-0.000000000000000000e+00,-9.993004476462650221e-01,3.737131495454978219e-02,5.607479036306481248e+02
-2.959271273327020169e-02,1.556498603270810932e+01,3.286132901365372394e+00,-0.000000000000000000e+00,-9.992704862057858461e-01,3.816405698478109176e-02,5.624237109836702757e+02
-2.111064857840718179e-01,1.566674246145274907e+01,3.404265376499630680e+00,-0.000000000000000000e+00,-9.992398958861431479e-01,3.895677498134245825e-02,5.640995183366924266e+02
-3.927021340313255893e-01,1.576646494969800116e+01,3.522303772406040423e+00,-0.000000000000000000e+00,-9.992086767061328922e-01,3.974946845773242449e-02,5.657753256897145775e+02
-5.800680970146303572e-01,1.586760305773539770e+01,3.643915116695134238e+00,-0.000000000000000000e+00,-9.991768286849073144e-01,4.054213692746350822e-02,5.675064042357203107e+02
-7.669025313907895658e-01,1.596711047820838658e+01,3.765028609219707167e+00,-0.000000000000000000e+00,-9.991443518419755865e-01,4.133477990406232705e-02,5.692374827817260439e+02
-9.528905223735072427e-01,1.606524511181292070e+01,3.885562922809973507e+00,-0.000000000000000000e+00,-9.991112461972029291e-01,4.212739690106979268e-02,5.709685613277317771e+02
-1.117634933910255146e+00,1.615167848968964748e+01,3.992442482334611853e+00,-0.000000000000000000e+00,-9.990775117708110553e-01,4.291998743204142319e-02,5.725113390616890001e+02
