2.005547997935761995e+00,7.390790620418711043e+00,1.171528787700908403e+00,-4.398197025865268062e-01,5.034107971498031908e-01,-7.437299231110742204e-01,1.275533420112101979e+01
2.243893739772764739e+00,7.256678100516615437e+00,9.056787529460695874e-01,-4.120791723807843976e-01,5.939623957969403234e-01,-6.909395256245139949e-01,1.426243612778756642e+01
2.478820259805268211e+00,7.105305521039722905e+00,6.451059754318486661e-01,-3.794942483487851459e-01,6.775313849691219081e-01,-6.300264580580137164e-01,1.576953805445411305e+01
2.710106422403289361e+00,6.934619378558945613e+00,3.905437466943593172e-01,-3.424479987355748545e-01,7.531353285226882743e-01,-5.617068141781418333e-01,1.727663998112065968e+01
2.962772467893781680e+00,6.717836395982431874e+00,1.156242432293554667e-01,-3.013759392064167542e-01,8.198854277762140930e-01,-4.867837595779418991e-01,1.895443413027010493e+01
3.209768573805107383e+00,6.468595704765676579e+00,-1.488845865720017647e-01,-2.567609128316840073e-01,8.769969702929116817e-01,-4.061380894968009692e-01,2.063222827941955018e+01
3.450926413443426100e+00,6.184081435601439303e+00,-4.022762985642338585e-01,-2.091274136818684071e-01,9.237985549544437403e-01,-3.207178740140407269e-01,2.231002242856899542e+01
3.686148919156739812e+00,5.862876851783323850e+00,-6.447517621828618983e-01,-1.590354207764884120e-01,9.597399848747004691e-01,-2.315273123682984324e-01,2.398781657771844067e+01
3.914681929427921592e+00,5.505382705213628824e+00,-8.770742541999585473e-01,-1.070738148867481365e-01,9.843987353708335553e-01,-1.396149274515367800e-01,2.566561072686788592e+01
4.113255791219637914e+00,5.156194413263039955e+00,-1.077839260184059400e+00,-5.385345559430819440e-02,9.974849209677071338e-01,-4.606123928052626576e-02,2.717037033555352465e+01
4.305214124951580068e+00,4.782286949191184355e+00,-1.272411163825170055e+00,-0.000000000000000000e+00,9.988447030630863699e-01,4.803393763095841623e-02,2.867512994423916339e+01
4.489477704148277404e+00,4.384746366286110586e+00,-1.461342485707475491e+00,-7.217103253060824786e-01,5.166585169996235072e-01,4.606475693616922662e-01,3.017988955292480213e+01
4.686123401973733671e+00,3.906075309058318901e+00,-1.669052641631029621e+00,-6.830659609706232205e-01,6.550686637882738861e-01,3.229612030662342148e-01,3.188581978371834680e+01
4.866156078155687403e+00,3.399160289187807216e+00,-1.870361343466818926e+00,-6.173665117571922600e-01,7.675325526342523519e-01,1.724829580217883962e-01,3.359175001451188791e+01
5.026375399407559286e+00,2.867475451496724226e+00,-2.066232149022919184e+00,-5.272142253730137673e-01,8.495957517032641793e-01,1.517297770659927804e-02,3.529768024530542903e+01
5.163012585157133572e+00,2.314665563339473486e+00,-2.257570521444174805e+00,-7.764005591134290896e-01,6.301395107777780780e-01,1.115207454677461830e-02,3.700361047609897014e+01
5.273579004081221377e+00,1.725718138582444716e+00,-2.451154187639158266e+00,-9.399722441750043567e-01,3.411969423327132489e-01,5.901417174436181592e-03,3.876497308659306640e+01
5.346611792609483160e+00,1.122638492769045149e+00,-2.641451207927522749e+00,-9.998919759349480518e-01,1.462998501632503667e-02,0.000000000000000000e+00,4.052633569708716266e+01
5.375921428958266191e+00,5.101820884230022779e-01,-2.829291947549862574e+00,-9.998919606002018012e-01,1.463098479091418103e-02,-0.000000000000000000e+00,4.228769830758125892e+01
5.356100839280178327e+00,-1.068620344541666711e-01,-3.015221838496601858e+00,-9.986771916293771811e-01,5.606302119080827304e-03,-5.109242888494943541e-02,4.404906091807535518e+01
5.283246799653420922e+00,-7.236807499166483248e-01,-3.199216420480461398e+00,-9.947726228045428165e-01,-3.433479874166002737e-03,-1.020472445880236667e-01,4.581042352856945143e+01
5.213521612981322662e+00,-1.106955559000669886e+00,-3.313102845368075311e+00,-9.881887697143983962e-01,-1.246401601465950762e-02,-1.527272199324519464e-01,4.690964255100129066e+01
5.048835439923104573e+00,-1.749046478131297544e+00,-3.503711696514133500e+00,-9.789433609053522778e-01,-2.146098598938219609e-02,-2.029958674759157755e-01,4.877315272108899791e+01
4.815669740769000562e+00,-2.375466493538667567e+00,-3.689299048308164242e+00,-9.988709207052820505e-01,-8.229929678315026087e-03,-4.676699720013632877e-02,5.063666289117670516e+01
4.576401342709115028e+00,-2.876504681060120916e+00,-3.837192431427029593e+00,-9.938470090486750674e-01,5.206705430308118839e-03,1.106300719694220114e-01,5.217061025651571526e+01
4.299327238652382199e+00,-3.362482132312811789e+00,-3.979634437470701780e+00,-9.639971323346999688e-01,1.851327705277153179e-02,2.652636187337886753e-01,5.370455762185472537e+01
3.985473062133376043e+00,-3.830730393583174465e+00,-4.115185478316897516e+00,-9.100669368312145346e-01,3.135739220715069026e-02,4.132709576551146236e-01,5.523850498719373547e+01
3.635893799119549463e+00,-4.278586353613433424e+00,-4.242406010762223900e+00,-8.334035814119092889e-01,4.341821006119957194e-02,5.509549251303971218e-01,5.677245235253274558e+01
2.979959147383228313e+00,-4.932457765805417615e+00,-4.417597548224080128e+00,-7.359220860700342870e-01,5.439445618211442846e-02,6.748762304093091080e-01,5.924054120297004289e+01
2.513156900503800362e+00,-5.297461468225940884e+00,-4.507022269548652815e+00,-6.200574967891760991e-01,6.401194805077710381e-02,7.819393654131201465e-01,6.078681339926504990e+01
2.017729743084157867e+00,-5.634229352965553161e+00,-4.583065548904416531e+00,-3.284508388772175436e-01,3.390725810709574461e-02,9.439111951283090107e-01,6.233308559556005690e+01
1.497007270540062995e+00,-5.941394273094496192e+00,-4.644720902127446926e+00,-0.000000000000000000e+00,-9.999989999988958197e-07,9.999989999988958544e-01,6.387935779185506391e+01
9.545984790555367416e-01,-6.217742841478390403e+00,-4.691094204389421485e+00,-2.797990365829549075e-01,3.590803675362809755e-01,8.903773294388233062e-01,6.542562998815007802e+01
3.941254714547619553e-01,-6.462080560797153872e+00,-4.721291432129813614e+00,-4.982536599459315152e-01,6.394353223059802138e-01,5.855456932979067330e-01,6.697190218444508503e+01
-4.167435855038246761e-01,-6.735642879204725375e+00,-4.727899679163459545e+00,-6.074690999519757328e-01,7.795978449198487370e-01,1.523367742923669443e-01,6.913434444845205462e+01
-1.252622307771244392e+00,-6.916476085882862890e+00,-4.686169263277204955e+00,-0.000000000000000000e+00,4.167097442644203398e-02,9.991303868317403802e-01,7.129678671245902422e+01
-2.019097094627531508e+00,-7.001017256075498629e+00,-4.609704188433267902e+00,-4.499992964596048837e-04,3.515004504552168840e-01,9.361865363420546204e-01,7.325162535241493345e+01
-2.785575230404907732e+00,-7.013070466540410663e+00,-4.501611210465203072e+00,1.845799250722167939e-01,3.100861941249249965e-01,9.326171794873652221e-01,7.520646399237084267e+01
-3.454595156650083432e+00,-6.966665869618306139e+00,-4.384207287649695139e+00,3.629715792612213110e-01,2.575200008971569865e-01,8.955071645655010570e-01,7.693082100185546324e+01
-4.110445698781946433e+00,-6.871090287453012202e+00,-4.250351555844590123e+00,5.283093228778772410e-01,1.956923536952051013e-01,8.261911171557204669e-01,7.865517801134008380e+01
-4.746630121676775005e+00,-6.727789509953836067e+00,-4.102823812227849309e+00,6.746469744001066804e-01,1.268268071975938993e-01,7.271618945668033573e-01,8.037953502082470436e+01
-5.380050129175315554e+00,-6.529066214927980560e+00,-3.937888521363590577e+00,7.471428863218195771e-01,4.964028389946702202e-02,6.628056650593480148e-01,8.217271578294187862e+01
-5.977824282610856521e+00,-6.281144986286918197e+00,-3.764658474363616225e+00,8.081662910073870165e-01,-2.830847447880741746e-02,5.882719408179325482e-01,8.396589654505905287e+01
-6.533661835586088706e+00,-5.986719654388299894e+00,-3.587076846342659664e+00,8.567801663128989942e-01,-1.058225563168209565e-01,5.047051943352378611e-01,8.575907730717622712e+01
-7.041306209983199338e+00,-5.648522094327226739e+00,-3.409086851140950003e+00,8.922380370157824148e-01,-1.817117237401516538e-01,4.133886001802777321e-01,8.755225806929340138e+01
-7.495344133183430735e+00,-5.269872734985915130e+00,-3.234491760698491980e+00,9.139954369927520972e-01,-2.548106880556750276e-01,3.157243329397096399e-01,8.934543883141057563e+01
-7.907023936604136161e+00,-4.836178079441560307e+00,-3.059979490817422043e+00,9.217182700583325117e-01,-3.239970023211458661e-01,2.132120379541294630e-01,9.121560967976374457e+01
-8.252790063230664330e+00,-4.368384873509946864e+00,-2.897040445423492372e+00,9.152879410201641974e-01,-3.882082963974073375e-01,1.074258052425088317e-01,9.308578052811691350e+01
-8.532729449421006862e+00,-3.873100292983744364e+00,-2.749223450326180540e+00,8.948031780340768293e-01,-4.464585898832771349e-01,-9.999990814011525472e-06,9.495595137647008244e+01
-8.749126332563465169e+00,-3.356889086767182118e+00,-2.619710633866951799e+00,9.691397582806691169e-01,-2.301467414719018389e-01,-8.830971808899132358e-02,9.682612222482325137e+01
-8.882984256447654658e+00,-2.930496260344887638e+00,-2.529208995396372561e+00,9.852177632728058576e-01,-0.000000000000000000e+00,-1.713007849690220130e-01,9.833373973987664840e+01
-8.986285408160926025e+00,-2.499189873729542377e+00,-2.451186190893797079e+00,9.863095190599172613e-01,-7.600500822147297775e-02,-1.463378670685639427e-01,9.984135725493004543e+01
-9.060604334829104545e+00,-2.065613576304783372e+00,-2.386550240720351823e+00,9.810877962790985896e-01,-1.515234962632968641e-01,-1.204382251344312538e-01,1.013489747699834425e+02
-9.107643724483867942e+00,-1.632183165830793925e+00,-2.335481535065488945e+00,9.695860202968120678e-01,-2.260720636589862720e-01,-9.376764516148687612e-02,1.028565922850368395e+02
-9.128680559398034688e+00,-1.157770510208190551e+00,-2.295503456605500148e+00,9.518778151841050805e-01,-2.991735185161292221e-01,-6.649684789652213213e-02,1.045178692362587043e+02
-9.118546978531378855e+00,-6.900013886117434270e-01,-2.273132580519694024e+00,9.280765324539319572e-01,-3.703599319213058960e-01,-3.880039608884684049e-02,1.061791461874805691e+02
-9.079935030284238096e+00,-2.322267369306476870e-01,-2.268098590845238682e+00,8.983345255365923210e-01,-4.391756330612130443e-01,-1.085557715121686709e-02,1.078404231387024339e+02
-9.015098321692912364e+00,2.125057882929869968e-01,-2.279384368973371711e+00,8.628421746353160948e-01,-5.051801258964653263e-01,1.715873161989795934e-02,1.095017000899242987e+02
-8.925368055389659716e+00,6.417363635963558854e-01,-2.304479331496120942e+00,8.218266681989240263e-01,-5.679509087256513489e-01,4.506320800422924933e-02,1.111629770411461635e+02
-8.811624778850578821e+00,1.053299757843823237e+00,-2.340126119356217504e+00,7.755505488046160467e-01,-6.270861785973430580e-01,7.267923267198866943e-02,1.128242539923680283e+02
-8.689297999933895511e+00,1.410105473220913952e+00,-2.378655148557951016e+00,7.243100327505929137e-01,-6.822074032630326412e-01,9.983003250805402851e-02,1.143302178281148826e+02
-8.550216112375448319e+00,1.750620818953525948e+00,-2.420423211372200623e+00,6.684331141058037495e-01,-7.329617442097775548e-01,1.263418121298217067e-01,1.158361816638617370e+02
-8.395026165195726975e+00,2.073390505887745316e+00,-2.463226689232052014e+00,6.082774653434431800e-01,-7.790243152623896883e-01,1.520448663573955306e-01,1.173421454996085913e+02
-8.224565072029141888e+00,2.377287525776270893e+00,-2.504723905783102111e+00,5.379617392347881832e-01,-6.889704772059251914e-01,4.857106635220103108e-01,1.188481093353554456e+02
-8.040551523163845360e+00,2.661840318736859334e+00,-2.542177363460035533e+00,4.007305300104290202e-01,-5.132176219660787853e-01,7.589602854049946057e-01,1.203540731711023000e+02
-7.845927427304634882e+00,2.926938377417664050e+00,-2.572462352727475032e+00,2.136536391130217372e-01,-2.736271494305166363e-01,9.378050466857821288e-01,1.218600370068491543e+02
-7.589716738183719613e+00,3.230044913160172726e+00,-2.592627854057464099e+00,9.999989999989881463e-07,-9.999989999989881463e-07,9.999989999989882250e-01,1.237621414765324772e+02
-7.327746747034826313e+00,3.494849796555257182e+00,-2.584169145019514335e+00,5.996938583006752310e-01,3.640864109715297725e-01,7.126053337319646630e-01,1.256642459462158001e+02
-7.067028619365173014e+00,3.722957507453475756e+00,-2.540547088363394490e+00,8.546902225259143115e-01,5.189015279781137302e-01,1.561498579573454386e-02,1.275663504158991230e+02
-6.812589391371126624e+00,3.917466496536580856e+00,-2.455054943923332011e+00,9.480767136406852424e-01,3.156526256749163650e-01,-3.888399358887917323e-02,1.294794431795102696e+02
-6.570921715911540062e+00,4.079134542683884312e+00,-2.322365505031077859e+00,9.912138162169631395e-01,9.567366035949337322e-02,-9.132207430011776705e-02,1.313925359431214019e+02
-6.385191950406931660e+00,4.188724107134092378e+00,-2.181883068655081193e+00,9.818151803317659576e-01,-1.293761786085003973e-01,-1.389199628529726727e-01,1.329355150966478618e+02
-6.205186944158366025e+00,4.282391851546127448e+00,-2.014367397421576555e+00,9.203789252031139290e-01,-3.475689227107123247e-01,-1.791548994805190198e-01,1.344784942501743217e+02
-6.000349398198459028e+00,4.369817617796261544e+00,-1.782923098920631721e+00,8.101612482030170481e-01,-5.473400272127806332e-01,-2.098943699125667695e-01,1.362741049894825949e+02
-5.797027137072510605e+00,4.432129625082534830e+00,-1.511117053016055589e+00,6.570038469529267955e-01,-7.181013176383330698e-01,-2.295091342306882498e-01,1.380697157287908681e+02
-5.591675787565472788e+00,4.468498983237699562e+00,-1.201893449431452598e+00,4.690242989945510033e-01,-8.508021885027508002e-01,-2.369595809243950357e-01,1.398653264680991413e+02
-5.412984212602751199e+00,4.479560654678174991e+00,-9.118747566234589597e-01,2.561858103073434978e-01,-9.384093051552941933e-01,-2.318508283261688507e-01,1.414041005170149106e+02
-5.231518564669332960e+00,4.472713528593448729e+00,-6.036692576848807779e-01,4.151670841146004043e-01,-8.425589065556470247e-01,-3.431162794811182803e-01,1.429428745659306799e+02
-5.046874251060210703e+00,4.447241324648952165e+00,-2.799849029292074132e-01,5.547013419104128706e-01,-7.072404867897058578e-01,-4.383096110261477385e-01,1.444816486148464492e+02
-4.858654924830319466e+00,4.402425554554477038e+00,5.647025570607985823e-02,6.682522615639630015e-01,-5.387922450067167413e-01,-5.129715699927076544e-01,1.460204226637622185e+02
-4.666484638265689711e+00,4.337580039975604151e+00,4.029352407915136047e-01,7.505004180209962072e-01,-3.451044807644592094e-01,-5.636044888824071064e-01,1.475591967126779878e+02
-4.470019458008751556e+00,4.252085514594588389e+00,7.565433258850201570e-01,7.975926035964165939e-01,-1.352501264588929220e-01,-5.878362373657560758e-01,1.490979707615937571e+02
-4.246221680871298254e+00,4.130926843009254057e+00,1.153895018155740138e+00,8.073225074665053569e-01,8.094025538793132857e-02,-5.845314738950309064e-01,1.508056497649079972e+02
-4.017138172976496335e+00,3.979796748976751619e+00,1.552878938367729722e+00,7.792342158956470088e-01,2.933391022026242134e-01,-5.538449312536665170e-01,1.525133287682222374e+02
-3.787036809633907097e+00,3.797182996900793306e+00,1.949988143779215477e+00,7.146436237329772956e-01,4.919964758958952356e-01,-4.972141980526483818e-01,1.542210077715364775e+02
-3.562007906560969328e+00,3.581366285970780883e+00,2.342089776977297255e+00,6.165767316930679254e-01,6.676063598850595637e-01,-4.172923221922785197e-01,1.559286867748507177e+02
-3.351777992886642021e+00,3.335635482267139018e+00,2.719552367208538879e+00,4.896277451471233166e-01,8.119426995887577547e-01,-3.178234159965136474e-01,1.576064998735415656e+02
-3.157684203755141805e+00,3.055491967867540737e+00,3.086564153689921319e+00,3.397436844108882581e-01,9.182447127874990844e-01,-2.034671382155684161e-01,1.592843129722324136e+02
-2.984176852428061189e+00,2.740212769834371898e+00,3.440587086767848746e+00,1.739456707598161234e-01,9.815334303552544215e-01,-7.958032869254033637e-02,1.609621260709232615e+02
-2.834104279407850147e+00,2.389919615708664402e+00,3.779528051060363936e+00,0.000000000000000000e+00,9.988447030609716171e-01,4.803393763085671286e-02,1.626399391696141095e+02
-2.704361031175503527e+00,1.990917363830967846e+00,4.112842416820887692e+00,9.999988887670539232e-07,-4.977924468360180876e-01,-8.672950362321107942e-01,1.643777764761805429e+02
-2.600510458829320193e+00,1.556506767074414155e+00,4.426553138775308760e+00,0.000000000000000000e+00,9.988447030629378220e-01,4.803393763095126917e-02,1.661156137827469763e+02
-2.521846256122409979e+00,1.088753482940607364e+00,4.719393514766393238e+00,4.894745649099780382e-01,3.309397058303449601e-02,-8.713882254299828434e-01,1.678534510893134097e+02
-2.467551203788488134e+00,5.900119516410634590e-01,4.990201954001608264e+00,0.000000000000000000e+00,9.978126036217043193e-01,-6.609090750977844597e-02,1.695912883958798432e+02
-2.436606800502359338e+00,6.321787212280080559e-02,5.238026923440842531e+00,-0.000000000000000000e+00,9.968731426564392262e-01,-7.900593205231017102e-02,1.713291257024462766e+02
-2.427486248056602403e+00,-4.662739285509499565e-01,5.454245753538370600e+00,-0.000000000000000000e+00,9.968731420280737554e-01,-7.900593200250984049e-02,1.729997892893018445e+02
-2.437196067310953396e+00,-1.015097152041718243e+00,5.648551302115349948e+00,4.256601917880427355e-02,9.578898509979487663e-01,-2.839597988574142917e-01,1.746704528761574124e+02
-2.464690508934081148e+00,-1.580508858422146945e+00,5.820220355136792811e+00,8.320219003984051509e-02,8.754780001371836873e-01,-4.760395643737437288e-01,1.763411164630129804e+02
-2.508890024191579915e+00,-2.159772280437624037e+00,5.968529873678836140e+00,1.200661610364326670e-01,7.533739595691613111e-01,-6.465367692698108515e-01,1.780117800498685483e+02
-2.568681281451353549e+00,-2.750156997456945529e+00,6.092756999522131345e+00,1.514866037959479439e-01,5.971136503488736480e-01,-7.877214592977661578e-01,1.796824436367241162e+02
-2.646439060256442488e+00,-3.373439641479118123e+00,6.195124555884019557e+00,1.760389870339174323e-01,4.137815592127392916e-01,-8.931926423232136036e-01,1.814207000302306767e+02
-2.739290655979703892e+00,-4.003051117879823373e+00,6.268723338199049699e+00,1.926101613224494025e-01,2.116895451185741572e-01,-9.581684936604758507e-01,1.831589564237372372e+02
-2.846816089155357776e+00,-4.635958466941427325e+00,6.312685673458089397e+00,2.004488266900413818e-01,0.000000000000000000e+00,-9.797031529393527283e-01,1.848972128172437976e+02
-2.964731137771261960e+00,-5.249625314226846307e+00,6.326631039267101464e+00,1.079760946362622320e-01,1.569198861895872432e-01,-9.816900286265829445e-01,1.865816617169487870e+02
-3.096447175517679451e+00,-5.861185799368536564e+00,6.312098332228065267e+00,1.192085831904171785e-02,3.086332520282131231e-01,-9.511053616078374295e-01,1.882661106166537763e+02
-3.243632418248735938e+00,-6.468768007096596939e+00,6.268547097535386747e+00,-8.452989841290621531e-02,4.501064590670528776e-01,-8.889639316530130175e-01,1.899505595163587657e+02
-3.424862911877906591e+00,-7.123788183728354539e+00,6.186100759397745286e+00,-0.000000000000000000e+00,8.052988517093670473e-03,-9.999665741290355570e-01,1.917852667561002704e+02
-3.630997159086847503e+00,-7.769352383447770016e+00,6.065355084436885313e+00,1.217558766212737814e-01,-4.271485671580905197e-01,-8.959450921131094647e-01,1.936199739958417751e+02
-3.864336517112145764e+00,-8.403157347463061200e+00,5.906033489232457967e+00,3.698982379086732664e-01,-2.721274050884779361e-01,-8.883242476668695708e-01,1.954546812355832799e+02
-4.125177604189082636e+00,-9.022781982655034838e+00,5.708078656301979414e+00,5.863533815208138433e-01,-9.379468871456028700e-02,-8.046056601524752550e-01,1.972893884753247846e+02
-4.438106209991460105e+00,-9.679636302606207110e+00,5.445995546395569598e+00,7.525789214884025524e-01,9.257286733496225550e-02,-6.519610656826143602e-01,1.992943888671479442e+02
-4.773599277126586493e+00,-1.031089353985553814e+01,5.134961058229444042e+00,0.000000000000000000e+00,2.648456641227858177e-01,-9.642897770879123032e-01,2.012993892589711038e+02
-5.122232105433030647e+00,-1.091248498663599520e+01,4.776598556562477782e+00,-0.000000000000000000e+00,3.032083730870910876e-01,-9.529232301022695362e-01,2.033043896507942634e+02
-5.443842530602093888e+00,-1.143575093662046882e+01,4.410187234450424043e+00,-0.000000000000000000e+00,3.410856895361299435e-01,-9.400311443624989050e-01,2.051442253461085556e+02
-5.756933574289446298e+00,-1.192900616035665173e+01,4.012365497251023427e+00,2.721122346678713222e-01,2.776854998390133056e-01,-9.213271378420709867e-01,2.069840610414228479e+02
-6.052009973224754091e+00,-1.238852934000686190e+01,3.586412366971257093e+00,5.228867818629204800e-01,1.925107402488664410e-01,-8.303776419457155056e-01,2.088238967367371401e+02
-6.285189595450472844e+00,-1.275403316058040026e+01,3.203473000462488507e+00,7.326593199795663480e-01,9.224036680930239318e-02,-6.743144930814275462e-01,2.103996389417758337e+02
-6.496229458454389594e+00,-1.309276774918903996e+01,2.808036163963425036e+00,8.849807075427553738e-01,-1.526297770940547235e-02,-4.653753203493599666e-01,2.119753811468145273e+02
-6.680058568355407012e+00,-1.340217742026655401e+01,2.402657631141019046e+00,9.343647041290175093e-01,-2.846673670068930462e-02,-3.551763570108807944e-01,2.135511233518532208e+02
-6.832298866297832340e+00,-1.367964733107285014e+01,1.990038521366528590e+00,9.699603113204490201e-01,-4.125040997248095864e-02,-2.397361010369448153e-01,2.151268655568919144e+02
-6.949988752691567129e+00,-1.392241212871785550e+01,1.573170558411452813e+00,9.912422606451662954e-01,-5.342535265000009775e-02,-1.207580738722864311e-01,2.167026077619306079e+02
-7.037719308826863696e+00,-1.416567524421910207e+01,1.049549804074618287e+00,9.978964962917117321e-01,-6.481190233636946463e-02,1.999996986248517972e-06,2.186786926985779189e+02
-7.047585381657482273e+00,-1.432844511544696431e+01,5.314686912281831876e-01,9.842838733157226461e-01,1.297267356343901890e-01,1.198091431993938277e-01,2.206547776352252299e+02
-6.992020283856768437e+00,-1.440367160883003272e+01,8.397491636311510410e-02,9.191100942929432138e-01,3.174697010911591843e-01,2.333401454097311090e-01,2.223994826581620430e+02
-6.879780016598975756e+00,-1.441520280535381104e+01,-3.494413850463773397e-01,8.057892435783569063e-01,4.885822047769387555e-01,3.346477612513469868e-01,2.241441876810988560e+02
-6.712051001149610840e+00,-1.436372507510738039e+01,-7.636308074254423151e-01,6.502575451219111402e-01,6.341006231837181817e-01,4.184250526577707463e-01,2.258888927040356691e+02
-6.490056856421989373e+00,-1.425294394069462989e+01,-1.153376323145180793e+00,4.606624106662593476e-01,7.464020451143851265e-01,4.802833855647918315e-01,2.276335977269724822e+02
-6.215564510407978638e+00,-1.408751921078126301e+01,-1.513737133538902047e+00,3.945158471438137138e-01,7.168725548395641356e-01,5.748469243815452767e-01,2.293783027499092952e+02
-5.941262573622180021e+00,-1.390743373279148898e+01,-1.799217569813565731e+00,3.227712547909927232e-01,6.771709017490963323e-01,6.612535723198923465e-01,2.308820833231763459e+02
-5.636749449680169555e+00,-1.369889201274410162e+01,-2.060698171784614896e+00,2.464466591675598395e-01,6.278604382736283629e-01,7.382772610861598750e-01,2.323858638964433965e+02
-5.303926864078335690e+00,-1.346516088927578814e+01,-2.296002880990497985e+00,1.666250719489444365e-01,5.696408583099646927e-01,8.048250604589254342e-01,2.338896444697104471e+02
-4.944733348271434181e+00,-1.320956957898868644e+01,-2.503005546021101146e+00,8.443912469623178485e-02,5.033382695900919801e-01,8.599526850863593586e-01,2.353934250429774977e+02
-4.441954280604334393e+00,-1.284989937193912724e+01,-2.716812653955463563e+00,1.054998706094199953e-03,4.298934727560758673e-01,9.028778926631518820e-01,2.373288210211753722e+02
-3.893528140093933221e+00,-1.245966927262227131e+01,-2.860899378748642086e+00,1.468217373029374329e-01,5.234665825470752321e-01,8.392997762476974710e-01,2.392642169993732466e+02
-3.304763641251735162e+00,-1.204894549346746047e+01,-2.931282507303715423e+00,2.875898764458944545e-01,5.992177425646092459e-01,7.471466790115117718e-01,2.411996129775711211e+02
-2.812977052298193392e+00,-1.171490282569412678e+01,-2.937803396688747348e+00,-2.094397647220614181e-02,9.665299142311819525e-01,2.556937127618543193e-01,2.427390917806250172e+02
-2.305365500191927985e+00,-1.138055713987646556e+01,-2.905390494622007935e+00,-1.020686084874999622e-01,9.426759607004053798e-01,3.177137584056023978e-01,2.442785705836789134e+02
-1.784178797387500737e+00,-1.105034946618634883e+01,-2.834094407002703431e+00,-1.820708142324287127e-01,9.084556616966573683e-01,3.762399890194046415e-01,2.458180493867328096e+02
-1.251718072887559430e+00,-1.072870890573715030e+01,-2.723965995231235837e+00,-2.600708322622177771e-01,8.642453304169324113e-01,4.306288089066073188e-01,2.473575281897867058e+02
-7.102093341753588085e-01,-1.042005498993161439e+01,-2.575296916956089532e+00,-3.352109191241373076e-01,8.105311371686492183e-01,4.802821206139820109e-01,2.488970069928406019e+02
-1.616770673560500859e-01,-1.012880092465384863e+01,-2.388860165239043987e+00,-4.066647815944496869e-01,7.479037629489226902e-01,5.246539019001402737e-01,2.504364857958944981e+02
3.919293221539412730e-01,-9.859352071151215924e+00,-2.165669522396705737e+00,-4.736466630313736492e-01,6.770519038141220580e-01,5.632562100344845613e-01,2.519759645989483943e+02
9.486091051489059511e-01,-9.616103542029136975e+00,-1.906739012265523447e+00,-5.354199839403480654e-01,5.987546974780814102e-01,5.956645474147004293e-01,2.535154434020022904e+02
1.506313396515768233e+00,-9.402635070863070155e+00,-1.613845287997678346e+00,-5.913054417518408545e-01,5.138731554216083852e-01,6.215225295137847272e-01,2.550549222050561866e+02
2.055036935171101309e+00,-9.222620309533811067e+00,-1.295612226206083628e+00,-6.406884807588282271e-01,4.233406947248344876e-01,6.405458038378974983e-01,2.565723690986664565e+02
2.600790153697613238e+00,-9.072327100367861163e+00,-9.530776091414787654e-01,-6.830260500854554717e-01,3.281528737275575258e-01,6.525251768096591576e-01,2.580898159922767263e+02
3.141610078731541744e+00,-8.951036309934970348e+00,-5.913110000575706460e-01,-7.178525753843013613e-01,2.293564443728414448e-01,6.573289141976040861e-01,2.596072628858869962e+02
3.675640111218874129e+00,-8.857808882202970580e+00,-2.150982334487214209e-01,-7.447850786014121871e-01,1.280378416000940156e-01,6.549041897960727887e-01,2.611247097794972660e+02
4.201231533361839965e+00,-8.791276614663249944e+00,1.713424670587959386e-01,-9.132730123888792573e-01,4.073455594975444183e-01,0.000000000000000000e+00,2.626421566731075359e+02
4.716850133608429196e+00,-8.749853184260787842e+00,5.640766640860759296e-01,-9.226459323492329778e-01,3.846540198077628703e-01,-2.763636308947762729e-02,2.641596035667178057e+02
5.220979593886310610e+00,-8.731944511888821481e+00,9.591698800683670090e-01,-9.307580293276497274e-01,3.614368413275445002e-01,-5.523495788925324862e-02,2.656770504603280756e+02
5.776508692809699141e+00,-8.739702681656165595e+00,1.405336751462668454e+00,-9.375982183243590784e-01,3.377257508101369488e-01,-8.275807050997299741e-02,2.674004949065883352e+02
6.310645515102195624e+00,-8.776513500187018479e+00,1.842670456231623177e+00,-9.431571523763687681e-01,3.135531499058278881e-01,-1.101680902317116045e-01,2.691239393528485948e+02
6.821289435317189565e+00,-8.839971986874310517e+00,2.265462155646181142e+00,-9.474272353252440881e-01,2.889520708886391676e-01,-1.374275608931490866e-01,2.708473837991088544e+02
7.305875678925077388e+00,-8.928695474581687108e+00,2.670179679664528294e+00,-9.504026321935789001e-01,2.639561315219549620e-01,-1.644992320693759169e-01,2.725708282453691140e+02
7.759922661022594426e+00,-9.042507611114809052e+00,3.055177840776446718e+00,-9.520792771557263778e-01,2.385994891245633853e-01,-1.913461099684807265e-01,2.742942726916293736e+02
8.276692542571005617e+00,-9.229397389232804727e+00,3.510585928155771640e+00,-9.524548790919360464e-01,2.129167938998093312e-01,-2.179315079774601926e-01,2.764897229564932672e+02
8.638212684387273299e+00,-9.413720452992031085e+00,3.848553587590769265e+00,-9.515289247183302823e-01,1.869431415915577543e-01,-2.442190967884693975e-01,2.782646988824751020e+02
8.953808077956709965e+00,-9.618870286664952474e+00,4.161512995092523148e+00,-9.493026792884543541e-01,1.607140255315829269e-01,-2.701729540370025884e-01,2.800396748084569367e+02
9.225686966196315453e+00,-9.836977413627289835e+00,4.449248589000075249e+00,-9.457791848654412137e-01,1.342652881438271550e-01,-2.957576133842600985e-01,2.818146507344387715e+02
9.453364782290281099e+00,-1.006125676803845792e+01,4.712035393185831644e+00,-9.409632561671334994e-01,1.076330719717113610e-01,-3.209381129767113205e-01,2.835896266604206062e+02
9.633302109685249803e+00,-1.028655365869036586e+01,4.949860006837784709e+00,-9.348614739898205572e-01,8.085377029533233340e-02,-3.456800432167128068e-01,2.853646025864024409e+02
9.757425855758006250e+00,-1.049764056869019768e+01,5.153098201703954828e+00,-9.274821762195289976e-01,5.396397740594036790e-02,-3.699495937789727962e-01,2.870524924873593022e+02
9.833304547203695734e+00,-1.070174103355277673e+01,5.334261178513518331e+00,-9.188354464431072177e-01,2.700043860556071082e-02,-3.937135998086813138e-01,2.887403823883161635e+02
9.857566252804211615e+00,-1.089497862180769872e+01,5.493063528087922087e+00,-9.089331001745973859e-01,0.000000000000000000e+00,-4.169395872382335444e-01,2.904282722892730249e+02
9.826885868954486014e+00,-1.107345753923091713e+01,5.629220017813534760e+00,-8.656576142462234502e-01,1.896880845669533799e-01,-4.633069452003869548e-01,2.921161621902298862e+02
9.738953499707337258e+00,-1.123328814309861201e+01,5.742420465029212551e+00,-7.877520994571296509e-01,3.717877453540496813e-01,-4.911400026527330542e-01,2.938040520911867475e+02
9.593442422021224658e+00,-1.137061989161683506e+01,5.832304610611366513e+00,-6.783331045798046688e-01,5.390142884848517779e-01,-4.993253408754618761e-01,2.954919419921436088e+02
9.391040160401653125e+00,-1.148162746650853272e+01,5.898487250681415439e+00,-5.007145059823778777e-01,4.071957538119974074e-01,-7.638550920022360025e-01,2.971798318931004701e+02
9.096929379188020803e+00,-1.156724646412232893e+01,5.942116823852159335e+00,-2.635605781151710292e-01,2.269613401143464604e-01,-9.375619295589556756e-01,2.990541810862090415e+02
8.727519845065330628e+00,-1.160600932403531793e+01,5.952259821787976968e+00,4.930994909503877768e-03,1.974097962046563945e-02,-9.997919678681019828e-01,3.009285302793176129e+02
8.285397542952289029e+00,-1.159262568128810855e+01,5.928607178767955510e+00,-7.894990794488210631e-03,9.999678340435189661e-01,-0.000000000000000000e+00,3.028028794724261843e+02
7.859844422127314267e+00,-1.154011824471451675e+01,5.883895923501169634e+00,-1.776044247688116640e-01,9.671012472459498133e-01,-1.821259066669315141e-01,3.043951603683539702e+02
7.396198112528684199e+00,-1.145070852753070056e+01,5.818807506969797316e+00,-3.361156268780804424e-01,8.732575076353732424e-01,-3.527684945233617309e-01,3.059874412642817560e+02
6.897985805305563822e+00,-1.132244999037185096e+01,5.733611065276740248e+00,-4.734342343229718808e-01,7.243536162253308985e-01,-5.011684990438517451e-01,3.075797221602095419e+02
6.368756339376232312e+00,-1.115341507160777290e+01,5.628575875819590735e+00,-5.809021160722425137e-01,5.297781928753457770e-01,-6.179690913776841876e-01,3.091720030561373278e+02
5.812361790498924208e+00,-1.094220685021844197e+01,5.503708935272674907e+00,-6.517432766268391742e-01,3.017995033826453843e-01,-6.958058357985937858e-01,3.107642839520651137e+02
5.233230797270949530e+00,-1.068847273318396063e+01,5.359453633530883110e+00,-6.814910863542430475e-01,5.479192654282322855e-02,-7.297710216274125861e-01,3.123565648479928996e+02
4.598796099383520186e+00,-1.037169365661887177e+01,5.187111681234887861e+00,-6.118170490061275446e-01,-1.175509652144934858e-01,-7.822145927583851188e-01,3.140456542926685870e+02
3.948771533557753344e+00,-1.000483744766843941e+01,4.998036971419269392e+00,-5.193179911140078930e-01,-2.855083807590643175e-01,-8.054761254210165422e-01,3.157347437373442745e+02
3.289099720590894282e+00,-9.588202664110573537e+00,4.796105787200078296e+00,-4.074447634267278073e-01,-4.428143556007214654e-01,-7.986878058613349207e-01,3.174238331820199619e+02
2.625718642366110522e+00,-9.122121759695588139e+00,4.585194513325287602e+00,-2.803710027424674012e-01,-5.836002932636100704e-01,-7.621028792264286089e-01,3.191129226266956493e+02
1.964189485708053073e+00,-8.607500060443330270e+00,4.368470767590953763e+00,-1.428374312845323568e-01,-7.026139000550561953e-01,-6.970862039049932068e-01,3.208020120713713368e+02
1.309315252328318913e+00,-8.046351865206437637e+00,4.147684537864771315e+00,2.499997267779020913e-05,-7.954151306990869807e-01,-6.060633376396897809e-01,3.224911015160470242e+02
7.030070821122038627e-01,-7.479356590740631638e+00,3.937279103859186336e+00,5.109243576285042721e-02,-7.512172923928704948e-01,-6.580730526458596907e-01,3.240799573945994325e+02
1.094747607731388767e-01,-6.877650470232746116e+00,3.725171368134156058e+00,1.017886135494840000e-01,-7.015608433431959057e-01,-7.053009720964411589e-01,3.256688132731518408e+02
-4.678750173411427293e-01,-6.243293443939955445e+00,3.512177533234100313e+00,1.517451580872700156e-01,-6.468066043119780062e-01,-7.474039226659248136e-01,3.272576691517042491e+02
-1.025659748859321541e+00,-5.578363652830729436e+00,3.299113807861055570e+00,2.005990685593641576e-01,-5.873524378684269465e-01,-7.840759704416705445e-01,3.288465250302566574e+02
-1.560521165195602800e+00,-4.884957320102873979e+00,3.086796401163879544e+00,2.479953561559910813e-01,-5.236303574960983198e-01,-8.150506438464090175e-01,3.304353809088090657e+02
-2.069125276111599909e+00,-4.165188632518995959e+00,2.876041517027742689e+00,2.935896234438375441e-01,-4.561033885786884845e-01,-8.401028698522305938e-01,3.320242367873614739e+02
-2.548178554207020330e+00,-3.421189794557032648e+00,2.667699832038278540e+00,3.370505667907450764e-01,-3.852622040636666245e-01,-8.590506094211030064e-01,3.336130926659138822e+02
-2.994444122217846616e+00,-2.655110965749822416e+00,2.462690973204041622e+00,3.780623836682700523e-01,-3.116215592387637234e-01,-8.717561802897008105e-01,3.352019485444662905e+02
-3.404725658891710083e+00,-1.869119793518554618e+00,2.261969027846869373e+00,4.163270673444260939e-01,-2.357165515153877566e-01,-8.781272574852615476e-01,3.367908044230186988e+02
-3.776971047372468693e+00,-1.065659280754241545e+00,2.066406333419020580e+00,4.515665722954341765e-01,-1.580987323847260484e-01,-8.781175442980674317e-01,3.383796603015711071e+02
-4.098176874139965342e+00,-2.839798288124199543e-01,1.884760165044735647e+00,4.835248346027708477e-01,-7.933209978737010282e-02,-8.717271088281727254e-01,3.398989494162532310e+02
-4.387293197121345578e+00,5.077418997571087056e-01,1.708772926268292691e+00,5.119696326535299047e-01,1.099999210732821848e-05,-8.590023836519328215e-01,3.414182385309353549e+02
-4.645496857762014820e+00,1.306814644021068839e+00,1.538969286092633615e+00,5.883369230451683807e-01,2.655734181836785779e-02,-8.081784286762258018e-01,3.429375276456174788e+02
-4.873994339932588460e+00,2.110553354137747473e+00,1.375873873925237190e+00,6.593387089250972721e-01,5.286148287271335428e-02,-7.499840868591320930e-01,3.444568167602996027e+02
-5.074021755119838772e+00,2.916279329947205845e+00,1.220011276221853347e+00,7.243274739386572625e-01,7.868353596804472661e-02,-6.849500796888770005e-01,3.459761058749817266e+02
-5.246844827341306861e+00,3.721320359501621766e+00,1.071906033130496150e+00,7.827105396909714852e-01,1.037880107500798593e-01,-6.136695037900558036e-01,3.474953949896638505e+02
-5.393758877783691119e+00,4.523010857534720763e+00,9.320826351356733541e-01,8.339554705257479217e-01,1.279459612594963380e-01,-5.367924218712496476e-01,3.490146841043459744e+02
-5.516088809165053952e+00,5.318692003869248452e+00,8.010655197028228036e-01,8.775949288781769164e-01,1.509370737903112936e-01,-4.550199342488850940e-01,3.505339732190280984e+02
-5.615189089820923130e+00,6.105711881761351378e+00,6.793790679230107266e-01,9.132309369495378304e-01,1.725516760098128877e-01,-3.690977850183825848e-01,3.520532623337102223e+02
-5.696660987852834701e+00,6.938627039905639116e+00,5.599921740659936642e-01,9.405385058652591113e-01,1.925926490246018807e-01,-2.798095611795188287e-01,3.536867832669289555e+02
-5.753169167621750013e+00,7.753960355490032264e+00,4.535387678309339421e-01,9.592685992442785414e-01,2.108772249629914108e-01,-1.879695467273383991e-01,3.553203042001476888e+02
-5.786992931593682776e+00,8.548155850724016958e+00,3.604090684256150978e-01,9.692504041732353803e-01,2.272386536880108276e-01,-9.441529685974703323e-02,3.569538251333664221e+02
-5.801157520447027593e+00,9.317576591540925435e+00,2.803744484674837167e-01,9.703928888893302851e-01,2.415277234480655844e-01,0.000000000000000000e+00,3.585873460665851553e+02
-5.799083826907775574e+00,1.005855596808765462e+01,2.128968096762836049e-01,9.969795307158221265e-01,-7.765188556165565636e-02,0.000000000000000000e+00,3.602208669998038886e+02
-5.784237312709738177e+00,1.076744636823696588e+01,1.574379608563476751e-01,9.988611377096775490e-01,-0.000000000000000000e+00,4.769095882966038757e-02,3.618543879330226218e+02
-5.760127961153652443e+00,1.144061940187587645e+01,1.134596218796958961e-01,9.996731843025228326e-01,-0.000000000000000000e+00,-2.552497917253214108e-02,3.634879088662413551e+02
-5.719852056486235625e+00,1.226271894289508779e+01,7.477566411108912958e-02,9.546769266699508538e-01,-0.000000000000000000e+00,-2.976406653667214020e-01,3.656618007839354050e+02
-5.678636053770583558e+00,1.298295920773787415e+01,5.912310097295291056e-02,9.706551006134579440e-01,-0.000000000000000000e+00,-2.404717771844190333e-01,3.678356927016294549e+02
-5.653302918205660887e+00,1.343471137351483158e+01,5.857925073071884592e-02,5.764363129602523284e-01,-1.163998612659724674e-03,-8.171400260716322750e-01,3.693721637586841666e+02
-5.633205972380685544e+00,1.384646439846084220e+01,6.308186027149872976e-02,9.955207354022702626e-01,9.453287991604687746e-02,0.000000000000000000e+00,3.709086348157388784e+02
-5.619547762902273647e+00,1.421774204599122804e+01,7.047603329880898493e-02,9.996103595783732976e-01,1.301763017926019748e-02,-2.465097014695109834e-02,3.724451058727935902e+02
-5.613111819910823641e+00,1.455926694913731190e+01,7.857027138488810458e-02,9.964336702415664826e-01,-6.859224700385915807e-02,-4.912274891466951454e-02,3.740395342029160020e+02
-5.615492259174843959e+00,1.485552866884787804e+01,8.411998190986269552e-02,9.860137585831646456e-01,-1.497035205278318126e-01,-7.323744825746053566e-02,3.756339625330384138e+02
-5.629986964442802666e+00,1.512851963489907448e+01,8.242032255646931926e-02,9.684263667991336311e-01,-2.297265834151688280e-01,-9.681977567376753857e-02,3.773981333598889591e+02
-5.658559013240976654e+00,1.534242787781631279e+01,6.685687521298451508e-02,9.437993376284410374e-01,-3.080797384920679893e-01,-1.196983083570630491e-01,3.791623041867395045e+02
-5.702376831354070141e+00,1.549878441162618081e+01,3.169392270668312112e-02,9.123116852323247539e-01,-3.841934266041053814e-01,-1.417067392305778883e-01,3.809264750135900499e+02
-5.761968087419235829e+00,1.559992890962850787e+01,-2.864009530753111252e-02,8.741922941560712479e-01,-4.575143666517452745e-01,-1.626850858125244714e-01,3.826906458404405953e+02
-5.826217100301841256e+00,1.564813206844859828e+01,-1.052461518305381760e-01,8.297182558148084031e-01,-5.275095773630256168e-01,-1.824808531275168288e-01,3.842474504765693837e+02
-5.899339026988180024e+00,1.566275168763529990e+01,-2.054274293311450783e-01,7.792128545770966586e-01,-5.936702515762204424e-01,-2.009501422125885284e-01,3.858042551126981721e+02
-5.980454104894246115e+00,1.564563727749477984e+01,-3.333297730705199746e-01,7.230432180658475927e-01,-6.555154548726672692e-01,-2.179586961602235362e-01,3.873785761281259283e+02
-6.065679800761661689e+00,1.559912316184249192e+01,-4.898017875679473443e-01,6.616176487368492509e-01,-7.125956216718465352e-01,-2.333828760933833457e-01,3.889528971435536846e+02
-6.151221609862887796e+00,1.552627143415450739e+01,-6.761310896314306484e-01,6.431104653736439136e-01,-7.413373685167607974e-01,-1.919005871896727056e-01,3.905272181589814409e+02
-6.233248481546650233e+00,1.543012355298731109e+01,-8.936050908655968072e-01,6.227450935910017193e-01,-7.679370924848371027e-01,-1.498638395037902027e-01,3.921015391744091971e+02
-6.307872983532593736e+00,1.531351261433632516e+01,-1.143259719171267896e+00,6.005803766210718875e-01,-7.923179416914083451e-01,-1.073940896342563678e-01,3.936758601898369534e+02
-6.371134461934091497e+00,1.517887548674903009e+01,-1.425628141973013907e+00,5.766803557775153077e-01,-8.144094746954468889e-01,-6.461404478536544871e-02,3.952501812052647097e+02
-6.421065583140888933e+00,1.501602922530974560e+01,-1.767298661745958732e+00,5.511140854704611458e-01,-8.341478638903255804e-01,-2.164730838247589523e-02,3.969421508560849929e+02
-6.446547440172234467e+00,1.483651671580457432e+01,-2.150248232924240721e+00,5.239554337625932368e-01,-8.514760798118004015e-01,2.138197689254779307e-02,3.986341205069052762e+02
-6.442491786005338561e+00,1.464304527337491457e+01,-2.574080637337947230e+00,5.318795198762957810e-01,-8.466672357197554399e-01,1.602398553526690819e-02,4.003260901577255595e+02
-6.409799397760401973e+00,1.445416849091048661e+01,-2.999196927363602772e+00,6.183519599116198417e-01,-7.848777499679225889e-01,4.007207602708368760e-02,4.018894274981638546e+02
-6.354618353632910832e+00,1.427360980117756029e+01,-3.414589156141381920e+00,6.974822247562603161e-01,-7.137688295784352377e-01,6.364435614979566114e-02,4.033279978224805404e+02
-6.285976839739172206e+00,1.410859815216843316e+01,-3.799666435682922394e+00,7.683307614089691651e-01,-6.341847892352375782e-01,8.646094016159694418e-02,4.046076431591168330e+02
-6.083321913239849721e+00,1.378491165147275410e+01,-4.557594532795425479e+00,8.300563437177401749e-01,-5.470705674598344004e-01,1.082509144116477473e-01,4.070017554401334792e+02
-5.964108180477060372e+00,1.363656027537745352e+01,-4.902699787582740498e+00,6.874569165599268006e-01,-4.661106818260427054e-01,5.569037799858110871e-01,4.080531984137069799e+02
-5.720715496746097806e+00,1.336757442792254302e+01,-5.508695307938769936e+00,3.879944410393166287e-01,-2.787942452375509750e-01,8.784828299667252205e-01,4.099016829047124020e+02
-5.429050781848036245e+00,1.308518574711966487e+01,-6.100599401514945619e+00,0.000000000000000000e+00,-2.786296520870016821e-02,9.996107518285608506e-01,4.117501673957178241e+02
-5.093414808268925675e+00,1.278756811994486497e+01,-6.659419215875853837e+00,5.048504550711633287e-01,-7.270622152187579124e-01,4.653004977608588000e-01,4.135986518867232462e+02
-4.718790464986867050e+00,1.247326109494502511e+01,-7.166129272337432354e+00,3.794731911047499184e-01,-5.383771387425254629e-01,7.524281717968546168e-01,4.154471363777286683e+02
-4.284970118729494182e+00,1.212027455504117235e+01,-7.622444836075719543e+00,2.033361127284958603e-01,-2.776766396292935091e-01,9.389079342865590538e-01,4.174078258605113092e+02
-3.821004469453449293e+00,1.174615305174718216e+01,-7.969751456380772758e+00,0.000000000000000000e+00,2.016697227948724414e-02,9.997956257308727723e-01,4.193685153432939501e+02
-3.399776557367371499e+00,1.140373372442133437e+01,-8.175771857415153221e+00,2.204818902053456431e-01,2.585319636349858730e-02,9.750473569671325169e-01,4.210780970384075204e+02
-2.970750132983477787e+00,1.104826795871348111e+01,-8.294311885998984835e+00,4.301035175183399728e-01,3.026596604823502540e-02,9.022709878501654623e-01,4.227876787335210906e+02
-2.540175723349556769e+00,1.068128123928700823e+01,-8.326466105805703677e+00,0.000000000000000000e+00,-1.168708951519396300e-01,9.931461090215998322e-01,4.244972604286346609e+02
-2.114000714842447337e+00,1.030453707462558022e+01,-8.273724441844613864e+00,-0.000000000000000000e+00,-0.000000000000000000e+00,9.999989999924441264e-01,4.262068421237482312e+02
-1.702310726098430260e+00,9.924788390018571604e+00,-8.140867521088184233e+00,-1.161848472904061791e-01,1.341998236121057881e-03,9.932256945363709955e-01,4.278964229234440495e+02
-1.361754149147943460e+00,9.597470803183238530e+00,-7.970910539172295195e+00,-9.302458479231964783e-02,4.014339024324637371e-03,9.956547150960320947e-01,4.293354488072124582e+02
-9.471968606215637188e-01,9.179459478142739215e+00,-7.680842333708267411e+00,-6.981320943674672319e-02,6.684474332361906371e-03,9.975366828229664806e-01,4.311642364071363431e+02
-5.578360614268652595e-01,8.762709652139442085e+00,-7.306573109102685315e+00,-4.656347076063446083e-02,9.350937505758039753e-03,9.988705637591858144e-01,4.329930240070602281e+02
-1.966106834134050962e-01,8.351330189157012640e+00,-6.857189831770607924e+00,-2.328813938002751924e-02,1.201226390240998920e-02,9.996556247357402114e-01,4.348218116069841130e+02
1.336463653919772732e-01,7.949293367224133711e+00,-6.341782495456510738e+00,-0.000000000000000000e+00,1.466699169430323718e-02,9.998914337765223426e-01,4.366505992069079980e+02
4.711653997056273191e-01,7.501253533760958270e+00,-5.667116891813304136e+00,-7.217103253061220025e-01,5.166585169996518179e-01,4.606475693617175238e-01,4.387747795449688510e+02
7.531519660148724427e-01,7.081195472428037263e+00,-4.920714666386565739e+00,-4.786744931381528567e-01,-2.325607537446116035e-01,8.466311035139513219e-01,4.408989598830297041e+02
9.695741868805433095e-01,6.714185905070977789e+00,-4.166046287046012431e+00,-5.024135394088078410e-01,7.294793312446252731e-01,4.641535744839032640e-01,4.429084787836207511e+02
1.140162535247879916e+00,6.380257836986785058e+00,-3.381449870049924034e+00,-8.640238959902303284e-01,1.424557520291948147e-02,5.032472262632251558e-01,4.449179976842117981e+02
1.244410253087925744e+00,6.146696062915242287e+00,-2.771107908382866469e+00,-6.693304655660944347e-01,-7.101616072892911191e-01,2.183236574288964782e-01,4.464545876710864150e+02
1.331202188712036660e+00,5.930317014328188918e+00,-2.159540321713715016e+00,-4.368697578786884250e-02,-9.773284583464662001e-01,-2.071678851837208402e-01,4.479911776579610319e+02
1.402616906026212806e+00,5.731768151343491269e+00,-1.551798149173358565e+00,-1.571261495725260748e-01,-9.643530046557341473e-01,-2.129146672417542852e-01,4.495277676448356488e+02
1.461570744116141185e+00,5.549209596554588231e+00,-9.442400863511090092e-01,-2.685116056345077662e-01,-9.387736212144522918e-01,-2.158786829369707672e-01,4.510868644251565343e+02
1.508990844325161174e+00,5.386246433494616959e+00,-3.508465247504924944e-01,-2.838150423349484197e-01,-9.258693805880551242e-01,-2.494251627954224004e-01,4.526459612054774198e+02
1.553918923063076329e+00,5.216202080854722922e+00,3.495548470880993075e-01,-2.986853529481729996e-01,-9.115521860582658231e-01,-2.825909977835006637e-01,4.545652864476153354e+02
1.588254417671427943e+00,5.082769976242992094e+00,1.005837925681824174e+00,-3.130998442361059286e-01,-8.958438869463386522e-01,-3.153255742274683748e-01,4.564846116897532511e+02
1.613478942940261840e+00,4.996362756776364655e+00,1.521761979918406782e+00,-3.270365185769564809e-01,-8.787684554838108841e-01,-3.475789365962302369e-01,4.581012057756331615e+02
1.638854788049400213e+00,4.931023791272755474e+00,2.003007931877603731e+00,-3.404741075345711354e-01,-8.603519502316013812e-01,-3.793018637351281419e-01,4.597177998615130718e+02
1.667247786581718128e+00,4.886269961957160568e+00,2.446038458344558464e+00,-3.533921043141735052e-01,-8.406224763125925703e-01,-4.104459439782839891e-01,4.613343939473929822e+02
1.701275939188857000e+00,4.861528599784612048e+00,2.847849965350531587e+00,-3.657707950558515830e-01,-8.196101425214203928e-01,-4.409636490256048647e-01,4.629509880332728926e+02
1.743066198141224765e+00,4.856065395897853243e+00,3.206506062271309521e+00,-3.775912889180629839e-01,-7.973470153769168789e-01,-4.708084064717560357e-01,4.645675821191528030e+02
