2.475214511139157025e+00,-5.592942641657121072e+00,-4.753874657273851057e+00,-6.200574967865772891e-01,6.401194805050879066e-02,7.819393654098425461e-01,6.078681339926504990e+01
1.994797170548180398e+00,-5.966127525493861050e+00,-4.853804334343556626e+00,-0.000000000000000000e+00,-9.999989999988958197e-07,9.999989999988958544e-01,6.233308559556005690e+01
1.489282413576996422e+00,-6.304533634444209333e+00,-4.936557307406814310e+00,-0.000000000000000000e+00,1.041982070998611308e-02,9.999447121174186437e-01,6.387935779185506391e+01
9.622599300028649161e-01,-6.606856438221379690e+00,-5.000690879178711690e+00,-0.000000000000000000e+00,2.083950926995838115e-02,9.997818336059796085e-01,6.542562998815007802e+01
4.173302197399135771e-01,-6.871813077678063486e+00,-5.044762475768107990e+00,-0.000000000000000000e+00,3.125693674124283006e-02,9.995103820673314488e-01,6.697190218444508503e+01
-3.701336691336422069e-01,-7.166530659191746366e+00,-5.063712875264177349e+00,-0.000000000000000000e+00,4.167097442548502867e-02,9.991303868087947349e-01,6.913434444845205462e+01
-1.180115019743481097e+00,-7.360675170085580810e+00,-5.025704370534173293e+00,-6.074690999519724022e-01,7.795978449198442961e-01,1.523367742923661117e-01,7.129678671245902422e+01
-1.922220395130992632e+00,-7.449812495987438332e+00,-4.945000302844366757e+00,-4.499992964605512838e-04,3.515004504559560705e-01,9.361865363440234900e-01,7.325162535241493345e+01
-2.664476970261580480e+00,-7.458854969253837730e+00,-4.826139455800636746e+00,-2.094397647221292458e-02,9.665299142314948133e-01,2.556937127619370864e-01,7.520646399237084267e+01
-3.312673809827324956e+00,-7.403446845301951740e+00,-4.694675343576832915e+00,1.054998706094426334e-03,4.298934727561680713e-01,9.028778926633456159e-01,7.693082100185546324e+01
-3.948504501867847516e+00,-7.293133920333094267e+00,-4.543345577291814763e+00,2.472863854312343790e-01,3.500180341942452644e-01,9.035124898529685034e-01,7.865517801134008380e+01
-4.565861163866371086e+00,-7.130119494636718791e+00,-4.375889731256856763e+00,4.769468983569679077e-01,2.466877501427895969e-01,8.436022819306090437e-01,8.037953502082470436e+01
-5.181288498032528445e+00,-6.906344877923610071e+00,-4.188522824397116651e+00,6.746469744001256652e-01,1.268268071975974798e-01,7.271618945668237854e-01,8.217271578294187862e+01
-5.762670094587468483e+00,-6.629345466881716220e+00,-3.991944513652314619e+00,7.565867492953690654e-01,3.852353970492891633e-02,6.527560246224863860e-01,8.396589654505905287e+01
-6.303666412329900659e+00,-6.302703575343579168e+00,-3.791243623753389969e+00,8.233585740341241577e-01,-5.055204354405961470e-02,5.652637875007061607e-01,8.575907730717622712e+01
-6.798185746644527683e+00,-5.930340513109524814e+00,-3.591761380994569208e+00,8.736238188607179378e-01,-1.386141742548499256e-01,4.664392069888190773e-01,8.755225806929340138e+01
-7.240174790296246776e+00,-5.516220352340993394e+00,-3.398839000733439697e+00,9.063747696360280326e-01,-2.238973999124539149e-01,3.582634942063920303e-01,8.934543883141057563e+01
-7.637725856039161876e+00,-5.043592984138234314e+00,-3.210685312564073079e+00,9.209548305887190756e-01,-3.046919757924185790e-01,2.429053311560975814e-01,9.121560967976374457e+01
-7.964699449374860407e+00,-4.534179525409152589e+00,-3.041801808066229906e+00,9.170716890544008404e-01,-3.793781407606504619e-01,1.226773958341475096e-01,9.308578052811691350e+01
-8.220604518643007452e+00,-3.995127606448269031e+00,-2.897040515078856071e+00,8.948031780340768293e-01,-4.464585898832771349e-01,-9.999990814011525472e-06,9.495595137647008244e+01
-8.408885373758593573e+00,-3.434288758889077364e+00,-2.780288856207526305e+00,9.691397582806691169e-01,-2.301467414719018389e-01,-8.830971808899132358e-02,9.682612222482325137e+01
-8.517103286450716126e+00,-2.971956701775464893e+00,-2.707401292580591701e+00,9.852177632728058576e-01,-0.000000000000000000e+00,-1.713007849690220130e-01,9.833373973987664840e+01
-8.591943534125338289e+00,-2.505302765654379815e+00,-2.653808851278494529e+00,9.864498437880573345e-01,-7.016955274124393738e-02,-1.482934238586978981e-01,9.984135725493004543e+01
-8.635604058673756356e+00,-2.037572052272705658e+00,-2.620702987281859908e+00,9.823012020192031235e-01,-1.399563531575847009e-01,-1.244771775210918308e-01,1.013489747699834425e+02
-8.650476587721961153e+00,-1.571670325217721986e+00,-2.608105941524858196e+00,9.727944677590667499e-01,-2.089797413275661653e-01,-9.998195443774129942e-02,1.028565922850368395e+02
-8.635527949342643339e+00,-1.064021300514130797e+00,-2.618248875428038414e+00,9.579814967770814427e-01,-2.768632214829279681e-01,-7.494136657416843039e-02,1.045178692362587043e+02
-8.590079012281565340e+00,-5.662890254306665039e-01,-2.653743705547132681e+00,9.379430879691889045e-01,-3.432365155508726451e-01,-4.949200061076357293e-02,1.061791461874805691e+02
-8.517790449205886461e+00,-8.237673702138154086e-02,-2.713777096312639525e+00,9.127885426570253591e-01,-4.077375827857362411e-01,-2.377267295022435223e-02,1.078404231387024339e+02
-8.421972140867520551e+00,3.842435040173098337e-01,-2.796341514172054676e+00,8.826550684397543867e-01,-4.700145944787357255e-01,2.076327436538611890e-03,1.095017000899242987e+02
-8.305190785203881987e+00,8.309346927606890976e-01,-2.897041232795211307e+00,8.477070308478034111e-01,-5.297278529790298007e-01,2.791400419797524651e-02,1.111629770411461635e+02
-8.169649081243736788e+00,1.255482842292944046e+00,-3.010581354930131237e+00,8.081350568769261056e-01,-5.865516445623855102e-01,5.359942265101878128e-02,1.128242539923680283e+02
-8.032798065473404137e+00,1.620175605157756493e+00,-3.120524929192660224e+00,7.641549952881241392e-01,-6.401760160436908986e-01,7.899247849861519566e-02,1.143302178281148826e+02
-7.884765203899156027e+00,1.964865658421539152e+00,-3.233612313297197893e+00,7.160067393396152280e-01,-6.903084654444717749e-01,1.039546620240916347e-01,1.158361816638617370e+02
-7.727117686095996696e+00,2.288058556119167530e+00,-3.346805107892220299e+00,6.639529183670512813e-01,-7.366755374942354218e-01,1.283498135951612051e-01,1.173421454996085913e+02
-7.561664216470468602e+00,2.588737639878948560e+00,-3.456789518363446057e+00,6.082774653434431800e-01,-7.790243152623896883e-01,1.520448663573955306e-01,1.188481093353554456e+02
-7.390678293673951238e+00,2.866834512927981748e+00,-3.559700981096895589e+00,5.379617392347881832e-01,-6.889704772059251914e-01,4.857106635220103108e-01,1.203540731711023000e+02
-7.216661173132977503e+00,3.122763175479037034e+00,-3.651399582354325268e+00,4.007305300104290202e-01,-5.132176219660787853e-01,7.589602854049946057e-01,1.218600370068491543e+02
-6.996828251529595200e+00,3.411651329923043097e+00,-3.741683666012302734e+00,2.136536391130217372e-01,-2.736271494305166363e-01,9.378050466857821288e-01,1.237621414765324772e+02
-6.781731059615103696e+00,3.660808115695931786e+00,-3.793371605465327256e+00,9.999989999989881463e-07,-9.999989999989881463e-07,9.999989999989882250e-01,1.256642459462158001e+02
-6.576058188961139805e+00,3.873478597482015395e+00,-3.798549172986794176e+00,5.996938583006752310e-01,3.640864109715297725e-01,7.126053337319646630e-01,1.275663504158991230e+02
-6.383032668111602526e+00,4.054543701171849257e+00,-3.749413781618724517e+00,8.546902225259143115e-01,5.189015279781137302e-01,1.561498579573454386e-02,1.294794431795102696e+02
-6.206843122691479309e+00,4.206714264859352070e+00,-3.639183401421301145e+00,4.301035175188708259e-01,3.026596604827238093e-02,9.022709878512792381e-01,1.313925359431214019e+02
-6.076022645203365435e+00,4.311983404679741838e+00,-3.506282733814974240e+00,0.000000000000000000e+00,1.466699169439458252e-02,9.998914337827495835e-01,1.329355150966478618e+02
-5.952361996596453153e+00,4.404317840610691093e+00,-3.336871198117743020e+00,5.957172324218911602e-02,-2.030842649882051154e-01,9.773464028194437381e-01,1.344784942501743217e+02
-5.814344561035465375e+00,4.495054538097588370e+00,-3.091205200722848545e+00,1.160771294808021631e-01,-4.103822291189135885e-01,9.044946246577508786e-01,1.362741049894825949e+02
-5.678721950913246275e+00,4.566781954038778402e+00,-2.792446941435135166e+00,1.666077238473512023e-01,-5.965566817638762176e-01,7.850859773280527421e-01,1.380697157287908681e+02
-5.541510530576524651e+00,4.618821722306488020e+00,-2.444213488169280080e+00,2.085625520986678083e-01,-7.520246912917945004e-01,6.252667635093756004e-01,1.398653264680991413e+02
-5.421138884354926191e+00,4.647784915246396586e+00,-2.112058613957098707e+00,2.397820811134505903e-01,-8.687838814175953273e-01,4.332633390513255245e-01,1.414041005170149106e+02
-5.297508897804953598e+00,4.662355098010571020e+00,-1.754657618478455916e+00,2.586593569978581364e-01,-9.408243392834531038e-01,2.189586710990661655e-01,1.429428745659306799e+02
-5.169881601120061454e+00,4.661731252971861750e+00,-1.375497024398425028e+00,2.642227187522435128e-01,-9.644379598930059583e-01,-6.616374603290404999e-03,1.444816486148464492e+02
-5.037525066638808724e+00,4.645107755461767240e+00,-9.780634972320325637e-01,2.561858103073454407e-01,-9.384093051553010767e-01,-2.318508283261705716e-01,1.460204226637622185e+02
-4.899709226032149090e+00,4.611709555462415899e+00,-5.658519347912581710e-01,-4.368697578779399265e-02,-9.773284583447918727e-01,-2.071678851833659019e-01,1.475591967126779878e+02
-4.755700267453298657e+00,4.560827316530864373e+00,-1.423735565782232593e-01,-4.025136432607928638e-02,-9.565883000910382350e-01,-2.886462398828080200e-01,1.490979707615937571e+02
-4.587363689686617896e+00,4.482080352184138583e+00,3.367366171059941182e-01,-3.653074613042472940e-02,-9.290748396561614442e-01,-3.680807613892704278e-01,1.508056497649079972e+02
-4.408739207067830179e+00,4.378041266219006467e+00,8.209821957914560375e-01,-3.255146586304150103e-02,-8.949828952094651680e-01,-4.449090012044264464e-01,1.525133287682222374e+02
-4.219505712117135765e+00,4.247545702708793058e+00,1.305222914624140085e+00,-2.834169962147847083e-02,-8.545538642102252780e-01,-5.185869659239219498e-01,1.542210077715364775e+02
-4.021953635910067604e+00,4.088918038402352906e+00,1.784840563338828678e+00,-2.393125543151770895e-02,-8.080740139781914522e-01,-5.885929688222827361e-01,1.559286867748507177e+02
-3.824856873736515617e+00,3.903697289014115501e+00,2.247946517946413092e+00,-1.935136218945766179e-02,-7.558724546246190501e-01,-6.544313234569821836e-01,1.576064998735415656e+02
-3.630909923088802227e+00,3.687251300266714438e+00,2.699783026326604496e+00,-1.463444854805741498e-02,-6.983188087049549964e-01,-7.156358531579798399e-01,1.592843129722324136e+02
-3.445677335306063238e+00,3.437686958719123886e+00,3.137295319579539665e+00,-9.813913311253518248e-03,-6.358205940947758705e-01,-7.717731915731983472e-01,1.609621260709232615e+02
-3.273769073821122255e+00,3.153857077931395470e+00,3.557784673608813453e+00,-4.923888962638604642e-03,-5.688203386161218011e-01,-8.224458509195069489e-01,1.626399391696141095e+02
-3.114437603220958195e+00,2.822403112744593656e+00,3.972359637400619814e+00,9.999988887669001867e-07,-4.977924468359415378e-01,-8.672950362319774564e-01,1.643777764761805429e+02
-2.977724509760903526e+00,2.452405456557047447e+00,4.363038021314797454e+00,0.000000000000000000e+00,9.988447030629378220e-01,4.803393763095126917e-02,1.661156137827469763e+02
-2.864568081833284818e+00,2.045785742266091223e+00,4.728501720442072731e+00,3.476438112528193458e-01,7.329231412926796585e-01,-5.847781198509935940e-01,1.678534510893134097e+02
-2.774494825997414260e+00,1.605707761122263211e+00,5.068111671711208466e+00,4.894745649099780382e-01,3.309397058303449601e-02,-8.713882254299828434e-01,1.695912883958798432e+02
-2.706735955307332020e+00,1.135981771818290742e+00,5.381547427705013931e+00,4.532808461243134079e-01,-7.589788862248886270e-02,-8.881294866403758315e-01,1.713291257024462766e+02
-2.661531075894960185e+00,6.606103758080746902e-01,5.658406010001368891e+00,4.109816643990637508e-01,-1.838674245974950827e-01,-8.929080813277613382e-01,1.729997892893018445e+02
-2.634752401195283422e+00,1.659230333906845101e-01,5.911511761525282793e+00,3.631467703403489788e-01,-2.893603441167796886e-01,-8.856596493263513281e-01,1.746704528761574124e+02
-2.625520172799113983e+00,-3.445352276778115841e-01,6.140726213297413416e+00,3.104204766320466380e-01,-3.909557141866225050e-01,-8.664818274109000740e-01,1.763411164630129804e+02
-2.632921101679162934e+00,-8.672254855482222080e-01,6.345911081160497957e+00,2.535129794635152534e-01,-4.872851006872112034e-01,-8.356329337052318396e-01,1.780117800498685483e+02
-2.656008385721340126e+00,-1.398615109432526538e+00,6.526928266846112159e+00,1.931907926907854844e-01,-5.770509997870257868e-01,-7.935284879985996520e-01,1.796824436367241162e+02
-2.695800555203972770e+00,-1.956980179510681594e+00,6.689058425471777980e+00,1.302664235593405384e-01,-6.590443139543524786e-01,-7.407356148711350396e-01,1.814207000302306767e+02
-2.751026687940116400e+00,-2.517253073434069233e+00,6.823836868374964837e+00,6.558742901648643986e-02,-7.321606372606610513e-01,-6.779654050186009195e-01,1.831589564237372372e+02
-2.821401815128554258e+00,-3.075993539255924780e+00,6.930901111394932812e+00,2.499997267778856589e-05,-7.954151306990346892e-01,-6.060633376396500349e-01,1.848972128172437976e+02
-2.903913565177048461e+00,-3.613016370307135627e+00,7.008123072082817373e+00,1.122871430989938191e-01,-4.455190708781650577e-01,-8.882017535331525604e-01,1.865816617169487870e+02
-3.000941169239386586e+00,-4.143332299035699329e+00,7.059211820285695715e+00,2.004488266899933369e-01,-0.000000000000000000e+00,-9.797031529391179161e-01,1.882661106166537763e+02
-3.114208817851011446e+00,-4.665634059537380196e+00,7.083933397214644323e+00,1.079760946362622320e-01,1.569198861895872432e-01,-9.816900286265829445e-01,1.899505595163587657e+02
-3.259426762674916045e+00,-5.224101100410137200e+00,7.079589812536964288e+00,1.192085831904171785e-02,3.086332520282131231e-01,-9.511053616078374295e-01,1.917852667561002704e+02
-3.430960514235489978e+00,-5.770305244996969840e+00,7.041398238986423586e+00,-8.452989841290621531e-02,4.501064590670528776e-01,-8.889639316530130175e-01,1.936199739958417751e+02
-3.631726442246585584e+00,-6.303191214571841172e+00,6.969137606224016679e+00,-0.000000000000000000e+00,8.052988517093670473e-03,-9.999665741290355570e-01,1.954546812355832799e+02
-3.862393404198353863e+00,-6.821985744806911889e+00,6.862833956851115857e+00,4.193492468269741091e-02,-1.416378544173482745e-01,-9.890289077107263793e-01,1.972893884753247846e+02
-4.145547291750393271e+00,-7.371738815779554699e+00,6.706949522814702469e+00,8.285143867658267824e-02,-2.878889515326168991e-01,-9.540721097977619136e-01,1.992943888671479442e+02
-4.455501131899042733e+00,-7.902612621331413401e+00,6.509128465536059061e+00,1.217558766212737814e-01,-4.271485671580905197e-01,-8.959450921131094647e-01,2.012993892589711038e+02
-4.784346517169675295e+00,-8.414266746705457933e+00,6.271076325163072340e+00,3.698982379086732664e-01,-2.721274050884779361e-01,-8.883242476668695708e-01,2.033043896507942634e+02
-5.094237722586480110e+00,-8.867137406925616361e+00,6.020977150172110548e+00,5.863533815208138433e-01,-9.379468871456028700e-02,-8.046056601524752550e-01,2.051442253461085556e+02
-5.403107963937861413e+00,-9.304479538836005759e+00,5.744865218112353844e+00,7.525789214884025524e-01,9.257286733496225550e-02,-6.519610656826143602e-01,2.069840610414228479e+02
-5.702952293538757544e+00,-9.726042942649407053e+00,5.446354625987942732e+00,7.746750102182862197e-01,7.737150567254882927e-02,-6.276067866502113013e-01,2.088238967367371401e+02
-5.947714536531020002e+00,-1.007474368224387185e+01,5.176884455903065785e+00,7.957543708473537869e-01,6.206860081654737293e-02,-6.024288091271197132e-01,2.103996389417758337e+02
-6.177360107907703402e+00,-1.041222393191994300e+01,4.898640065667064114e+00,8.157893399344894325e-01,4.668423591491790980e-02,-5.764601763892197583e-01,2.119753811468145273e+02
-6.387635809402405052e+00,-1.073805624868943553e+01,4.614451156263887022e+00,8.347536244505501246e-01,3.123860097885020753e-02,-5.497349691187217724e-01,2.135511233518532208e+02
-6.574283840734367779e+00,-1.105183962089878591e+01,4.327147469550429726e+00,8.526223362539055994e-01,1.575196640496050529e-02,-5.222882607063307203e-01,2.151268655568919144e+02
-6.733041868276037789e+00,-1.135319949239306325e+01,4.039558768777089526e+00,8.693720247285443570e-01,2.446563925975302743e-04,-4.941560712556541390e-01,2.167026077619306079e+02
-6.881255225684514976e+00,-1.171112502404877276e+01,3.683639684410910053e+00,8.849807075402095213e-01,-1.526297770936156650e-02,-4.653753203480212597e-01,2.186786926985779189e+02
-6.962005219122429978e+00,-1.204450488823422383e+01,3.339376441985528299e+00,9.699603113204490201e-01,-4.125040997248095864e-02,-2.397361010369448153e-01,2.206547776352252299e+02
-6.975414300041157922e+00,-1.231876216062919482e+01,3.050196639643552921e+00,9.978964962917117321e-01,-6.481190233636946463e-02,1.999996986248517972e-06,2.223994826581620430e+02
-6.935577194682707614e+00,-1.257450573697899010e+01,2.779284229221965941e+00,9.935172226437345433e-01,7.439416267977916331e-02,8.594787298917568041e-02,2.241441876810988560e+02
-6.843634460075830539e+00,-1.281097322845966247e+01,2.530762301827919281e+00,9.625273348547500607e-01,2.116076272205205944e-01,1.695916913102053503e-01,2.258888927040356691e+02
-6.701856043302143462e+00,-1.302728593305827687e+01,2.308496932748916652e+00,9.057568746903577050e-01,3.431533396295878280e-01,2.486931230535613657e-01,2.276335977269724822e+02
-6.512500443853287635e+00,-1.322254921882522893e+01,2.116353975622512262e+00,8.247263912785047779e-01,4.655079535854985129e-01,3.211334997772921640e-01,2.293783027499092952e+02
-6.314495035511208165e+00,-1.337426051020321971e+01,1.976340058169605340e+00,7.216062158873126631e-01,5.753942958522619833e-01,3.849725620030337581e-01,2.308820833231763459e+02
-6.087578314122672474e+00,-1.351118704357965328e+01,1.861159841726920616e+00,5.991583339605895953e-01,6.698691413752297930e-01,4.385004267732555139e-01,2.323858638964433965e+02
-5.833337551400071597e+00,-1.363348551622195437e+01,1.773109598892465222e+00,4.606624106662593476e-01,7.464020451143851265e-01,4.802833855647918315e-01,2.338896444697104471e+02
-5.553965559122104878e+00,-1.374201425046043035e+01,1.713828682171098405e+00,4.389710697667586481e-01,7.306818208424021854e-01,5.228828516943548887e-01,2.353934250429774977e+02
-5.158254279574168599e+00,-1.386096372230397300e+01,1.687367474295522030e+00,4.161680954060911763e-01,7.131112468824905015e-01,5.641581922948951666e-01,2.373288210211753722e+02
-4.723905581970907264e+00,-1.395724796534490864e+01,1.722691231662371480e+00,3.923112307490913553e-01,6.937348163260546041e-01,6.040048864394219619e-01,2.392642169993732466e+02
-4.256575627376730786e+00,-1.403477348654532797e+01,1.818009910700205456e+00,3.674608875102038374e-01,6.726015948022193713e-01,6.423220304621252152e-01,2.411996129775711211e+02
-3.865965447908692010e+00,-1.408653607476444769e+01,1.931673478884092354e+00,3.416799930441363209e-01,6.497650962969178101e-01,6.790125933917225964e-01,2.427390917806250172e+02
-3.462487231568875945e+00,-1.413238188576893961e+01,2.073231843765559024e+00,3.150338310723305169e-01,6.252831477206449717e-01,7.139836625952920013e-01,2.442785705836789134e+02
-3.047395126090501449e+00,-1.417341641059799962e+01,2.239091411628710393e+00,2.875898764458571510e-01,5.992177425645316413e-01,7.471466790114149603e-01,2.458180493867328096e+02
-2.621578652799628539e+00,-1.421052472241782461e+01,2.424946167591335744e+00,3.179909765222819762e-01,7.200665274187497689e-01,6.167527340357180643e-01,2.473575281897867058e+02
-2.186181959922361973e+00,-1.424478886259298172e+01,2.626871523726849844e+00,3.380474216340204063e-01,8.174906421366417986e-01,4.662949610968601943e-01,2.488970069928406019e+02
-1.742853368457231156e+00,-1.427768824386220636e+01,2.841705903210089090e+00,3.471067368402287467e-01,8.883207164996644867e-01,3.006679528586146399e-01,2.504364857958944981e+02
-1.293501847342618305e+00,-1.431089413215267037e+01,3.066669202738533606e+00,3.448742035303868358e-01,9.302525286461519327e-01,1.252597967635862564e-01,2.519759645989483943e+02
-8.400510590295692248e-01,-1.434606612054525421e+01,3.298981252435419176e+00,3.314224491829874664e-01,9.419219729343024650e-01,-5.422321532143170586e-02,2.535154434020022904e+02
-3.844393296624142309e-01,-1.438485205460478156e+01,3.535861834105615387e+00,3.071890846017150678e-01,9.229494391226966687e-01,-2.319422322986016138e-01,2.550549222050561866e+02
6.487241448215377848e-02,-1.442818397801294950e+01,3.771119477131571696e+00,2.729624655219956564e-01,8.739521582702546310e-01,-4.021158010701978425e-01,2.565723690986664565e+02
5.125185233719798950e-01,-1.447811229496983465e+01,4.005462570182975135e+00,2.298560424572620720e-01,7.965241146734783895e-01,-5.592079528130750044e-01,2.580898159922767263e+02
9.566213672026325776e-01,-1.453616284386330371e+01,4.236259363900296115e+00,1.792721343471907758e-01,6.931841798395761423e-01,-6.981082972340807435e-01,2.596072628858869962e+02
1.395584551478271651e+00,-1.460319725166425187e+01,4.460993376731209104e+00,1.228563057573631018e-01,5.672941591157126817e-01,-8.142982654835828615e-01,2.611247097794972660e+02
1.828395457387252288e+00,-1.467876226504517945e+01,4.677378656197507034e+00,6.244383282718175138e-02,4.229494202577754325e-01,-9.039980949351933415e-01,2.626421566731075359e+02
2.254342003869188371e+00,-1.476174625396926565e+01,4.883244548286490350e+00,0.000000000000000000e+00,2.648456641228154607e-01,-9.642897770880202168e-01,2.641596035667178057e+02
2.672721699947438356e+00,-1.485103340101268365e+01,5.076420466106367435e+00,-0.000000000000000000e+00,3.410856895361299435e-01,-9.400311443624989050e-01,2.656770504603280756e+02
3.137307445362425451e+00,-1.495885115976392932e+01,5.276525089315152961e+00,5.019834928027464265e-04,3.100436191984484724e-01,-9.507211484992416084e-01,2.674004949065883352e+02
3.589158416911885752e+00,-1.507204748727145471e+01,5.451926628678001485e+00,1.003425687128404369e-03,2.786672839359679021e-01,-9.603861400486879418e-01,2.691239393528485948e+02
4.027891574527265206e+00,-1.518857071754119481e+01,5.599968588910745559e+00,1.503785977387866275e-03,2.469905108034141927e-01,-9.690156996653366273e-01,2.708473837991088544e+02
4.453879413850605928e+00,-1.530597996198357613e+01,5.720156630954466692e+00,2.002524924957292066e-03,2.150474506773790706e-01,-9.766005241900436173e-01,2.725708282453691140e+02
4.866902443073395368e+00,-1.542171795297155690e+01,5.813745776455162328e+00,2.499104839494388757e-03,1.828725414561431506e-01,-9.831324366806333259e-01,2.742942726916293736e+02
5.371043349891518659e+00,-1.556143296067788206e+01,5.893649614041543749e+00,2.992990358367668066e-03,1.505004709475927238e-01,-9.886043952211116537e-01,2.764897229564932672e+02
5.758540044550334080e+00,-1.566519060919003259e+01,5.928238744510479385e+00,3.483649023576734002e-03,1.179661394882815101e-01,-9.930105005088870618e-01,2.782646988824751020e+02
6.125282032605467109e+00,-1.575918569817278403e+01,5.941546638736259212e+00,3.970551855544374176e-03,8.530462233376488734e-02,-9.963460022118729720e-01,2.800396748084569367e+02
6.466601929325183740e+00,-1.584169635852256874e+01,5.936946067479265565e+00,4.453173923164541713e-03,5.255113186057792235e-02,-9.986073040886469521e-01,2.818146507344387715e+02
6.777588269383404196e+00,-1.591100680264363909e+01,5.917115645186478368e+00,4.930994909494307299e-03,1.974097962042732288e-02,-9.997919678661614240e-01,2.835896266604206062e+02
7.052824465005929966e+00,-1.596544407492021378e+01,5.883345493936375625e+00,-1.581804577486381203e-01,1.459731392579041442e-01,-9.765596681220609643e-01,2.853646025864024409e+02
7.276946577663342630e+00,-1.600222144547067415e+01,5.839062105953275683e+00,-3.144774977050641684e-01,2.659167839276692091e-01,-9.112574649702530616e-01,2.870524924873593022e+02
7.460195947575622988e+00,-1.602323762803597873e+01,5.783657657395926854e+00,-4.572269137312744425e-01,3.744047922272726314e-01,-8.066985812051795657e-01,2.887403823883161635e+02
7.597893125059928643e+00,-1.602704514750512388e+01,5.717625545169793710e+00,-5.802791275481145039e-01,4.667635518086793445e-01,-6.673873843850968157e-01,2.904282722892730249e+02
7.685370841453752710e+00,-1.601216504469038782e+01,5.641459250049984497e+00,-6.783331045802174497e-01,5.390142884851797378e-01,-4.993253408757656331e-01,2.921161621902298862e+02
7.717974097544530565e+00,-1.597708694373507754e+01,5.555652332783647118e+00,-8.308700935761591522e-01,2.821523797423960422e-01,-4.796278997375698627e-01,2.938040520911867475e+02
7.691060251848473861e+00,-1.592026911992331684e+01,5.460698430192060471e+00,-9.089331001746200345e-01,0.000000000000000000e+00,-4.169395872382440360e-01,2.954919419921436088e+02
7.601210316295162528e+00,-1.583972899371079102e+01,5.357069877942558733e+00,-7.894990794488210631e-03,9.999678340435190771e-01,-0.000000000000000000e+00,2.971798318931004701e+02
7.423667924054765166e+00,-1.571753580004839712e+01,5.231956057665651194e+00,-1.703958334454870882e-01,9.853746799799913969e-01,-0.000000000000000000e+00,2.990541810862090415e+02
7.161912917041532545e+00,-1.555509544308772618e+01,5.096452109942310571e+00,-3.283608028154993419e-01,9.445513131512170979e-01,-0.000000000000000000e+00,3.009285302793176129e+02
6.817913817614524419e+00,-1.534776951734831130e+01,4.951704175660753826e+00,-4.775849541306566581e-01,8.785844362321527656e-01,-0.000000000000000000e+00,3.028028794724261843e+02
6.467564284641579953e+00,-1.513537197332180106e+01,4.823309201911325061e+00,-6.140960191372843990e-01,7.892300547248949361e-01,-0.000000000000000000e+00,3.043951603683539702e+02
6.071165426470167326e+00,-1.488937831825254499e+01,4.691940455801261400e+00,-7.342601431988190486e-01,6.788667336899709692e-01,-0.000000000000000000e+00,3.059874412642817560e+02
5.632387228051650929e+00,-1.460759585967258545e+01,4.559098076172470648e+00,-8.348786147012700054e-01,5.504322834968946587e-01,-0.000000000000000000e+00,3.075797221602095419e+02
5.154918085199455824e+00,-1.428785476414291722e+01,4.426282212171098074e+00,-9.132730123892169871e-01,4.073455594976950200e-01,-0.000000000000000000e+00,3.091720030561373278e+02
4.642868796554422417e+00,-1.392852800373455757e+01,4.294683738885086477e+00,-9.179203964683859684e-01,3.390676701378406710e-01,-2.060418909240779306e-01,3.107642839520651137e+02
4.101170143604782936e+00,-1.352905468729855976e+01,4.164874975156091175e+00,-8.792999486745842752e-01,2.548072379775935814e-01,-4.023715593034644100e-01,3.123565648479928996e+02
3.499578731140702725e+00,-1.306036225868320599e+01,4.029485173283798183e+00,-7.992321362439346322e-01,1.585360245859657180e-01,-5.797346990690419588e-01,3.140456542926685870e+02
2.876018232955313003e+00,-1.254443154914598146e+01,3.896844051709120293e+00,-6.814910863540341035e-01,5.479192654280642949e-02,-7.297710216271888761e-01,3.157347437373442745e+02
2.237131363999862899e+00,-1.198133786483144014e+01,3.767280369744090418e+00,-6.205134640086502618e-01,5.333900977583327235e-02,-7.823784193225978845e-01,3.174238331820199619e+02
1.589559142868624431e+00,-1.137120052812231918e+01,3.641122862297924812e+00,-5.555099920305542893e-01,5.154003310332593707e-02,-8.299097985585657256e-01,3.191129226266956493e+02
9.397264402619540657e-01,-1.071475875679305467e+01,3.517708049743204946e+00,-4.869024072635230183e-01,4.940666812154841103e-02,-8.720567796581152331e-01,3.208020120713713368e+02
2.936200092926531391e-01,-1.001394561439471609e+01,3.394388055631718526e+00,-4.151358296065724707e-01,4.695275589360321800e-02,-9.085459161167265263e-01,3.224911015160470242e+02
-3.058236972134129594e-01,-9.317285399036698834e+00,3.275357254597668799e+00,-3.406758742256457695e-01,4.419421715437216180e-02,-9.391404686691787740e-01,3.240799573945994325e+02
-8.925673078129936489e-01,-8.587335537230854854e+00,3.150447618493843915e+00,-2.640056307985672035e-01,4.114894902382322528e-02,-9.636419412324627176e-01,3.256688132731518408e+02
-1.462066439405028007e+00,-7.826173181133467160e+00,3.016771177922027203e+00,-1.856225293844177004e-01,3.783670889846089264e-02,-9.818913687602911500e-01,3.272576691517042491e+02
-2.009795339710836348e+00,-7.035903722368090918e+00,2.871440024830595128e+00,-1.060351132440021105e-01,3.427898627382316293e-02,-9.937703486523253860e-01,3.288465250302566574e+02
-2.531570004877395696e+00,-6.218666161505582046e+00,2.712676288862225338e+00,-2.575973954230955515e-02,3.049886332920644788e-02,-9.992018090232945848e-01,3.304353809088090657e+02
-3.024019362471931593e+00,-5.376636817270666668e+00,2.541146853566015995e+00,5.468277066728677305e-02,2.652086517871111992e-02,-9.981505088428770378e-01,3.320242367873614739e+02
-3.484410406847013864e+00,-4.512019504796533909e+00,2.359078143249914827e+00,1.347705114470045817e-01,2.237080075976976418e-02,-9.906232666955370192e-01,3.336130926659138822e+02
-3.910177266942593821e+00,-3.627035703417493817e+00,2.168921403630693856e+00,2.139838780470881274e-01,1.807559539111289193e-02,-9.766689166692718027e-01,3.352019485444662905e+02
-4.298773261170395266e+00,-2.723922786880358160e+00,1.973127937027907564e+00,2.918089380793991161e-01,1.366311608624410680e-02,-9.563779916520561697e-01,3.367908044230186988e+02
-4.648657528566401353e+00,-1.805251481642507594e+00,1.774045510235841450e+00,3.677407659197086676e-01,9.161990755584346890e-03,-9.298821360832296712e-01,3.383796603015711071e+02
-4.947919686305141340e+00,-9.153422792351098014e-01,1.582566756341853731e+00,4.412867187030274363e-01,4.601422470191819485e-03,-8.973532519626823412e-01,3.398989494162532310e+02
-5.214482619751180437e+00,-1.748480863377454772e-02,1.391793097419132375e+00,5.119696326535965181e-01,1.099999210732965166e-05,-8.590023836520447320e-01,3.414182385309353549e+02
-5.449615319710054528e+00,8.853564629637421524e-01,1.203442730219148604e+00,5.956896370556957754e-01,2.920263765887917695e-02,-8.026824168116059033e-01,3.429375276456174788e+02
-5.654611820566127989e+00,1.790224800803281946e+00,1.019233835972854996e+00,6.728372947655918423e-01,5.807207328657682660e-02,-7.375063451097836342e-01,3.444568167602996027e+02
-5.830791180642332705e+00,2.694171327938419402e+00,8.408845693939372978e-01,7.425614283300140395e-01,8.630078656641593238e-02,-6.641932696099374089e-01,3.459761058749817266e+02
-5.979497462304522060e+00,3.594255150512725372e+00,6.701130476828973670e-01,8.040927659970493746e-01,1.135773268077517884e-01,-5.835520666634573805e-01,3.474953949896638505e+02
-6.102099711810685889e+00,4.487543482959993391e+00,5.086373395318012358e-01,8.567524286989236515e-01,1.396007491247152066e-01,-4.964724632476649191e-01,3.490146841043459744e+02
-6.199991938905075273e+00,5.371111773121942434e+00,3.581754541288592053e-01,8.999594196863910378e-01,1.640839346776358787e-01,-4.039152204354495290e-01,3.505339732190280984e+02
-6.274593096157208727e+00,6.242043827281877455e+00,2.204453301634353157e-01,9.332370342337380498e-01,1.867567583492452110e-01,-3.069015333075610363e-01,3.520532623337102223e+02
-6.329922368986875547e+00,7.160386415183302766e+00,8.908066522179247659e-02,9.562181187464160459e-01,2.073690689209338467e-01,-2.065017642466611958e-01,3.536867832669289555e+02
-6.361005712526903721e+00,8.055803346576826840e+00,-2.276898356117989380e-02,9.686491212909009718e-01,2.256934488836080943e-01,-1.038236338914444862e-01,3.553203042001476888e+02
-6.370611645545764645e+00,8.924424448420468892e+00,-1.141784170754074346e-01,9.703928888893302851e-01,2.415277234480655844e-01,0.000000000000000000e+00,3.569538251333664221e+02
-6.361813191372679199e+00,9.762376876673268811e+00,-1.846681860015003396e-01,9.969795307158221265e-01,-7.765188556165565636e-02,0.000000000000000000e+00,3.585873460665851553e+02
-6.337719236005745493e+00,1.056580748321833418e+01,-2.337589958072013585e-01,9.918528315965160491e-01,-3.914307165352789303e-02,-1.212179045828460228e-01,3.602208669998038886e+02
-6.301474475439029277e+00,1.133088300938253390e+01,-2.609717102928296728e-01,9.706551006259609427e-01,-0.000000000000000000e+00,-2.404717771875165555e-01,3.618543879330226218e+02
-6.256259362564576598e+00,1.205379027922380786e+01,-2.658273551358510955e-01,9.546769266573601476e-01,-0.000000000000000000e+00,-2.976406653627959864e-01,3.634879088662413551e+02
-6.187805926353140862e+00,1.293340897862038652e+01,-2.320641849586868866e-01,9.988611377177328832e-01,-0.000000000000000000e+00,4.769095883004498271e-02,3.656618007839354050e+02
-6.116962010790802040e+00,1.370294206820402572e+01,-1.484366428116428716e-01,9.955207353940758175e-01,9.453287991526874989e-02,0.000000000000000000e+00,3.678356927016294549e+02
-6.069163530530355288e+00,1.418394062768348540e+01,-6.290305286869357637e-02,5.764363129604290759e-01,-1.163998612660081811e-03,-8.171400260718830744e-01,3.693721637586841666e+02
-6.025115373467322399e+00,1.461953172433211279e+01,3.970827559511237725e-02,6.263305327182295823e-01,-1.199947501938727762e-01,-7.702657487593315144e-01,3.709086348157388784e+02
-5.985506780289157724e+00,1.500983640682793663e+01,1.571790952585587209e-01,6.644450942120346815e-01,-2.365687131816022748e-01,-7.089047613904559952e-01,3.724451058727935902e+02
-5.949356795130287701e+00,1.536685434660512861e+01,2.921197406699310717e-01,6.900631618070286466e-01,-3.486934415696251732e-01,-6.342110977615940115e-01,3.740395342029160020e+02
-5.918451299753523465e+00,1.567519413615996449e+01,4.371791019492243247e-01,7.027029220550748967e-01,-4.542601644736031230e-01,-5.475895418177767482e-01,3.756339625330384138e+02
-5.890620850856437940e+00,1.595924299176498273e+01,6.044505233485050200e-01,7.021266458275026157e-01,-5.512834450064016956e-01,-4.506692095996212011e-01,3.773981333598889591e+02
-5.869627494372072540e+00,1.618360910066836666e+01,7.728100068423211511e-01,6.883451606235952980e-01,-6.379385204616055960e-01,-3.452729122842929099e-01,3.791623041867395045e+02
-5.855397266411439539e+00,1.635132185427181284e+01,9.352984780006378118e-01,6.616176487368623516e-01,-7.125956216718607461e-01,-2.333828760933879531e-01,3.809264750135900499e+02
-5.847990102959316872e+00,1.646588996815557593e+01,1.084509745376605494e+00,6.563042542373282995e-01,-7.215206432112400980e-01,-2.206143406166481136e-01,3.826906458404405953e+02
-5.846969908930078397e+00,1.652755078420863910e+01,1.200065623022024575e+00,6.508130517502327406e-01,-7.302501862227346319e-01,-2.077860370405837931e-01,3.842474504765693837e+02
-5.850386152304684728e+00,1.655697469663581600e+01,1.296332917316037614e+00,6.451455289838241569e-01,-7.387818858232203523e-01,-1.949014407530193504e-01,3.858042551126981721e+02
-5.856758810985256858e+00,1.655692201722099455e+01,1.369825306307765889e+00,6.393032214082634557e-01,-7.471134307259801322e-01,-1.819640423872574408e-01,3.873785761281259283e+02
-5.863886492921067450e+00,1.653013407607079444e+01,1.415289033773823757e+00,6.332877118383434256e-01,-7.552425638649635786e-01,-1.689773468763304254e-01,3.889528971435536846e+02
-5.868948950870857217e+00,1.648024016505855371e+01,1.429278755083672081e+00,6.271006300047485826e-01,-7.631670830058221444e-01,-1.559448725038657113e-01,3.905272181589814409e+02
-5.867929892994984797e+00,1.641133178527435987e+01,1.409380762871961679e+00,6.207436521126273865e-01,-7.708848413421059975e-01,-1.428701499513475581e-01,3.921015391744091971e+02
-5.856193655953681798e+00,1.632771456807709498e+01,1.353697293140645241e+00,6.142185003875959559e-01,-7.783937480764653305e-01,-1.297567213420317556e-01,3.936758601898369534e+02
-5.829064840290643978e+00,1.623366500546609004e+01,1.260330827815611787e+00,6.075269426092964054e-01,-7.856917689866956822e-01,-1.166081392817715640e-01,3.952501812052647097e+02
-5.776587200993342108e+00,1.612573831494188070e+01,1.114417210323608520e+00,6.006707916326359253e-01,-7.927769269764779470e-01,-1.034279658970131688e-01,3.969421508560849929e+02
-5.693448477818830789e+00,1.601536892574705817e+01,9.179434844222521539e-01,5.936519048968359469e-01,-7.996473026106641901e-01,-9.021977187022076072e-02,3.986341205069052762e+02
-5.573903210236339945e+00,1.590638133069918858e+01,6.702060877233171343e-01,5.864721839224217304e-01,-8.063010346349646085e-01,-7.698713547299004811e-02,4.003260901577255595e+02
-5.427894963489417357e+00,1.580896382935361721e+01,3.981094600841624809e-01,5.791335737962923780e-01,-8.127363204798946361e-01,-6.373364159711236709e-02,4.018894274981638546e+02
-5.262481387012691414e+00,1.572303212025346397e+01,1.151695384045606924e-01,5.716380626450057179e-01,-8.189514167488497476e-01,-5.046288078384960490e-02,4.033279978224805404e+02
-5.090940341417641513e+00,1.564958391286889139e+01,-1.586658486297757853e-01,5.639876810964238318e-01,-8.249446396901729539e-01,-3.717844825168230283e-02,4.046076431591168330e+02
-4.690750207109738668e+00,1.551961838929227788e+01,-7.278789225525830187e-01,5.561845017298608917e-01,-8.307143656530895370e-01,-2.388394292279250736e-02,4.070017554401334792e+02
-4.483317828602811694e+00,1.546467891069926814e+01,-9.979960489865419282e-01,5.482306385148848493e-01,-8.362590315273860098e-01,-1.058296644854395639e-02,4.080531984137069799e+02
-4.081946396414224409e+00,1.536562080016473431e+01,-1.485384827001032138e+00,5.401282462389219718e-01,-8.415771351667139522e-01,2.720877765777181701e-03,4.099016829047124020e+02
-3.632242440731046962e+00,1.525775879652681688e+01,-1.980468993435871683e+00,5.318795199238190996e-01,-8.466672357954050376e-01,1.602398553669864834e-02,4.117501673957178241e+02
-3.142424404683997086e+00,1.513323692631032102e+01,-2.468045408283389808e+00,5.239554337157279473e-01,-8.514760797356397681e-01,2.138197689063527085e-02,4.135986518867232462e+02
-2.622127634452709355e+00,1.498438115056826092e+01,-2.933725087825068023e+00,8.300563437177729265e-01,-5.470705674598560497e-01,1.082509144116520078e-01,4.154471363777286683e+02
-2.050050108592766041e+00,1.479088315626927752e+01,-3.387936446872254592e+00,5.048504550707269001e-01,-7.270622152181295261e-01,4.653004977604566772e-01,4.174078258605113092e+02
-1.472183948143783061e+00,1.455162133266506252e+01,-3.785329506466121430e+00,0.000000000000000000e+00,-2.786296520869637611e-02,9.996107518284248483e-01,4.193685153432939501e+02
-9.759348493889128395e-01,1.430150641072826545e+01,-4.076981115046225845e+00,-0.000000000000000000e+00,-9.993865585873608071e-01,3.499294952975973150e-02,4.210780970384075204e+02
-4.989902118932363351e-01,1.401024619352421929e+01,-4.311838815179135587e+00,-0.000000000000000000e+00,2.016697227948966581e-02,9.997956257309926764e-01,4.227876787335210906e+02
-5.345578431280220699e-02,1.367421569291981598e+01,-4.482944787144942822e+00,-0.000000000000000000e+00,-4.846611809941286930e-02,9.988238260001270907e-01,4.244972604286346609e+02
3.510969393323628562e-01,1.329215468640531483e+01,-4.583354196749629850e+00,-0.000000000000000000e+00,-1.168708951513450084e-01,9.931461090165466521e-01,4.262068421237482312e+02
7.073042878254682808e-01,1.287332690147073500e+01,-4.607701111253306614e+00,-0.000000000000000000e+00,-0.000000000000000000e+00,9.999989999924441264e-01,4.278964229234440495e+02
9.786611974412067205e-01,1.249083591416318306e+01,-4.571202997773283094e+00,-2.685116056354167058e-01,-9.387736212176303052e-01,-2.158786829377015715e-01,4.293354488072124582e+02
1.281116317344879629e+00,1.197742115257883633e+01,-4.447404517527864698e+00,-1.161848472912878211e-01,1.341998236131241359e-03,9.932256945439078555e-01,4.311642364071363431e+02
1.534323935693476804e+00,1.143888264062178983e+01,-4.234869509710086355e+00,-4.786744931376812340e-01,-2.325607537443824535e-01,8.466311035131171003e-01,4.329930240070602281e+02
1.740300960009893316e+00,1.088439396109537149e+01,-3.940402152199447006e+00,-5.049723454920819199e-01,-3.886080038265491421e-01,7.707040610061457464e-01,4.348218116069841130e+02
1.901158424105260369e+00,1.032311347879190855e+01,-3.570807382619516357e+00,-5.157133636215051053e-01,-5.326832743473854936e-01,6.710337218158815009e-01,4.366505992069079980e+02
2.031827583662967562e+00,9.675680789350192157e+00,-3.051642559040282698e+00,-5.105666519331244491e-01,-6.603479986302661642e-01,5.506906705586082085e-01,4.387747795449688510e+02
2.104140909749213417e+00,9.046819489389815061e+00,-2.443508085803364427e+00,-4.896907738373317276e-01,-7.676691808925005800e-01,4.133823589947610011e-01,4.408989598830297041e+02
2.125313425677301193e+00,8.479942957085794930e+00,-1.802070034661926057e+00,-4.537288648771277133e-01,-8.513405592683653822e-01,2.633388868430069918e-01,4.429084787836207511e+02
2.108189512751228900e+00,7.948904153678289397e+00,-1.113417684049881951e+00,-4.037888176911342830e-01,-9.087844595733248765e-01,1.051826827357302818e-01,4.449179976842117981e+02
2.075121453681597838e+00,7.568751685907507465e+00,-5.660352292835202359e-01,-3.414091497420060906e-01,-9.382312028320629604e-01,-5.621389958593878133e-02,4.464545876710864150e+02
2.030234712370309058e+00,7.210823565634453480e+00,-1.019558480217958724e-02,-2.685116056354195369e-01,-9.387736212176401862e-01,-2.158786829377038197e-01,4.479911776579610319e+02
1.976900818114478264e+00,6.876480204247312322e+00,5.478822439259714017e-01,-5.019516136385371308e-01,-7.877551922558253539e-01,-3.570494848534851995e-01,4.495277676448356488e+02
1.917683344532304046e+00,6.562608288446072358e+00,1.109982226659025351e+00,-6.865874504554446700e-01,-5.601420263994217885e-01,-4.635046743316877937e-01,4.510868644251565343e+02
1.856694397504315308e+00,6.275313495582242496e+00,1.661589957209469892e+00,-8.044661251533606894e-01,-2.780639580095519703e-01,-5.248930259779570617e-01,4.526459612054774198e+02
1.784180733856522316e+00,5.962313795552451445e+00,2.314613947419524198e+00,-8.441248279987034753e-01,3.105235780018392872e-02,-5.352448279162121958e-01,4.545652864476153354e+02
1.719509518925886216e+00,5.697290253208572963e+00,2.926894365072319371e+00,-8.017065174502226998e-01,3.371499636529904920e-01,-4.935529980317618359e-01,4.564846116897532511e+02
1.673770376989935249e+00,5.508593470932905412e+00,3.406213368015117648e+00,-6.813357326158541172e-01,6.104649551177712130e-01,-4.038714622457345582e-01,4.581012057756331615e+02
1.637832188651595411e+00,5.348391696438703491e+00,3.849232015840130749e+00,-4.947174464470727173e-01,8.244217198471910368e-01,-2.749208540891341368e-01,4.597177998615130718e+02
1.613792878747386084e+00,5.215944400869934938e+00,4.251214744762856768e+00,-2.599980547326616320e-01,9.582175319228685151e-01,-1.192399808977271242e-01,4.613343939473929822e+02
1.603516875803377317e+00,5.110363787331354324e+00,4.608096250679396100e+00,-0.000000000000000000e+00,9.988447030609834965e-01,4.803393763085728879e-02,4.629509880332728926e+02
1.608406397607996752e+00,5.030482636669404428e+00,4.917151480977235423e+00,-0.000000000000000000e+00,9.998087923684008116e-01,1.950329944675330968e-02,4.645675821191528030e+02
1.629625898877554491e+00,4.974991393891744274e+00,5.176325691922503580e+00,-0.000000000000000000e+00,9.999581091659919263e-01,-9.043223972639461566e-03,4.661841762050327134e+02
1.669706012475467460e+00,4.942278888243546220e+00,5.387514340387142830e+00,-0.000000000000000000e+00,9.992925322310477476e-01,-3.758237637286021560e-02,4.678412304909839463e+02
1.729735972822932677e+00,4.932844244914535103e+00,5.540813476627326928e+00,-0.000000000000000000e+00,9.978126036139498556e-01,-6.609090750926480129e-02,4.694982847769351793e+02
1.810953646388042015e+00,4.945225178555756607e+00,5.633968190734931270e+00,-0.000000000000000000e+00,9.968731426564392262e-01,-7.900593205231017102e-02,4.711553390628864122e+02
1.914301317459880192e+00,4.978524946407588914e+00,5.666066334044567832e+00,-0.000000000000000000e+00,9.968731420280737554e-01,-7.900593200250984049e-02,4.728123933488376451e+02
2.039852887884656685e+00,5.032858891249262001e+00,5.639445906974279943e+00,-7.616494138195822883e-02,9.736822041545590833e-01,-2.148019250789962309e-01,4.744694476347888781e+02
2.186807984222602474e+00,5.108657972542918202e+00,5.558917815351553493e+00,-1.504425544911452139e-01,9.263638867852794778e-01,-3.452752337757195589e-01,4.761265019207401110e+02
2.343208094567885258e+00,5.199320315036527695e+00,5.439713692738338935e+00,-2.209922725195381521e-01,8.560907170071260230e-01,-4.671927864827699617e-01,4.776849414182245255e+02
2.515939598617820128e+00,5.308528157037879502e+00,5.283874718086638111e+00,-2.860659048809292559e-01,7.646040350934459884e-01,-5.775335207450784658e-01,4.792433809157089399e+02
2.704137998136277865e+00,5.436535841377247991e+00,5.095662264930282959e+00,-3.440509573491851714e-01,6.541708442874031304e-01,-6.735632451613200455e-01,4.808018204131933544e+02
2.906614968650886865e+00,5.583447751201528142e+00,4.879284150553208299e+00,-3.935105893362671470e-01,5.275276336119402165e-01,-7.529023919851554059e-01,4.823602599106777689e+02
3.123698305704528888e+00,5.750836000519014668e+00,4.636329651877537650e+00,-4.332192180838126960e-01,3.878125668880909038e-01,-8.135849814540664360e-01,4.839337802713719157e+02
3.351298355537279505e+00,5.937097058266331828e+00,4.372850046698159687e+00,-4.621928875140488557e-01,2.384877187560993927e-01,-8.541073367763344359e-01,4.855073006320660625e+02
3.587163667947144585e+00,6.141890817617334797e+00,4.093043148957467459e+00,-4.797136493196433316e-01,8.325328505756317277e-02,-8.734653428642121797e-01,4.870808209927602093e+02
3.829040074011777595e+00,6.364891377537601258e+00,3.801106884645161443e+00,-4.853473523275926849e-01,-7.404410634739387598e-02,-8.711793259170240722e-01,4.886543413534543561e+02
4.119951067139322021e+00,6.653686743554584559e+00,3.445401386981842062e+00,-4.789543995528390274e-01,-2.295067122760456046e-01,-8.473059377643357148e-01,4.905162175005103791e+02
4.412408012849275529e+00,6.970711832308343681e+00,3.084978486154607236e+00,-6.043810569541747668e-01,-2.071837466362087821e-01,-7.692830643696387805e-01,4.923780936475664021e+02
4.702049223597395411e+00,7.315032244624207536e+00,2.727066940856642141e+00,-7.163192782776355294e-01,-1.802368996930730771e-01,-6.740915008794841068e-01,4.942399697946224251e+02
4.984195587573250208e+00,7.684933219474044286e+00,2.377533761451082750e+00,-8.122708573278122346e-01,-1.492675617360893214e-01,-5.638556990491923049e-01,4.961018459416784481e+02
5.252707308609041448e+00,8.076251291106622432e+00,2.043179069361566125e+00,-8.900943664099371100e-01,-1.149668955321716257e-01,-4.410358622807202811e-01,4.979543546617159109e+02
5.504255171005416614e+00,8.488723725323863434e+00,1.727292609858174899e+00,-9.480529478434914781e-01,-7.810041214131846488e-02,-3.083730430972310699e-01,4.998068633817533737e+02
5.734117837015219266e+00,8.920101749157828053e+00,1.433344987106768498e+00,-9.848530781364144282e-01,-3.949088737980881170e-02,-1.688279725024866007e-01,5.016593721017908365e+02
5.937722257572012552e+00,9.367625107789121941e+00,1.161569549988826333e+00,-9.996734394315608396e-01,-0.000000000000000000e+00,-2.551498569243200801e-02,5.035118808218282993e+02
6.137356853925386879e+00,9.920823492516106512e+00,8.655565068224974068e-01,-5.759863546497749898e-01,0.000000000000000000e+00,-8.174580840985133934e-01,5.057270832796972968e+02
6.280123505194672440e+00,1.049018681226037764e+01,5.993052108374568032e-01,-9.988620449104033128e-01,0.000000000000000000e+00,4.767195441714103948e-02,5.079422857375662943e+02
6.363024738274565273e+00,1.111914135559013594e+01,3.387019483010970111e-01,-9.546707119054288482e-01,-0.000000000000000000e+00,-2.976605983798433774e-01,5.103365104308559239e+02
6.378156675727470137e+00,1.156807299426918334e+01,1.678813278850277424e-01,-9.796745246587165168e-01,-0.000000000000000000e+00,2.005886979233616751e-01,5.120221874069994783e+02
6.365483878236810611e+00,1.197798358266429020e+01,1.963493358606809708e-02,-9.959696389898720081e-01,-0.000000000000000000e+00,8.967986510537995226e-02,5.135516736204031076e+02
6.329042334087728428e+00,1.238956780813499847e+01,-1.215432147675182817e-01,-9.997490736100211883e-01,-0.000000000000000000e+00,-2.235597928444674545e-02,5.150811598338067370e+02
