5.231157866985721938e+00,-9.493966981735040278e-01,-3.348997180476462887e+00,-9.881887697143983962e-01,-1.246401601465950762e-02,-1.527272199324519464e-01,4.690964255100129066e+01
5.064429749885031917e+00,-1.660100784215288616e+00,-3.561493836152007209e+00,-9.789433609053522778e-01,-2.146098598938219609e-02,-2.029958674759157755e-01,4.877315272108899791e+01
4.834115280155039329e+00,-2.354144613637318972e+00,-3.773798237682937984e+00,-9.986826955852031729e-01,5.958247552546744319e-03,-5.094480174616558554e-02,5.063666289117670516e+01
4.597640602204781324e+00,-2.908743015261460840e+00,-3.946323740567305283e+00,-9.941929643894603652e-01,3.323291848502375745e-02,1.023421843033252149e-01,5.217061025651571526e+01
4.320258520744724606e+00,-3.444940535953711080e+00,-4.114600864123549862e+00,-9.655831159626707683e-01,5.970131734665728995e-02,2.531462005949740024e-01,5.370455762185472537e+01
4.003107801586476278e+00,-3.959292629561119714e+00,-4.276344426634224760e+00,-9.135472703524510907e-01,8.472129717383410086e-02,3.978086055350292249e-01,5.523850498719373547e+01
3.647358186889227749e+00,-4.448361322955409314e+00,-4.429269288973176621e+00,-8.393478756237340299e-01,1.076858518237012730e-01,5.328197640890938169e-01,5.677245235253274558e+01
2.998942499063855127e+00,-5.168005546439642828e+00,-4.648749539319396717e+00,-7.447850786012693014e-01,1.280378416000694519e-01,6.549041897959472225e-01,5.924054120297004289e+01
2.548098044572518983e+00,-5.573384310983441559e+00,-4.766688379559516520e+00,-6.200574967865772891e-01,6.401194805050879066e-02,7.819393654098425461e-01,6.078681339926504990e+01
2.066569333596779412e+00,-5.944033148177279458e+00,-4.867825277351812474e+00,-0.000000000000000000e+00,-9.999989999988958197e-07,9.999989999988958544e-01,6.233308559556005690e+01
1.557964550994125785e+00,-6.278371348493700488e+00,-4.950477776678284592e+00,-2.133363157503806173e-01,2.737851107336757850e-01,9.378311839152279061e-01,6.387935779185506391e+01
1.026189218363874112e+00,-6.575024761515789073e+00,-5.013127089699651151e+00,-4.001471294801287604e-01,5.135297246752095202e-01,7.590569785236196410e-01,6.542562998815007802e+01
4.751608965265054496e-01,-6.832641992827343635e+00,-5.054254561150186120e+00,-5.372051245279615417e-01,6.894239461053652818e-01,4.859045963142081814e-01,6.697190218444508503e+01
-3.200311856265382615e-01,-7.119607444404806529e+00,-5.070152769434157491e+00,-6.074690999519757328e-01,7.795978449198487370e-01,1.523367742923669443e-01,6.913434444845205462e+01
-1.135126656639157128e+00,-7.313570983941868775e+00,-5.033363919111094376e+00,-0.000000000000000000e+00,4.167097442644203398e-02,9.991303868317403802e-01,7.129678671245902422e+01
-1.880814959546924570e+00,-7.407464873369900005e+00,-4.956234361778336428e+00,-4.499992964596048837e-04,3.515004504552168840e-01,9.361865363420546204e-01,7.325162535241493345e+01
-2.626609313622429998e+00,-7.424101847969575729e+00,-4.841847446530082699e+00,-2.094397647221292458e-02,9.665299142314948133e-01,2.556937127619370864e-01,7.520646399237084267e+01
-3.277932391964586856e+00,-7.376326272579647458e+00,-4.714224910343068231e+00,1.054998706094426334e-03,4.298934727561680713e-01,9.028778926633456159e-01,7.693082100185546324e+01
-3.916667220666989024e+00,-7.272991861847554418e+00,-4.565848695371649946e+00,2.472863854312343790e-01,3.500180341942452644e-01,9.035124898529685034e-01,7.865517801134008380e+01
-4.536612805175401775e+00,-7.116243048348164457e+00,-4.400440751737870748e+00,4.769468983569679077e-01,2.466877501427895969e-01,8.436022819306090437e-01,8.037953502082470436e+01
-5.154637048411157885e+00,-6.898526315065653947e+00,-4.214311619992132663e+00,6.746469744001256652e-01,1.268268071975974798e-01,7.271618945668237854e-01,8.217271578294187862e+01
-5.738838071320329526e+00,-6.627377765062402837e+00,-4.018086365665310744e+00,7.565867492953690654e-01,3.852353970492891633e-02,6.527560246224863860e-01,8.396589654505905287e+01
-6.282959649606794983e+00,-6.306243483916002646e+00,-3.816743231828235938e+00,8.233585740341241577e-01,-5.055204354405961470e-02,5.652637875007061607e-01,8.575907730717622712e+01
-6.781003469574537590e+00,-5.938897696509927826e+00,-3.615506180308000861e+00,8.736238188607179378e-01,-1.386141742548499256e-01,4.664392069888190773e-01,8.755225806929340138e+01
-7.227009490600947217e+00,-5.529155723352658036e+00,-3.419599171921730463e+00,9.063747696360280326e-01,-2.238973999124539149e-01,3.582634942063920303e-01,8.934543883141057563e+01
-7.630381138786401785e+00,-5.060707845523799264e+00,-3.226690810119401842e+00,9.209548305887190756e-01,-3.046919757924185790e-01,2.429053311560975814e-01,9.121560967976374457e+01
-7.966051953673010999e+00,-4.555473678936770909e+00,-3.050962575058237203e+00,9.170716890544008404e-01,-3.793781407606504619e-01,1.226773958341475096e-01,9.308578052811691350e+01
-8.233593657386606424e+00,-4.020494497966074832e+00,-2.897040515295560059e+00,8.948031780340768293e-01,-4.464585898832771349e-01,-9.999990814011525472e-06,9.495595137647008244e+01
-8.436224101495357175e+00,-3.463350168985690480e+00,-2.768701796480852018e+00,9.691397582806691169e-01,-2.301467414719018389e-01,-8.830971808899132358e-02,9.682612222482325137e+01
-8.555683465119280129e+00,-3.003348650792786678e+00,-2.685566538664732050e+00,9.852177632728058576e-01,-0.000000000000000000e+00,-1.713007849690220130e-01,9.833373973987664840e+01
-8.639095361505068738e+00,-2.538217858428259976e+00,-2.621973731355746740e+00,9.864498437880573345e-01,-7.016955274124393738e-02,-1.482934238586978981e-01,9.984135725493004543e+01
-8.688823244649851674e+00,-2.071338495220353071e+00,-2.579239973188746315e+00,9.823012020192031235e-01,-1.399563531575847009e-01,-1.244771775210918308e-01,1.013489747699834425e+02
-8.707439582275116052e+00,-1.605739654466376898e+00,-2.557452607139577783e+00,9.727944677590667499e-01,-2.089797413275661653e-01,-9.998195443774129942e-02,1.028565922850368395e+02
-8.694906404573604419e+00,-1.097798927966117555e+00,-2.557574785236451653e+00,9.579814967770814427e-01,-2.768632214829279681e-01,-7.494136657416843039e-02,1.045178692362587043e+02
-8.650949126141112444e+00,-5.990836554313049289e-01,-2.582798715916384324e+00,9.379430879691889045e-01,-3.432365155508726451e-01,-4.949200061076357293e-02,1.061791461874805691e+02
-8.579308674326062700e+00,-1.135382917368630978e-01,-2.632388733830857586e+00,9.127885426570253591e-01,-4.077375827857362411e-01,-2.377267295022435223e-02,1.078404231387024339e+02
-8.483340709245188904e+00,3.553232854804653229e-01,-2.704401630712255589e+00,8.826550684397543867e-01,-4.700145944787357255e-01,2.076327436538611890e-03,1.095017000899242987e+02
-8.365586377442012278e+00,8.048210577602269433e-01,-2.794479313835352752e+00,8.477070308478034111e-01,-5.297278529790298007e-01,2.791400419797524651e-02,1.111629770411461635e+02
-8.228230159534957622e+00,1.232697010834316043e+00,-2.897041317603980648e+00,8.081350568769261056e-01,-5.865516445623855102e-01,5.359942265101878128e-02,1.128242539923680283e+02
-8.088776215863513031e+00,1.600512186615537846e+00,-2.996300561854057687e+00,7.641549952881241392e-01,-6.401760160436908986e-01,7.899247849861519566e-02,1.143302178281148826e+02
-7.937058878531437323e+00,1.948043623263148616e+00,-3.097723382051121632e+00,7.160067393396152280e-01,-6.903084654444717749e-01,1.039546620240916347e-01,1.158361816638617370e+02
-7.774811250383887540e+00,2.273717559143043410e+00,-3.198055806131440360e+00,6.639529183670512813e-01,-7.366755374942354218e-01,1.283498135951612051e-01,1.173421454996085913e+02
-7.604034762194919139e+00,2.576450853275414676e+00,-3.293763586926721221e+00,6.082774653434431800e-01,-7.790243152623896883e-01,1.520448663573955306e-01,1.188481093353554456e+02
-7.427247274707234226e+00,2.856133811294167213e+00,-3.380751942414976341e+00,4.989649685196977935e-01,-6.390270664793963329e-01,5.853856579194510745e-01,1.203540731711023000e+02
-7.247219983799898735e+00,3.113152286434158977e+00,-3.454645863428460029e+00,2.802129632977687357e-01,-3.588700621606470964e-01,8.903319457852350016e-01,1.218600370068491543e+02
-7.019727886526823113e+00,3.404180605071121413e+00,-3.520745091846850361e+00,9.999989999989881463e-07,-9.999989999989881463e-07,9.999989999989882250e-01,1.237621414765324772e+02
-6.796842370810321832e+00,3.657538199496218390e+00,-3.547575701437674756e+00,4.235389183650625222e-01,2.571385557146899092e-01,8.686153048364296803e-01,1.256642459462158001e+02
-6.583084152976900860e+00,3.876208687366655692e+00,-3.527622481137449473e+00,7.357846652249943054e-01,4.467105113743744527e-01,5.089878637534158701e-01,1.275663504158991230e+02
-6.381428286411859219e+00,4.064853897969761931e+00,-3.453422839733738758e+00,8.546902225259143115e-01,5.189015279781137302e-01,1.561498579573454386e-02,1.294794431795102696e+02
-6.195922190483782899e+00,4.225874896711028228e+00,-3.318849440068635026e+00,4.301035175188708259e-01,3.026596604827238093e-02,9.022709878512792381e-01,1.313925359431214019e+02
-6.057589525998933411e+00,4.338476763023444427e+00,-3.165447249802241014e+00,0.000000000000000000e+00,1.466699169439458252e-02,9.998914337827495835e-01,1.329355150966478618e+02
-5.926865473136199824e+00,4.437623051209879321e+00,-2.973155025142069086e+00,6.790192424006846750e-02,-2.335955911467727797e-01,9.699589828859888074e-01,1.344784942501743217e+02
-5.780509504465964454e+00,4.536004592775715771e+00,-2.699775382411407687e+00,1.312448469836127452e-01,-4.661743393860542373e-01,8.749024376683900428e-01,1.362741049894825949e+02
-5.635884415320423280e+00,4.615396168323072423e+00,-2.374039033390698439e+00,1.857758502043812543e-01,-6.674536436547444662e-01,7.211039918435656615e-01,1.380697157287908681e+02
-5.488838204794075359e+00,4.675038341054698066e+00,-2.000167489779903107e+00,2.278336594187675979e-01,-8.239193791464209937e-01,5.188898537289029500e-01,1.398653264680991413e+02
-5.359175166365830023e+00,4.710048451871455377e+00,-1.646718591300413648e+00,2.545944689646804648e-01,-9.250662709654925431e-01,2.818369221637044286e-01,1.414041005170149106e+02
-5.225242122444482717e+00,4.729772659391922041e+00,-1.268277262488211932e+00,2.642615355363468477e-01,-9.641032305130549096e-01,2.586120164543034144e-02,1.429428745659306799e+02
-5.086185314402665192e+00,4.733323028888289485e+00,-8.689794709313072296e-01,2.561858103073454407e-01,-9.384093051553010767e-01,-2.318508283261705716e-01,1.444816486148464492e+02
-4.941159225364342156e+00,4.719806517015785907e+00,-4.529613211438640596e-01,-4.368697578779399265e-02,-9.773284583447918727e-01,-2.071678851833659019e-01,1.460204226637622185e+02
-4.789331078694542221e+00,4.688355873607636504e+00,-2.440716136226458652e-02,-4.057585032891343479e-02,-9.587562118561255842e-01,-2.813149953291033123e-01,1.475591967126779878e+02
-4.629884945926326267e+00,4.638160577950292129e+00,4.124023099755015909e-01,-3.722725893959314553e-02,-9.345729334679124811e-01,-3.538157192958786279e-01,1.490979707615937571e+02
-4.442925036172212572e+00,4.558933820417562899e+00,9.015175148763087121e-01,-3.366079904421344360e-02,-9.049201566362243820e-01,-4.242457551009725103e-01,1.508056497649079972e+02
-4.244631729378171237e+00,4.453270912295405282e+00,1.389568807302132614e+00,-2.989734307501271116e-02,-8.699714239610000233e-01,-4.921929198683246964e-01,1.525133287682222374e+02
-4.036479766295603788e+00,4.319608330142064467e+00,1.871323738802029624e+00,-2.595891631688100609e-02,-8.299312714298998639e-01,-5.572595619338674977e-01,1.542210077715364775e+02
-3.823424837702288137e+00,4.155839483470454176e+00,2.343110717765940265e+00,-2.186856800774396314e-02,-7.850340313135933945e-01,-6.190648878859595916e-01,1.559286867748507177e+02
-3.615633172588982980e+00,3.963497556322721938e+00,2.794161628174725465e+00,-1.765023644891760418e-02,-7.355424607243052915e-01,-6.772471909321242656e-01,1.576064998735415656e+02
-3.415635834654037861e+00,3.737949403279597682e+00,3.230095222744137740e+00,-1.332860891464911039e-02,-6.817462038655104362e-01,-7.314659675609946898e-01,1.592843129722324136e+02
-3.229179732263572244e+00,3.477438971715831162e+00,3.648284214321245056e+00,-8.928977180371857475e-03,-6.239600969716005974e-01,-7.814039101222236550e-01,1.609621260709232615e+02
-3.061052220868231366e+00,3.180939595128864816e+00,4.046354782125743732e+00,-4.477089514738841897e-03,-5.625223258546633298e-01,-8.267687636728434653e-01,1.626399391696141095e+02
-2.909602675247207948e+00,2.835745595877930292e+00,4.435394142099636561e+00,9.999988887669001867e-07,-4.977924468359415378e-01,-8.672950362319774564e-01,1.643777764761805429e+02
-2.782110979713665166e+00,2.453356514046526549e+00,4.799648479165955273e+00,0.000000000000000000e+00,9.988447030629378220e-01,4.803393763095126917e-02,1.661156137827469763e+02
-2.678131538682975599e+00,2.036486505617752574e+00,5.138633237376026841e+00,-0.000000000000000000e+00,9.988447023578338468e-01,4.803393759704317062e-02,1.678534510893134097e+02
-2.597082971247751892e+00,1.588165066122817493e+00,5.451976395252120966e+00,4.894745649099780382e-01,3.309397058303449601e-02,-8.713882254299828434e-01,1.695912883958798432e+02
-2.538135107565884674e+00,1.112054686608470178e+00,5.739530791820504518e+00,0.000000000000000000e+00,9.978126036217043193e-01,-6.609090750977844597e-02,1.713291257024462766e+02
-2.501358459314157567e+00,6.319975536805485516e-01,5.991794650630215990e+00,1.291069822715852850e-05,9.161307788611019465e-01,-4.008770333363327887e-01,1.729997892893018445e+02
-2.483120575323082946e+00,1.337729938951269237e-01,6.220501085265451202e+00,2.428821169155868343e-05,7.256545825072534539e-01,-6.880577201768460771e-01,1.746704528761574124e+02
-2.482487088002691689e+00,-3.791590430565924819e-01,6.425620125119958281e+00,3.278140656815378749e-05,4.490035231946870042e-01,-8.935288663953673272e-01,1.763411164630129804e+02
-2.498489373209500375e+00,-9.033448661143550495e-01,6.607121982058868248e+00,3.738166559267278770e-05,1.190310669063760762e-01,-9.928895224097578076e-01,1.780117800498685483e+02
-2.530124567938284663e+00,-1.435337229571912454e+00,6.764977050646100665e+00,3.754268011013783829e-05,-2.250768415997324579e-01,-9.743399888970403211e-01,1.796824436367241162e+02
-2.578541186202101265e+00,-1.993440640278124620e+00,6.903900172927714074e+00,3.324533498582817054e-05,-5.424556000731589611e-01,-8.400832820875385742e-01,1.814207000302306767e+02
-2.641951133838179366e+00,-2.552627888124601174e+00,7.016696296389170584e+00,2.499997267777943487e-05,-7.954151306987442549e-01,-6.060633376394285454e-01,1.831589564237372372e+02
-2.720128059680752663e+00,-3.109587590182408157e+00,7.103055926845096124e+00,5.772616529653712414e-02,-6.378149999818046867e-01,-7.680219499722915621e-01,1.848972128172437976e+02
-2.810028990623330447e+00,-3.644306514200173819e+00,7.161285919924856636e+00,1.122871430989938191e-01,-4.455190708781650577e-01,-8.882017535331525604e-01,1.865816617169487870e+02
-2.914522140706120812e+00,-4.171805323964830059e+00,7.194269433711315997e+00,1.607399398219624131e-01,-2.289878023307753974e-01,-9.600652363930128885e-01,1.882661106166537763e+02
-3.035568309163138245e+00,-4.690823000766176420e+00,7.201747810012331108e+00,2.004488266899933369e-01,-0.000000000000000000e+00,-9.797031529391179161e-01,1.899505595163587657e+02
-3.189415496256676530e+00,-5.245386526608179167e+00,7.180162417244112305e+00,6.019866027951922827e-02,2.337480342517927190e-01,-9.704308207098829575e-01,1.917852667561002704e+02
-3.369504774760518462e+00,-5.787564309025213127e+00,7.126868855065244368e+00,-8.452989841290621531e-02,4.501064590670528776e-01,-8.889639316530130175e-01,1.936199739958417751e+02
-3.578981882786849589e+00,-6.316375893837868460e+00,7.041589536523028769e+00,-0.000000000000000000e+00,8.052988517093670473e-03,-9.999665741290355570e-01,1.954546812355832799e+02
-3.818749911255324481e+00,-6.831103138991682755e+00,6.924254959189126701e+00,4.193492468269741091e-02,-1.416378544173482745e-01,-9.890289077107263793e-01,1.972893884753247846e+02
-4.111813129993227456e+00,-7.376767738209758285e+00,6.759292549700422370e+00,8.285143867658267824e-02,-2.878889515326168991e-01,-9.540721097977619136e-01,1.992943888671479442e+02
-4.431369177200886966e+00,-7.904260744986593146e+00,6.556124506952076381e+00,1.217558766212737814e-01,-4.271485671580905197e-01,-8.959450921131094647e-01,2.012993892589711038e+02
-4.770195613596102113e+00,-8.413285640618706651e+00,6.316159657356132939e+00,3.698982379086732664e-01,-2.721274050884779361e-01,-8.883242476668695708e-01,2.033043896507942634e+02
-5.090270684424975656e+00,-8.864173182945476626e+00,6.066393871385113989e+00,5.863533815208138433e-01,-9.379468871456028700e-02,-8.046056601524752550e-01,2.051442253461085556e+02
-5.410788345794672161e+00,-9.299690401353227998e+00,5.791685725155312880e+00,7.525789214884025524e-01,9.257286733496225550e-02,-6.519610656826143602e-01,2.069840610414228479e+02
-5.723944065220535116e+00,-9.719609434817449767e+00,5.495390739690519055e+00,7.746750102182862197e-01,7.737150567254882927e-02,-6.276067866502113013e-01,2.088238967367371401e+02
-5.980899186046270799e+00,-1.006678624831585367e+01,5.227910188198310770e+00,7.957543708473537869e-01,6.206860081654737293e-02,-6.024288091271197132e-01,2.103996389417758337e+02
-6.222676410060253183e+00,-1.040234703602892452e+01,4.951261113165696059e+00,8.157893399344894325e-01,4.668423591491790980e-02,-5.764601763892197583e-01,2.119753811468145273e+02
-6.444754114823480151e+00,-1.072587004838906388e+01,4.668269822272146818e+00,8.347536244505501246e-01,3.123860097885020753e-02,-5.497349691187217724e-01,2.135511233518532208e+02
-6.642605871918397575e+00,-1.103696066889847316e+01,4.381762666812599960e+00,8.526223362539055994e-01,1.575196640496050529e-02,-5.222882607063307203e-01,2.151268655568919144e+02
-6.811700516367843683e+00,-1.133525143894430975e+01,4.094566022241403758e+00,8.693720247285443570e-01,2.446563925975302743e-04,-4.941560712556541390e-01,2.167026077619306079e+02
-6.975312019276660891e+00,-1.168971080769687099e+01,3.738169772181639594e+00,8.849807075402095213e-01,-1.526297770936156650e-02,-4.653753203480212597e-01,2.186786926985779189e+02
-7.077853318675882299e+00,-1.202088627522367759e+01,3.391671381493558179e+00,9.477921629588134111e-01,-3.278410786887502731e-02,-3.171958670997829244e-01,2.206547776352252299e+02
-7.114011861988613461e+00,-1.229382901268153638e+01,3.099016503549063994e+00,9.857624804107966154e-01,-4.944597999686226736e-02,-1.607029162044775472e-01,2.223994826581620430e+02
-7.096966947723550412e+00,-1.254850182359466082e+01,2.823628631508360520e+00,9.978964962917117321e-01,-6.481190233636946463e-02,1.999996986248517972e-06,2.241441876810988560e+02
-7.025696474708271744e+00,-1.278437302597662928e+01,2.569976947840861392e+00,9.901865352745184978e-01,9.750189552975714602e-02,1.001099681903234867e-01,2.258888927040356691e+02
-6.901509838137418029e+00,-1.300066207215658842e+01,2.342070274097286742e+00,9.464071614049668346e-01,2.562639929940783157e-01,1.965712357850585290e-01,2.276335977269724822e+02
-6.726875146675150852e+00,-1.319645029277950776e+01,2.143687125808844574e+00,8.681531199210641425e-01,4.056911936903003224e-01,2.858720268500311024e-01,2.293783027499092952e+02
-6.538152650403049826e+00,-1.334863781510785685e+01,1.998452299664171594e+00,7.582749507105871478e-01,5.403403387720485673e-01,3.647593966196331916e-01,2.308820833231763459e+02
-6.316211936444613428e+00,-1.348550854893261608e+01,1.878833132161947583e+00,6.207751564778160036e-01,6.553065797442610974e-01,4.303597235399644338e-01,2.323858638964433965e+02
-6.062895515155726223e+00,-1.360700582441622508e+01,1.786952746826025562e+00,4.606624106662593476e-01,7.464020451143851265e-01,4.802833855647918315e-01,2.338896444697104471e+02
-5.780684593925518477e+00,-1.371392095681046364e+01,1.724404094349327954e+00,4.389710697667586481e-01,7.306818208424021854e-01,5.228828516943548887e-01,2.353934250429774977e+02
-5.379055673353620115e+00,-1.383072867168895570e+01,1.691746836380726648e+00,4.161680954060911763e-01,7.131112468824905015e-01,5.641581922948951666e-01,2.373288210211753722e+02
-4.938772145836946237e+00,-1.392566620456089233e+01,1.716133663688238720e+00,3.923112307490913553e-01,6.937348163260546041e-01,6.040048864394219619e-01,2.392642169993732466e+02
-4.465172155017875788e+00,-1.400246067198993138e+01,1.795880528496562212e+00,3.674608875102038374e-01,6.726015948022193713e-01,6.423220304621252152e-01,2.411996129775711211e+02
-4.068125439487673134e+00,-1.405360914125056127e+01,1.895516912034473256e+00,3.416799930441363209e-01,6.497650962969178101e-01,6.790125933917225964e-01,2.427390917806250172e+02
-3.656174707406997904e+00,-1.409861085684043758e+01,2.024063540734407862e+00,3.150338310723305169e-01,6.252831477206449717e-01,7.139836625952920013e-01,2.442785705836789134e+02
-3.231460586068713337e+00,-1.413905595627210410e+01,2.179251802736329680e+00,2.875898764458571510e-01,5.992177425645316413e-01,7.471466790114149603e-01,2.458180493867328096e+02
-2.795347204321136925e+00,-1.417608678557145652e+01,2.357306887541913198e+00,3.118744433430296614e-01,7.180395166060827838e-01,6.222150626438175403e-01,2.473575281897867058e+02
-2.349005927541914396e+00,-1.421069673298384295e+01,2.553904867748602925e+00,3.267041262612786490e-01,8.150929942829060471e-01,4.784201339344146264e-01,2.488970069928406019e+02
-1.894086598923119480e+00,-1.424414047104583858e+01,2.765307276885212051e+00,3.316293360567681980e-01,8.874358476166244181e-01,3.201212267726132321e-01,2.504364857958944981e+02
-1.432611458094209533e+00,-1.427797068337271291e+01,2.988334581359898046e+00,3.265007535449489517e-01,9.328748877230121916e-01,1.521173947620657885e-01,2.519759645989483943e+02
-9.667012909847804147e-01,-1.431384397200425518e+01,3.219984663715654172e+00,3.114738576488531585e-01,9.500325597650659537e-01,-2.049808250716792998e-02,2.535154434020022904e+02
-4.984923699063877889e-01,-1.435340446185467300e+01,3.457255349831026336e+00,2.870042120537198982e-01,9.383887082685804515e-01,-1.924921153099263815e-01,2.550549222050561866e+02
-3.682389930113405541e-02,-1.439757644846758033e+01,3.693710224835736966e+00,2.538336532058819150e-01,8.982963458446361349e-01,-3.586504587221391871e-01,2.565723690986664565e+02
4.229180226284368072e-01,-1.444842855021526873e+01,3.929835995871480581e+00,2.129677986502864218e-01,8.309709473952209269e-01,-5.139357949420260141e-01,2.580898159922767263e+02
8.786504247438284843e-01,-1.450748767768034142e+01,4.162776209726064103e+00,1.656455580846279418e-01,7.384535953663755592e-01,-6.536404490062998063e-01,2.596072628858869962e+02
1.328615940472207990e+00,-1.457560335272467711e+01,4.389801047497124742e+00,1.133015720670896842e-01,6.235490949629847179e-01,-7.735291073631956893e-01,2.611247097794972660e+02
1.771731200023183517e+00,-1.465228488716502930e+01,4.608433956019659661e+00,5.752271766600519642e-02,4.897409372361256619e-01,-8.699672128004375393e-01,2.626421566731075359e+02
2.207259310358749005e+00,-1.473637068673295936e+01,4.816325049674405889e+00,0.000000000000000000e+00,3.410856895400025679e-01,-9.400311443731718120e-01,2.641596035667178057e+02
2.634473997625942587e+00,-1.482669498374784034e+01,5.011124511387853531e+00,-0.000000000000000000e+00,2.648456641198230765e-01,-9.642897770771253763e-01,2.656770504603280756e+02
3.108545513165328344e+00,-1.493545094451897270e+01,5.212872881396432234e+00,4.528752292578772120e-04,2.430134010844672843e-01,-9.700217944937662429e-01,2.674004949065883352e+02
3.569667010568715160e+00,-1.504920745584902164e+01,5.390020632044176807e+00,9.055195766166564695e-04,2.210572740067048847e-01,-9.752593817229487927e-01,2.691239393528485948e+02
4.017535359262484285e+00,-1.516591842579971861e+01,5.539810469456763364e+00,1.357702339645994400e-03,1.989884734580317227e-01,-9.799998694239001606e-01,2.708473837991088544e+02
4.452648564120114116e+00,-1.528316371472536517e+01,5.661674068840631513e+00,1.809193051277118141e-03,1.768182474165972684e-01,-9.842408415610026662e-01,2.725708282453691140e+02
4.874888238866263102e+00,-1.539841657196049418e+01,5.756817864351885916e+00,2.259761597175874610e-03,1.545578955409292465e-01,-9.879801366420060127e-01,2.742942726916293736e+02
5.392871563719775274e+00,-1.553775889871910643e+01,5.840883157335998277e+00,2.709178332936084971e-03,1.322187634151666125e-01,-9.912158488186895156e-01,2.764897229564932672e+02
5.793447389462931696e+00,-1.564150911133373967e+01,5.880694821955546381e+00,3.157214201033937094e-03,1.098122367709464808e-01,-9.939463288575519639e-01,2.782646988824751020e+02
6.173754894068400390e+00,-1.573539000199310323e+01,5.899241463399209628e+00,3.603640847484246377e-03,8.734973568886773843e-02,-9.961701849800431718e-01,2.800396748084569367e+02
6.529081723321634279e+00,-1.581772316316939175e+01,5.899840052236507759e+00,4.048230738139617021e-03,6.484270878246309322e-02,-9.978862835719052304e-01,2.818146507344387715e+02
6.854452637936365278e+00,-1.588683814118869542e+01,5.885124388073776025e+00,4.490757274573641336e-03,4.230262736762131770e-02,-9.990937497612673024e-01,2.835896266604206062e+02
7.144349419537560308e+00,-1.594111042603611139e+01,5.856361748888601504e+00,4.930994909489535942e-03,1.974097962040822357e-02,-9.997919678651941977e-01,2.853646025864024409e+02
7.381989644875156742e+00,-1.597765861173838964e+01,5.816612204437952904e+00,-1.581804577486381203e-01,1.459731392579041442e-01,-9.765596681220609643e-01,2.870524924873593022e+02
7.577584513602774408e+00,-1.599825481682585959e+01,5.765393408046273649e+00,-3.144774977050641684e-01,2.659167839276692091e-01,-9.112574649702530616e-01,2.887403823883161635e+02
7.726212143964193757e+00,-1.600146572294865877e+01,5.703199064886320890e+00,-4.572269137312744425e-01,3.744047922272726314e-01,-8.066985812051795657e-01,2.904282722892730249e+02
7.822963200119938953e+00,-1.598582587640510155e+01,5.630522966752082858e+00,-5.802791275481145039e-01,4.667635518086793445e-01,-6.673873843850968157e-01,2.921161621902298862e+02
7.862940981253942141e+00,-1.594983775675605742e+01,5.547858988158811400e+00,-6.783331045802174497e-01,5.390142884851797378e-01,-4.993253408757656331e-01,2.938040520911867475e+02
7.841261510527449907e+00,-1.589197184584295286e+01,5.455701082442491412e+00,-9.089331001746200345e-01,0.000000000000000000e+00,-4.169395872382440360e-01,2.954919419921436088e+02
7.754320136632872895e+00,-1.581026502242411347e+01,5.354522176565028602e+00,-7.894990794488210631e-03,9.999678340435190771e-01,-0.000000000000000000e+00,2.971798318931004701e+02
7.579741456251912091e+00,-1.568738684041158393e+01,5.231948737637078573e+00,-1.703958334454870882e-01,9.853746799799913969e-01,-0.000000000000000000e+00,2.990541810862090415e+02
7.323049148744934733e+00,-1.552572856531432599e+01,5.098997418533309123e+00,-3.283608028154993419e-01,9.445513131512170979e-01,-0.000000000000000000e+00,3.009285302793176129e+02
6.986132861931442228e+00,-1.532089908515872168e+01,4.956772119150661737e+00,-4.775849541306566581e-01,8.785844362321527656e-01,-0.000000000000000000e+00,3.028028794724261843e+02
6.640858568948404539e+00,-1.511115603998363355e+01,4.830315358461978903e+00,-6.140960191372843990e-01,7.892300547248949361e-01,-0.000000000000000000e+00,3.043951603683539702e+02
6.246109508437955427e+00,-1.486731789358071332e+01,4.700550433850911425e+00,-7.342601431988190486e-01,6.788667336899709692e-01,-0.000000000000000000e+00,3.059874412642817560e+02
5.805805852674168932e+00,-1.458718542774176363e+01,4.569025764778495535e+00,-8.348786147012700054e-01,5.504322834968946587e-01,-0.000000000000000000e+00,3.075797221602095419e+02
5.323887121979289816e+00,-1.426858304779768361e+01,4.437289783025087253e+00,-9.132730123892169871e-01,4.073455594976950200e-01,-0.000000000000000000e+00,3.091720030561373278e+02
4.804735892305784795e+00,-1.390988360589443218e+01,4.306570027502750975e+00,-9.179203964683859684e-01,3.390676701378406710e-01,-2.060418909240779306e-01,3.107642839520651137e+02
4.253594680057592115e+00,-1.351053665344851318e+01,4.177452241323762472e+00,-8.792999486745842752e-01,2.548072379775935814e-01,-4.023715593034644100e-01,3.123565648479928996e+02
3.640229490410199276e+00,-1.304188131681152285e+01,4.042560416769028109e+00,-7.992321362439346322e-01,1.585360245859657180e-01,-5.797346990690419588e-01,3.140456542926685870e+02
3.003780988064989721e+00,-1.252632835029652369e+01,3.910142844385875893e+00,-6.814910863540341035e-01,5.479192654280642949e-02,-7.297710216271888761e-01,3.157347437373442745e+02
2.351078638699186207e+00,-1.196397510266712061e+01,3.780523076422562134e+00,-6.205134640086502618e-01,5.333900977583327235e-02,-7.823784193225978845e-01,3.174238331820199619e+02
1.688949870238673601e+00,-1.135496289753548282e+01,3.654024642943827672e+00,-5.555099920305542893e-01,5.154003310332593707e-02,-8.299097985585657256e-01,3.191129226266956493e+02
1.023977922188351153e+00,-1.070004681391621659e+01,3.529966434276524900e+00,-4.869024072635230183e-01,4.940666812154841103e-02,-8.720567796581152331e-01,3.208020120713713368e+02
3.622519155216314957e-01,-1.000116335291157732e+01,3.405658091403538812e+00,-4.151358296065724707e-01,4.695275589360321800e-02,-9.085459161167265263e-01,3.224911015160470242e+02
-2.521207859235183868e-01,-9.306347519918892530e+00,3.285285671214215331e+00,-3.406758742256457695e-01,4.419421715437216180e-02,-9.391404686691787740e-01,3.240799573945994325e+02
-8.537411936426845260e-01,-8.577941753081331555e+00,3.158504006397863773e+00,-2.640056307985672035e-01,4.114894902382322528e-02,-9.636419412324627176e-01,3.256688132731518408e+02
-1.437850730325239468e+00,-7.818062997828461036e+00,3.022311378249985303e+00,-1.856225293844177004e-01,3.783670889846089264e-02,-9.818913687602911500e-01,3.272576691517042491e+02
-1.999710848829702625e+00,-7.028856787273661588e+00,2.873706133949932795e+00,-1.060351132440021105e-01,3.427898627382316293e-02,-9.937703486523253860e-01,3.288465250302566574e+02
-2.535009792683903473e+00,-6.212503400804403775e+00,2.711002350251621174e+00,-2.575973954230955515e-02,3.049886332920644788e-02,-9.992018090232945848e-01,3.304353809088090657e+02
-3.040315220595874557e+00,-5.371221020440139604e+00,2.535210941985376110e+00,5.468277066728677305e-02,2.652086517871111992e-02,-9.981505088428770378e-01,3.320242367873614739e+02
-3.512713492979368635e+00,-4.507254343848890343e+00,2.348789466366433931e+00,1.347705114470045817e-01,2.237080075976976418e-02,-9.906232666955370192e-01,3.336130926659138822e+02
-3.949357304790307222e+00,-3.622865720541331047e+00,2.154261009090743251e+00,2.139838780470881274e-01,1.807559539111289193e-02,-9.766689166692718027e-01,3.352019485444662905e+02
-4.347419953687946759e+00,-2.720334567918730073e+00,1.954148712614716121e+00,2.918089380793991161e-01,1.366311608624410680e-02,-9.563779916520561697e-01,3.367908044230186988e+02
-4.705174548011124891e+00,-1.802277306951497904e+00,1.750870117769318446e+00,3.677407659197086676e-01,9.161990755584346890e-03,-9.298821360832296712e-01,3.383796603015711071e+02
-5.010113396065057678e+00,-9.129727160082014015e-01,1.555550571139316496e+00,4.412867187030274363e-01,4.601422470191819485e-03,-8.973532519626823412e-01,3.398989494162532310e+02
-5.280282540104137112e+00,-1.574521196800025141e-02,1.361171064555261712e+00,5.119696326535965181e-01,1.099999210732965166e-05,-8.590023836520447320e-01,3.414182385309353549e+02
-5.517065941290391962e+00,8.863523664920882617e-01,1.169532412191178539e+00,5.956896370556957754e-01,2.920263765887917695e-02,-8.026824168116059033e-01,3.429375276456174788e+02
-5.721874892326818340e+00,1.790275290984702616e+00,9.824354106760923022e-01,6.728372947655918423e-01,5.807207328657682660e-02,-7.375063451097836342e-01,3.444568167602996027e+02
-5.896147997201020452e+00,2.692987078021443992e+00,8.016808275658615646e-01,7.425614283300140395e-01,8.630078656641593238e-02,-6.641932696099374089e-01,3.459761058749817266e+02
-6.041351150656016245e+00,3.591459623536465973e+00,6.290693898171748621e-01,8.040927659970493746e-01,1.135773268077517884e-01,-5.835520666634573805e-01,3.474953949896638505e+02
-6.158977517388522394e+00,4.482673337325682184e+00,4.664017722631702556e-01,8.567524286989236515e-01,1.396007491247152066e-01,-4.964724632476649191e-01,3.490146841043459744e+02
-6.250547510974772791e+00,5.363617277401986350e+00,3.154785860881499371e-01,8.999594196863910378e-01,1.640839346776358787e-01,-4.039152204354495290e-01,3.505339732190280984e+02
-6.317608772523480631e+00,6.231289284264073025e+00,1.781003673028900836e-01,9.332370342337380498e-01,1.867567583492452110e-01,-3.069015333075610363e-01,3.520532623337102223e+02
-6.364034785221716284e+00,7.145544687025534358e+00,4.788553801854256858e-02,9.562181187464160459e-01,2.073690689209338467e-01,-2.065017642466611958e-01,3.536867832669289555e+02
-6.385927656312532008e+00,8.036430940673104928e+00,-6.217411455504735784e-02,9.686491212909009718e-01,2.256934488836080943e-01,-1.038236338914444862e-01,3.553203042001476888e+02
-6.386207785551217597e+00,8.900060362551585058e+00,-1.511285840246431866e-01,9.703928888893302851e-01,2.415277234480655844e-01,0.000000000000000000e+00,3.569538251333664221e+02
-6.368119993825166247e+00,9.732544281588051405e+00,-2.184807470669568596e-01,9.969795307158221265e-01,-7.765188556165565636e-02,0.000000000000000000e+00,3.585873460665851553e+02
-6.334946940324884146e+00,1.053001418911316733e+01,-2.637336401962008803e-01,9.989582663143385943e-01,-3.886633733006104180e-02,2.387027370329085005e-02,3.602208669998038886e+02
-6.290009069354272064e+00,1.128862194024835297e+01,-2.863904634403520166e-01,9.988611377096775490e-01,-0.000000000000000000e+00,4.769095882966038757e-02,3.618543879330226218e+02
-6.236664556700218576e+00,1.200453995505963611e+01,-2.859545840164829933e-01,9.706551006264244608e-01,-0.000000000000000000e+00,-2.404717771876314081e-01,3.634879088662413551e+02
-6.158773743323594729e+00,1.287961848034593082e+01,-2.469604180152212280e-01,9.955207353996179398e-01,9.453287991579502336e-02,0.000000000000000000e+00,3.656618007839354050e+02
-6.079900304371396835e+00,1.365524150198856468e+01,-1.626526197253753414e-01,9.546769266703760692e-01,0.000000000000000000e+00,-2.976406653668539071e-01,3.678356927016294549e+02
-6.027361434068484236e+00,1.414375967122371236e+01,-7.769669453028571482e-02,9.489101191791743384e-01,-9.900455134838112570e-02,-2.996092197048731975e-01,3.693721637586841666e+02
-5.979836910846370479e+00,1.458550280899809870e+01,2.535525680186025491e-02,9.338069358760894279e-01,-1.970349901314083219e-01,-2.986299033487806454e-01,3.709086348157388784e+02
-5.938047353628236991e+00,1.498060129025540554e+01,1.441908147012428421e-01,9.095159764121044654e-01,-2.931267958333418910e-01,-2.947123516515962049e-01,3.724451058727935902e+02
-5.900915688948996873e+00,1.534145044667636704e+01,2.813280235569671772e-01,8.762762372556694990e-01,-3.863345213769266429e-01,-2.878951087006678122e-01,3.740395342029160020e+02
-5.870244354197485137e+00,1.565274481266427919e+01,4.291882727563069988e-01,8.344147605671727863e-01,-4.757410947335808937e-01,-2.782452481703743263e-01,3.756339625330384138e+02
-5.843833541458018033e+00,1.594009141723966394e+01,6.000306648792939068e-01,7.843434169673160206e-01,-5.604668414948408284e-01,-2.658577135323813012e-01,3.773981333598889591e+02
-5.825234879966754598e+00,1.616874273526226702e+01,7.723347195080737526e-01,7.265548538061629147e-01,-6.396781396819610777e-01,-2.508543841021902976e-01,3.791623041867395045e+02
-5.814348393242609880e+00,1.634166798874513304e+01,9.392152511398659254e-01,6.616176487367417813e-01,-7.125956216717308500e-01,-2.333828760933454038e-01,3.809264750135900499e+02
-5.811228113968140541e+00,1.646230525300607184e+01,1.093343072975042851e+00,6.563042542373282995e-01,-7.215206432112400980e-01,-2.206143406166481136e-01,3.826906458404405953e+02
-5.814956609617706995e+00,1.652923028442019771e+01,1.213292225779161626e+00,6.508130517502327406e-01,-7.302501862227346319e-01,-2.077860370405837931e-01,3.842474504765693837e+02
-5.824165002333211660e+00,1.656304225409097342e+01,1.313480105674342591e+00,6.451455289838241569e-01,-7.387818858232203523e-01,-1.949014407530193504e-01,3.858042551126981721e+02
-5.837281369147650167e+00,1.656664659584016164e+01,1.390344854570834121e+00,6.393032214082634557e-01,-7.471134307259801322e-01,-1.819640423872574408e-01,3.873785761281259283e+02
-5.851816002736535793e+00,1.654283822991827435e+01,1.438489709433145247e+00,6.332877118383434256e-01,-7.552425638649635786e-01,-1.689773468763304254e-01,3.889528971435536846e+02
-5.864668305330669185e+00,1.649530157861945767e+01,1.454347597745511589e+00,6.271006300047485826e-01,-7.631670830058221444e-01,-1.559448725038657113e-01,3.905272181589814409e+02
-5.871419872979195098e+00,1.642818512788538499e+01,1.435419441881380598e+00,6.207436521126273865e-01,-7.708848413421059975e-01,-1.428701499513475581e-01,3.921015391744091971e+02
-5.866970567366689870e+00,1.634585137311388792e+01,1.379740289774370021e+00,6.142185003875959559e-01,-7.783937480764653305e-01,-1.297567213420317556e-01,3.936758601898369534e+02
-5.846177735752844384e+00,1.625263188434917083e+01,1.285345441918817277e+00,6.075269426092964054e-01,-7.856917689866956822e-01,-1.166081392817715640e-01,3.952501812052647097e+02
-5.799442422259289742e+00,1.614520045557998174e+01,1.137757327505974247e+00,6.006707916326359253e-01,-7.927769269764779470e-01,-1.034279658970131688e-01,3.969421508560849929e+02
-5.721008576849978766e+00,1.603496338025290058e+01,9.396085299879647357e-01,5.936519048968359469e-01,-7.996473026106641901e-01,-9.021977187022076072e-02,3.986341205069052762e+02
-5.604796444645854692e+00,1.592569651842779166e+01,6.901870636152515059e-01,5.864721839224217304e-01,-8.063010346349646085e-01,-7.698713547299004811e-02,4.003260901577255595e+02
-5.459617967800328486e+00,1.582768786411426731e+01,4.159273890149715047e-01,5.791335737962923780e-01,-8.127363204798946361e-01,-6.373364159711236709e-02,4.018894274981638546e+02
-5.291491881769339933e+00,1.574103531233081199e+01,1.295665275391801874e-01,5.716380626450057179e-01,-8.189514167488497476e-01,-5.046288078384960490e-02,4.033279978224805404e+02
-5.113466854510710924e+00,1.566689748362996326e+01,-1.489947242632333468e-01,5.639876810964238318e-01,-8.249446396901729539e-01,-3.717844825168230283e-02,4.046076431591168330e+02
-4.706593875244823977e+00,1.553424117128929360e+01,-7.225488983242867036e-01,5.561845017298608917e-01,-8.307143656530895370e-01,-2.388394292279250736e-02,4.070017554401334792e+02
-4.498683670927825062e+00,1.547747683813439856e+01,-9.922426580144269037e-01,5.482306385148848493e-01,-8.362590315273860098e-01,-1.058296644854395639e-02,4.080531984137069799e+02
-4.093604142046416428e+00,1.537492049242198355e+01,-1.479120285632711029e+00,5.401282462389219718e-01,-8.415771351667139522e-01,2.720877765777181701e-03,4.099016829047124020e+02
-3.640705219123883563e+00,1.526327213715708808e+01,-1.973016119243972577e+00,5.318795199238190996e-01,-8.466672357954050376e-01,1.602398553669864834e-02,4.117501673957178241e+02
-3.148152984232798879e+00,1.513499305725908251e+01,-2.459146277647813239e+00,5.239554337157279473e-01,-8.514760797356397681e-01,2.138197689063527085e-02,4.135986518867232462e+02
-2.625462154743746002e+00,1.498273101586626765e+01,-2.923466155702362013e+00,8.300563437177729265e-01,-5.470705674598560497e-01,1.082509144116520078e-01,4.154471363777286683e+02
-2.051318100656554844e+00,1.478681313326365832e+01,-3.377304301342474169e+00,5.048504550707269001e-01,-7.270622152181295261e-01,4.653004977604566772e-01,4.174078258605113092e+02
-1.471679259762310954e+00,1.454725849829729611e+01,-3.776584542448293558e+00,0.000000000000000000e+00,-9.993865585868692003e-01,3.499294952974251610e-02,4.193685153432939501e+02
-9.740715858584538811e-01,1.429796985096659334e+01,-4.070566583940325778e+00,-0.000000000000000000e+00,-2.786296520870032781e-02,9.996107518285665128e-01,4.210780970384075204e+02
-4.964503294155849233e-01,1.400762683193464930e+01,-4.306785122038629510e+00,-0.000000000000000000e+00,2.016697227909001328e-02,9.997956257111796363e-01,4.227876787335210906e+02
-5.139981088584459623e-02,1.367266057912194022e+01,-4.478195745293770180e+00,-0.000000000000000000e+00,-4.846611809941286930e-02,9.988238260001270907e-01,4.244972604286346609e+02
3.513392238000097034e-01,1.329196669080244320e+01,-4.577767888401326424e+00,-0.000000000000000000e+00,-1.168708951513450084e-01,9.931461090165466521e-01,4.262068421237482312e+02
7.045445357518270724e-01,1.287492341481543789e+01,-4.599907570039834859e+00,-2.685116056354217018e-01,-9.387736212176478467e-01,-2.158786829377055960e-01,4.278964229234440495e+02
9.712567419868235463e-01,1.249378884619963515e+01,-4.558812093323069803e+00,-0.000000000000000000e+00,-0.000000000000000000e+00,9.999989999999757684e-01,4.293354488072124582e+02
1.266101975451519923e+00,1.198226127063163382e+01,-4.427089233840260540e+00,-1.161848472904061791e-01,1.341998236121057881e-03,9.932256945363709955e-01,4.311642364071363431e+02
1.512235156839829564e+00,1.144665885337030353e+01,-4.207552527196405379e+00,-4.786744931376812340e-01,-2.325607537443824535e-01,8.466311035131171003e-01,4.329930240070602281e+02
1.711497161793242627e+00,1.089582185314737295e+01,-3.906804758567402391e+00,-5.049723454920819199e-01,-3.886080038265491421e-01,7.707040610061457464e-01,4.348218116069841130e+02
1.865822636870938744e+00,1.033857692070648682e+01,-3.531449466190867525e+00,-5.157133636215051053e-01,-5.326832743473854936e-01,6.710337218158815009e-01,4.366505992069079980e+02
1.991521119747116764e+00,9.695487559916797338e+00,-3.009254016761056416e+00,-5.105666519331244491e-01,-6.603479986302661642e-01,5.506906705586082085e-01,4.387747795449688510e+02
2.063614975369390869e+00,9.069366594336875309e+00,-2.404230060039683980e+00,-4.896907738373317276e-01,-7.676691808925005800e-01,4.133823589947610011e-01,4.408989598830297041e+02
2.087522013302387514e+00,8.502929926488205226e+00,-1.769257678608167517e+00,-4.537288648771277133e-01,-8.513405592683653822e-01,2.633388868430069918e-01,4.429084787836207511e+02
2.074603677983268391e+00,7.969885316865963354e+00,-1.088446842138956816e+00,-4.037888176911342830e-01,-9.087844595733248765e-01,1.051826827357302818e-01,4.449179976842117981e+02
2.044377832989669130e+00,7.587439191018614970e+00,-5.466733417062465961e-01,-3.414091497420060906e-01,-9.382312028320629604e-01,-5.621389958593878133e-02,4.464545876710864150e+02
2.000823337194514995e+00,7.227805064027432280e+00,4.841171363952749898e-03,-2.685116056354195369e-01,-9.387736212176401862e-01,-2.158786829377038197e-01,4.479911776579610319e+02
1.947628850599111949e+00,6.892380403503138631e+00,5.595806539937453472e-01,-3.847477874951882315e-01,-8.548274630392597162e-01,-3.481912526895101223e-01,4.495277676448356488e+02
1.887679134605039888e+00,6.578024668032488087e+00,1.119016153733526586e+00,-4.863388498192349751e-01,-7.383425661126946649e-01,-4.672502308390070747e-01,4.510868644251565343e+02
1.825392414057323442e+00,6.290831551021012658e+00,1.668423804743386141e+00,-5.694177596819475218e-01,-5.937526648682298624e-01,-5.685236916039740906e-01,4.526459612054774198e+02
1.750504301444608224e+00,5.977105081001978348e+00,2.320442436299081201e+00,-6.308220468576066775e-01,-4.265613237397566371e-01,-6.481566032061586435e-01,4.545652864476153354e+02
1.682332878727809122e+00,5.708939326645147361e+00,2.934940415070122377e+00,-6.682142088020769366e-01,-2.431325246162592268e-01,-7.031175908896645232e-01,4.564846116897532511e+02
1.633154464868492806e+00,5.516748502155172318e+00,3.417585415283172168e+00,-6.801707384623776331e-01,-5.044847077870816265e-02,-7.313143772165396905e-01,4.581012057756331615e+02
1.593887392097220745e+00,5.353374905264214334e+00,3.863870516488993712e+00,-6.662363690675014993e-01,1.441561896915325991e-01,-7.316734883076740914e-01,4.597177998615130718e+02
1.566753025253360354e+00,5.218076540457317058e+00,4.268919873642774476e+00,-6.269414513424866886e-01,3.332736044338114878e-01,-7.041811706962053385e-01,4.613343939473929822e+02
1.553724479854693197e+00,5.109963422449871118e+00,4.628545518175761764e+00,-5.637817858148226335e-01,5.097047760784650938e-01,-6.498839428804389362e-01,4.629509880332728926e+02
1.556283410142497381e+00,5.027865102250995477e+00,4.939934966038864950e+00,-4.791616711918936233e-01,6.667336770250664735e-01,-5.708487512208142434e-01,4.645675821191528030e+02
1.575658721378161209e+00,4.970468216138343109e+00,5.200963660380577558e+00,-3.763023413702444864e-01,7.983829570371437923e-01,-4.700842496650545765e-01,4.661841762050327134e+02
1.614289233794822698e+00,4.936024318917749731e+00,5.413748551200064263e+00,-2.591192909510964260e-01,8.996414893021784653e-01,-3.514262138440725214e-01,4.678412304909839463e+02
1.673245288061966818e+00,4.924988899363522243e+00,5.568534892515940804e+00,-1.320731783729205688e-01,9.666550872110665216e-01,-2.193914718472541325e-01,4.694982847769351793e+02
1.753816018476287875e+00,4.935907429772357524e+00,5.663013280364058488e+00,-0.000000000000000000e+00,9.968731427304441395e-01,-7.900593205817534048e-02,4.711553390628864122e+02
1.856981023912896323e+00,4.967887877611279812e+00,5.696239591148867021e+00,-0.000000000000000000e+00,9.968731420280737554e-01,-7.900593200250984049e-02,4.728123933488376451e+02
1.982810035114404679e+00,5.021046104581631475e+00,5.670572622386760742e+00,-7.616494138195822883e-02,9.736822041545590833e-01,-2.148019250789962309e-01,4.744694476347888781e+02
2.130456402142635763e+00,5.095814223050230574e+00,5.590882065782109223e+00,-1.504425544911452139e-01,9.263638867852794778e-01,-3.452752337757195589e-01,4.761265019207401110e+02
2.288108486931568208e+00,5.185831183794467947e+00,5.471964411676323969e+00,-2.209922725195381521e-01,8.560907170071260230e-01,-4.671927864827699617e-01,4.776849414182245255e+02
2.462895204428547480e+00,5.294907689440534249e+00,5.315564165157328880e+00,-2.860659048809292559e-01,7.646040350934459884e-01,-5.775335207450784658e-01,4.792433809157089399e+02
2.653872288569981919e+00,5.423305134824350837e+00,5.126096627162914920e+00,-3.440509573491851714e-01,6.541708442874031304e-01,-6.735632451613200455e-01,4.808018204131933544e+02
2.859741202551335348e+00,5.571134068901027803e+00,4.907918846486792219e+00,-3.935105893362671470e-01,5.275276336119402165e-01,-7.529023919851554059e-01,4.823602599106777689e+02
3.080668709282012863e+00,5.739958842438736220e+00,4.662776368560765050e+00,-4.332192180838126960e-01,3.878125668880909038e-01,-8.135849814540664360e-01,4.839337802713719157e+02
3.312305103456605337e+00,5.928145436943981217e+00,4.396906326211116323e+00,-4.621928875140488557e-01,2.384877187560993927e-01,-8.541073367763344359e-01,4.855073006320660625e+02
3.552201919476065672e+00,6.135359467452918381e+00,4.114631438026593813e+00,-4.797136493196433316e-01,8.325328505756317277e-02,-8.734653428642121797e-01,4.870808209927602093e+02
3.797907876469572397e+00,6.361281439923531345e+00,3.820274535178671993e+00,-4.853473523275926849e-01,-7.404410634739387598e-02,-8.711793259170240722e-01,4.886543413534543561e+02
4.092695485237301867e+00,6.653360525387317814e+00,3.462239050895695502e+00,-4.789543995528390274e-01,-2.295067122760456046e-01,-8.473059377643357148e-01,4.905162175005103791e+02
4.388103597733408634e+00,6.972749436737638362e+00,3.100273052806241214e+00,-6.043810569541747668e-01,-2.071837466362087821e-01,-7.692830643696387805e-01,4.923780936475664021e+02
4.679833773229464811e+00,7.318577937231113495e+00,2.741319919561659990e+00,-7.163192782776355294e-01,-1.802368996930730771e-01,-6.740915008794841068e-01,4.942399697946224251e+02
4.963278899177662851e+00,7.689232634777968478e+00,2.390997232808514728e+00,-8.122708573278122346e-01,-1.492675617360893214e-01,-5.638556990491923049e-01,4.961018459416784481e+02
5.232349365087973325e+00,8.080693457515348399e+00,2.055895979781973804e+00,-8.900943664099371100e-01,-1.149668955321716257e-01,-4.410358622807202811e-01,4.979543546617159109e+02
5.483767959710481144e+00,8.492840961593095983e+00,1.739097116654154895e+00,-9.480529478434914781e-01,-7.810041214131846488e-02,-3.083730430972310699e-01,4.998068633817533737e+02
