5.135921704168641355e+00,1.479271365157280860e+00,-2.681760043060863019e+00,-9.998919759349708114e-01,1.462998501632536974e-02,0.000000000000000000e+00,4.052633569708716266e+01
5.156412811042925703e+00,8.276889583370886649e-01,-2.971070797630660287e+00,-9.998919606002018012e-01,1.463098479091418103e-02,-0.000000000000000000e+00,4.228769830758125892e+01
5.132989769446687056e+00,1.740877557982337953e-01,-3.276589264746401220e+00,-9.986771916293771811e-01,5.606302119080827304e-03,-5.109242888494943541e-02,4.404906091807535518e+01
5.062712625899076002e+00,-4.754537875916735046e-01,-3.599324601753078223e+00,-9.947726228045428165e-01,-3.433479874166002737e-03,-1.020472445880236667e-01,4.581042352856945143e+01
4.988624203597047391e+00,-8.758124054080299592e-01,-3.810740106335321009e+00,-9.881887697143983962e-01,-1.246401601465950762e-02,-1.527272199324519464e-01,4.690964255100129066e+01
4.810422604981391181e+00,-1.540484819793917159e+00,-4.186161504327541749e+00,-9.789433609053522778e-01,-2.146098598938219609e-02,-2.029958674759157755e-01,4.877315272108899791e+01
4.578906668101084598e+00,-2.182965577319158523e+00,-4.579280320542428839e+00,-9.997280783823800920e-01,1.144607448065188340e-02,-2.026713282898658097e-02,5.063666289117670516e+01
4.345205009621166958e+00,-2.689299912357487443e+00,-4.915340181365354333e+00,-9.856175606623843732e-01,4.395359969035295827e-02,1.631689467662819082e-01,5.217061025651571526e+01
4.069672019599130941e+00,-3.169762126205146302e+00,-5.261385778763921550e+00,-9.371043681428993244e-01,7.492692745287669875e-02,3.409096049554271035e-01,5.370455762185472537e+01
3.753697199813150309e+00,-3.620377532010746968e+00,-5.615148921469421239e+00,-8.558818592031592898e-01,1.032849488068686150e-01,5.067508879498183738e-01,5.523850498719373547e+01
3.398702477645747955e+00,-4.037179963214870604e+00,-5.974361367821135360e+00,-7.447850786012693014e-01,1.280378416000694519e-01,6.549041897959472225e-01,5.677245235253274558e+01
2.767685644818620005e+00,-4.640406315639531876e+00,-6.556794464282235779e+00,-6.854952957433279037e-01,9.645744975067196969e-02,7.216579244311597252e-01,5.924054120297004289e+01
2.338335767562921053e+00,-4.972533234930322621e+00,-6.921164498294599454e+00,-6.200574967865772891e-01,6.401194805050879066e-02,7.819393654098425461e-01,6.078681339926504990e+01
1.879073577932889094e+00,-5.260528943598861140e+00,-7.281912722185083453e+00,-5.099300506530843879e-01,6.160766586337849959e-02,8.580057336331819995e-01,6.233308559556005690e+01
1.393773743535540399e+00,-5.502787873477115177e+00,-7.636400141457525770e+00,-3.906646932564875052e-01,5.809937711270244526e-02,9.186966636608614456e-01,6.387935779185506391e+01
8.866103404090189821e-01,-5.697980275612389178e+00,-7.981985841167099416e+00,-2.643986392930322560e-01,5.354994988217567226e-02,9.629245881205816815e-01,6.542562998815007802e+01
3.617679359043340370e-01,-5.844802369990640400e+00,-8.316028965321230260e+00,-1.333945518570484046e-01,4.804090882320515010e-02,9.898969464614254532e-01,6.697190218444508503e+01
-3.906109510871891843e-01,-5.974951090259998487e+00,-8.761845854232277020e+00,-0.000000000000000000e+00,4.167097442641731070e-02,9.991303868311476322e-01,6.913434444845205462e+01
-1.154108114988567468e+00,-6.022171197758396488e+00,-9.180765350824362514e+00,-2.094397647221669240e-02,9.665299142316687853e-01,2.556937127619831052e-01,7.129678671245902422e+01
-1.847535012584607061e+00,-5.990247848441719647e+00,-9.532191217837322483e+00,-6.074690999515661716e-01,7.795978449193228244e-01,1.523367742922641932e-01,7.325162535241493345e+01
-2.537405225726242275e+00,-5.885769175365435757e+00,-9.854234167334171346e+00,-0.000000000000000000e+00,-9.999989999994881075e-07,9.999989999994882695e-01,7.520646399237084267e+01
-3.136827702182474198e+00,-5.733171267305562147e+00,-1.011055815265240554e+01,-4.499992964597661045e-04,3.515004504553428388e-01,9.361865363423901298e-01,7.693082100185546324e+01
-3.721359159674092698e+00,-5.525064430307015328e+00,-1.033670593800114901e+01,6.746469744001066804e-01,1.268268071975938993e-01,7.271618945668033573e-01,7.865517801134008380e+01
-4.285640813681585115e+00,-5.265808420848824056e+00,-1.052902001524252285e+01,6.350585969804755093e-01,1.193844991929100124e-01,7.631814461547267170e-01,8.037953502082470436e+01
-4.846504713947568987e+00,-4.948032362797473382e+00,-1.068878949792089728e+01,5.936158235949894335e-01,1.115935837766591637e-01,7.969724750822464454e-01,8.217271578294187862e+01
-5.376865104230169834e+00,-4.587703640454300569e+00,-1.080270345502471230e+01,5.504396681702349303e-01,1.034768106151689460e-01,8.284363109924367530e-01,8.396589654505905287e+01
-5.872193912648316250e+00,-4.190995464499851941e+00,-1.086529757977812949e+01,5.056562060244921275e-01,9.505788086361798006e-02,8.574810788558682173e-01,8.575907730717622712e+01
-6.328020621078827013e+00,-3.764114550858722819e+00,-1.087110802336620452e+01,4.593962057545980526e-01,8.636137796369969255e-02,8.840219672245958060e-01,8.755225806929340138e+01
-6.739932365526726699e+00,-3.313300771144730650e+00,-1.081467144326918373e+01,4.117947474218611181e-01,7.741269586565303895e-02,9.079814758659331408e-01,8.934543883141057563e+01
-7.119097463606779641e+00,-2.824630222785562417e+00,-1.068469366175106394e+01,3.629908281509633405e-01,6.823796488407166128e-02,9.292896420534266788e-01,9.121560967976374457e+01
-7.444058265948102715e+00,-2.323427480822304769e+00,-1.048351981534151456e+01,3.131269562924886007e-01,5.886397540380193527e-02,9.478842448546127564e-01,9.308578052811691350e+01
-7.713970239549068353e+00,-1.814494511180567926e+00,-1.022273179594792047e+01,2.623487353330594130e-01,4.931809965850858513e-02,9.637109868192055284e-01,9.495595137647008244e+01
-7.931104461724749477e+00,-1.301864418558533965e+00,-9.917710691219024710e+00,2.108044387669881781e-01,3.962821181011265403e-02,9.767236525371819633e-01,9.682612222482325137e+01
-8.066370825963744551e+00,-8.886603855647362549e-01,-9.647685301855553064e+00,1.586445771697577167e-01,2.982260656227016596e-02,9.868842436035896171e-01,9.833373973987664840e+01
-8.164392280930814039e+00,-4.780786701991952548e-01,-9.363626966446480182e+00,1.060214587364570193e-01,1.992991654534854648e-02,9.941630895956191649e-01,9.984135725493004543e+01
-8.227548990221734471e+00,-7.239821327821024943e-02,-9.072895594259572150e+00,5.308874456745148185e-02,9.979028713958499122e-03,9.985389347373663238e-01,1.013489747699834425e+02
-8.258504728555076113e+00,3.262145745068357194e-01,-8.780445838090049193e+00,9.999989999985432422e-07,-9.999989999985432422e-07,9.999989999985432476e-01,1.028565922850368395e+02
-8.260238314424979578e+00,7.550080454969502197e-01,-8.460614806315291503e+00,4.007305300104290202e-01,-5.132176219660787853e-01,7.589602854049946057e-01,1.045178692362587043e+02
-8.232881334582785371e+00,1.170536085530563541e+00,-8.147820860125429832e+00,6.082774653435700785e-01,-7.790243152625521139e-01,1.520448663574272274e-01,1.061791461874805691e+02
-8.179896261447545669e+00,1.570170116972120500e+00,-7.846782251921910145e+00,6.267990635451209380e-01,-7.408784629345148698e-01,2.412882862872767209e-01,1.078404231387024339e+02
-8.104450393581311474e+00,1.951577521249798552e+00,-7.560504813587288098e+00,6.392014953582463299e-01,-6.954997427046425429e-01,3.281761055140334782e-01,1.095017000899242987e+02
-8.009094755739514682e+00,2.312991026182691812e+00,-7.288569603031890942e+00,6.453636831471449842e-01,-6.433311690585459264e-01,4.118600774454972968e-01,1.111629770411461635e+02
-7.896076864621063507e+00,2.652932229901656669e+00,-7.028845237859848716e+00,6.452254699970081386e-01,-5.848820422950300468e-01,4.915232339054951827e-01,1.128242539923680283e+02
-7.779665308411682467e+00,2.940864008393442308e+00,-6.802441567242600406e+00,6.387882068399414193e-01,-5.207229763336983508e-01,5.663878606762708934e-01,1.143302178281148826e+02
-7.651255866224412117e+00,3.207907521531665918e+00,-6.583167391553662817e+00,6.261147391252050998e-01,-4.514803280032294586e-01,6.357230897783945345e-01,1.158361816638617370e+02
-7.512720997810373724e+00,3.452940091799638456e+00,-6.369332023934065390e+00,6.073287931761874869e-01,-3.778300821997247483e-01,6.988520343858660722e-01,1.173421454996085913e+02
-7.366213646354799138e+00,3.675318196956567807e+00,-6.158689027275700667e+00,5.826137682344795232e-01,-3.004912526111171989e-01,7.551583967413758591e-01,1.188481093353554456e+02
-7.214433368655407186e+00,3.875347589589653197e+00,-5.947880512353751925e+00,5.522109459898983941e-01,-2.202188624274376838e-01,8.040924845820253131e-01,1.203540731711023000e+02
-7.060346990938899836e+00,4.053818751479421501e+00,-5.732992874940640249e+00,5.164171350780808467e-01,-1.377965735521554935e-01,8.451765773589593467e-01,1.218600370068491543e+02
-6.866711878396952962e+00,4.251586057973981703e+00,-5.450637230882662720e+00,4.755817735391844603e-01,-5.402903625732304038e-02,8.780095898790438724e-01,1.237621414765324772e+02
-6.678173191650072837e+00,4.422026145543143549e+00,-5.150999814732891480e+00,4.301035175188755444e-01,3.026596604827271747e-02,9.022709878512892301e-01,1.256642459462158001e+02
-6.497589572940729141e+00,4.568122348437927194e+00,-4.828906213970445727e+00,0.000000000000000000e+00,1.466699169439458252e-02,9.998914337827495835e-01,1.275663504158991230e+02
-6.324483859060334723e+00,4.694016134436655996e+00,-4.478532732630054802e+00,8.546902225259142005e-01,5.189015279781136192e-01,1.561498579573454212e-02,1.294794431795102696e+02
-6.159361577871510285e+00,4.802280601803929017e+00,-4.098419500456739861e+00,9.480767136406852424e-01,3.156526256749163650e-01,-3.888399358887917323e-02,1.313925359431214019e+02
-6.031738734735069940e+00,4.878171921836567115e+00,-3.766645179748349559e+00,9.912138162169631395e-01,9.567366035949337322e-02,-9.132207430011776705e-02,1.329355150966478618e+02
-5.907857331048131933e+00,4.944324325763136407e+00,-3.409613253062449445e+00,9.818151803317659576e-01,-1.293761786085003973e-01,-1.389199628529726727e-01,1.344784942501743217e+02
-5.765105895962368443e+00,5.009816056540739915e+00,-2.964189450362812561e+00,9.203789252031139290e-01,-3.475689227107123247e-01,-1.791548994805190198e-01,1.362741049894825949e+02
-5.620334604595113248e+00,5.062834592813838519e+00,-2.489579603774355832e+00,8.101612482030170481e-01,-5.473400272127806332e-01,-2.098943699125667695e-01,1.380697157287908681e+02
-5.470608188882116529e+00,5.102117088568983050e+00,-1.988778687597424932e+00,6.570038469529267955e-01,-7.181013176383330698e-01,-2.295091342306882498e-01,1.398653264680991413e+02
-5.336811676577049468e+00,5.123022375790585947e+00,-1.541397433701175324e+00,4.690242989945510033e-01,-8.508021885027508002e-01,-2.369595809243950357e-01,1.414041005170149106e+02
-5.196963241363923736e+00,5.130123678052762592e+00,-1.080308704699273870e+00,2.561858103073434978e-01,-9.384093051552941933e-01,-2.318508283261688507e-01,1.429428745659306799e+02
-5.050529064631257725e+00,5.121971696243201144e+00,-6.093363831315823376e-01,-4.368697578779399265e-02,-9.773284583447918727e-01,-2.071678851833659019e-01,1.444816486148464492e+02
-4.896987503611486048e+00,5.097113672377826532e+00,-1.323044164237635600e-01,-4.057585032891343479e-02,-9.587562118561255842e-01,-2.813149953291033123e-01,1.460204226637622185e+02
-4.735837844726302315e+00,5.054100194022764114e+00,3.468850326363368541e-01,-3.722725893959314553e-02,-9.345729334679124811e-01,-3.538157192958786279e-01,1.475591967126779878e+02
-4.566608979930633971e+00,4.991492071881911130e+00,8.241734359368919627e-01,-3.366079904421344360e-02,-9.049201566362243820e-01,-4.242457551009725103e-01,1.490979707615937571e+02
-4.369344349006943240e+00,4.897972053970326201e+00,1.346855102068959864e+00,-2.989734307501271116e-02,-8.699714239610000233e-01,-4.921929198683246964e-01,1.508056497649079972e+02
-4.163557213697099080e+00,4.777901858095709997e+00,1.858100920193826555e+00,-2.595891631688100609e-02,-8.299312714298998639e-01,-5.572595619338674977e-01,1.525133287682222374e+02
-3.953048766054787500e+00,4.629191346218485492e+00,2.355009838286806101e+00,-2.186856800774396314e-02,-7.850340313135933945e-01,-6.190648878859595916e-01,1.542210077715364775e+02
-3.743078536660751521e+00,4.449701695254965728e+00,2.835474623940173355e+00,-1.765023644891760418e-02,-7.355424607243052915e-01,-6.772471909321242656e-01,1.559286867748507177e+02
-3.542466196305313009e+00,4.241193255191122446e+00,3.289373418674913729e+00,-1.332860891464911039e-02,-6.817462038655104362e-01,-7.314659675609946898e-01,1.576064998735415656e+02
-3.352668691908323950e+00,3.998671797392555849e+00,3.723126680375781206e+00,-8.928977180371857475e-03,-6.239600969716005974e-01,-7.814039101222236550e-01,1.592843129722324136e+02
-3.178409620756414977e+00,3.720528971706717147e+00,4.134787831396077529e+00,-4.477089514738841897e-03,-5.625223258546633298e-01,-8.267687636728434653e-01,1.609621260709232615e+02
-3.023610017967957919e+00,3.405854116829126088e+00,4.522561660430035602e+00,9.999988887669001867e-07,-4.977924468359415378e-01,-8.672950362319774564e-01,1.626399391696141095e+02
-2.886066315789808989e+00,3.042017261512776294e+00,4.897949002996608847e+00,0.000000000000000000e+00,9.988447030629378220e-01,4.803393763095126917e-02,1.643777764761805429e+02
-2.771886518648481346e+00,2.641869995796740422e+00,5.246385807811544844e+00,-0.000000000000000000e+00,9.988447023578338468e-01,4.803393759704317062e-02,1.661156137827469763e+02
-2.680562802866934824e+00,2.208144124263683228e+00,5.567743105382257696e+00,4.894745649099780382e-01,3.309397058303449601e-02,-8.713882254299828434e-01,1.678534510893134097e+02
-2.611473648223313848e+00,1.743866934124755463e+00,5.861952372763926000e+00,0.000000000000000000e+00,9.978126036217043193e-01,-6.609090750977844597e-02,1.695912883958798432e+02
-2.563790894513593432e+00,1.252659880994115404e+00,6.129065753959212159e+00,-0.000000000000000000e+00,9.973637782895020676e-01,-7.254993870644024789e-02,1.713291257024462766e+02
-2.537586189371701106e+00,7.584610128902047332e-01,6.360075008648565564e+00,-0.000000000000000000e+00,9.968731426564392262e-01,-7.900593205231017102e-02,1.729997892893018445e+02
-2.530055948432366364e+00,2.460818641201782120e-01,6.565571834062660983e+00,-0.000000000000000000e+00,9.968731420280737554e-01,-7.900593200250984049e-02,1.746704528761574124e+02
-2.540256001180178469e+00,-2.809365923540572130e-01,6.745659409637933202e+00,1.738348360866805099e-05,8.465266079754539819e-01,-5.323445328784165431e-01,1.763411164630129804e+02
-2.567210804160901638e+00,-8.190602210064159561e-01,6.900441111392232152e+00,3.080145443607781701e-05,5.030694626196500208e-01,-8.642448234313632183e-01,1.780117800498685483e+02
-2.609913460875703084e+00,-1.364761900265322181e+00,7.030020511122033966e+00,3.719296545200305774e-05,4.485137233212694446e-02,-9.989926691492752031e-01,1.796824436367241162e+02
-2.669683290621934546e+00,-1.936746615055643383e+00,7.138563336265328907e+00,3.509997659884894663e-05,-4.235978461059841660e-01,-9.058492498982426699e-01,1.814207000302306767e+02
-2.743959020424258100e+00,-2.509365650022306049e+00,7.220659856672271282e+00,2.499997267777999052e-05,-7.954151306987617964e-01,-6.060633376394419791e-01,1.831589564237372372e+02
-2.832352943394793154e+00,-3.079385240378993860e+00,7.276085284668559083e+00,5.772616529653712414e-02,-6.378149999818046867e-01,-7.680219499722915621e-01,1.848972128172437976e+02
-2.931513571068795621e+00,-3.626387594964090688e+00,7.303755763310651794e+00,1.122871430989938191e-01,-4.455190708781650577e-01,-8.882017535331525604e-01,1.865816617169487870e+02
-3.044508238045706694e+00,-4.165756042243040191e+00,7.305219096360372255e+00,1.607399398219624131e-01,-2.289878023307753974e-01,-9.600652363930128885e-01,1.882661106166537763e+02
-3.172750912948363755e+00,-4.696266456595988181e+00,7.280218983449697312e+00,2.004488266899933369e-01,-0.000000000000000000e+00,-9.797031529391179161e-01,1.899505595163587657e+02
-3.331301789699189442e+00,-5.263441491431850139e+00,7.223516729463779207e+00,6.019866027951922827e-02,2.337480342517927190e-01,-9.704308207098829575e-01,1.917852667561002704e+02
-3.511066850649245286e+00,-5.818879915915174728e+00,7.136679517306170339e+00,-8.452989841290621531e-02,4.501064590670528776e-01,-8.889639316530130175e-01,1.936199739958417751e+02
-3.714143119936326620e+00,-6.361753238185280601e+00,7.019436313701076458e+00,-0.000000000000000000e+00,8.052988517093670473e-03,-9.999665741290355570e-01,1.954546812355832799e+02
-3.940835769754514661e+00,-6.891472372977275995e+00,6.871703486856386434e+00,6.258345383470324819e-02,-2.154183380556916605e-01,-9.745133405628270129e-01,1.972893884753247846e+02
-4.211424221979521043e+00,-7.455350977398749635e+00,6.676825446440507683e+00,1.217558766212737814e-01,-4.271485671580905197e-01,-8.959450921131094647e-01,1.992943888671479442e+02
-4.500153179239977597e+00,-8.003711002247174022e+00,6.448594138781074570e+00,3.100359391177000545e-01,-3.136305489946982772e-01,-8.975029778187917362e-01,2.012993892589711038e+02
-4.801345992883908842e+00,-8.536368873129424273e+00,6.188168047011327388e+00,4.833293411425172437e-01,-1.849522353444200684e-01,-8.556771696341357591e-01,2.033043896507942634e+02
-5.082650681405302961e+00,-9.010896808488839227e+00,5.922185750438258012e+00,6.332594376573775774e-01,-4.733369534633913994e-02,-7.724894859505175848e-01,2.051442253461085556e+02
-5.361986090091558133e+00,-9.471394333006536215e+00,5.632199293279007257e+00,7.525789214884025524e-01,9.257286733496225550e-02,-6.519610656826143602e-01,2.069840610414228479e+02
-5.632837039893413333e+00,-9.917649388088534579e+00,5.321275548006043188e+00,7.746750102182862197e-01,7.737150567254882927e-02,-6.276067866502113013e-01,2.088238967367371401e+02
-5.852252488080488035e+00,-1.028763941342588950e+01,5.040608654635256869e+00,7.957543708473537869e-01,6.206860081654737293e-02,-6.024288091271197132e-01,2.103996389417758337e+02
-6.054307979534879536e+00,-1.064532583243301112e+01,4.749154845197330665e+00,8.157893399344894325e-01,4.668423591491790980e-02,-5.764601763892197583e-01,2.119753811468145273e+02
-6.234505221266876340e+00,-1.099020744581575570e+01,4.449974182030772774e+00,8.347536244505501246e-01,3.123860097885020753e-02,-5.497349691187217724e-01,2.135511233518532208e+02
-6.388340812601165375e+00,-1.132181203944770509e+01,4.146126780640904563e+00,8.526223362539055994e-01,1.575196640496050529e-02,-5.222882607063307203e-01,2.151268655568919144e+02
-6.511306321620540238e+00,-1.163969641164096025e+01,3.840672788635086654e+00,8.693720247285443570e-01,2.446563925975302743e-04,-4.941560712556541390e-01,2.167026077619306079e+02
-6.620974440364211233e+00,-1.201961093537925862e+01,3.459828150364655297e+00,8.849807075402095213e-01,-1.526297770936156650e-02,-4.653753203480212597e-01,2.186786926985779189e+02
-6.680670225578122512e+00,-1.237915666261199377e+01,3.086349533230755782e+00,8.948031780336588303e-01,-4.464585898830685240e-01,-9.999990814006853238e-06,2.206547776352252299e+02
-6.685929099760588912e+00,-1.267840143327543245e+01,2.767953605467837974e+00,9.978964962912724168e-01,-6.481190233634093190e-02,1.999996986247637058e-06,2.223994826581620430e+02
-6.642548233090908028e+00,-1.295912279418394775e+01,2.465376216086061056e+00,9.935172226437345433e-01,7.439416267977916331e-02,8.594787298917568041e-02,2.241441876810988560e+02
-6.551496191892244525e+00,-1.322030407711850408e+01,2.182656925845855245e+00,9.625273348547500607e-01,2.116076272205205944e-01,1.695916913102053503e-01,2.258888927040356691e+02
-6.414736276354593869e+00,-1.346078070492394474e+01,1.923623412832614621e+00,9.057568746903577050e-01,3.431533396295878280e-01,2.486931230535613657e-01,2.276335977269724822e+02
-6.234218637269649754e+00,-1.367937351364558474e+01,1.692103155551628157e+00,8.247263912785047779e-01,4.655079535854985129e-01,3.211334997772921640e-01,2.293783027499092952e+02
-6.042470846230563630e+00,-1.384879394035650790e+01,1.518902032372571931e+00,7.216062158873126631e-01,5.753942958522619833e-01,3.849725620030337581e-01,2.308820833231763459e+02
-5.816007224367757189e+00,-1.399953168012623195e+01,1.374716431021664853e+00,5.991583339605895953e-01,6.698691413752297930e-01,4.385004267732555139e-01,2.323858638964433965e+02
-5.556621688809844528e+00,-1.413173142206431443e+01,1.262463657829099972e+00,4.606624106662593476e-01,7.464020451143851265e-01,4.802833855647918315e-01,2.338896444697104471e+02
-5.266823439163651699e+00,-1.424613745404339049e+01,1.184169772276984611e+00,3.227712547909927232e-01,6.771709017490963323e-01,6.612535723198923465e-01,2.353934250429774977e+02
-4.858746693967139763e+00,-1.437074079669901749e+01,1.131269350068726531e+00,1.666250719489444365e-01,5.696408583099646927e-01,8.048250604589254342e-01,2.373288210211753722e+02
-4.420011121380521324e+00,-1.447345199909478097e+01,1.129529576746124864e+00,1.054998706094199953e-03,4.298934727560758673e-01,9.028778926631518820e-01,2.392642169993732466e+02
-3.955000757986130822e+00,-1.455678326284248136e+01,1.177989418338513339e+00,7.425504957573948739e-02,4.787217044260124177e-01,8.748198199182751766e-01,2.411996129775711211e+02
-3.567409702438436803e+00,-1.461021184580035204e+01,1.253488018389364189e+00,1.468217373029374329e-01,5.234665825470752321e-01,8.392997762476974710e-01,2.427390917806250172e+02
-3.164979256727729506e+00,-1.465302020066650890e+01,1.363190006528806286e+00,2.181361055402203097e-01,5.637464533101917974e-01,7.966207227012114256e-01,2.442785705836789134e+02
-2.750124069176600905e+00,-1.468643733435001408e+01,1.505023726731880673e+00,2.875898764458944545e-01,5.992177425646092459e-01,7.471466790115117718e-01,2.458180493867328096e+02
-2.324720057458536271e+00,-1.471156800482871674e+01,1.675505368715423105e+00,3.118744433430296614e-01,7.180395166060827838e-01,6.222150626438175403e-01,2.473575281897867058e+02
-1.890553427563526068e+00,-1.473014587887834459e+01,1.870633337002499452e+00,3.267041262612786490e-01,8.150929942829060471e-01,4.784201339344146264e-01,2.488970069928406019e+02
-1.449578900749335375e+00,-1.474436166226329625e+01,2.086568849599730768e+00,3.316293360567681980e-01,8.874358476166244181e-01,3.201212267726132321e-01,2.504364857958944981e+02
-1.003796838485105924e+00,-1.475639751521987542e+01,2.319501032518477057e+00,3.265007535449489517e-01,9.328748877230121916e-01,1.521173947620657885e-01,2.519759645989483943e+02
-5.552260565951839810e-01,-1.476842293262271610e+01,2.565618900493577659e+00,3.114738576488531585e-01,9.500325597650659537e-01,-2.049808250716792998e-02,2.535154434020022904e+02
-1.059037922177586549e-01,-1.478259464873779017e+01,2.821111381669136886e+00,2.870042120537198982e-01,9.383887082685804515e-01,-1.924921153099263815e-01,2.550549222050561866e+02
3.357103600056020598e-01,-1.480075917987715250e+01,3.078434812763307438e+00,2.538336532058819150e-01,8.982963458446361349e-01,-3.586504587221391871e-01,2.565723690986664565e+02
7.740251567508453778e-01,-1.482516372987448250e+01,3.337529553295841556e+00,2.129677986502864218e-01,8.309709473952209269e-01,-5.139357949420260141e-01,2.580898159922767263e+02
1.207008315032714885e+00,-1.485785026529368835e+01,3.594713052773684137e+00,1.656455580846279418e-01,7.384535953663755592e-01,-6.536404490062998063e-01,2.596072628858869962e+02
1.632904368786503690e+00,-1.490006735403369831e+01,3.846486490233622657e+00,1.133015720670896842e-01,6.235490949629847179e-01,-7.735291073631956893e-01,2.611247097794972660e+02
2.050537806872338109e+00,-1.495149165465966234e+01,4.089718513909302189e+00,5.752271766600519642e-02,4.897409372361256619e-01,-8.699672128004375393e-01,2.626421566731075359e+02
2.459032069959226963e+00,-1.501101239722038017e+01,4.321461543885768641e+00,0.000000000000000000e+00,3.410856895400025679e-01,-9.400311443731718120e-01,2.641596035667178057e+02
2.857519707202242909e+00,-1.507751349114158046e+01,4.538768073581636031e+00,-0.000000000000000000e+00,2.648456641198230765e-01,-9.642897770771253763e-01,2.656770504603280756e+02
3.297713465498185226e+00,-1.515990374228898041e+01,4.765225367531921385e+00,4.151412621061836014e-04,2.448376411633453043e-01,-9.695629722317228305e-01,2.674004949065883352e+02
3.724437722809804008e+00,-1.524794878728248548e+01,4.967067191716495245e+00,8.301046784177735843e-04,2.247247560219483020e-01,-9.744209023582641738e-01,2.691239393528485948e+02
4.137197114930374120e+00,-1.533986332093335925e+01,5.141196232571347835e+00,1.244712531213435468e-03,2.045156225366544234e-01,-9.788614870474835472e-01,2.708473837991088544e+02
4.536103422714554689e+00,-1.543342926940315429e+01,5.286746283019927439e+00,1.658787255133292206e-03,1.842188957534875160e-01,-9.828828245868824753e-01,2.725708282453691140e+02
4.920709431858835359e+00,-1.552626568325887213e+01,5.404682531245298627e+00,2.072151513166708720e-03,1.638432682217705882e-01,-9.864831927824202484e-01,2.742942726916293736e+02
5.391006565379064419e+00,-1.564030178848402919e+01,5.520674795830925241e+00,2.484628272542257002e-03,1.433974662741803741e-01,-9.896610496953736069e-01,2.764897229564932672e+02
5.753398787048692675e+00,-1.572653040163527294e+01,5.588738984249368436e+00,2.896040880487620213e-03,1.228902462923738143e-01,-9.924150343021920229e-01,2.782646988824751020e+02
6.094548940793371727e+00,-1.580494168843737768e+01,5.634586243018243401e+00,3.306213139827232379e-03,1.023303909597737954e-01,-9.947439670770643616e-01,2.800396748084569367e+02
6.410302554264060149e+00,-1.587399715445801007e+01,5.661287625340358787e+00,3.714969384385531041e-03,8.172670550310714987e-02,-9.966468504969527853e-01,2.818146507344387715e+02
6.696310879143081429e+00,-1.593216077721165291e+01,5.671306041545371102e+00,4.122134554163776020e-03,6.108801392429120958e-02,-9.981228694688755176e-01,2.835896266604206062e+02
6.947822745909300046e+00,-1.597793059316512476e+01,5.665887927529210444e+00,4.527534270258466373e-03,4.042315522427041702e-02,-9.991713916792568373e-01,2.853646025864024409e+02
7.149546296308558979e+00,-1.600839663504862642e+01,5.646763284630629265e+00,4.930994909489535942e-03,1.974097962040822357e-02,-9.997919678651941977e-01,2.870524924873593022e+02
7.309302404890272165e+00,-1.602454910432605573e+01,5.614353834724712833e+00,-2.635605781151709182e-01,2.269613401143463771e-01,-9.375619295589556756e-01,2.887403823883161635e+02
7.422638811378289958e+00,-1.602499068804230120e+01,5.569228006627361616e+00,-5.007145059823778777e-01,4.071957538119974074e-01,-7.638550920022360025e-01,2.904282722892730249e+02
7.485114127128724704e+00,-1.600829262083739124e+01,5.511954329539220154e+00,-6.783331045802174497e-01,5.390142884851797378e-01,-4.993253408757656331e-01,2.921161621902298862e+02
7.492297925205264164e+00,-1.597299474609527437e+01,5.443101428554990129e+00,-9.089331001746200345e-01,0.000000000000000000e+00,-4.169395872382440360e-01,2.938040520911867475e+02
7.440884432204917687e+00,-1.591718705745203444e+01,5.363218621892256621e+00,-7.894990794488210631e-03,9.999678340435190771e-01,-0.000000000000000000e+00,2.954919419921436088e+02
7.329811335926383009e+00,-1.583810168631830706e+01,5.272816518273123698e+00,-1.502432671713034573e-01,9.886480469160562334e-01,-0.000000000000000000e+00,2.971798318931004701e+02
7.140332493465421315e+00,-1.572005630421980804e+01,5.161134960734971244e+00,-2.895278891747618544e-01,9.571685334314539162e-01,-0.000000000000000000e+00,2.990541810862090415e+02
6.884877297602443491e+00,-1.556712953230994501e+01,5.038588930132556598e+00,-4.229086811257043443e-01,9.061712020528273070e-01,-0.000000000000000000e+00,3.009285302793176129e+02
6.564818844348017990e+00,-1.537535911347170092e+01,4.906271853096595414e+00,-5.476658540163765743e-01,8.366959497606378804e-01,-0.000000000000000000e+00,3.028028794724261843e+02
6.241056517172226314e+00,-1.517780618906287060e+01,4.787352987270677040e+00,-6.612554637745017283e-01,7.501594574686536454e-01,-0.000000000000000000e+00,3.043951603683539702e+02
5.869150495837102355e+00,-1.494442164982085508e+01,4.663899985006820792e+00,-7.613612840537885562e-01,6.483263029872992078e-01,-0.000000000000000000e+00,3.059874412642817560e+02
5.452751035892577924e+00,-1.467286588654537205e+01,4.537626100877095503e+00,-8.459420360444143139e-01,5.332729804275951890e-01,-0.000000000000000000e+00,3.075797221602095419e+02
4.995527021198248541e+00,-1.436082287316924777e+01,4.410244609243125780e+00,-9.132730123892169871e-01,4.073455594976950200e-01,-0.000000000000000000e+00,3.091720030561373278e+02
4.501584654060099666e+00,-1.400656120757495771e+01,4.283136809206797402e+00,-9.204749275429946476e-01,3.541167659669207102e-01,-1.653034295673546650e-01,3.107642839520651137e+02
3.975879589785554558e+00,-1.360949879873989232e+01,4.157020031895463319e+00,-8.998688851299470048e-01,2.901899633264325984e-01,-3.256129216734375831e-01,3.123565648479928996e+02
3.390360499171934272e+00,-1.314221533657074303e+01,4.024718471958055765e+00,-8.520774199012427497e-01,2.174964083857882646e-01,-4.760854784962079700e-01,3.140456542926685870e+02
2.783008435015604576e+00,-1.262821617946148756e+01,3.894348365964181102e+00,-7.785443354743409872e-01,1.382321979191473982e-01,-6.121752830362218178e-01,3.157347437373442745e+02
2.159875328324737609e+00,-1.206760183064277214e+01,3.766352123660607010e+00,-6.814910863540341035e-01,5.479192654280642949e-02,-7.297710216271888761e-01,3.174238331820199619e+02
1.527011272700365518e+00,-1.146051481771564085e+01,3.641172135984445557e+00,-5.616047461876608748e-01,5.961305129296112781e-02,-8.252541385392287987e-01,3.191129226266956493e+02
8.902793687401236999e-01,-1.080771227072012053e+01,3.518268457768383151e+00,-4.285133347476591248e-01,6.303249195327942367e-02,-9.013330277441610194e-01,3.208020120713713368e+02
2.551635787205436823e-01,-1.011113675180185645e+01,3.395136498218370047e+00,-2.853462281797229383e-01,6.496984607970246461e-02,-9.562188291205112600e-01,3.224911015160470242e+02
-3.359301335235824193e-01,-9.417672988442166826e+00,3.275917562211872358e+00,-1.354697196480198762e-01,6.537955945555690151e-02,-9.886209932346552431e-01,3.240799573945994325e+02
-9.160494108002051883e-01,-8.688863009039058838e+00,3.150254827040387617e+00,1.759213150844947046e-02,6.425199743474374614e-02,-9.977776294018819714e-01,3.256688132731518408e+02
-1.480566112561580105e+00,-7.926960321211176108e+00,3.015126661491479787e+00,1.702403617569579752e-01,6.161367169576171393e-02,-9.834734234787930740e-01,3.272576691517042491e+02
-2.024871370720504160e+00,-7.134248278452290926e+00,2.867511500707212502e+00,3.188857280400414496e-01,5.752661703032642404e-02,-9.460447033758088153e-01,3.288465250302566574e+02
-2.544675783827051951e+00,-6.313045579663332241e+00,2.705505468227050070e+00,4.600331049324291044e-01,5.208693278695777223e-02,-8.863715325974117487e-01,3.304353809088090657e+02
-3.036492275729731904e+00,-5.465710594146427681e+00,2.529740525830737052e+00,5.903636692175653344e-01,4.542252324968100441e-02,-8.058570173732386710e-01,3.320242367873614739e+02
-3.497518767207087098e+00,-4.594631583148846232e+00,2.342567403964047390e+00,7.068129387536673525e-01,3.769009008885113032e-02,-7.063943139067078159e-01,3.336130926659138822e+02
-3.925155580270970557e+00,-3.702215859063782588e+00,2.146637448757334976e+00,8.066428300410404262e-01,2.907144762723296028e-02,-5.903221117971632070e-01,3.352019485444662905e+02
-4.316822896570786661e+00,-2.790887444431343845e+00,1.944602067727770889e+00,8.875060397409088031e-01,1.976924760169882639e-02,-4.603696409118693267e-01,3.367908044230186988e+02
-4.670943237098296841e+00,-1.863428960282722757e+00,1.739003220302485442e+00,9.475012361781277592e-01,1.000221399148374692e-02,-3.195924954642725968e-01,3.383796603015711071e+02
-4.974106243457790733e+00,-9.645709413804605115e-01,1.541198549283343544e+00,9.852177632737167956e-01,0.000000000000000000e+00,-1.713007849691804418e-01,3.398989494162532310e+02
-5.243205434953165600e+00,-5.732401833443980660e-02,1.344217968976495037e+00,5.119696326534545205e-01,1.099999210732660065e-05,-8.590023836518065892e-01,3.414182385309353549e+02
-5.479570440453786162e+00,8.549133757963583991e-01,1.150051978240315131e+00,5.956896370556957754e-01,2.920263765887917695e-02,-8.026824168116059033e-01,3.429375276456174788e+02
-5.684558523936969365e+00,1.768751157920853023e+00,9.606910579403026285e-01,6.728372947655918423e-01,5.807207328657682660e-02,-7.375063451097836342e-01,3.444568167602996027e+02
-5.859554563019008455e+00,2.680807734964042677e+00,7.781256581986382148e-01,7.425614283300140395e-01,8.630078656641593238e-02,-6.641932696099374089e-01,3.459761058749817266e+02
-6.005971027199862533e+00,3.587710143817802511e+00,6.043461856500225160e-01,8.040927659970493746e-01,1.135773268077517884e-01,-5.835520666634573805e-01,3.474953949896638505e+02
-6.125247955822156420e+00,4.486094191200911574e+00,4.413429907020200438e-01,8.567524286989236515e-01,1.396007491247152066e-01,-4.964724632476649191e-01,3.490146841043459744e+02
-6.218852935744370036e+00,5.372604593431957731e+00,2.911063547921775574e-01,8.999594196863910378e-01,1.640839346776358787e-01,-4.039152204354495290e-01,3.505339732190280984e+02
-6.288281078726977391e+00,6.243895116109727361e+00,1.556264776463578692e-01,9.332370342337380498e-01,1.867567583492452110e-01,-3.069015333075610363e-01,3.520532623337102223e+02
-6.338480995952697761e+00,7.160266300935208328e+00,2.826219765356844174e-02,9.562181187464160459e-01,2.073690689209338467e-01,-2.065017642466611958e-01,3.536867832669289555e+02
-6.366130546626052933e+00,8.051923328864814877e+00,-7.871057718121762803e-02,9.686491212909009718e-01,2.256934488836080943e-01,-1.038236338914444862e-01,3.553203042001476888e+02
-6.373824967825616916e+00,8.914823742502496984e+00,-1.643019252025677279e-01,9.703928888893302851e-01,2.415277234480655844e-01,0.000000000000000000e+00,3.569538251333664221e+02
-6.364449444182337601e+00,9.744920807351284964e+00,-2.279793745329646848e-01,9.969795307158221265e-01,-7.765188556165565636e-02,0.000000000000000000e+00,3.585873460665851553e+02
-6.340924542968307875e+00,1.053818703637167076e+01,-2.692106154374007132e-01,8.865794544623795126e-01,-4.441073273784010983e-02,-4.604373548534740346e-01,3.602208669998038886e+02
-6.306206161787124564e+00,1.129061438430216491e+01,-2.874635042613391533e-01,5.764363129604285207e-01,-1.163998612660080293e-03,-8.171400260718820752e-01,3.618543879330226218e+02
-6.263285475834455163e+00,1.199821444174908613e+01,-2.822060673676369258e-01,9.988611377194624996e-01,-0.000000000000000000e+00,4.769095883012756248e-02,3.634879088662413551e+02
-6.199052494527995449e+00,1.287043526322459819e+01,-2.418485071510788342e-01,9.546769266706609525e-01,-0.000000000000000000e+00,-2.976406653669427804e-01,3.656618007839354050e+02
-6.132084189871424229e+00,1.366330913848605455e+01,-1.667291571651352555e-01,9.955207354002849618e-01,9.453287991585836159e-02,0.000000000000000000e+00,3.678356927016294549e+02
-6.086454051595669767e+00,1.416875949563222115e+01,-9.107074609238610674e-02,9.706551006260414338e-01,0.000000000000000000e+00,-2.404717771875365118e-01,3.693721637586841666e+02
-6.044956403033991066e+00,1.462218511942777788e+01,4.376045545997915565e-03,9.617824671311594464e-01,-1.132104667709601525e-01,-2.493108022785191502e-01,3.709086348157388784e+02
-6.008278369943067077e+00,1.502376727941178380e+01,1.171343347332256535e-01,9.404321622891259613e-01,-2.249521921716169381e-01,-2.549153964937462269e-01,3.724451058727935902e+02
-5.975323243630692893e+00,1.538690558736419156e+01,2.491039994953397896e-01,9.068811732560317918e-01,-3.337755049731844781e-01,-2.572128493559123763e-01,3.740395342029160020e+02
-5.947516778286297878e+00,1.569701871672604909e+01,3.925309367078417266e-01,8.615647689912929730e-01,-4.382685948758600070e-01,-2.561733545443831694e-01,3.756339625330384138e+02
-5.922309111067855625e+00,1.598215003698393843e+01,5.588924458102794146e-01,8.050708539365049043e-01,-5.370758273245503922e-01,-2.518103966189773613e-01,3.773981333598889591e+02
-5.902436020869751943e+00,1.621051866466640590e+01,7.270603335063249295e-01,7.381323418671527081e-01,-6.289153298173403295e-01,-2.441805762341053565e-01,3.791623041867395045e+02
-5.887767822918920757e+00,1.638505330464071719e+01,8.906482607230193915e-01,6.616176487367453340e-01,-7.125956216717346248e-01,-2.333828760933466251e-01,3.809264750135900499e+02
-5.878275917731187405e+00,1.650913258953482199e+01,1.042864537561966287e+00,6.743385048520732505e-01,-7.064499037499607503e-01,-2.149281609347802047e-01,3.826906458404405953e+02
-5.874489474573686643e+00,1.657834662765119305e+01,1.161551166671694446e+00,6.866951036671932185e-01,-6.999225852790175173e-01,-1.963573508000663048e-01,3.842474504765693837e+02
-5.874732132857197975e+00,1.661151716410680734e+01,1.259742497539727557e+00,6.986807708090970737e-01,-6.930171921650706279e-01,-1.776804768755805286e-01,3.858042551126981721e+02
-5.877326886408241968e+00,1.661199362247040767e+01,1.333783542235621900e+00,7.102890322610700968e-01,-6.857374545185892512e-01,-1.589076276255430853e-01,3.873785761281259283e+02
-5.879948920863054873e+00,1.658306806938390920e+01,1.378281781067521417e+00,7.215136178575408676e-01,-6.780873046386622915e-01,-1.400489433435991582e-01,3.889528971435536846e+02
-5.879646275035861791e+00,1.652876457199220184e+01,1.389553666245198604e+00,7.323484646695864742e-01,-6.700708748889627753e-01,-1.211146106767179986e-01,3.905272181589814409e+02
-5.872249752880695617e+00,1.645361095772226179e+01,1.365052390653718861e+00,7.427877202785617694e-01,-6.616924954657499303e-01,-1.021148571241138892e-01,3.921015391744091971e+02
-5.852959128853245652e+00,1.636236874293516053e+01,1.302799649189952280e+00,7.528257459360989667e-01,-6.529566920591153290e-01,-8.305994551415285532e-02,3.936758601898369534e+02
-5.816932419795267428e+00,1.625976813235718765e+01,1.200817396192469522e+00,7.624571196087690517e-01,-6.438681834087313094e-01,-6.396016846222164765e-02,3.952501812052647097e+02
-5.754897305226814197e+00,1.614235461074676437e+01,1.045774987485721619e+00,7.716766389057718722e-01,-6.344318787554229511e-01,-4.482584281254443220e-02,3.969421508560849929e+02
-5.664008242358755219e+00,1.602267388763664613e+01,8.427553809743495439e-01,7.804793238880772810e-01,-6.246528751899381726e-01,-2.566730406694251246e-02,3.986341205069052762e+02
-5.539006685490834414e+00,1.590457402808628729e+01,5.912120837741845492e-01,7.888604197575036503e-01,-6.145364549003407006e-01,-6.494900803537841799e-03,4.003260901577255595e+02
-5.387871417666755924e+00,1.579917191428004486e+01,3.158664680731330110e-01,7.968153994242889171e-01,-6.040880823195154958e-01,1.268101091159225952e-02,4.018894274981638546e+02
-5.212998720049665025e+00,1.570679081914068398e+01,2.643524282267516526e-02,8.043399659517670441e-01,-5.933134011743196323e-01,3.185007311679909081e-02,4.033279978224805404e+02
-5.023929478568609497e+00,1.562883284480553314e+01,-2.588256524716399110e-01,8.114300548768379473e-01,-5.822182314379679147e-01,5.100193154827266373e-02,4.046076431591168330e+02
-4.607111633730287537e+00,1.548953383776856541e+01,-8.375300500428126682e-01,8.180818364049758928e-01,-5.708085661872976946e-01,7.012624123146395105e-02,4.070017554401334792e+02
-4.397051760705497969e+00,1.542976877139009240e+01,-1.105445035441736223e+00,8.242917174785959755e-01,-5.590905683666034243e-01,8.921267206750799206e-02,4.080531984137069799e+02
-3.983247937755364010e+00,1.532285663902923822e+01,-1.588780386475815876e+00,8.300563437176621262e-01,-5.470705674597829971e-01,1.082509144116375471e-01,4.099016829047124020e+02
-3.530246755135787229e+00,1.520809603799324705e+01,-2.074495378364114018e+00,5.318795199242887239e-01,-8.466672357961524398e-01,1.602398553671279327e-02,4.117501673957178241e+02
-3.044641803409164016e+00,1.507848602596760834e+01,-2.549059894095017764e+00,5.239554337157279473e-01,-8.514760797356397681e-01,2.138197689063527085e-02,4.135986518867232462e+02
-2.534473719477189579e+00,1.492712917461726718e+01,-2.999916507471695581e+00,5.286649369446070335e-01,-8.111518968713665734e-01,2.500879538212825159e-01,4.154471363777286683e+02
-1.978039194972799564e+00,1.473603293889542876e+01,-3.440423201118554264e+00,5.048504550706163219e-01,-7.270622152179702091e-01,4.653004977603547032e-01,4.174078258605113092e+02
-1.418299952257964680e+00,1.450688087309734620e+01,-3.830694664583085274e+00,0.000000000000000000e+00,-2.786296520869637611e-02,9.996107518284248483e-01,4.193685153432939501e+02
-9.381139335114335731e-01,1.426942248463419993e+01,-4.118394113565054582e+00,-0.000000000000000000e+00,-9.993865585873608071e-01,3.499294952975973150e-02,4.210780970384075204e+02
-4.769121155818283886e-01,1.399114599906478951e+01,-4.346769463346301876e+00,-0.000000000000000000e+00,2.016697227948966581e-02,9.997956257309926764e-01,4.227876787335210906e+02
-4.607974982412870596e-02,1.366842481266407283e+01,-4.509072889409259766e+00,-0.000000000000000000e+00,-4.846611809941286930e-02,9.988238260001270907e-01,4.244972604286346609e+02
3.449799092898946928e-01,1.329973207593471685e+01,-4.598567909304569490e+00,-0.000000000000000000e+00,-1.168708951513450084e-01,9.931461090165466521e-01,4.262068421237482312e+02
6.880541923782301783e-01,1.289337764393866159e+01,-4.609567570915471535e+00,-0.000000000000000000e+00,-0.000000000000000000e+00,9.999989999924441264e-01,4.278964229234440495e+02
9.435453543808506316e-01,1.251836460284695818e+01,-4.552760081755860888e+00,-1.161848472904061791e-01,1.341998236121057881e-03,9.932256945363709955e-01,4.293354488072124582e+02
1.222886014082637196e+00,1.201204589597450045e+01,-4.396771921774075054e+00,-2.685116056354184821e-01,-9.387736212176366335e-01,-2.158786829377030148e-01,4.311642364071363431e+02
1.458220831036264986e+00,1.148200671513050608e+01,-4.158245409314777596e+00,-4.786744931382749257e-01,-2.325607537446708895e-01,8.466311035141672603e-01,4.329930240070602281e+02
1.651340894042301999e+00,1.093665255213579179e+01,-3.843235003450098830e+00,-5.049723454920819199e-01,-3.886080038265491421e-01,7.707040610061457464e-01,4.348218116069841130e+02
1.804116793826541221e+00,1.038437452447086073e+01,-3.457795872491006062e+00,-5.157133636215051053e-01,-5.326832743473854936e-01,6.710337218158815009e-01,4.366505992069079980e+02
1.936848871121793714e+00,9.745133647243411801e+00,-2.934268517471728455e+00,-5.105666519331244491e-01,-6.603479986302661642e-01,5.506906705586082085e-01,4.387747795449688510e+02
2.027810688882512036e+00,9.118752485238005079e+00,-2.342723419695050602e+00,-4.896907738373317276e-01,-7.676691808925005800e-01,4.133823589947610011e-01,4.408989598830297041e+02
2.078528424815484055e+00,8.547112851743120743e+00,-1.730084569940444572e+00,-4.537288648771277133e-01,-8.513405592683653822e-01,2.633388868430069918e-01,4.429084787836207511e+02
2.098923829478356762e+00,8.003403203625733653e+00,-1.076862359283112802e+00,-4.037888176911342830e-01,-9.087844595733248765e-01,1.051826827357302818e-01,4.449179976842117981e+02
2.095643908003166356e+00,7.611553161184112959e+00,-5.562420226892236252e-01,-3.414091497420060906e-01,-9.382312028320629604e-01,-5.621389958593878133e-02,4.464545876710864150e+02
2.077623829056414184e+00,7.244673795068020006e+00,-2.324209985843547766e-02,-2.685116056354195369e-01,-9.387736212176401862e-01,-2.158786829377038197e-01,4.479911776579610319e+02
2.048641574619042949e+00,6.904328882611473261e+00,5.149843861192580086e-01,-2.838150423349484197e-01,-9.258693805880551242e-01,-2.494251627954224004e-01,4.495277676448356488e+02
2.012024479030805502e+00,6.587292018822004991e+00,1.059103966305174671e+00,-2.986853529481729996e-01,-9.115521860582658231e-01,-2.825909977835006637e-01,4.510868644251565343e+02
1.971913758318338816e+00,6.299646765837343843e+00,1.594108593254655704e+00,-3.130998442361059286e-01,-8.958438869463386522e-01,-3.153255742274683748e-01,4.526459612054774198e+02
1.922344461486557687e+00,5.984101136307494961e+00,2.232019259925460020e+00,-3.270365185769564809e-01,-8.787684554838108841e-01,-3.475789365962302369e-01,4.545652864476153354e+02
1.876470345582868182e+00,5.708826290600304887e+00,2.839516311245357638e+00,-3.404741075345711354e-01,-8.603519502316013812e-01,-3.793018637351281419e-01,4.564846116897532511e+02
1.843837910765360188e+00,5.509057778122451232e+00,3.319784942370752390e+00,-3.533921043141735052e-01,-8.406224763125925703e-01,-4.104459439782839891e-01,4.581012057756331615e+02
1.819559178586378279e+00,5.339336928257601755e+00,3.764093647952350796e+00,-3.657707950558515830e-01,-8.196101425214203928e-01,-4.409636490256048647e-01,4.597177998615130718e+02
1.805798383102105387e+00,5.198863938649751049e+00,4.167384624524529180e+00,-3.775912889180629839e-01,-7.973470153769168789e-01,-4.708084064717560357e-01,4.613343939473929822e+02
1.804471897994346596e+00,5.086682981795781266e+00,4.525314707347375176e+00,-3.888355469052628965e-01,-7.738670701873087143e-01,-4.999346708764587643e-01,4.629509880332728926e+02
1.817005374380528560e+00,5.001542463918863923e+00,4.834969743394838204e+00,-3.994864093956862483e-01,-7.492061392028339650e-01,-5.282979932677002166e-01,4.645675821191528030e+02
1.844572335559274689e+00,4.942040220429515962e+00,5.094150270953267778e+00,-4.095276223272890093e-01,-7.234018569348740213e-01,-5.558550889718272270e-01,4.661841762050327134e+02
1.889435053985591972e+00,4.906019572004274742e+00,5.305577829366922238e+00,-4.189438620019025339e-01,-6.964936027250149264e-01,-5.825639036670496873e-01,4.678412304909839463e+02
1.952103148511741271e+00,4.893625807796778027e+00,5.460226066684442436e+00,-4.277207584697603204e-01,-6.685224406516521167e-01,-6.083836775595853341e-01,4.694982847769351793e+02
2.033772825519237770e+00,4.903344736387269087e+00,5.555765686117211999e+00,-4.358449174587213926e-01,-6.395310568658042483e-01,-6.332750075845406945e-01,4.711553390628864122e+02
2.135339345747412576e+00,4.934251225419055586e+00,5.591241677321855619e+00,-4.433039408147317340e-01,-6.095636944517246469e-01,-6.571999075366332654e-01,4.728123933488376451e+02
2.256814036481712193e+00,4.986478962992541675e+00,5.569029581941818741e+00,-4.500864454223337807e-01,-5.786660859116736777e-01,-6.801218660390119242e-01,4.744694476347888781e+02
2.397319452184504041e+00,5.060500297632769318e+00,5.494044060885160619e+00,-4.561820805763533437e-01,-5.468853833778359874e-01,-7.020059022617316513e-01,4.761265019207401110e+02
2.546262700086613151e+00,5.150627426066702874e+00,5.379430874611217384e+00,-4.615815437782500030e-01,-5.142700866578376884e-01,-7.228186193048645736e-01,4.776849414182245255e+02
2.710940914887293385e+00,5.261272351331573560e+00,5.226064561275012288e+00,-4.662765949330227588e-01,-4.808699692236188539e-01,-7.425282551647868212e-01,4.792433809157089399e+02
2.890319243415498729e+00,5.392746823156510771e+00,5.038704451101633452e+00,-4.702600689249964439e-01,-4.467360022565598499e-01,-7.611047312058707437e-01,4.808018204131933544e+02
3.083009766979125654e+00,5.545198420182570587e+00,4.822055108373915822e+00,-4.735258865532893657e-01,-4.119202768647204360e-01,-7.785196980636018838e-01,4.823602599106777689e+02
3.288883424295619751e+00,5.720168723505469899e+00,4.578346846199828235e+00,-4.760690638102599292e-01,-3.764759245908488317e-01,-7.947465789090669697e-01,4.839337802713719157e+02
3.503579991502190794e+00,5.915885280805220248e+00,4.314261412867436363e+00,-4.778857194887595194e-01,-3.404570363324221915e-01,-8.097606100087721970e-01,4.855073006320660625e+02
3.724592197461177978e+00,6.132015198446046256e+00,4.034443571883915780e+00,-4.789730811065640581e-01,-3.039185797974079950e-01,-8.235388785178756610e-01,4.870808209927602093e+02
3.949410185977914267e+00,6.368241994153027719e+00,3.743538194732494162e+00,-4.793294891389253687e-01,-2.669163156216718957e-01,-8.360603574491385359e-01,4.886543413534543561e+02
4.216924608461392054e+00,6.672039112239441572e+00,3.391830559751978669e+00,-4.789543995527609788e-01,-2.295067122760081901e-01,-8.473059377641974921e-01,4.905162175005103791e+02
4.482662694557503436e+00,7.000592974109696165e+00,3.038939902856753417e+00,-5.893856180387365695e-01,-2.102382449525897756e-01,-7.800144060269398327e-01,4.923780936475664021e+02
