2.560291513609065372e+00,5.658188899939790156e-02,-4.365253284893097607e+00,-9.789433609053522778e-01,-2.146098598938219609e-02,-2.029958674759157755e-01,4.581042352856945143e+01
2.493933893976068017e+00,-1.241973370575435859e-01,-4.475696173585379078e+00,-9.960106374568770127e-01,-9.090576769715673529e-04,-8.921874067133071795e-02,4.690964255100129066e+01
2.365661641653781899e+00,-4.176828966172805302e-01,-4.662556074660392902e+00,-9.994734697618637975e-01,1.965528193409895458e-02,2.577698847079469904e-02,4.877315272108899791e+01
2.221525195204164582e+00,-6.963789418546373344e-01,-4.848329444545094624e+00,-9.892845697906104130e-01,3.995114650137383122e-02,1.404206034313240370e-01,5.063666289117670516e+01
2.090209731871753185e+00,-9.122259022073622159e-01,-4.999628377424225611e+00,-9.655831159626707683e-01,5.970131734665728995e-02,2.531462005949740024e-01,5.217061025651571526e+01
1.946735960987437286e+00,-1.113339256120053244e+00,-5.148545147690274604e+00,-9.286928510411394111e-01,7.863602981261574865e-02,3.624140770462845884e-01,5.370455762185472537e+01
1.791596888483075523e+00,-1.298606283654879512e+00,-5.294298221236402036e+00,-8.791176594108421893e-01,9.649665775379426269e-02,4.667317601742526634e-01,5.523850498719373547e+01
1.625293173332772678e+00,-1.466917652864176524e+00,-5.436106084568598895e+00,-8.175346842437226647e-01,1.130392458610428308e-01,5.646743919771048947e-01,5.677245235253274558e+01
1.340602565304853444e+00,-1.708375252103644160e+00,-5.656451353668130899e+00,-7.447850786012693014e-01,1.280378416000694519e-01,6.549041897959472225e-01,5.924054120297004289e+01
1.152494988752426064e+00,-1.840275923810893000e+00,-5.788544896767820802e+00,-6.854952957433279037e-01,9.645744975067196969e-02,7.216579244311597252e-01,6.078681339926504990e+01
9.557339847673149702e-01,-1.952230318448531454e+00,-5.913750073974883392e+00,-6.200574967865772891e-01,6.401194805050879066e-02,7.819393654098425461e-01,6.233308559556005690e+01
7.512071422978134905e-01,-2.043660187616687995e+00,-6.031262517035773207e+00,-5.099300506530843879e-01,6.160766586337849959e-02,8.580057336331819995e-01,6.387935779185506391e+01
5.399213348671484392e-01,-2.114169093094629748e+00,-6.140304942626437779e+00,-3.906646932564875052e-01,5.809937711270244526e-02,9.186966636608614456e-01,6.542562998815007802e+01
3.229436445202822914e-01,-2.163455537505305504e+00,-6.240113640521786742e+00,-2.643986392930322560e-01,5.354994988217567226e-02,9.629245881205816815e-01,6.697190218444508503e+01
1.314569639134392613e-02,-2.202029860130395811e+00,-6.365601474712017094e+00,-1.333945518570484046e-01,4.804090882320515010e-02,9.898969464614254532e-01,6.913434444845205462e+01
-3.011489599471392498e-01,-2.209655779892738536e+00,-6.475763179686379267e+00,-0.000000000000000000e+00,4.167097442641731070e-02,9.991303868311476322e-01,7.129678671245902422e+01
-5.876006535244149287e-01,-2.188736451269772676e+00,-6.560667101559459091e+00,-6.074690999519724022e-01,7.795978449198442961e-01,1.523367742923661117e-01,7.325162535241493345e+01
-8.747455713852247960e-01,-2.140696075422066524e+00,-6.630380659527916443e+00,-3.611256090034591359e-01,6.719127127645293518e-01,6.466216830183091346e-01,7.520646399237084267e+01
-1.127295677941194896e+00,-2.075361400077361029e+00,-6.678109845782677745e+00,-4.499992964605512838e-04,3.515004504559560705e-01,9.361865363440234900e-01,7.693082100185546324e+01
-1.377874455627454475e+00,-1.988376334772892884e+00,-6.711782140355103898e+00,2.451053988519273918e-01,2.937175330450392252e-01,9.239325485321646658e-01,7.865517801134008380e+01
-1.625293228403959622e+00,-1.881155000726656867e+00,-6.731232124630109226e+00,4.750263206007765970e-01,2.171993842881760339e-01,8.527440543345117252e-01,8.037953502082470436e+01
-1.878050635869754625e+00,-1.750083978826459719e+00,-6.736558357494979887e+00,6.746469744001066804e-01,1.268268071975938993e-01,7.271618945668033573e-01,8.217271578294187862e+01
-2.125093151262013702e+00,-1.601098564219567200e+00,-6.726861637641805558e+00,0.000000000000000000e+00,-9.999989999990432034e-07,9.999989999990431810e-01,8.396589654505905287e+01
-2.365423480430267844e+00,-1.436183782098499062e+00,-6.701997149293005052e+00,-0.000000000000000000e+00,2.094500633398921428e-03,9.999968064621486130e-01,8.575907730717622712e+01
-2.598145837939977110e+00,-1.257474732051157673e+00,-6.661809440268066318e+00,-0.000000000000000000e+00,4.189991900603382349e-03,9.999902218698498713e-01,8.755225806929340138e+01
-2.822382171705665410e+00,-1.067113771656680088e+00,-6.606143195457924833e+00,-0.000000000000000000e+00,6.285464772084366214e-03,9.999792461846371827e-01,8.934543883141057563e+01
-3.046464718237079428e+00,-8.586021154682038636e-01,-6.532357411926950519e+00,-0.000000000000000000e+00,8.380910217387432803e-03,9.999638794532533792e-01,9.121560967976374457e+01
-3.259769981322210075e+00,-6.420072193035194497e-01,-6.444409894504915748e+00,-0.000000000000000000e+00,1.047631920616273749e-02,9.999441217402887938e-01,9.308578052811691350e+01
-3.461418952737475685e+00,-4.188854283043507709e-01,-6.344326657391317958e+00,-0.000000000000000000e+00,1.257168270819498078e-02,9.999199731281819270e-01,9.495595137647008244e+01
-3.650896333295392537e+00,-1.907457622745253323e-01,-6.233890983305213851e+00,-0.000000000000000000e+00,1.466699169343334101e-02,9.998914337172190026e-01,9.682612222482325137e+01
-3.793672373054863378e+00,-4.066646100648120196e-03,-6.137795467874793687e+00,9.999989999321390355e-07,-9.999989999321390355e-07,9.999989999321390322e-01,9.833373973987664840e+01
-3.926354643265089539e+00,1.842249889787689332e-01,-6.035777615174957589e+00,1.085280835568862845e-01,-1.389922483697318967e-01,9.843275928132922958e-01,9.984135725493004543e+01
-4.048835409605209712e+00,3.730984094367372772e-01,-5.928758135946351260e+00,2.136536391130217372e-01,-2.736271494305166363e-01,9.378050466857821288e-01,1.013489747699834425e+02
-4.161160678258869261e+00,5.615234737406399335e-01,-5.817340279833707939e+00,3.120827874702208904e-01,-3.996859325235577187e-01,8.618894877585010494e-01,1.028565922850368395e+02
-4.273851509001285187e+00,7.675180310640373760e-01,-5.690221116563814796e+00,4.007305300104290202e-01,-5.132176219660787853e-01,7.589602854049946057e-01,1.045178692362587043e+02
-4.375583106016496693e+00,9.706787877728150216e-01,-5.559282904981613704e+00,4.768184389279169766e-01,-6.106638687946494004e-01,6.322434781379960844e-01,1.061791461874805691e+02
-4.466527151499313675e+00,1.169758374658769862e+00,-5.425065513931424555e+00,5.379617392347881832e-01,-6.889704772059251914e-01,4.857106635220103108e-01,1.078404231387024339e+02
-4.546880545136064988e+00,1.363565559896491752e+00,-5.287869243253883411e+00,5.822440533162397402e-01,-7.456831303622941665e-01,3.239545206842556757e-01,1.095017000899242987e+02
-4.616880695329132145e+00,1.551020292448672011e+00,-5.147515227440607966e+00,6.082774653435700785e-01,-7.790243152625521139e-01,1.520448663574272274e-01,1.111629770411461635e+02
-4.676788790009361207e+00,1.731099175249433131e+00,-5.003585031055723498e+00,6.362905420164102210e-01,-7.091785893271493890e-01,3.036413584826504475e-01,1.128242539923680283e+02
-4.722212481143149176e+00,1.886742470637705837e+00,-4.869499436291802041e+00,6.460772595228562176e-01,-6.190186639444714700e-01,4.465401084077113558e-01,1.143302178281148826e+02
-4.759011826446332805e+00,2.033917655121841417e+00,-4.731450479559311084e+00,6.373572891158105769e-01,-5.111271505501910895e-01,5.766478318544628889e-01,1.158361816638617370e+02
-4.787419374216693058e+00,2.171788629320800634e+00,-4.589094335604305464e+00,6.103804184868024674e-01,-3.885945709078280075e-01,6.902376432722215904e-01,1.173421454996085913e+02
-4.807745526303534689e+00,2.299624913452722463e+00,-4.442016930326387225e+00,5.659193949875382934e-01,-2.549308298930662020e-01,7.840558081846977778e-01,1.188481093353554456e+02
-4.820449738431566544e+00,2.416906426690131671e+00,-4.289663667463583963e+00,5.052477898314308158e-01,-1.139646766906148023e-01,8.554149421996453118e-01,1.203540731711023000e+02
-4.826066850014613330e+00,2.523220464567145438e+00,-4.131409707996500202e+00,4.301035175188755444e-01,3.026596604827271747e-02,9.022709878512892301e-01,1.218600370068491543e+02
-4.824886175107714337e+00,2.643219940369131660e+00,-3.923312731376808582e+00,6.797131473174461425e-01,2.366819961411807394e-01,6.942403546810186343e-01,1.237621414765324772e+02
-4.816210907806269148e+00,2.748689348300711988e+00,-3.706298581007370530e+00,8.285963699306604369e-01,4.080242231465801561e-01,3.833305219577176071e-01,1.256642459462158001e+02
-4.800824945279165590e+00,2.839501248052617388e+00,-3.479807851467986435e+00,8.546902225258377062e-01,5.189015279780672119e-01,1.561498579573314394e-02,1.275663504158991230e+02
-4.779190546013400542e+00,2.916031980190178619e+00,-3.242138446653374473e+00,9.587240500751877947e-01,2.802553745002346330e-01,-4.799084153527752306e-02,1.294794431795102696e+02
-4.751888629748004078e+00,2.977727119149804480e+00,-2.994371294443825882e+00,9.939014832418251455e-01,2.148093124243645805e-02,-1.081499477683836585e-01,1.313925359431214019e+02
-4.725645506413113317e+00,3.015470101447087714e+00,-2.786304197078186551e+00,9.576959581518060816e-01,-2.388364114362258872e-01,-1.605416466564063283e-01,1.329355150966478618e+02
-4.695396938021191069e+00,3.041067560303884143e+00,-2.570099147408959173e+00,8.527077034983678860e-01,-4.820003777930150224e-01,-2.014030987864706690e-01,1.344784942501743217e+02
-4.655706977871995278e+00,3.056453475673648335e+00,-2.309372447142462370e+00,6.864770431115486682e-01,-6.905466123490756614e-01,-2.277995729864207841e-01,1.362741049894825949e+02
-4.611725324019585237e+00,3.057071322386831991e+00,-2.040132326255606809e+00,4.709428632103829226e-01,-8.494970396687182568e-01,-2.378352353714434375e-01,1.380697157287908681e+02
-4.563780578388912268e+00,3.042509731284730456e+00,-1.763258835877177688e+00,2.215851250871051503e-01,-9.474356563030451595e-01,-2.307893184378415619e-01,1.398653264680991413e+02
-4.519751452506358014e+00,3.016681724629398875e+00,-1.520400926598800329e+00,-4.368697578788745955e-02,-9.773284583468827558e-01,-2.071678851838091306e-01,1.414041005170149106e+02
-4.473293261263341591e+00,2.977185488694331195e+00,-1.272950036958062192e+00,2.561858103067554127e-01,-9.384093051531399166e-01,-2.318508283256366098e-01,1.429428745659306799e+02
-4.424910680375027994e+00,2.923705908729067104e+00,-1.021860165071750037e+00,3.380173609683367331e-01,-8.797594046893774111e-01,-3.343137052845909785e-01,1.444816486148464492e+02
-4.375110591515998237e+00,2.855931353717259924e+00,-7.680853329429659926e-01,4.128740382448162771e-01,-8.029556644246579333e-01,-4.298781565827721196e-01,1.460204226637622185e+02
-4.324410284621733602e+00,2.773585448136502318e+00,-5.125839699503741409e-01,4.792111711475027791e-01,-7.095828367450887075e-01,-5.165722129943957075e-01,1.475591967126779878e+02
-4.273345353305540328e+00,2.676458922565796428e+00,-2.563232963036168877e-01,5.356598629639937048e-01,-6.015675830793567602e-01,-5.926069137206416704e-01,1.490979707615937571e+02
-4.216917396634517701e+00,2.552058905026244329e+00,2.780091043205523693e-02,5.810552429497346516e-01,-4.811387345360265688e-01,-6.564132256133436982e-01,1.508056497649079972e+02
-4.161414310555280771e+00,2.410831635774151049e+00,3.104928783714243079e-01,6.144605121223362110e-01,-3.507813132326904615e-01,-7.066744295062956649e-01,1.525133287682222374e+02
-4.107510905608403817e+00,2.252573317339000791e+00,5.905558858239338127e-01,6.351862854001257830e-01,-2.131852606258344829e-01,-7.423533036763740878e-01,1.542210077715364775e+02
-4.055883667642749657e+00,2.077085313753185503e+00,8.667932323915473747e-01,6.428048289055179332e-01,-7.118992955692578228e-02,-7.627135411491929862e-01,1.559286867748507177e+02
-4.008052384437712057e+00,1.887550570583938825e+00,1.133270092703062781e+00,6.371588964874758121e-01,7.227451443329707681e-02,-7.673349563110105631e-01,1.576064998735415656e+02
-3.963700392666351657e+00,1.680811963180849133e+00,1.393711534301357524e+00,6.183649812531097911e-01,2.142475717979910876e-01,-7.561221646831410848e-01,1.592843129722324136e+02
-3.923286531046664916e+00,1.456970783896177402e+00,1.647124890522145835e+00,5.868109137775704420e-01,3.517995170527586923e-01,-7.293065550645648765e-01,1.609621260709232615e+02
-3.887053597451653797e+00,1.216390405434374378e+00,1.892682945155804930e+00,5.431478561767947300e-01,4.820918719718660927e-01,-6.874415126375121865e-01,1.626399391696141095e+02
-3.853811036938473933e+00,9.505919969213216802e-01,2.138258601465104380e+00,4.882768577971466906e-01,6.024359927369561385e-01,-6.313909920043467849e-01,1.643777764761805429e+02
-3.824646971772217352e+00,6.690960291405927407e-01,2.374542120415565893e+00,4.233302513241901099e-01,7.103485593592898661e-01,-5.623116773827259163e-01,1.661156137827469763e+02
-3.799324724791694141e+00,3.728244512079582074e-01,2.601004308468848780e+00,3.496482751555112789e-01,8.036028206955104780e-01,-4.816291002873914207e-01,1.678534510893134097e+02
-3.777568630771136693e+00,6.278090354013088348e-02,2.817177186687895407e+00,2.687514066056760353e-01,8.802745373401195117e-01,-3.910082100830852836e-01,1.695912883958798432e+02
-3.759031531565236950e+00,-2.598657689471413068e-01,3.022715126980049405e+00,1.823089788381991039e-01,9.387816755167411875e-01,-2.923190071560196612e-01,1.713291257024462766e+02
-3.743910114971984893e+00,-5.809659473997721424e-01,3.209813886344254019e+00,9.210473056031476258e-02,9.779170352558882451e-01,-1.875979497799741547e-01,1.729997892893018445e+02
-3.731090111239021123e+00,-9.118266443679058364e-01,3.386153110716525472e+00,0.000000000000000000e+00,9.968731427304678983e-01,-7.900593205817722786e-02,1.746704528761574124e+02
-3.720194404242906927e+00,-1.251299395976133821e+00,3.551470151209278114e+00,5.119696326536163911e-01,1.099999210733007517e-05,-8.590023836520779277e-01,1.763411164630129804e+02
-3.710836911914624725e+00,-1.598238873793923931e+00,3.705502444237642745e+00,0.000000000000000000e+00,9.968731427319702521e-01,-7.900593205829628540e-02,1.780117800498685483e+02
-3.702622595811136286e+00,-1.951502937701874441e+00,3.847987513546612171e+00,4.887995562235714075e-01,8.588636596806817902e-01,-1.530562246903938717e-01,1.796824436367241162e+02
-3.694871000209442258e+00,-2.324443749875873433e+00,3.983946850143251783e+00,8.488220476858019392e-01,4.945818881288805979e-01,-1.867829952074769317e-01,1.814207000302306767e+02
-3.687520400626187467e+00,-2.701581766840511101e+00,4.107370881560553855e+00,9.852177632739077540e-01,0.000000000000000000e+00,-1.713007849692136375e-01,1.831589564237372372e+02
-3.680169178218826609e+00,-3.081780763070415929e+00,4.218085850091518374e+00,8.909518087683276910e-01,-0.000000000000000000e+00,-4.540956666318756163e-01,1.848972128172437976e+02
-3.672643574866531591e+00,-3.452115954146267818e+00,4.312926578789848087e+00,7.175165823157004796e-01,-0.000000000000000000e+00,-6.965399874402300462e-01,1.865816617169487870e+02
-3.664372121494324563e+00,-3.823410563070369861e+00,4.395242832632928476e+00,4.803233394046611537e-01,-0.000000000000000000e+00,-8.770903543102522848e-01,1.882661106166537763e+02
-3.655150778386841104e+00,-4.194921005367064026e+00,4.465061771698076498e+00,2.004488266900271154e-01,-0.000000000000000000e+00,-9.797031529392830063e-01,1.899505595163587657e+02
-3.643979066913449749e+00,-4.599088283237679597e+00,4.527583905698241651e+00,1.548560382143066849e-01,7.878739741965654075e-02,-9.847893954727835464e-01,1.917852667561002704e+02
-3.631572787981264039e+00,-5.002023954427545327e+00,4.576672331151100614e+00,1.079760946362622320e-01,1.569198861895872432e-01,-9.816900286265829445e-01,1.936199739958417751e+02
-3.617713894328413726e+00,-5.402992597840077238e+00,4.612473325795201085e+00,6.019866027951922827e-02,2.337480342517927190e-01,-9.704308207098829575e-01,1.954546812355832799e+02
-3.602123378609787707e+00,-5.801319164930261785e+00,4.635237703709956136e+00,1.192085831904171785e-02,3.086332520282131231e-01,-9.511053616078374295e-01,1.972893884753247846e+02
-3.582933866898718733e+00,-6.233014229639143089e+00,4.646206243619952936e+00,-3.645602962549597537e-02,3.809530994997841757e-01,-9.238742846757664884e-01,1.992943888671479442e+02
-3.561084144277774310e+00,-6.660383086346557846e+00,4.643703022038187633e+00,-8.452989841290621531e-02,4.501064590670528776e-01,-8.889639316530130175e-01,2.012993892589711038e+02
-3.535510125756575750e+00,-7.082734387925997410e+00,4.628341240506668619e+00,8.948031780342147190e-01,-4.464585898833459132e-01,-9.999990814013065378e-06,2.033043896507942634e+02
-3.507382991482122847e+00,-7.465093414265141725e+00,4.603072948395738884e+00,1.217558766214160842e-01,-4.271485671585897870e-01,-8.959450921141566271e-01,2.051442253461085556e+02
-3.473332832876461218e+00,-7.841702018684462594e+00,4.567357500230546208e+00,0.000000000000000000e+00,8.052988517093675677e-03,-9.999665741290364451e-01,2.069840610414228479e+02
-3.432117896044980299e+00,-8.212054685485382421e+00,4.522242796625062233e+00,7.525789214883846778e-01,9.257286733496004894e-02,-6.519610656825988171e-01,2.088238967367371401e+02
-3.389587578158017589e+00,-8.523467364875267904e+00,4.476668167590013958e+00,8.025500643387982747e-01,5.694853520637224720e-02,-5.938587867195275205e-01,2.103996389417758337e+02
-3.338845285903361493e+00,-8.828712921896382682e+00,4.425260410351272711e+00,8.467893067807775731e-01,2.091747967948213993e-02,-5.315151258073066431e-01,2.119753811468145273e+02
-3.279043226100278652e+00,-9.127437248806318237e+00,4.369076616486973208e+00,8.849807075402095213e-01,-1.526297770936156650e-02,-4.653753203480212597e-01,2.135511233518532208e+02
-3.209475529145285666e+00,-9.419327921969335549e+00,4.309186794215881910e+00,9.978964962917117321e-01,-6.481190233636946463e-02,1.999996986248517972e-06,2.151268655568919144e+02
-3.129723470338044322e+00,-9.704148257593695703e+00,4.246686744800415525e+00,9.982102214860980594e-01,2.380836683568103573e-02,5.484081865886952789e-02,2.167026077619306079e+02
-3.016741268583655877e+00,-1.005224940232096564e+01,4.166510532041141524e+00,9.876824179540760751e-01,1.121700494922156233e-01,1.090840101171001303e-01,2.186786926985779189e+02
-2.890546775923823475e+00,-1.039102510454296890e+01,4.086190392191834775e+00,9.664274289199887846e-01,1.993134543458347230e-01,1.621424421605054400e-01,2.206547776352252299e+02
-2.767205177358548873e+00,-1.068162179410008861e+01,4.016586607416958721e+00,9.346761041850893958e-01,2.842921219264040178e-01,2.134398502574035572e-01,2.223994826581620430e+02
-2.632108938574226897e+00,-1.096347629419584102e+01,3.949529243630133912e+00,8.927732928908410637e-01,3.661831037497353392e-01,2.624190961629163099e-01,2.241441876810988560e+02
-2.485721131106416681e+00,-1.123641178290877640e+01,3.886149920381945844e+00,8.411740982469253503e-01,4.440969861513711092e-01,3.085482188112510515e-01,2.258888927040356691e+02
-2.328502865833330215e+00,-1.150024748324620028e+01,3.827580226180987921e+00,7.804389348899836154e-01,5.171875499448793656e-01,3.513262117912402394e-01,2.276335977269724822e+02
-2.160913280475832643e+00,-1.175479867568156145e+01,3.774951708946333806e+00,7.112274425331940320e-01,5.846609610150204084e-01,3.902884646698880355e-01,2.293783027499092952e+02
-2.007844151978067870e+00,-1.196599815263776634e+01,3.735653904457503671e+00,6.342913219812098546e-01,6.457843920439485519e-01,4.250118090751688338e-01,2.308820833231763459e+02
-1.846442679855190061e+00,-1.216880591056166949e+01,3.703294531595308303e+00,5.504661712846161681e-01,6.998939817386981010e-01,4.551191147366654421e-01,2.323858638964433965e+02
-1.677145748378789936e+00,-1.236315782311368139e+01,3.678608812539981177e+00,4.606624106662593476e-01,7.464020451143851265e-01,4.802833855647918315e-01,2.338896444697104471e+02
-1.500589735947589931e+00,-1.254914789679511067e+01,3.662121418460285494e+00,2.464466591675598395e-01,6.278604382736283629e-01,7.382772610861598750e-01,2.353934250429774977e+02
-1.265155245306132104e+00,-1.277810964658008608e+01,3.652029559172548900e+00,1.054998706094199953e-03,4.298934727560758673e-01,9.028778926631518820e-01,2.373288210211753722e+02
-1.022852422231262937e+00,-1.299710530080213466e+01,3.653468349769948276e+00,-2.094397647221116210e-02,9.665299142314137670e-01,2.556937127619156591e-01,2.392642169993732466e+02
-7.750628708125614219e-01,-1.320656158884257714e+01,3.666130285667374977e+00,3.406786499304158972e-02,9.347489784474517505e-01,3.536689523642611577e-01,2.411996129775711211e+02
-5.745774504737259925e-01,-1.336578713839776356e+01,3.684342867609408767e+00,8.861517556914572102e-02,8.902222663300085603e-01,4.468217398350232128e-01,2.427390917806250172e+02
-3.715585888299798301e-01,-1.351776084840237502e+01,3.709817703145811496e+00,1.419541809459678450e-01,8.335569138932076294e-01,5.338818987497856439e-01,2.442785705836789134e+02
-1.668798744329603179e-01,-1.366268656129948766e+01,3.741727763092411951e+00,1.933575811997516603e-01,7.655255692838544013e-01,6.136623245440431251e-01,2.458180493867328096e+02
3.858370938176967219e-02,-1.380076168034850070e+01,3.779245975988157369e+00,2.421244670306577362e-01,6.870558592156823519e-01,6.850751701687372019e-01,2.473575281897867058e+02
2.439558021911388264e-01,-1.393217716212429202e+01,3.821545233524133778e+00,2.875898764462447854e-01,5.992177425653392175e-01,7.471466790124219326e-01,2.488970069928406019e+02
4.484128158735427583e-01,-1.405698078888113400e+01,3.867827020736479327e+00,3.334171983831615838e-01,7.922456912020712227e-01,5.110555122419314644e-01,2.504364857958944981e+02
6.512394060647060945e-01,-1.417494096632144895e+01,3.917350046012229914e+00,3.475368231161476418e-01,9.099317749806600242e-01,2.263632511195156904e-01,2.519759645989483943e+02
8.517763394897756024e-01,-1.428568423311163826e+01,3.969401621194475371e+00,3.286059549143856562e-01,9.410840272975342646e-01,-7.985599513491212220e-02,2.535154434020022904e+02
1.049367037250878765e+00,-1.438883225551862566e+01,4.023269041499976773e+00,2.784249320136060746e-01,8.827399310385055653e-01,-3.784808732058983494e-01,2.550549222050561866e+02
1.240586133432399762e+00,-1.448263619157736493e+01,4.077455498338329321e+00,2.017659912155111146e-01,7.404481256398601774e-01,-6.411123599068884182e-01,2.565723690986664565e+02
1.427628789899869188e+00,-1.456818891753151135e+01,4.132037015422936221e+00,1.059193762577319287e-01,5.277405982116429861e-01,-8.427745527323449171e-01,2.580898159922767263e+02
1.609864853698737885e+00,-1.464510885163418763e+01,4.186321122732174160e+00,0.000000000000000000e+00,2.648456641228154607e-01,-9.642897770880202168e-01,2.596072628858869962e+02
1.786666764754648584e+00,-1.471300980112844137e+01,4.239615352126288705e+00,-0.000000000000000000e+00,3.032083730870910876e-01,-9.529232301022695362e-01,2.611247097794972660e+02
1.957409568424981261e+00,-1.477150097606635448e+01,4.291227241767099798e+00,-0.000000000000000000e+00,3.410856895361299435e-01,-9.400311443624989050e-01,2.626421566731075359e+02
2.121470928022174185e+00,-1.482018700318042548e+01,4.340464340537682375e+00,-1.315564533016056470e-01,3.894486881487240759e-01,-9.116033232139917342e-01,2.641596035667178057e+02
2.278231137308243781e+00,-1.485866793980762068e+01,4.386634212462254823e+00,-2.604220092282535370e-01,4.298457992099455338e-01,-8.645293320715016216e-01,2.656770504603280756e+02
2.447247173434892620e+00,-1.489034958494944938e+01,4.434773974850241274e+00,-3.839608182486798915e-01,4.614507310012572749e-01,-7.997720380890964709e-01,2.674004949065883352e+02
2.606462854956770769e+00,-1.490953729255120841e+01,4.477748391004296558e+00,-4.996459869787654995e-01,4.836170298199094497e-01,-7.186560068386149691e-01,2.691239393528485948e+02
2.755188196692765157e+00,-1.491566156652279318e+01,4.514813379683799255e+00,-6.051112637003469574e-01,4.958913024062636676e-01,-6.228404087259294952e-01,2.708473837991088544e+02
2.892879167165260945e+00,-1.490809115688131214e+01,4.545610234157877905e+00,-6.981994378397941015e-01,4.980224894193079899e-01,-5.142850814810087101e-01,2.725708282453691140e+02
3.018984267348166384e+00,-1.488618219792617126e+01,4.570103833487301870e+00,-7.770064635112090556e-01,4.899670003451821465e-01,-3.952104429740105895e-01,2.742942726916293736e+02
3.164073607809279043e+00,-1.483922863676219883e+01,4.593343769055317161e+00,-8.399204047181648702e-01,4.718896048667552412e-01,-2.680520743399453787e-01,2.764897229564932672e+02
3.268028871312264272e+00,-1.478518613352595423e+01,4.605834548602192768e+00,-8.856544057353660238e-01,4.441600625058980123e-01,-1.354109023581953619e-01,2.782646988824751020e+02
3.357744473827000586e+00,-1.471445928279455195e+01,4.612320626326973816e+00,-9.132730123892983665e-01,4.073455594977313243e-01,-0.000000000000000000e+00,2.800396748084569367e+02
3.432330983377441580e+00,-1.462659127599898312e+01,4.613167392368155539e+00,-7.894990794487431740e-03,9.999678340434201562e-01,-0.000000000000000000e+00,2.818146507344387715e+02
3.490927887804939900e+00,-1.452114610917995741e+01,4.608662540383523520e+00,-3.904632593411468400e-01,8.756795599047484391e-01,-2.841157360498864359e-01,2.835896266604206062e+02
3.532729036101575737e+00,-1.439773741967548837e+01,4.598938319353312210e+00,-6.783331045801954673e-01,5.390142884851624183e-01,-4.993253408757495904e-01,2.853646025864024409e+02
3.555763121591771547e+00,-1.426295528041430316e+01,4.584779613997135961e+00,-3.879469427327386088e-01,3.218988955106735217e-01,-8.636412858905593293e-01,2.870524924873593022e+02
3.561356192645819707e+00,-1.411040167676066837e+01,4.565759792682647422e+00,4.930994909503877768e-03,1.974097962046563945e-02,-9.997919678681019828e-01,2.887403823883161635e+02
3.548808774783503761e+00,-1.393973474761479636e+01,4.541928258600533397e+00,-5.378732258159389934e-01,1.174570809038515649e-02,-8.429427212408506787e-01,2.904282722892730249e+02
3.517423409829603997e+00,-1.375060679318521650e+01,4.513334452909422367e+00,-9.089331001752296579e-01,0.000000000000000000e+00,-4.169395872385236457e-01,2.921161621902298862e+02
3.466720395028552115e+00,-1.354262707044875924e+01,4.480039945501783194e+00,-8.936066351906710725e-01,5.110677993409249928e-03,-4.488196324935359027e-01,2.938040520911867475e+02
3.396653917938905476e+00,-1.331532687594182285e+01,4.442130525673992913e+00,-8.771387168515477617e-01,1.021482677298823569e-02,-4.801263674410998217e-01,2.954919419921436088e+02
3.307396938280120935e+00,-1.306820020710325281e+01,4.399704110294524462e+00,-8.595503807554601972e-01,1.530592666498641410e-02,-5.108198034046811387e-01,2.971798318931004701e+02
3.187234880624577382e+00,-1.277115768103829296e+01,4.347685628335312025e+00,-8.408640935083687706e-01,2.037747467242533722e-02,-5.408607350998777541e-01,2.990541810862090415e+02
3.046309953897299749e+00,-1.245086899517024648e+01,4.290878664492693950e+00,-8.211037240280812943e-01,2.542299277910098354e-02,-5.702107906940415694e-01,3.009285302793176129e+02
2.885088202518653500e+00,-1.210680150737320915e+01,4.229492522850644143e+00,-8.002945130599273815e-01,3.043603622161074676e-02,-5.988324808023605117e-01,3.028028794724261843e+02
2.731552607508324293e+00,-1.179406560129801562e+01,4.173768418246543099e+00,-7.784630409421310349e-01,3.541020171887093032e-02,-6.266892463574040839e-01,3.043951603683539702e+02
2.562234577539834746e+00,-1.146073457222239433e+01,4.114827377206762726e+00,-7.556371936619660223e-01,4.033913564864536477e-02,-6.537455052911963493e-01,3.059874412642817560e+02
2.377994616155990393e+00,-1.110662547061313887e+01,4.053011881098678160e+00,-7.318461272459558797e-01,4.521654216067343135e-02,-6.799666979703853364e-01,3.075797221602095419e+02
2.179694037398589135e+00,-1.073156151819536142e+01,3.988664431481312889e+00,-7.071202305294723711e-01,5.003619121606651954e-02,-7.053193313266635789e-01,3.091720030561373278e+02
1.968292488137584284e+00,-1.033552671044495952e+01,3.922078997170442172e+00,-6.814910863531469243e-01,5.479192654273509766e-02,-7.297710216262387473e-01,3.107642839520651137e+02
1.744943925047844235e+00,-9.918821391921261110e+00,3.853452461644161886e+00,-6.314923572527688655e-01,-7.462618376714620638e-02,-7.717812743447907131e-01,3.123565648479928996e+02
1.496738867707349874e+00,-9.455325668455634158e+00,3.778647650517990453e+00,-5.682235629551481981e-01,-2.024761057708653611e-01,-7.975734505962636112e-01,3.140456542926685870e+02
1.238689404137876648e+00,-8.970871803817113133e+00,3.702001101555607132e+00,-4.930142210534045888e-01,-3.260712298949793309e-01,-8.066055609004166849e-01,3.157347437373442745e+02
9.721911745334801402e-01,-8.466003162110617097e+00,3.623679795707940521e+00,-4.074447634267278073e-01,-4.428143556007214654e-01,-7.986878058613349207e-01,3.174238331820199619e+02
6.986350957860896216e-01,-7.941273881021904124e+00,3.543850727161903524e+00,-3.133133263128433654e-01,-5.502522670451777120e-01,-7.739865645913144299e-01,3.191129226266956493e+02
4.193956872369217770e-01,-7.397407418179546390e+00,3.462523880214769978e+00,-2.125979658525083416e-01,-6.461272834673571497e-01,-7.330208990716302608e-01,3.208020120713713368e+02
1.358177143772190676e-01,-6.835454971086893039e+00,3.379395207392822176e+00,-1.074150928616265654e-01,-7.284247012339405414e-01,-6.766516477914874539e-01,3.224911015160470242e+02
-1.338492543245529132e-01,-6.290999138537165969e+00,3.299077745600431655e+00,2.499997267779020913e-05,-7.954151306990869807e-01,-6.060633376396897809e-01,3.240799573945994325e+02
-4.053153685592281730e-01,-5.731829432206480668e+00,3.216224471034220045e+00,2.988091477132267124e-05,-6.692540069868777586e-01,-7.430323500620057420e-01,3.256688132731518408e+02
-6.774258245840916182e-01,-5.159042268933418995e+00,3.130427440289581753e+00,3.372567227223530987e-05,-5.198849187801606320e-01,-8.542351374688256227e-01,3.272576691517042491e+02
-9.490340998649500204e-01,-4.573742496449609618e+00,3.041278730611778336e+00,3.640091742837246497e-05,-3.524875344936864163e-01,-9.358154394429293310e-01,3.288465250302566574e+02
-1.219001976345812421e+00,-3.977043346799189472e+00,2.948370442800210878e+00,3.781387751446897857e-05,-1.728667287740984215e-01,-9.849442078873169581e-01,3.304353809088090657e+02
-1.486183946948219425e+00,-3.370067725528242963e+00,2.851509331851359796e+00,3.791555271618103634e-05,1.274871231278655939e-02,-9.999177310630040783e-01,3.320242367873614739e+02
-1.749411635230709416e+00,-2.753949656546604174e+00,2.750931436072360015e+00,3.670241599019738248e-05,1.979220973651428239e-01,-9.802167321693963098e-01,3.336130926659138822e+02
-2.007509455468094117e+00,-2.129833132943701912e+00,2.647087447724850495e+00,3.421653574630446258e-05,3.762320537981150292e-01,-9.265243874402812052e-01,3.352019485444662905e+02
-2.259476767874505132e+00,-1.498942408469185139e+00,2.540399837486680745e+00,3.054411698312250025e-05,5.414952239760786323e-01,-8.407026355829138042e-01,3.367908044230186988e+02
-2.504655126047704794e+00,-8.626518843627699606e-01,2.431234607244388446e+00,2.581251148130748929e-05,6.879807045700400137e-01,-7.257276000480453737e-01,3.383796603015711071e+02
-2.732200611364240306e+00,-2.504480924823680454e-01,2.324799577881480506e+00,2.018580087090568904e-05,8.106087876442114037e-01,-5.855863668030897307e-01,3.398989494162532310e+02
-2.952461744186003934e+00,3.641653910976788699e-01,2.216627601970353023e+00,1.385910596016243003e-05,9.051271089090141553e-01,-4.251387026909226874e-01,3.414182385309353549e+02
-3.165016969740976460e+00,9.798565682290845125e-01,2.107027542011054688e+00,7.051819897507069122e-06,9.682580954391989403e-01,-2.499485158329248224e-01,3.429375276456174788e+02
-3.369454050091335695e+00,1.595290463928038971e+00,1.996308270268405627e+00,0.000000000000000000e+00,9.978126036211882877e-01,-6.609090750974425110e-02,3.444568167602996027e+02
-3.565370071720353362e+00,2.209129176252025761e+00,1.884778666339764541e+00,-0.000000000000000000e+00,9.988447030553579964e-01,4.803393763058676214e-02,3.459761058749817266e+02
-3.752371453321847738e+00,2.820031926212802631e+00,1.772747615105087826e+00,-0.000000000000000000e+00,9.988447023578338468e-01,4.803393759704317062e-02,3.474953949896638505e+02
-3.930073953504549245e+00,3.426655107713052484e+00,1.660524004721726010e+00,4.894745649099780382e-01,3.309397058303449601e-02,-8.713882254299828434e-01,3.490146841043459744e+02
-4.098102678428231727e+00,4.027652337506999913e+00,1.548416724660932386e+00,9.999988887667559793e-07,-4.977924468358698173e-01,-8.672950362318524453e-01,3.505339732190280984e+02
-4.256092089396767086e+00,4.621674505195191074e+00,1.436734663779845267e+00,1.826145120353125650e-01,-4.548392610523719903e-01,-8.716485453441658038e-01,3.520532623337102223e+02
-4.414777058147545397e+00,5.251380576157883340e+00,1.317506702193715462e+00,3.587978646250787329e-01,-3.958704115053710004e-01,-8.453098305569263227e-01,3.536867832669289555e+02
-4.562058212355617925e+00,5.870527351295654839e+00,1.199649488481804527e+00,5.223473399479614532e-01,-3.229622905689736312e-01,-7.892063198687884196e-01,3.553203042001476888e+02
-4.697892142453164332e+00,6.477463029786186155e+00,1.083747428858104822e+00,6.675040796162747814e-01,-2.386821173635609583e-01,-7.053135122394706968e-01,3.569538251333664221e+02
-4.822309330808950634e+00,7.070541754244386468e+00,9.702953592552912010e-01,7.891568652813529816e-01,-1.459975413621298346e-01,-5.965854171002132889e-01,3.585873460665851553e+02
-4.935471704153759909e+00,7.648130997912042872e+00,8.596063879990254453e-01,8.830220945203162142e-01,-4.817214580834044968e-02,-4.668505381364744244e-01,3.602208669998038886e+02
-5.037612934504283935e+00,8.208605998535926318e+00,7.519027482325896239e-01,9.457946143629322178e-01,5.134946935885605079e-02,-3.206770641000359356e-01,3.618543879330226218e+02
-5.128978804419250359e+00,8.750343580414211786e+00,6.474066510242223460e-01,9.752641011568820018e-01,1.490629784051688278e-01,-1.632120138496813144e-01,3.634879088662413551e+02
-5.236161197750750063e+00,9.444090368292078708e+00,5.129313359875794509e-01,9.703928888894709504e-01,2.415277234481005841e-01,0.000000000000000000e+00,3.656618007839354050e+02
-5.328953444477795287e+00,1.010829506734977556e+01,3.832674317784497964e-01,9.965477758079671622e-01,8.300921954803046343e-02,0.000000000000000000e+00,3.678356927016294549e+02
-5.385031074659996975e+00,1.055547127828820031e+01,2.950034612342101181e-01,9.969795307158221265e-01,-7.765188556165565636e-02,0.000000000000000000e+00,3.693721637586841666e+02
-5.432151148767020210e+00,1.097950861011272394e+01,2.099307241304654292e-01,5.764363129604285207e-01,-1.163998612660080293e-03,-8.171400260718820752e-01,3.709086348157388784e+02
-5.470377894656705209e+00,1.137996153509108943e+01,1.276988292064573371e-01,9.706551006283296035e-01,-0.000000000000000000e+00,-2.404717771881034194e-01,3.724451058727935902e+02
-5.500791541767119597e+00,1.177073047111355564e+01,4.485656781637276797e-02,9.988611377171598971e-01,-0.000000000000000000e+00,4.769095883001762959e-02,3.740395342029160020e+02
-5.521924820252579913e+00,1.213650207875343590e+01,-3.602448717710361042e-02,9.546769266706609525e-01,-0.000000000000000000e+00,-2.976406653669427804e-01,3.756339625330384138e+02
-5.534962122914222071e+00,1.251357934838750730e+01,-1.241035289546984777e-01,9.955207354002849618e-01,9.453287991585836159e-02,0.000000000000000000e+00,3.773981333598889591e+02
-5.537574934598779919e+00,1.286317897119365661e+01,-2.116425915864617036e-01,9.994540078509641656e-01,2.557946025251292207e-02,-2.086569924325167025e-02,3.791623041867395045e+02
-5.529771627632607434e+00,1.318555636134616194e+01,-2.995513030229331464e-01,9.981846898967732251e-01,-4.350711151141192778e-02,-4.162278348066839051e-02,3.809264750135900499e+02
-5.511587933929187777e+00,1.348116432326331626e+01,-3.887702827272763173e-01,9.917193886585295992e-01,-1.123672117250189145e-01,-6.216320365714882168e-02,3.826906458404405953e+02
-5.486479294744484925e+00,1.371887987736858605e+01,-4.694774564700808783e-01,9.800917580518675454e-01,-1.806423955125605330e-01,-8.238003849987715621e-02,3.842474504765693837e+02
-5.452329335097842566e+00,1.393398701464326095e+01,-5.528616968623780714e-01,9.633623236457301564e-01,-2.479772625148675136e-01,-1.021680510551132987e-01,3.858042551126981721e+02
-5.408466927029564886e+00,1.412935336801788289e+01,-6.404403407126926240e-01,9.416181676667108036e-01,-3.140213067938332214e-01,-1.214242364614072089e-01,3.873785761281259283e+02
-5.355014541037879106e+00,1.430335170098050313e+01,-7.317584644356553980e-01,9.149724757877760739e-01,-3.784307412754582267e-01,-1.400483581093298346e-01,3.889528971435536846e+02
-5.291707358197087707e+00,1.445677587750642346e+01,-8.273006744952813296e-01,8.835639480563124426e-01,-4.408702872389303473e-01,-1.579434693980084903e-01,3.905272181589814409e+02
-5.218202693004943882e+00,1.459049562806191958e+01,-9.274261272533828038e-01,8.475560770227458240e-01,-5.010149195401942812e-01,-1.750164183734106149e-01,3.921015391744091971e+02
-5.134019395723326440e+00,1.470549031073592339e+01,-1.032171677668002552e+00,8.071362968215940459e-01,-5.585515584877589479e-01,-1.911783326220694579e-01,3.936758601898369534e+02
-5.038620613436619600e+00,1.480272616267430053e+01,-1.141305872338365113e+00,7.625150076281763667e-01,-6.131806995649397019e-01,-2.063450818963382671e-01,3.952501812052647097e+02
-4.923444473770186569e+00,1.488913306055722074e+01,-1.262980455175739092e+00,7.139244805628098822e-01,-6.646179725149732320e-01,-2.204377160627815080e-01,3.969421508560849929e+02
-4.794996475661701396e+00,1.495846645469910818e+01,-1.388695838746115019e+00,6.616176487368492509e-01,-7.125956216718465352e-01,-2.333828760933833457e-01,3.986341205069052762e+02
-4.652708501828712429e+00,1.501172337578197968e+01,-1.517925864506393996e+00,7.624571196087690517e-01,-6.438681834087313094e-01,-6.396016846222164765e-02,4.003260901577255595e+02
-4.508048213219074007e+00,1.504690155247556937e+01,-1.639785569169122992e+00,8.300563437176621262e-01,-5.470705674597829971e-01,1.082509144116375471e-01,4.018894274981638546e+02
-4.362546677956745000e+00,1.506701093436945271e+01,-1.753240647621375325e+00,7.435292191035167697e-01,-6.637963842869599729e-01,8.084961685382084651e-02,4.033279978224805404e+02
-4.222025287561091744e+00,1.507442061193932226e+01,-1.854310902248243798e+00,6.407465576132533869e-01,-7.660097585855073499e-01,5.168073777796101248e-02,4.046076431591168330e+02
-3.938685547235609707e+00,1.506879812820421805e+01,-2.040739923765806818e+00,5.239554337630263348e-01,-8.514760798125041719e-01,2.138197689256546297e-02,4.070017554401334792e+02
-3.805573431583667787e+00,1.505789524257049017e+01,-2.119789814497672342e+00,5.318795198762957810e-01,-8.466672357197554399e-01,1.602398553526690819e-02,4.080531984137069799e+02
-3.557078691121153380e+00,1.502394074224387133e+01,-2.250957337198649988e+00,5.330168346363428622e-01,-8.091058492406287828e-01,2.474647019635158041e-01,4.099016829047124020e+02
-3.295270018844791426e+00,1.497463975387669066e+01,-2.371166821808274872e+00,5.048504550706260918e-01,-7.270622152179843090e-01,4.653004977603636960e-01,4.117501673957178241e+02
-3.021472974965052849e+00,1.490958461077809005e+01,-2.476854951668947091e+00,3.542287843902721667e-01,-8.714987253953045965e-01,3.391311544882438800e-01,4.135986518867232462e+02
-2.737120872178186115e+00,1.482841032119702618e+01,-2.564533917793060613e+00,1.825420521468239521e-01,-9.641092559603505752e-01,1.927945584570465165e-01,4.154471363777286683e+02
-2.426229282025356149e+00,1.472479665899296641e+01,-2.635155225363063458e+00,0.000000000000000000e+00,-9.993865585868692003e-01,3.499294952974251610e-02,4.174078258605113092e+02
-2.108484406408310363e+00,1.460311495165975515e+01,-2.681077799566150777e+00,-0.000000000000000000e+00,-2.786296520870032781e-02,9.996107518285665128e-01,4.193685153432939501e+02
-1.827782084973115673e+00,1.448083351408206099e+01,-2.698550566155847541e+00,-0.000000000000000000e+00,-9.950635238632261625e-01,9.922995251857963384e-02,4.210780970384075204e+02
-1.545779716595713005e+00,1.434206435722225415e+01,-2.693014317386628775e+00,-0.000000000000000000e+00,2.016697227948960336e-02,9.997956257309895678e-01,4.227876787335210906e+02
-1.264846098297701227e+00,1.418651773618158707e+01,-2.664169666296272609e+00,-0.000000000000000000e+00,-1.168708951513450084e-01,9.931461090165466521e-01,4.244972604286346609e+02
-9.873418565617722020e-01,1.401391476760469956e+01,-2.611907180067409406e+00,-0.000000000000000000e+00,-0.000000000000000000e+00,9.999989999924441264e-01,4.262068421237482312e+02
-7.187225307192767199e-01,1.382617140073171491e+01,-2.537642055231375426e+00,-1.161848472904061791e-01,1.341998236121057881e-03,9.932256945363709955e-01,4.278964229234440495e+02
-4.964239143704239354e-01,1.365139760918486722e+01,-2.456278322539416692e+00,-2.105993719365406858e-01,-3.273154321278161083e-01,9.211463034895148727e-01,4.293354488072124582e+02
-2.239196655298278105e-01,1.341055747094327266e+01,-2.331850369399105283e+00,-2.792943478395155110e-01,-6.159993196223773060e-01,7.365714530791614978e-01,4.311642364071363431e+02
3.755708377072251164e-02,1.315273840067485089e+01,-2.188385646691608954e+00,-3.138803592474223025e-01,-8.294539691893766387e-01,4.620424580883072396e-01,4.329930240070602281e+02
2.878034744029007719e-01,1.288109240276973644e+01,-2.027589916665906600e+00,-3.101335803831359872e-01,-9.416111358728412872e-01,1.310863498643149716e-01,4.348218116069841130e+02
5.268694801961266716e-01,1.259906401112573882e+01,-1.851016694195891210e+00,-2.685116056354184821e-01,-9.387736212176366335e-01,-2.158786829377030148e-01,4.366505992069079980e+02
7.915467341106294796e-01,1.226348856365482121e+01,-1.629473464717250852e+00,-4.896907738373317276e-01,-7.676691808925005800e-01,4.133823589947610011e-01,4.387747795449688510e+02
1.043349588148194007e+00,1.192412506066390598e+01,-1.393706868269232402e+00,-4.786744931382749257e-01,-2.325607537446708895e-01,8.466311035141672603e-01,4.408989598830297041e+02
1.269878473604628466e+00,1.160334293015250395e+01,-1.159734052230343204e+00,-5.657582548317472426e-01,-2.744497872286678075e-01,7.775557287941712303e-01,4.429084787836207511e+02
1.485407078169403983e+00,1.128619996784378721e+01,-9.175546909799578987e-01,-6.448593426566089359e-01,-3.124664191117889067e-01,6.975092580866368852e-01,4.449179976842117981e+02
1.642505893740109579e+00,1.104867142545666248e+01,-7.281502343930110754e-01,-7.148616589889816852e-01,-3.460742437037458430e-01,6.076211207264864411e-01,4.464545876710864150e+02
1.792606995528103431e+00,1.081781475786084457e+01,-5.363764793051708502e-01,-7.747774865586488646e-01,-3.747990619851505056e-01,5.091596109839482409e-01,4.479911776579610319e+02
1.936287273645470153e+00,1.059490434716729013e+01,-3.439451190946862802e-01,-8.237614254881375775e-01,-3.982355727247324229e-01,4.035139929354292776e-01,4.495277676448356488e+02
2.076162295625223031e+00,1.037797665826759186e+01,-1.497676446267210693e-01,-8.611223222766747343e-01,-4.160530914692383009e-01,2.921748982305116815e-01,4.510868644251565343e+02
2.210712768014925889e+00,1.017138542009609381e+01,4.164205020692138270e-02,-8.863330223341095992e-01,-4.280002166739574898e-01,1.767132933522801985e-01,4.526459612054774198e+02
2.370388075448550680e+00,9.930869786559936685e+00,2.718064909491832992e-01,-8.990378083889297711e-01,-4.339083771022186342e-01,5.875831318247372315e-02,4.545652864476153354e+02
2.524672713177963601e+00,9.705087564700809466e+00,4.944437628409175667e-01,-8.990574197649077171e-01,-4.336942104162732070e-01,-6.002572629651324598e-02,4.564846116897532511e+02
2.650627660512268502e+00,9.527991682559372677e+00,6.741167982830822414e-01,-8.863915816794353253e-01,-4.273607393857604131e-01,-1.779628117330046555e-01,4.581012057756331615e+02
2.773048835199642070e+00,9.364469442660446674e+00,8.446763914920356608e-01,-8.612190088780697916e-01,-4.149973291190182656e-01,-2.933888811316678891e-01,4.597177998615130718e+02
2.892320551742966650e+00,9.214951717021589772e+00,1.004913735665904584e+00,-8.238948835845220087e-01,-3.967784259355762178e-01,-4.046753038128111934e-01,4.613343939473929822e+02
3.008781170825893359e+00,9.079780832467633900e+00,1.153784658925537610e+00,-7.749458434064774304e-01,-3.729610957006365690e-01,-5.102518602431496131e-01,4.629509880332728926e+02
3.122673104221878937e+00,8.959125237724034463e+00,1.290574192002861276e+00,-7.150625499890077563e-01,-3.438813963900175241e-01,-6.086288974580467137e-01,4.645675821191528030e+02
3.234190618128255146e+00,8.853066056394409244e+00,1.414732013296133850e+00,-6.450899433507121250e-01,-3.099496361067187733e-01,-6.984183474581324713e-01,4.661841762050327134e+02
3.346261783009752300e+00,8.759391111616006143e+00,1.528481807701569828e+00,-5.660153194903221330e-01,-2.716445834953140626e-01,-7.783533120383755444e-01,4.678412304909839463e+02
3.456295258245822843e+00,8.680831557887854544e+00,1.628141584399668274e+00,-4.789543995527926201e-01,-2.295067122760233724e-01,-8.473059377642536694e-01,4.694982847769351793e+02
3.564496830289244578e+00,8.617468617800490449e+00,1.713133424013784767e+00,-4.789543992146754192e-01,-2.295067121140033639e-01,-8.473059371660989214e-01,4.711553390628864122e+02
3.671009586282533377e+00,8.569429641871765924e+00,1.783163400933601705e+00,-4.789543992146957363e-01,-2.295067121140131616e-01,-8.473059371661350037e-01,4.728123933488376451e+02
3.775851143540041477e+00,8.536936262726545266e+00,1.838505467650515701e+00,-4.789543992147137219e-01,-2.295067121140217659e-01,-8.473059371661667560e-01,4.744694476347888781e+02
3.878977650155037260e+00,8.520257874760382322e+00,1.879717570571366458e+00,-4.789543992147292650e-01,-2.295067121140292321e-01,-8.473059371661945116e-01,4.761265019207401110e+02
3.974254510981695798e+00,8.519636745731173022e+00,1.905840747915175326e+00,-4.789543992147424767e-01,-2.295067121140355326e-01,-8.473059371662177153e-01,4.776849414182245255e+02
4.067600040386489368e+00,8.534123798098233848e+00,1.920235889043621080e+00,-4.789543992147532459e-01,-2.295067121140406952e-01,-8.473059371662367001e-01,4.792433809157089399e+02
4.158735809005443151e+00,8.563679128474879221e+00,1.923938854489884775e+00,-4.789543992147616835e-01,-2.295067121140447197e-01,-8.473059371662515771e-01,4.808018204131933544e+02
4.247316976719521797e+00,8.608189521891299378e+00,1.918019924197641668e+00,-4.789543992147676232e-01,-2.295067121140476063e-01,-8.473059371662622352e-01,4.823602599106777689e+02
4.333693113801662555e+00,8.667964063925822416e+00,1.903481607857067770e+00,-4.789543992147712315e-01,-2.295067121140493271e-01,-8.473059371662685635e-01,4.839337802713719157e+02
4.416452623277056233e+00,8.742231714943475396e+00,1.881574549782653261e+00,-4.789543992147724527e-01,-2.295067121140499100e-01,-8.473059371662707839e-01,4.855073006320660625e+02
4.495035958427188838e+00,8.830657224526305527e+00,1.853495065707373435e+00,-4.789543992147711760e-01,-2.295067121140493271e-01,-8.473059371662685635e-01,4.870808209927602093e+02
4.568868428719783381e+00,8.932839813432780218e+00,1.820391479196563189e+00,-4.789543992147676787e-01,-2.295067121140476063e-01,-8.473059371662622352e-01,4.886543413534543561e+02
4.649910346340656808e+00,9.069330132218000884e+00,1.776575586532309847e+00,-4.789543992147616280e-01,-2.295067121140447475e-01,-8.473059371662515771e-01,4.905162175005103791e+02
4.723846043566220843e+00,9.220565785806558168e+00,1.729464792524944894e+00,-4.789543992147532459e-01,-2.295067121140406952e-01,-8.473059371662367001e-01,4.923780936475664021e+02
4.789799267084844381e+00,9.385713116265986145e+00,1.680465249805462191e+00,-4.789543992147424767e-01,-2.295067121140355326e-01,-8.473059371662177153e-01,4.942399697946224251e+02
4.846886093366513215e+00,9.563946455322293261e+00,1.630983129127572928e+00,-4.789543992147292650e-01,-2.295067121140292321e-01,-8.473059371661944006e-01,4.961018459416784481e+02
4.893997750435157279e+00,9.753428910628823445e+00,1.582448962922579749e+00,-4.789543992147137219e-01,-2.295067121140217659e-01,-8.473059371661667560e-01,4.979543546617159109e+02
