2.663598390100268443e+00,1.427327106296923720e+00,-2.826863210960238959e+00,-9.998919606002018012e-01,1.463098479091418103e-02,-0.000000000000000000e+00,3.876497308659306640e+01
2.610828114843038339e+00,1.166160436281885371e+00,-2.897044118417730463e+00,-9.993812922323547232e-01,8.617409069246855999e-03,-3.407011873245700123e-02,4.052633569708716266e+01
2.546748328582935983e+00,9.102812907912789520e-01,-2.965926570300769782e+00,-9.976741648288464104e-01,2.593517133066625038e-03,-6.809944563285574848e-02,4.228769830758125892e+01
2.470977633956497055e+00,6.608435196797605160e-01,-3.033435840292703745e+00,-9.947726228045428165e-01,-3.433479874166002737e-03,-1.020472445880236667e-01,4.404906091807535518e+01
2.383298251984341309e+00,4.189943545277513004e-01,-3.099448000381495483e+00,-9.906801392969918352e-01,-9.456367102013215828e-03,-1.358728770469800895e-01,4.581042352856945143e+01
2.321185871418768532e+00,2.734007669570363008e-01,-3.139618680374209436e+00,-9.854016127184062057e-01,-1.546793461005325013e-02,-1.695358506153440692e-01,4.690964255100129066e+01
2.203308240562618536e+00,3.663258243166423594e-02,-3.205785435600076561e+00,-9.789433609053522778e-01,-2.146098598938219609e-02,-2.029958674759157755e-01,4.877315272108899791e+01
2.072793569345965370e+00,-1.888633686285369762e-01,-3.269694255977957820e+00,-9.977402723038850674e-01,-9.901915817757031210e-03,-6.644020685046080066e-02,5.063666289117670516e+01
1.955254301322512545e+00,-3.643032965761206499e-01,-3.320119009997448245e+00,-9.974460010288215273e-01,1.846620074418767795e-03,7.138672864246912997e-02,5.217061025651571526e+01
1.827977738196830515e+00,-5.288147205433902931e-01,-3.368033338289285528e+00,-9.780661854539536293e-01,1.355982054658264740e-02,2.078477041941154124e-01,5.370455762185472537e+01
1.691304447204212025e+00,-6.816755943471383139e-01,-3.413104654496259549e+00,-9.399716523001553359e-01,2.501356081920092650e-02,3.403316245190819989e-01,5.523850498719373547e+01
1.545579902707592712e+00,-8.221662026781632049e-01,-3.455000390834286783e+00,-8.838913202291964755e-01,3.598868086710548669e-02,4.663034943826804835e-01,5.677245235253274558e+01
1.297081580870629303e+00,-1.026899839495678313e+00,-3.516711072656959480e+00,-8.108982521435836865e-01,4.627517879280302476e-02,5.833529227652179960e-01,5.924054120297004289e+01
1.133252477077127063e+00,-1.141179119932942632e+00,-3.551418942022869896e+00,-7.223891231211736486e-01,5.567622896374816582e-02,6.892402428218226129e-01,6.078681339926504990e+01
9.620325552871175079e-01,-1.241147954348527094e+00,-3.581847049229124558e+00,-6.200574967891760991e-01,6.401194805077710381e-02,7.819393654131201465e-01,6.233308559556005690e+01
7.840059886961530111e-01,-1.326436761847426204e+00,-3.607736745462794659e+00,-5.663450156227132215e-01,5.846680511179415396e-02,8.220906008335884252e-01,6.387935779185506391e+01
5.998292199017943860e-01,-1.396798394304613833e+00,-3.628884680944212793e+00,-5.100681851700701319e-01,5.265693077091618268e-02,8.585194780078428956e-01,6.542562998815007802e+01
4.101951092401137089e-01,-1.452049519924496934e+00,-3.645115171811445176e+00,-4.514818212484465465e-01,4.660863155368745459e-02,8.910610532094686009e-01,6.697190218444508503e+01
1.383799764935954302e-01,-1.507717807521404829e+00,-3.660662841734202200e+00,-3.908511964074848910e-01,4.034929348727951670e-02,9.195679837738470752e-01,6.913434444845205462e+01
-1.388637772469425435e-01,-1.541376057311800718e+00,-3.668878923696998307e+00,-3.284508388772175436e-01,3.390725810709574461e-02,9.439111951283090107e-01,7.129678671245902422e+01
-3.932696257133451723e-01,-1.552064285267333199e+00,-3.669826158480791634e+00,-2.645632896307258397e-01,2.731169413935707543e-02,9.639804651252384948e-01,7.325162535241493345e+01
-6.503946957501969273e-01,-1.543519178262816149e+00,-3.664716671698273309e+00,-1.994778231848474137e-01,2.059246544020641376e-02,9.796849230362679739e-01,7.520646399237084267e+01
-8.787329549174462962e-01,-1.519691134255382936e+00,-3.655320737933645425e+00,-1.334891379259894595e-01,1.377999578877114363e-02,9.909534609515405768e-01,7.693082100185546324e+01
-1.107814265123556963e+00,-1.480465334745914685e+00,-3.641519553384151564e+00,-6.689602188551573014e-02,6.905131145808623971e-03,9.977350557235442619e-01,7.865517801134008380e+01
-1.336893520774536492e+00,-1.426783771757887509e+00,-3.623810683085467943e+00,-0.000000000000000000e+00,-9.999989999988958197e-07,9.999989999988958544e-01,8.037953502082470436e+01
-1.574334795747256655e+00,-1.356903125778122554e+00,-3.601853663389144700e+00,5.263154114955772261e-08,-9.999989992934429473e-07,9.999989992934428251e-01,8.217271578294187862e+01
-1.810208615804026699e+00,-1.273968192999233473e+00,-3.576887974844038975e+00,1.052630773421336629e-07,-9.999989992934829696e-07,9.999989992934830152e-01,8.396589654505905287e+01
-2.043786715487390104e+00,-1.179108311863983793e+00,-3.549480673203944114e+00,1.578946091609018061e-07,-9.999989992935147333e-07,9.999989992935147676e-01,8.575907730717622712e+01
-2.274418438571873313e+00,-1.073558954954442424e+00,-3.520256566104843721e+00,2.105261371890359784e-07,-9.999989992935384502e-07,9.999989992935384153e-01,8.755225806929340138e+01
-2.501442992602203041e+00,-9.584867597063417843e-01,-3.489869286600791209e+00,2.631576620097099336e-07,-9.999989992935536968e-07,9.999989992935536254e-01,8.934543883141057563e+01
-2.733717650847677927e+00,-8.296692425134034599e-01,-3.457652856201800962e+00,3.157891842060972000e-07,-9.999989992935604731e-07,9.999989992935606198e-01,9.121560967976374457e+01
-2.960754266280919644e+00,-6.932047906460135911e-01,-3.425615232272928967e+00,3.684207043613710682e-07,-9.999989992935592025e-07,9.999989992935592875e-01,9.308578052811691350e+01
-3.181950548467024742e+00,-5.503331303453538048e-01,-3.394429958326877106e+00,4.210522230587048812e-07,-9.999989992935496734e-07,9.999989992935496286e-01,9.495595137647008244e+01
-3.396965691482825900e+00,-4.023832210189438596e-01,-3.364695765135571115e+00,4.736837408812719826e-07,-9.999989992935312505e-07,9.999989992935314209e-01,9.682612222482325137e+01
-3.565205648826638374e+00,-2.801481280782458505e-01,-3.342327488866247975e+00,5.263152584122455566e-07,-9.999989992935052042e-07,9.999989992935052197e-01,9.833373973987664840e+01
-3.728267979712490021e+00,-1.559657482889681424e-01,-3.321948780446505545e+00,5.789467762347989465e-07,-9.999989992934706876e-07,9.999989992934705807e-01,9.984135725493004543e+01
-3.886079480332913061e+00,-3.072724014444969468e-02,-3.303849592595169415e+00,6.315782949321050722e-07,-9.999989992934277007e-07,9.999989992934277261e-01,1.013489747699834425e+02
-4.038665233685598821e+00,9.468195601093773450e-02,-3.288170299770833083e+00,6.842098150873373299e-07,-9.999989992933764552e-07,9.999989992933764338e-01,1.028565922850368395e+02
-4.201109106665252391e+00,2.320945051445616747e-01,-3.273632997744751805e+00,7.368413372836690098e-07,-9.999989992933167394e-07,9.999989992933168148e-01,1.045178692362587043e+02
-4.357935876244267703e+00,3.677124580899885364e-01,-3.261912939949576984e+00,7.894728621042739317e-07,-9.999989992932489767e-07,9.999989992932489802e-01,1.061791461874805691e+02
-4.509255253054800683e+00,5.004660847883469765e-01,-3.253089716641039963e+00,8.421043901323248566e-07,-9.999989992931727438e-07,9.999989992931727079e-01,1.078404231387024339e+02
-4.655194305180530456e+00,6.293261853881492174e-01,-3.247118470859643669e+00,8.947359219509960277e-07,-9.999989992930882522e-07,9.999989992930882199e-01,1.095017000899242987e+02
-4.795906237591998078e+00,7.533439238205553723e-01,-3.243705473655648763e+00,9.473674581434611589e-07,-9.999989992929952904e-07,9.999989992929954052e-01,1.111629770411461635e+02
-4.931560572358826278e+00,8.716113249415466946e-01,-3.242432551447593791e+00,9.999989992928942817e-07,-9.999989992928942817e-07,9.999989992928942639e-01,1.128242539923680283e+02
-5.050120722586078692e+00,9.727841872699666270e-01,-3.242848927078044952e+00,4.445481549367726049e-02,3.127272626051593764e-03,9.990055002570801257e-01,1.143302178281148826e+02
-5.164439685093083376e+00,1.067134209585722360e+00,-3.244483597855623458e+00,8.882029514781430990e-02,6.249331070226428302e-03,9.960270583823213064e-01,1.158361816638617370e+02
-5.274673038384376511e+00,1.153918419273576079e+00,-3.246992893857929552e+00,1.330092900413248624e-01,9.358972175517649150e-03,9.910695931171288331e-01,1.173421454996085913e+02
-5.381021414446149009e+00,1.232466025196334414e+00,-3.250001125771608379e+00,1.769340019985660151e-01,1.245001746204263057e-02,9.841429550633786771e-01,1.188481093353554456e+02
-5.483769736489743529e+00,1.302249980035536936e+00,-3.253068573331633129e+00,2.205071579924403058e-01,1.551632540110253408e-02,9.752609071008134789e-01,1.203540731711023000e+02
-5.583246292814734169e+00,1.362816409354933755e+00,-3.255723502008950998e+00,2.636421835044316375e-01,1.855180361477789391e-02,9.644410970394292626e-01,1.218600370068491543e+02
-5.705178826393559000e+00,1.427122733788011022e+00,-3.257919070275490547e+00,3.062533744969395677e-01,2.155042097787811597e-02,9.517050225589041013e-01,1.237621414765324772e+02
-5.823875694794216962e+00,1.478702302325745954e+00,-3.258302235077905618e+00,3.482560676570311542e-01,2.450621959825666565e-02,9.370779885046510715e-01,1.256642459462158001e+02
-5.939779253471551890e+00,1.517137203114452992e+00,-3.256374829261896586e+00,3.895668085741427755e-01,2.741332665174370936e-02,9.205890566251550000e-01,1.275663504158991230e+02
-6.053836732813516086e+00,1.542312834999626903e+00,-3.251818942624145059e+00,4.301035175183419712e-01,3.026596604823517112e-02,9.022709878501697922e-01,1.294794431795102696e+02
-6.165602003527808961e+00,1.553781724283647359e+00,-3.244425284413238852e+00,6.255285596015772720e-01,1.872269229880214603e-01,7.574022051937788769e-01,1.313925359431214019e+02
-6.254025213479781797e+00,1.551751243876646313e+00,-3.236054005853084448e+00,7.685250333186893767e-01,3.284954841025672923e-01,5.490519010875600792e-01,1.329355150966478618e+02
-6.340761804767200971e+00,1.538206403799309729e+00,-3.225270331523355072e+00,8.471077294771892641e-01,4.422312696936644971e-01,2.946828783049034173e-01,1.344784942501743217e+02
-6.439724186784435034e+00,1.508824650558485692e+00,-3.210041741316094654e+00,8.546902225258377062e-01,5.189015279780672119e-01,1.561498579573314394e-02,1.362741049894825949e+02
-6.536668454735401923e+00,1.465569182735905418e+00,-3.192399556494553980e+00,9.522611106983464024e-01,3.009198184001206089e-01,5.142022896141038718e-02,1.380697157287908681e+02
-6.631524511360960439e+00,1.408137985520833135e+00,-3.172679334368385895e+00,9.942978101725182816e-01,6.538900506767053589e-02,8.422673389889839823e-02,1.398653264680991413e+02
-6.710945710201678516e+00,1.346498761229266261e+00,-3.154277168472536808e+00,9.783488203437300523e-01,-1.739551762164967541e-01,1.121212843326343939e-01,1.414041005170149106e+02
-6.788427000668924904e+00,1.272180186942084790e+00,-3.134629957573154879e+00,9.053442575449665020e-01,-4.031546027511856978e-01,1.334771201807219698e-01,1.429428745659306799e+02
-6.863921987183221773e+00,1.184958612910170794e+00,-3.113984153831952817e+00,7.795416126740908336e-01,-6.088427732466569209e-01,1.470488067806074162e-01,1.444816486148464492e+02
-6.937419028660738896e+00,1.084620871471336345e+00,-3.092639564266694396e+00,6.082774653435730761e-01,-7.790243152625558887e-01,1.520448663574279768e-01,1.460204226637622185e+02
-7.008958130123869701e+00,9.710094238733226746e-01,-3.070986172247951451e+00,6.448633265663314962e-01,-7.519669907856911806e-01,1.367294219212747408e-01,1.475591967126779878e+02
-7.078581052212148172e+00,8.440455399480916165e-01,-3.049434261923869460e+00,6.799626512099778974e-01,-7.231762410898957549e-01,1.210987914187648951e-01,1.490979707615937571e+02
-7.153782556488548217e+00,6.882914468880746428e-01,-3.026077669690472760e+00,7.134945291161419734e-01,-6.927184347459249825e-01,1.051890064839312855e-01,1.508056497649079972e+02
-7.226986174535597662e+00,5.176449567432094279e-01,-3.003754409655501334e+00,7.453816634364618388e-01,-6.606637831360622215e-01,8.903674222313420761e-02,1.525133287682222374e+02
-7.298224554106653272e+00,3.320511848123939846e-01,-2.982949424378530612e+00,7.755505488046160467e-01,-6.270861785973430580e-01,7.267923267198866943e-02,1.542210077715364775e+02
-7.367455748629343049e+00,1.315294022669460383e-01,-2.964071785898023670e+00,8.039316407677273846e-01,-5.920630240813050671e-01,5.615418496455189257e-02,1.559286867748507177e+02
-7.433308435862856278e+00,-7.999191011595092882e-02,-2.947670103402654451e+00,8.304595160867009884e-01,-5.556750547228532788e-01,3.949969241257856450e-02,1.576064998735415656e+02
-7.496724709757974558e+00,-3.057904316997182015e-01,-2.933590276363670313e+00,8.550730235362421494e-01,-5.180061517296077334e-01,2.275414669518274410e-02,1.592843129722324136e+02
-7.557443133196527718e+00,-5.456378698517901915e-01,-2.922007458307383843e+00,8.777154248572008877e-01,-4.791431490207693211e-01,5.956149361283525658e-03,1.609621260709232615e+02
-7.615074179407192112e+00,-7.991880317554352908e-01,-2.912984463390772216e+00,8.983345255365923210e-01,-4.391756330612130443e-01,-1.085557715121686709e-02,1.626399391696141095e+02
-7.670914373703148215e+00,-1.075387538382162278e+00,-2.906119683434762901e+00,9.168827951140788857e-01,-3.981957363521692050e-01,-2.764227877446952253e-02,1.643777764761805429e+02
-7.722097002178513137e+00,-1.364419742665161639e+00,-2.901444095981948745e+00,9.333174767378321635e-01,-3.562979250544371368e-01,-4.436525914224686423e-02,1.661156137827469763e+02
-7.767782810790697212e+00,-1.665543374918508013e+00,-2.898663534349137372e+00,9.476006857174524844e-01,-3.135787812335710245e-01,-6.098596878819752265e-02,1.678534510893134097e+02
-7.807065258451292067e+00,-1.977952028967487452e+00,-2.897388844779191341e+00,9.596994968469718668e-01,-2.701367802288408004e-01,-7.746609400525976408e-02,1.695912883958798432e+02
-7.838908748326899989e+00,-2.300702631423548805e+00,-2.897040931153756382e+00,9.695860202968120678e-01,-2.260720636589862720e-01,-9.376764516148687612e-02,1.713291257024462766e+02
-7.861291583562732832e+00,-2.619963902090385321e+00,-2.897040887564258149e+00,9.772374658999049002e-01,-1.814862085878144460e-01,-1.098530442687980363e-01,1.729997892893018445e+02
-7.874378695832500163e+00,-2.947282357871012337e+00,-2.897074661122228001e+00,9.826361956838864931e-01,-1.364819933815250852e-01,-1.256852116028860378e-01,1.746704528761574124e+02
-7.877133672103456163e+00,-3.281744673375305066e+00,-2.897079724140728008e+00,9.857697645283439725e-01,-9.116316079725962640e-02,-1.412276511747027063e-01,1.763411164630129804e+02
-7.868512529363863806e+00,-3.622445819138481404e+00,-2.897067502026073438e+00,9.866309488534279470e-01,-4.563417884874166469e-02,-1.564445348565842164e-01,1.780117800498685483e+02
-7.847463739401116634e+00,-3.968489106567067104e+00,-2.897050133797189897e+00,9.852177632736904833e-01,-0.000000000000000000e+00,-1.713007849691758899e-01,1.796824436367241162e+02
-7.811550472379845012e+00,-4.333159683862737310e+00,-2.897040587707799375e+00,9.859195693720187448e-01,-9.284251589296751983e-02,-1.390714563503208656e-01,1.814207000302306767e+02
-7.761030963356918555e+00,-4.701585857688757919e+00,-2.897043217226384026e+00,9.770984050006998878e-01,-1.847882599568439199e-01,-1.054988432480015448e-01,1.831589564237372372e+02
-7.696301049492199731e+00,-5.073027300915279980e+00,-2.897040682380818133e+00,9.588394725994650036e-01,-2.749491449125230358e-01,-7.090721751957733410e-02,1.848972128172437976e+02
-7.620653857286325383e+00,-5.435239112736764966e+00,-2.897040653590268189e+00,9.313191280688585261e-01,-3.624543218036009873e-01,-3.563069320094379433e-02,1.865816617169487870e+02
-7.532913120563489606e+00,-5.799107101004565834e+00,-2.897040432266796195e+00,8.948031780332501572e-01,-4.464585898828646315e-01,-9.999990814002286037e-06,1.882661106166537763e+02
-7.433913213553982047e+00,-6.164098965912790717e+00,-2.897091740331118714e+00,9.224252451099227423e-01,-3.861731051187756170e-01,-8.059370816968135245e-06,1.899505595163587657e+02
-7.314814149286607226e+00,-6.562335660185137698e+00,-2.897567634662625125e+00,9.459910979387423646e-01,-3.241895164593320278e-01,-6.083311941279052320e-06,1.917852667561002704e+02
-7.185477375435725733e+00,-6.960688936144690864e+00,-2.899040727887093105e+00,9.653971165923843634e-01,-2.607803812735998150e-01,-4.080503392894959514e-06,1.936199739958417751e+02
-7.046814574716218971e+00,-7.358542762147869176e+00,-2.901981573007004211e+00,9.805579718238895959e-01,-1.962245241738876100e-01,-2.059751969655006661e-06,1.954546812355832799e+02
-6.899614940208123492e+00,-7.755263110628549228e+00,-2.906621935127474909e+00,9.914070000434594965e-01,-1.308058112766953274e-01,-2.994334632224471480e-08,1.972893884753247846e+02
-6.730325556233482942e+00,-8.186877790720322068e+00,-2.913675218639972808e+00,9.978964962912724168e-01,-6.481190233634093190e-02,1.999996986247637058e-06,1.992943888671479442e+02
-6.553359529997828226e+00,-8.615820634668134304e+00,-2.922684678498540300e+00,8.849807075418427704e-01,-1.526297770938973321e-02,-4.653753203488801282e-01,2.012993892589711038e+02
-6.369023875896886899e+00,-9.041265400485686499e+00,-2.933314462105950149e+00,9.837578413828625967e-01,7.037051083656871431e-02,1.651257118817254232e-01,2.033043896507942634e+02
-6.193136711644712911e+00,-9.427663645965218109e+00,-2.944113413650079281e+00,6.746469744003881219e-01,1.268268071976468014e-01,7.271618945671066703e-01,2.051442253461085556e+02
-6.010457008035930748e+00,-9.809286643028238828e+00,-2.955369675963863685e+00,-4.499992964603929360e-04,3.515004504558323917e-01,9.361865363436940868e-01,2.069840610414228479e+02
-5.820860059158288635e+00,-1.018534957950774178e+01,-2.966033062623243399e+00,5.060957267145200361e-02,4.053948458404369459e-01,9.127385661411473450e-01,2.088238967367371401e+02
-5.652286813413167188e+00,-1.050191486464070501e+01,-2.973424121971570244e+00,1.013623704237797130e-01,4.568319342722008125e-01,8.837580289268273104e-01,2.103996389417758337e+02
-5.477264696545711686e+00,-1.081224055016267194e+01,-2.977817985478769636e+00,1.515007575095462522e-01,5.054999318951929332e-01,8.494205903611324882e-01,2.119753811468145273e+02
-5.295641218305242148e+00,-1.111568385617771959e+01,-2.978008832690646646e+00,2.007208217663926375e-01,5.511038394388294570e-01,8.099343861490642116e-01,2.135511233518532208e+02
-5.107329242367633526e+00,-1.141160740088281145e+01,-2.972719464745094076e+00,2.487242173408953094e-01,5.933672302074003424e-01,7.655387604984923433e-01,2.151268655568919144e+02
-4.912377392612612859e+00,-1.169938288170724228e+01,-2.960529905917647753e+00,2.952199729753616775e-01,6.320339255172469084e-01,7.165028154536567939e-01,2.167026077619306079e+02
-4.659896638197116303e+00,-1.204934792771061680e+01,-2.934789872481622819e+00,3.399262556079077346e-01,6.668695474329288109e-01,6.631237798904560110e-01,2.186786926985779189e+02
-4.399755780777202752e+00,-1.238769917780254914e+01,-2.897392205111662733e+00,3.825720786027002052e-01,6.976629393956769176e-01,6.057252080510333592e-01,2.206547776352252299e+02
-4.163476828551595510e+00,-1.267554027781976700e+01,-2.853837254226298192e+00,4.228989442616992722e-01,7.242274461361394300e-01,5.446550185267455824e-01,2.223994826581620430e+02
-3.920966900763763530e+00,-1.295193861820928305e+01,-2.799811456395873144e+00,4.606624106661088569e-01,7.464020451141413215e-01,4.802833855646349570e-01,2.241441876810988560e+02
-3.672774525396771850e+00,-1.321640672001315053e+01,-2.735333947882749417e+00,-6.074690999519350987e-01,7.795978449197964455e-01,1.523367742923567580e-01,2.258888927040356691e+02
-3.419506219799908209e+00,-1.346850726374612961e+01,-2.660441563332499371e+00,-0.000000000000000000e+00,4.167097442644203398e-02,9.991303868317403802e-01,2.276335977269724822e+02
-3.161889346334271877e+00,-1.370790729616945747e+01,-2.575206445397471455e+00,1.054998706093116835e-03,4.298934727556344981e-01,9.028778926622249568e-01,2.293783027499092952e+02
-2.936693347594385717e+00,-1.390300237963211849e+01,-2.492902239752920135e+00,-2.094397647221116210e-02,9.665299142314137670e-01,2.556937127619156591e-01,2.308820833231763459e+02
-2.708891502946421337e+00,-1.408656335767542167e+01,-2.401829005114894056e+00,3.406786499304158972e-02,9.347489784474517505e-01,3.536689523642611577e-01,2.323858638964433965e+02
-2.479064846985745696e+00,-1.425837043376121471e+01,-2.302053558676977474e+00,8.861517556914572102e-02,8.902222663300085603e-01,4.468217398350232128e-01,2.338896444697104471e+02
-2.247804979466445641e+00,-1.441821429891507478e+01,-2.193687676494390448e+00,1.419541809459678450e-01,8.335569138932076294e-01,5.338818987497856439e-01,2.353934250429774977e+02
-1.949278848271750242e+00,-1.460843785904678427e+01,-2.043443577447991988e+00,1.933575811997516603e-01,7.655255692838544013e-01,6.136623245440431251e-01,2.373288210211753722e+02
-1.650971584735198228e+00,-1.478324247276901104e+01,-1.882850192714350834e+00,2.421244670306577362e-01,6.870558592156823519e-01,6.850751701687372019e-01,2.392642169993732466e+02
-1.353979969794295357e+00,-1.494288333639464561e+01,-1.712518689582523956e+00,2.875898764462447854e-01,5.992177425653392175e-01,7.471466790124219326e-01,2.411996129775711211e+02
-1.119548349304917201e+00,-1.505795691015896054e+01,-1.569894476774386538e+00,2.768619669068325684e-01,6.358258163494550086e-01,7.204658094202085472e-01,2.427390917806250172e+02
-8.875808850480577661e-01,-1.516120123045016399e+01,-1.420733090646844721e+00,2.655340678175878710e-01,6.710559800350459625e-01,6.922236130666573617e-01,2.442785705836789134e+02
-6.587516038265738283e-01,-1.525278995131534643e+01,-1.265597313612940811e+00,2.536307282153372755e-01,7.048318864363207759e-01,6.624812945037050760e-01,2.458180493867328096e+02
-4.337317490494160266e-01,-1.533289295738371294e+01,-1.105059512570000013e+00,2.411777441519484533e-01,7.370803399833721903e-01,6.313033091435706901e-01,2.473575281897867058e+02
-2.131328167233603466e-01,-1.540168869160410914e+01,-9.397826010899488214e-01,2.282021027878846087e-01,7.677314553337951653e-01,5.987572235674543109e-01,2.488970069928406019e+02
2.542048912329991379e-03,-1.545937444556991380e+01,-7.705819112707875673e-01,2.147319239050369533e-01,7.967188088091956555e-01,5.649135690933407838e-01,2.504364857958944981e+02
2.128409397452970253e-01,-1.550615484216072737e+01,-5.983442224321083858e-01,2.007963989657280679e-01,8.239795823288398324e-01,5.298456889206275555e-01,2.519759645989483943e+02
4.173103019169110972e-01,-1.554223107074050958e+01,-4.239563340481117826e-01,1.864257278499963366e-01,8.494546995287964863e-01,4.936295791829453661e-01,2.535154434020022904e+02
6.154949452664377763e-01,-1.556780087807400470e+01,-2.483050597765658341e-01,1.716510534082899830e-01,8.730889537718701243e-01,4.563437242537172200e-01,2.550549222050561866e+02
8.042004006375282898e-01,-1.558283451880477344e+01,-7.479328256647141404e-02,1.565043939714170218e-01,8.948311277712095446e-01,4.180689266614072697e-01,2.565723690986664565e+02
9.858163775532011730e-01,-1.558787909954079076e+01,9.822804303125431957e-02,1.410185739640099356e-01,9.146341045686524618e-01,3.788881319830618710e-01,2.580898159922767263e+02
1.159895950308954760e+00,-1.558311673677189546e+01,2.698973052405650996e-01,1.252271527718591126e-01,9.324549696276002164e-01,3.388862490955851237e-01,2.596072628858869962e+02
1.326015238915043470e+00,-1.556863237697312030e+01,4.393982782940193954e-01,1.091643520172373982e-01,9.482551038194655391e-01,2.981499661742140206e-01,2.611247097794972660e+02
1.483798888681395090e+00,-1.554432018469645094e+01,6.060055050219871342e-01,9.286498139977336641e-02,9.620002671024561192e-01,2.567675628368380480e-01,2.626421566731075359e+02
1.632896844059249286e+00,-1.550997773234384525e+01,7.690389241098669615e-01,7.636436326352878667e-02,9.736606727116103865e-01,2.148287188411268089e-01,2.641596035667178057e+02
1.772960227257837307e+00,-1.546539996137256701e+01,9.278184970638770901e-01,5.969825605368020427e-02,9.832110516995385963e-01,1.724243197488644075e-01,2.656770504603280756e+02
1.921382822570017801e+00,-1.540293960799518480e+01,1.102522741282928376e+00,4.290277682860275943e-02,9.906307076882089335e-01,1.296462599784375669e-01,2.674004949065883352e+02
2.058732645021551289e+00,-1.532842169228711171e+01,1.270745674581178042e+00,2.601432299519093952e-02,9.959035617132970808e-01,8.658724367205665462e-02,2.691239393528485948e+02
2.184629947148798657e+00,-1.524154559122340480e+01,1.431733739857653065e+00,9.069493436926260449e-03,9.990181870640513218e-01,4.334058380900502466e-02,2.708473837991088544e+02
2.298827881919231597e+00,-1.514195674628530064e+01,1.584980645542874322e+00,-7.894990794486266006e-03,9.999678340432726076e-01,0.000000000000000000e+00,2.725708282453691140e+02
2.401147498165268956e+00,-1.502927315272712150e+01,1.730103766796240228e+00,-9.132730123892169871e-01,4.073455594976950200e-01,-0.000000000000000000e+00,2.742942726916293736e+02
2.516158011512428239e+00,-1.486860603794929681e+01,1.904234299489401483e+00,-7.524301508834674301e-01,4.937781136753728872e-01,-4.359243541003769429e-01,2.764897229564932672e+02
2.596434832429486139e+00,-1.472444789663006404e+01,2.036184027455550272e+00,-4.235158060269986757e-01,4.699147028598953391e-01,-7.744756510584412945e-01,2.782646988824751020e+02
2.663605588979089500e+00,-1.456558033908926397e+01,2.159241268069551634e+00,-0.000000000000000000e+00,3.410856895400514732e-01,-9.400311443733065930e-01,2.800396748084569367e+02
2.717330293086093196e+00,-1.439165654846734022e+01,2.273421040325139586e+00,-1.909071765314370450e-01,4.222434026700249698e-01,-8.861506411728702348e-01,2.818146507344387715e+02
2.757225247791602829e+00,-1.420242454325991233e+01,2.378864423759274427e+00,-3.730448983751468717e-01,4.840052070290817299e-01,-7.915645667701377564e-01,2.835896266604206062e+02
2.782920321872194958e+00,-1.399770771505060907e+01,2.475743378128707484e+00,-5.380466603363985856e-01,5.235340866889348632e-01,-6.606177800943119349e-01,2.853646025864024409e+02
2.793505328894335449e+00,-1.378815755504878560e+01,2.559866593860813389e+00,-6.783331045801083148e-01,5.390142884850930294e-01,-4.993253408756853640e-01,2.870524924873593022e+02
2.789902945455163152e+00,-1.356357895181761286e+01,2.636125517048729439e+00,-0.000000000000000000e+00,2.648456641227965869e-01,-9.642897770879513830e-01,2.887403823883161635e+02
2.771801641984123155e+00,-1.332382154299942911e+01,2.704656455781643043e+00,-5.427938214030166852e-01,1.581597480381450871e-01,-8.248383851086108498e-01,2.904282722892730249e+02
2.738890511036569997e+00,-1.306873225283069040e+01,2.765595779204495841e+00,-9.089331001752346539e-01,0.000000000000000000e+00,-4.169395872385258661e-01,2.921161621902298862e+02
2.690997831349601466e+00,-1.279813951520251081e+01,2.819104607681720776e+00,-5.378732258159389934e-01,1.174570809038515649e-02,-8.429427212408506787e-01,2.938040520911867475e+02
2.628229800009512562e+00,-1.251183896569623322e+01,2.865393502764362221e+00,4.930994909504183947e-03,1.974097962046686416e-02,-9.997919678681640443e-01,2.954919419921436088e+02
2.550832232146036826e+00,-1.220961142969388469e+01,2.904697774294757284e+00,-6.746972981999037611e-01,1.432348973874803533e-01,-7.240616824352692493e-01,2.971798318931004701e+02
2.448997708971949461e+00,-1.185604270188711595e+01,2.940855617225454743e+00,-9.811008456434554548e-01,1.874950362791038549e-01,-4.779897538246490746e-02,2.990541810862090415e+02
2.331652879678162371e+00,-1.148423961350052735e+01,2.969807501175663056e+00,-7.447850786012079061e-01,1.280378416000589326e-01,6.549041897958932656e-01,3.009285302793176129e+02
2.199259665343823222e+00,-1.109400358747531001e+01,2.991913580250641136e+00,-8.861369099558183970e-01,1.365545020228410844e-01,4.428456218511744868e-01,3.028028794724261843e+02
2.074518101716654517e+00,-1.074681720769483384e+01,3.005284677652702463e+00,-9.698704866678681258e-01,1.361921376684764873e-01,2.019924274062769864e-01,3.043951603683539702e+02
1.938086215015912828e+00,-1.038399716495985281e+01,3.013677763568992862e+00,-9.905413057461810444e-01,1.269743114102400428e-01,-5.199467140157759681e-02,3.059874412642817560e+02
1.790631252135524765e+00,-1.000555089246742568e+01,3.017503993132452766e+00,-9.468053228285482348e-01,1.095003844824215256e-01,-3.026009690390764062e-01,3.075797221602095419e+02
1.632819983939270303e+00,-9.611490611569196929e+00,3.017174553598855447e+00,-8.415063387502400571e-01,8.490654418058987685e-02,-5.335315928791454221e-01,3.091720030561373278e+02
1.465382661314629020e+00,-9.201937008868172896e+00,3.013079800286969423e+00,-6.814910863542437136e-01,5.479192654282327712e-02,-7.297710216274132522e-01,3.107642839520651137e+02
1.289175934855531835e+00,-8.777223551289980108e+00,3.005568392668556132e+00,-4.794766417577115969e-01,4.147431524759716270e-02,-8.765728898298599248e-01,3.123565648479928996e+02
1.093993941170268602e+00,-8.311062705797739980e+00,2.994328618284157084e+00,-2.474766956193917566e-01,2.556298295930613945e-02,-9.685555322379676424e-01,3.140456542926685870e+02
8.916162726937985061e-01,-7.829754546326946674e+00,2.980180457769831648e+00,-0.000000000000000000e+00,8.052988517099743740e-03,-9.999665741297896204e-01,3.157347437373442745e+02
6.830668418951524323e-01,-7.333814238588145074e+00,2.963492857864749919e+00,2.807677586758900445e-01,4.030024954681470095e-02,-9.589282327557921981e-01,3.174238331820199619e+02
4.693651640949054737e-01,-6.823764854699949645e+00,2.944634785407121313e+00,5.386375348858446488e-01,6.926082977431788357e-02,-8.396847881631795962e-01,3.191129226266956493e+02
2.515215234050409698e-01,-6.300244647489726901e+00,2.923885945426584865e+00,7.525789214883846778e-01,9.257286733496004894e-02,-6.519610656825988171e-01,3.208020120713713368e+02
3.053100053613762646e-02,-5.764114271768889353e+00,2.901347499944366692e+00,-8.452989841296686124e-02,4.501064590673757859e-01,-8.889639316536507296e-01,3.224911015160470242e+02
-1.794546646388033573e-01,-5.248865540631666882e+00,2.878474463622063606e+00,2.499997267779205227e-05,-7.954151306991456005e-01,-6.060633376397345229e-01,3.240799573945994325e+02
-3.907331798565167325e-01,-4.723591296160858377e+00,2.853940386193292156e+00,1.217558766212845506e-01,-4.271485671581283228e-01,-8.959450921131886236e-01,3.256688132731518408e+02
-6.024482122692419450e-01,-4.189167213009393542e+00,2.827755813778693117e+00,1.515244151296111508e-01,-2.901117617383285885e-01,-9.449198470343534995e-01,3.272576691517042491e+02
-8.137297337129056896e-01,-3.646475666972253116e+00,2.799992232985998530e+00,1.779497430786196599e-01,-1.466739980612461192e-01,-9.730460560680538329e-01,3.288465250302566574e+02
-1.023673734504549682e+00,-3.096406337733843550e+00,2.770842999233291692e+00,2.004488266897777871e-01,-0.000000000000000000e+00,-9.797031529380643144e-01,3.304353809088090657e+02
-1.231362555547007798e+00,-2.539856038030651852e+00,2.740562406695532083e+00,2.368395979439511800e-01,1.245188920588284705e-06,-9.715477367793172725e-01,3.320242367873614739e+02
-1.435993030286479621e+00,-1.977768140430369970e+00,2.709386803817880551e+00,2.729009673978196049e-01,2.488645862103078309e-06,-9.620410916297020831e-01,3.336130926659138822e+02
-1.636984714638860083e+00,-1.411171263752726279e+00,2.677516637950652978e+00,3.085827826832957532e-01,3.728641482951915205e-06,-9.511964393407507101e-01,3.352019485444662905e+02
-1.833872685149168236e+00,-8.411378180383305425e-01,2.645134408465177778e+00,3.438354192833718015e-01,4.963451256247308417e-06,-9.390288623991270844e-01,3.367908044230186988e+02
-2.026199935175110767e+00,-2.687436225954802360e-01,2.612422620219827518e+00,3.786098495178046308e-01,6.191357867191642342e-06,-9.255552829554514194e-01,3.383796603015711071e+02
-2.205368490548248683e+00,2.798106685352291789e-01,2.581027553093557358e+00,4.128577106997986523e-01,7.410653600437801127e-06,-9.107944392988438498e-01,3.398989494162532310e+02
-2.379446271032352289e+00,8.285713792138679201e-01,2.549766301584369010e+00,4.465313723691502479e-01,8.619642714119186180e-06,-8.947668598090720016e-01,3.414182385309353549e+02
-2.548051086684888666e+00,1.376546404007857216e+00,2.518912909228437247e+00,4.795840025087302338e-01,9.816643797261033225e-06,-8.774948344223603147e-01,3.429375276456174788e+02
-2.710807700192806813e+00,1.922740911565649302e+00,2.488741417302387848e+00,5.119696326525752239e-01,1.099999210730770842e-05,-8.590023836503311028e-01,3.444568167602996027e+02
-2.867347834120485217e+00,2.466157381853437691e+00,2.459525862923221062e+00,0.000000000000000000e+00,9.988447030631238954e-01,4.803393763096022034e-02,3.459761058749817266e+02
-3.017310178127830866e+00,3.005795643420921426e+00,2.431540277239177872e+00,-0.000000000000000000e+00,9.968731427251079635e-01,-7.900593205775242878e-02,3.474953949896638505e+02
-3.160340396132245822e+00,3.540652910683367072e+00,2.405058683647173901e+00,-0.000000000000000000e+00,9.978126035461040155e-01,-6.609090750477097931e-02,3.490146841043459744e+02
-3.296097012836855189e+00,4.069720949113018627e+00,2.380362713280240961e+00,-0.000000000000000000e+00,9.968731426564392262e-01,-7.900593205231017102e-02,3.505339732190280984e+02
-3.424287095023019312e+00,4.591979470075748360e+00,2.357783126067519497e+00,-0.000000000000000000e+00,9.988447030562466189e-01,4.803393763062949878e-02,3.520532623337102223e+02
-3.553665502979061586e+00,5.145070419773769999e+00,2.336226645063767648e+00,4.894745649099780382e-01,3.309397058303449601e-02,-8.713882254299828434e-01,3.536867832669289555e+02
-3.674312511431252037e+00,5.688564296406591225e+00,2.317890510119520631e+00,9.999988887667559793e-07,-4.977924468358698173e-01,-8.672950362318524453e-01,3.553203042001476888e+02
-3.786025241839924504e+00,6.221258421897400304e+00,2.303283430641154261e+00,2.561858103072653381e-01,-9.384093051550077558e-01,-2.318508283260981018e-01,3.569538251333664221e+02
-3.888654391524656084e+00,6.741954806667925126e+00,2.292847638439395208e+00,4.617222626489881909e-01,-8.579912053894174218e-01,-2.250814156016571199e-01,3.585873460665851553e+02
-3.982148797513348271e+00,7.249467038515855499e+00,2.286892434131462704e+00,6.447459415861063192e-01,-7.357389884785880962e-01,-2.073374342500689804e-01,3.602208669998038886e+02
-4.066510718126512103e+00,7.742614640380928392e+00,2.285660635070884794e+00,7.963329380844430538e-01,-5.776134747042886985e-01,-1.794840537837655292e-01,3.618543879330226218e+02
-4.141751177816487051e+00,8.220216969918565653e+00,2.289395023779518645e+00,9.090921548980536171e-01,-3.913245996840415963e-01,-1.428793602516913730e-01,3.634879088662413551e+02
-4.229382305573790468e+00,8.833482296224811847e+00,2.301321655251629572e+00,9.775256787541368730e-01,-1.859554825688822799e-01,-9.930813602111990268e-02,3.656618007839354050e+02
-4.304196285685611301e+00,9.422691941341309274e+00,2.320488719068648287e+00,9.982968393269883167e-01,2.848045504666906966e-02,-5.089483540926319216e-02,3.678356927016294549e+02
-4.348390170621052597e+00,9.821066442257697204e+00,2.339210954167950440e+00,9.703928888894778337e-01,2.415277234481023327e-01,0.000000000000000000e+00,3.693721637586841666e+02
-4.384244266937404433e+00,1.020067029376789769e+01,2.363018743850902048e+00,9.965477758079671622e-01,8.300921954803046343e-02,0.000000000000000000e+00,3.709086348157388784e+02
-4.411740657224713758e+00,1.056109345424982138e+01,2.391685683505741178e+00,9.969795307158221265e-01,-7.765188556165565636e-02,0.000000000000000000e+00,3.724451058727935902e+02
-4.431527653673863476e+00,1.091487625262130834e+01,2.426167198955471616e+00,9.918528315965160491e-01,-3.914307165352789303e-02,-1.212179045828460228e-01,3.740395342029160020e+02
-4.442504616657378946e+00,1.124816116448362102e+01,2.465006231615222809e+00,9.706551006259609427e-01,-0.000000000000000000e+00,-2.404717771875165555e-01,3.756339625330384138e+02
-4.444808300094643450e+00,1.159412246202834851e+01,2.512231386286907675e+00,9.955207353996179398e-01,9.453287991579502336e-02,0.000000000000000000e+00,3.773981333598889591e+02
-4.437186622027277316e+00,1.191723508461853953e+01,2.563037564153054504e+00,9.988611377112049938e-01,0.000000000000000000e+00,4.769095882973330841e-02,3.791623041867395045e+02
-4.419644659663340747e+00,1.221752285809544425e+01,2.616698930217700614e+00,9.546769266706609525e-01,-0.000000000000000000e+00,-2.976406653669427804e-01,3.809264750135900499e+02
-4.392228816207761177e+00,1.249514985191873961e+01,2.672410618361998225e+00,9.996731843125229444e-01,-0.000000000000000000e+00,-2.552497917278747502e-02,3.826906458404405953e+02
-4.359433654954840698e+00,1.272035397067173967e+01,2.722660461319192038e+00,9.978431604298453328e-01,-0.000000000000000000e+00,-6.562794478163910816e-02,3.842474504765693837e+02
-4.318108991290474208e+00,1.292602644259982192e+01,2.773332216000227390e+00,5.764363129603915503e-01,-1.163998612660006133e-03,-8.171400260718297837e-01,3.858042551126981721e+02
-4.267639463001962952e+00,1.311463401328414591e+01,2.824376732530645029e+00,8.300563437188035465e-01,-5.470705674605352842e-01,1.082509144117864280e-01,3.873785761281259283e+02
-4.208399446681732492e+00,1.328429898646158591e+01,2.874610650296250292e+00,6.907849783365456187e-01,-6.593357951168591358e-01,2.968003082571101237e-01,3.889528971435536846e+02
-4.140298354194378305e+00,1.343545907101669812e+01,2.923419089722066655e+00,5.048504550707269001e-01,-7.270622152181295261e-01,4.653004977604566772e-01,3.905272181589814409e+02
-4.063208521485445424e+00,1.356860727826420110e+01,2.970230846712965445e+00,5.933558759501496027e-01,-7.676785839943131018e-01,2.420669249445529525e-01,3.921015391744091971e+02
-3.976948249282251435e+00,1.368433020067907790e+01,3.014571709863720361e+00,6.466656604620717452e-01,-7.627591360928220876e-01,4.474805680991888850e-03,3.936758601898369534e+02
-3.881331811137721743e+00,1.378323381205381715e+01,3.056030445597376577e+00,6.616176487366802750e-01,-7.125956216716644587e-01,-2.333828760933236712e-01,3.952501812052647097e+02
-3.768312443882609664e+00,1.387207991539044549e+01,3.097049814349285501e+00,5.239554337625932368e-01,-8.514760798118004015e-01,2.138197689254779307e-02,3.969421508560849929e+02
-3.644821704574930710e+00,1.394412636298869579e+01,3.134075445566253393e+00,5.318795198762957810e-01,-8.466672357197554399e-01,1.602398553526690819e-02,3.986341205069052762e+02
-3.510698508148781816e+00,1.400002486672874724e+01,3.166705285516578705e+00,5.092565212065967017e-01,-8.602126134096650389e-01,-2.626890443586600565e-02,4.003260901577255595e+02
-3.376893264348189927e+00,1.403732223474060703e+01,3.192539695858408688e+00,4.853685439819921954e-01,-8.716212480449534450e-01,-6.849654349049455471e-02,4.018894274981638546e+02
-3.244707651319867825e+00,1.405891352697418029e+01,3.212203597320968829e+00,4.602749253574927590e-01,-8.808648009162322046e-01,-1.105540392511574627e-01,4.033279978224805404e+02
-3.119188319834352185e+00,1.406714624907624334e+01,3.225998178647153658e+00,4.340379972362541361e-01,-8.879203112666602671e-01,-1.523369219724706736e-01,4.046076431591168330e+02
-2.870111581288528058e+00,1.406223292929585611e+01,3.244959631861710658e+00,4.067229314848745947e-01,-8.927702534045821592e-01,-1.937414040443138363e-01,4.070017554401334792e+02
-2.754872062068493221e+00,1.405137226544277596e+01,3.250340085996259010e+00,3.783975780451911963e-01,-8.954025802372954645e-01,-2.346646378019707768e-01,4.080531984137069799e+02
-2.542852785048558939e+00,1.401729378256855618e+01,3.254658537295381127e+00,3.491322963934911372e-01,-8.958107531953514169e-01,-2.750049710012540394e-01,4.099016829047124020e+02
-2.322576738561834109e+00,1.396813928497323154e+01,3.253782729680042785e+00,3.189997807658709883e-01,-8.939937584730636155e-01,-3.146621993239161474e-01,4.117501673957178241e+02
-2.095355621836016979e+00,1.390401576884784163e+01,3.247635382635091439e+00,2.880748795839645493e-01,-8.899561095449107784e-01,-3.535378152860348400e-01,4.135986518867232462e+02
-1.862574396523219766e+00,1.382507243159136046e+01,3.236025366117957880e+00,2.564344095296705039e-01,-8.837078359516222781e-01,-3.915352529310014429e-01,4.154471363777286683e+02
-1.611429369440158466e+00,1.372582611824542553e+01,3.217462978231211856e+00,2.241569647308029600e-01,-8.752644583838606884e-01,-4.285601276992280773e-01,4.174078258605113092e+02
-1.357843397839112676e+00,1.361133337475285998e+01,3.192061691551128177e+00,1.913227215317357954e-01,-8.646469501254627765e-01,-4.645204708786800918e-01,4.193685153432939501e+02
-1.136112774994408881e+00,1.349852106625282566e+01,3.163782123448838579e+00,1.580132393340691055e-01,-8.518816849521019252e-01,-4.993269580538156061e-01,4.210780970384075204e+02
-9.151779861540194627e-01,1.337293222740812837e+01,3.130281883039141899e+00,1.243112580021114300e-01,-8.370003716148838313e-01,-5.328931309854396670e-01,4.227876787335210906e+02
-6.964162139425482678e-01,1.323457870945227022e+01,3.093569687291814585e+00,9.030049233649214968e-02,-8.200399750717257685e-01,-5.651356123703140666e-01,4.244972604286346609e+02
-4.811294853231458668e-01,1.308355600920566175e+01,3.056004871247575583e+00,5.606542412649444945e-02,-8.010426246622865953e-01,-5.959743129470636003e-01,4.262068421237482312e+02
-2.728848443891842002e-01,1.292225484254399959e+01,3.020126705095739883e+00,2.169109229770560532e-02,-7.800555094546623991e-01,-6.253326304339541508e-01,4.278964229234440495e+02
-9.992447973457804777e-02,1.277550136862924468e+01,2.991854348734762858e+00,-1.273711832370003939e-02,-7.571307610239129682e-01,-6.531376398044158593e-01,4.293354488072124582e+02
1.139519026482723185e-01,1.257865519336268534e+01,2.959693420406017683e+00,-4.713368910530568723e-02,-7.323253239537220738e-01,-6.793202744277255789e-01,4.311642364071363431e+02
3.216871376332463561e-01,1.237334368601700341e+01,2.931986439153690949e+00,-8.141318003456350649e-02,-7.057008143829669455e-01,-7.038154976249617611e-01,4.329930240070602281e+02
5.231823735493739136e-01,1.216164704519123241e+01,2.909261095191501667e+00,-1.154904419490056372e-01,-6.773233669486748987e-01,-7.265624642141684797e-01,4.348218116069841130e+02
7.183823540916903783e-01,1.194562571346020263e+01,2.891650428876134882e+00,-1.492808280433792489e-01,-6.472634705056561355e-01,-7.475046716435435057e-01,4.366505992069079980e+02
9.376837634140904321e-01,1.169208863461347647e+01,2.877057069229894459e+00,-1.827004041283506741e-01,-6.155957930309672310e-01,-7.665901003373380984e-01,4.387747795449688510e+02
1.149520820883699779e+00,1.143841861745853805e+01,2.868046444229378267e+00,-2.156661571185290727e-01,-5.823989961482133326e-01,-7.837713429059585124e-01,4.408989598830297041e+02
1.343070436127528744e+00,1.120063524246511832e+01,2.864182127491681218e+00,-2.480962012319753718e-01,-5.477555397324662678e-01,-7.990057218994226496e-01,4.429084787836207511e+02
1.530087130434191423e+00,1.096709552401215149e+01,2.864086264609206456e+00,-2.799099813890584265e-01,-5.117514770812018332e-01,-8.122553958117931794e-01,4.449179976842117981e+02
1.668467113439189298e+00,1.079312233758268214e+01,2.866110828843832170e+00,-3.110284733054847761e-01,-4.744762411600680907e-01,-8.234874530733816700e-01,4.464545876710864150e+02
1.802605775916858333e+00,1.062481612069284687e+01,2.869447622900996198e+00,-3.413743797825524173e-01,-4.360224224544628213e-01,-8.326739937973656192e-01,4.479911776579610319e+02
1.932793501886540977e+00,1.046296437329652740e+01,2.873308720509703207e+00,-3.708723227071293316e-01,-3.964855389787149686e-01,-8.397921990778624002e-01,4.495277676448356488e+02
2.061184963662407998e+00,1.030602601751396108e+01,2.876927829885495225e+00,-3.994490302845227769e-01,-3.559637990141428232e-01,-8.448243876674282893e-01,4.510868644251565343e+02
2.186166697549595472e+00,1.015704954430061946e+01,2.879420797924765019e+00,-4.270335190392458014e-01,-3.145578571652946631e-01,-8.477580598932820122e-01,4.526459612054774198e+02
2.336096871410302533e+00,9.984114950434427982e+00,2.880044579876104294e+00,-4.535572701316924471e-01,-2.723705643402635768e-01,-8.485859287032448961e-01,4.545652864476153354e+02
2.482348219828916847e+00,9.822212170704322176e+00,2.877120888246364583e+00,-4.789543995528441345e-01,-2.295067122760480471e-01,-8.473059377643447077e-01,4.564846116897532511e+02
2.602697512168814065e+00,9.695582149838768871e+00,2.870829197436455260e+00,-4.789543992147724527e-01,-2.295067121140499100e-01,-8.473059371662707839e-01,4.581012057756331615e+02
2.720431967784655569e+00,9.579030379902485848e+00,2.859982528516285871e+00,-4.789543992146525486e-01,-2.295067121139924560e-01,-8.473059371660587313e-01,4.597177998615130718e+02
2.835721465414059228e+00,9.472841099692914213e+00,2.843886612832555727e+00,-5.167709514224070322e-01,-2.235048773150101198e-01,-8.264329093057652953e-01,4.613343939473929822e+02
2.948708678558791263e+00,9.377243001545245704e+00,2.821930277157849609e+00,-5.536047076382605292e-01,-2.170779806637221920e-01,-8.039881703065842045e-01,4.629509880332728926e+02
3.059448311065715131e+00,9.292375599777905393e+00,2.793822281679197772e+00,-5.893856180387365695e-01,-2.102382449525897756e-01,-7.800144060269398327e-01,4.645675821191528030e+02
3.167904826933126916e+00,9.218364865872008096e+00,2.759662040855888954e+00,-6.240456347316790664e-01,-2.029986779366495242e-01,-7.545572095802307588e-01,4.661841762050327134e+02
3.276664956467710610e+00,9.153776508620325103e+00,2.718704183387941953e+00,-6.575188415011566923e-01,-1.953730477588000725e-01,-7.276649952289793166e-01,4.678412304909839463e+02
3.382944096675862600e+00,9.100611839629637601e+00,2.672068038026040870e+00,-6.897415791609786684e-01,-1.873758567671834074e-01,-6.993889063163870601e-01,4.694982847769351793e+02
3.486675611490807736e+00,9.059026695290761211e+00,2.620019765172557857e+00,-7.206525666166526678e-01,-1.790223139364481020e-01,-6.697827180084481302e-01,4.711553390628864122e+02
3.587793988522349320e+00,9.029177608701907332e+00,2.562825566412130218e+00,-7.501930174056385958e-01,-1.703283059453102044e-01,-6.389027350314719911e-01,4.728123933488376451e+02
3.686196035335964627e+00,9.011168632744016804e+00,2.500838072220866515e+00,-7.783067514943380338e-01,-1.613103669653825900e-01,-6.068076845993685131e-01,4.744694476347888781e+02
3.781701522191638354e+00,9.004998567865955650e+00,2.434582729017491953e+00,-8.049403021192583774e-01,-1.519856472186899565e-01,-5.735586047341976190e-01,4.761265019207401110e+02
3.868594979336524631e+00,9.010291536939137202e+00,2.368823671734861858e+00,-8.300430174692056129e-01,-1.423718803636289387e-01,-5.392187281922296016e-01,4.776849414182245255e+02
3.952361275871812740e+00,9.026644855338011197e+00,2.300167946378728345e+00,-8.535671570151383003e-01,-1.324873497713579817e-01,-5.038533622161252001e-01,4.792433809157089399e+02
4.032805587993039786e+00,9.054015146473659570e+00,2.229156791286344141e+00,-8.754679823044878573e-01,-1.223508537567142701e-01,-4.675297643417770654e-01,4.808018204131933544e+02
4.109693660637455892e+00,9.092310631489535666e+00,2.156349709270250159e+00,-8.957038420472500651e-01,-1.119816698297394636e-01,-4.303170144958561871e-01,4.823602599106777689e+02
4.183418999930037074e+00,9.141814059487844091e+00,2.081628019341562386e+00,-9.142362513319904904e-01,-1.013995180357654402e-01,-3.922858836271730376e-01,4.839337802713719157e+02
4.252878732904704862e+00,9.201912276970068305e+00,2.006320949519931229e+00,-9.310299648210550449e-01,-9.062452345374126528e-02,-3.535086991215509733e-01,4.855073006320660625e+02
4.317710215376763472e+00,9.272366286033284055e+00,1.931054721067517077e+00,-9.460530437857045394e-01,-7.967717792408854360e-02,-3.140592072560427495e-01,4.870808209927602093e+02
4.377542802854001103e+00,9.352893725932249325e+00,1.856425751104652466e+00,-9.592769168535956181e-01,-6.857830107884056725e-02,-2.740124329539594950e-01,4.886543413534543561e+02
4.441986446226569463e+00,9.459611804861040696e+00,1.769536650343549899e+00,-9.706764343529684647e-01,-5.734900074815042770e-02,-2.334445371073269049e-01,4.905162175005103791e+02
