-1.331995386352777588e+00,7.469050742546197164e+00,-2.968562035423053302e+00,-1.591976754526427118e-01,-9.754322130296800841e-01,-1.522698194453759313e-01,6.587222736897103914e+00
-8.875115363389606271e-01,7.469785080350422213e+00,-2.980666994522033431e+00,-2.721039044156067788e-01,-9.575777462931834849e-01,-9.488058286628606175e-02,8.234028421121379893e+00
-4.850405195861474672e-01,7.456644953439131029e+00,-2.988233821489354902e+00,-3.805584948067861628e-01,-9.240571492840388146e-01,-3.593907186384748959e-02,9.741130347787926524e+00
-8.733215666881564976e-02,7.428282759864688778e+00,-2.992960110467586698e+00,-4.827871051144854708e-01,-8.754188159017581849e-01,2.359041964765482002e-02,1.124823227445447316e+01
3.048055120266228157e-01,7.382305021586907934e+00,-2.995183144990675395e+00,-5.771172499066655748e-01,-8.124584721583520963e-01,8.273397655724931687e-02,1.275533420112101979e+01
6.905403290237095426e-01,7.316322660463930205e+00,-2.995240224329062784e+00,-6.620056634441863208e-01,-7.362061586060539842e-01,1.405239965164974403e-01,1.426243612778756642e+01
1.069016030138099982e+00,7.227951114298464041e+00,-2.993468661365258576e+00,-7.360635492939060498e-01,-6.479093787118825887e-01,1.960150207934729105e-01,1.576953805445411305e+01
1.439352255092822164e+00,7.114810452841981991e+00,-2.990205780469344266e+00,-7.980793026272448021e-01,-5.490126888756550194e-01,2.482992029190173033e-01,1.727663998112065968e+01
1.840295476003488195e+00,6.954860244226501287e+00,-2.985171241467560854e+00,-8.470383332623878658e-01,-4.411340640952303160e-01,2.965211619390850650e-01,1.895443413027010493e+01
2.227392421797744770e+00,6.754001171933000869e+00,-2.979064013750179374e+00,-8.821396649952774061e-01,-3.260384261119962379e-01,3.398919771624576702e-01,2.063222827941955018e+01
2.599602419647927487e+00,6.508988051387514240e+00,-2.972631824613466200e+00,-9.028090395810580704e-01,-2.056087673451338083e-01,3.777020953618375754e-01,2.231002242856899542e+01
2.956353285073131332e+00,6.218261000775839875e+00,-2.966988501552253688e+00,-9.087083109984884777e-01,-8.181534327698757048e-02,4.093329392147153079e-01,2.398781657771844067e+01
3.296781617670794251e+00,5.882462878165082287e+00,-2.963291329750538772e+00,-8.997409764055288584e-01,4.331656246298874746e-02,4.342670270615481831e-01,2.566561072686788592e+01
3.587931040271516103e+00,5.545935164364897751e+00,-2.962344323314820560e+00,-8.760537534682409921e-01,1.677397727661620042e-01,4.520964384580597462e-01,2.717037033555352465e+01
3.865548835206035427e+00,5.178915752642009984e+00,-2.964256651117167518e+00,-8.380341784720205522e-01,2.894187092701815955e-01,4.625294871002554875e-01,2.867512994423916339e+01
4.128599029895593908e+00,4.782813798859636201e+00,-2.969657317494495352e+00,-7.863042647385116712e-01,4.063626941886515631e-01,4.653954920560259279e-01,3.017988955292480213e+01
4.405800364124007551e+00,4.299351787967272465e+00,-2.981018392322664745e+00,-7.217103253060612733e-01,5.166585169996082971e-01,4.606475693616787770e-01,3.188581978371834680e+01
4.656725416119229521e+00,3.781188924879254287e+00,-2.998950724653260291e+00,-5.272142253730137673e-01,8.495957517032641793e-01,1.517297770659927804e-02,3.359175001451188791e+01
4.878414356932236906e+00,3.232650273963484366e+00,-3.024198201264700625e+00,-6.856441043758847442e-01,7.278205888391254819e-01,1.293648321970494557e-02,3.529768024530542903e+01
5.067352554081235638e+00,2.658239085659150014e+00,-3.057381983830201655e+00,-8.166932672378155456e-01,5.769804208421334124e-01,1.018337934160741878e-02,3.700361047609897014e+01
5.222422927011596272e+00,2.042877981236779217e+00,-3.100516380030489128e+00,-9.151283688151565787e-01,4.030989177726975181e-01,7.023608868600583581e-03,3.876497308659306640e+01
5.330457227395795528e+00,1.410121964829038399e+00,-3.153087700987851072e+00,-9.770184613852409550e-01,2.131198857077700737e-01,3.583354484303811864e-03,4.052633569708716266e+01
5.385591008307555327e+00,7.657327678807128724e-01,-3.215383427210263712e+00,-9.998919759349480518e-01,1.462998501632503667e-02,0.000000000000000000e+00,4.228769830758125892e+01
5.382759082209377155e+00,1.154815108778595167e-01,-3.287380409042226059e+00,-9.998919606002018012e-01,1.463098479091418103e-02,-0.000000000000000000e+00,4.404906091807535518e+01
5.318429964011172295e+00,-5.348859894310235008e-01,-3.368434320413392413e+00,-9.986771916293771811e-01,5.606302119080827304e-03,-5.109242888494943541e-02,4.581042352856945143e+01
5.250562543994711007e+00,-9.389643592976535391e-01,-3.422642343805181842e+00,-9.947726228045428165e-01,-3.433479874166002737e-03,-1.020472445880236667e-01,4.690964255100129066e+01
5.082939422480181157e+00,-1.615217413050182849e+00,-3.519850849134273041e+00,-9.881887697143983962e-01,-1.246401601465950762e-02,-1.527272199324519464e-01,4.877315272108899791e+01
4.837923445525658117e+00,-2.273362708352185013e+00,-3.622982732247763238e+00,-9.789433609053522778e-01,-2.146098598938219609e-02,-2.029958674759157755e-01,5.063666289117670516e+01
4.583217178889497312e+00,-2.798213710659843034e+00,-3.710077688696161946e+00,-9.997280783823800920e-01,1.144607448065188340e-02,-2.026713282898658097e-02,5.217061025651571526e+01
4.286580236954494083e+00,-3.305649628639622417e+00,-3.797024015326678548e+00,-9.856175606623843732e-01,4.395359969035295827e-02,1.631689467662819082e-01,5.370455762185472537e+01
3.949292272971268503e+00,-3.792583515589864174e+00,-3.882026053758622197e+00,-9.371043681428993244e-01,7.492692745287669875e-02,3.409096049554271035e-01,5.523850498719373547e+01
3.572662546859991739e+00,-4.255935536858019397e+00,-3.963288158256669025e+00,-8.558818592031592898e-01,1.032849488068686150e-01,5.067508879498183738e-01,5.677245235253274558e+01
2.862158381639690052e+00,-4.923678933306153915e+00,-4.076090759972893274e+00,-7.447850786012693014e-01,1.280378416000694519e-01,6.549041897959472225e-01,5.924054120297004289e+01
2.354619266434371028e+00,-5.290092633325967242e+00,-4.133278788949837690e+00,-6.200574967865772891e-01,6.401194805050879066e-02,7.819393654098425461e-01,6.078681339926504990e+01
1.815839521997745454e+00,-5.624100913092038745e+00,-4.180608355364764606e+00,-6.712518812307376459e-01,2.381798725189455124e-01,7.019182717893380774e-01,6.233308559556005690e+01
1.249516501293906456e+00,-5.924255287232407241e+00,-4.216799600198046782e+00,-6.960266023595524931e-01,4.029732585776916176e-01,5.942705795175969863e-01,6.387935779185506391e+01
6.596458653961064789e-01,-6.189298608498017273e+00,-4.240700234562469362e+00,-6.934065915919782608e-01,5.519060692898628551e-01,4.632331911890715248e-01,6.542562998815007802e+01
5.023501968380294364e-02,-6.417996086836025960e+00,-4.251158051010063943e+00,-6.634949939576905154e-01,6.791165338788519579e-01,3.139635749685511512e-01,6.697190218444508503e+01
-8.313808088587695266e-01,-6.660368477292244016e+00,-4.234925647392098647e+00,-6.074690999518655987e-01,7.795978449197072946e-01,1.523367742923392998e-01,6.913434444845205462e+01
-1.739832831050770912e+00,-6.797441774501788103e+00,-4.175807978689132227e+00,-0.000000000000000000e+00,4.167097442644203398e-02,9.991303868317403802e-01,7.129678671245902422e+01
-2.571646018126269251e+00,-6.832328267433939395e+00,-4.087598567485654755e+00,-4.499992964596048837e-04,3.515004504552168840e-01,9.361865363420546204e-01,7.325162535241493345e+01
-3.401171631955014263e+00,-6.786227110880954427e+00,-3.971033425924508364e+00,2.451053988519273918e-01,2.937175330450392252e-01,9.239325485321646658e-01,7.520646399237084267e+01
-4.122524734566384019e+00,-6.682615084075576029e+00,-3.848588202136165481e+00,4.750263206007765970e-01,2.171993842881760339e-01,8.527440543345117252e-01,7.693082100185546324e+01
-4.826341882219089996e+00,-6.525977126451560473e+00,-3.711774889566686220e+00,6.746469744001066804e-01,1.268268071975938993e-01,7.271618945668033573e-01,7.865517801134008380e+01
-5.504985253613947194e+00,-6.319530804343124863e+00,-3.563516841816652736e+00,7.471428863218195771e-01,4.964028389946702202e-02,6.628056650593480148e-01,8.037953502082470436e+01
-6.175611478526756848e+00,-6.055245876948597505e+00,-3.400608239681671918e+00,8.081662910073870165e-01,-2.830847447880741746e-02,5.882719408179325482e-01,8.217271578294187862e+01
-6.802076086741151606e+00,-5.744138618945074271e+00,-3.232539246021545853e+00,8.567801663128989942e-01,-1.058225563168209565e-01,5.047051943352378611e-01,8.396589654505905287e+01
-7.376503531345387721e+00,-5.391056391596587893e+00,-3.063339945811050402e+00,8.922380370157824148e-01,-1.817117237401516538e-01,4.133886001802777321e-01,8.575907730717622712e+01
-7.891073119952983106e+00,-5.000897570358282529e+00,-2.897040434038826717e+00,9.139954369927520972e-01,-2.548106880556750276e-01,3.157243329397096399e-01,8.755225806929340138e+01
-8.338019159110395151e+00,-4.578611231518996405e+00,-2.737830095868811320e+00,9.217182700583325117e-01,-3.239970023211458661e-01,2.132120379541294630e-01,8.934543883141057563e+01
-8.724697438198008470e+00,-4.108867434570217192e+00,-2.583956771888007875e+00,9.152879410201641974e-01,-3.882082963974073375e-01,1.074258052425088317e-01,9.121560967976374457e+01
-9.028077075044963706e+00,-3.614355612574667642e+00,-2.446295247077067803e+00,8.948031780340768293e-01,-4.464585898832771349e-01,-9.999990814011525472e-06,9.308578052811691350e+01
-9.251216786483567489e+00,-3.101064459522361538e+00,-2.327694580155280857e+00,9.691397582806691169e-01,-2.301467414719018389e-01,-8.830971808899132358e-02,9.495595137647008244e+01
-9.399068041962348019e+00,-2.575091944627967422e+00,-2.230591401973319954e+00,9.852177632728058576e-01,-0.000000000000000000e+00,-1.713007849690220130e-01,9.682612222482325137e+01
-9.471421381894117530e+00,-2.146120503860280859e+00,-2.167877379868488052e+00,9.863095190599172613e-01,-7.600500822147297775e-02,-1.463378670685639427e-01,9.833373973987664840e+01
-9.509694031239909862e+00,-1.716228602102603418e+00,-2.118534537998856049e+00,9.810877962790985896e-01,-1.515234962632968641e-01,-1.204382251344312538e-01,9.984135725493004543e+01
-9.516446219425276354e+00,-1.287878181110686526e+00,-2.083161404891680224e+00,9.695860202968120678e-01,-2.260720636589862720e-01,-9.376764516148687612e-02,1.013489747699834425e+02
-9.494266484161487440e+00,-8.633220331693453042e-01,-2.061669910524671856e+00,9.518778151841050805e-01,-2.991735185161292221e-01,-6.649684789652213213e-02,1.028565922850368395e+02
-9.438048617713263866e+00,-4.029224098841708290e-01,-2.054356802070464560e+00,9.280765324539319572e-01,-3.703599319213058960e-01,-3.880039608884684049e-02,1.045178692362587043e+02
-9.350673565824887845e+00,4.641886731290392060e-02,-2.064404435906932456e+00,8.983345255365923210e-01,-4.391756330612130443e-01,-1.085557715121686709e-02,1.061791461874805691e+02
-9.236056678818719945e+00,4.815917913742508993e-01,-2.091176488529742361e+00,8.628421746353160948e-01,-5.051801258964653263e-01,1.715873161989795934e-02,1.078404231387024339e+02
-9.097637199326781499e+00,8.998173129062810860e-01,-2.133313104124265891e+00,8.218266681989240263e-01,-5.679509087256513489e-01,4.506320800422924933e-02,1.095017000899242987e+02
-8.937864825606842700e+00,1.298950603042329455e+00,-2.188007500680156259e+00,7.755505488046160467e-01,-6.270861785973430580e-01,7.267923267198866943e-02,1.111629770411461635e+02
-8.758701742110222455e+00,1.677167794234454501e+00,-2.251729395762138708e+00,7.243100327505929137e-01,-6.822074032630326412e-01,9.983003250805402851e-02,1.128242539923680283e+02
-8.581748241598960547e+00,2.001332762056683645e+00,-2.314236776730609346e+00,6.684331141058037495e-01,-7.329617442097775548e-01,1.263418121298217067e-01,1.143302178281148826e+02
-8.393072783809099491e+00,2.307293342948102843e+00,-2.378454461898310335e+00,6.082774653434431800e-01,-7.790243152623896883e-01,1.520448663573955306e-01,1.158361816638617370e+02
-8.194037215376258843e+00,2.593840476616908752e+00,-2.441998368255478002e+00,5.694538240093183212e-01,-7.293025965028773205e-01,3.792598911777374515e-01,1.173421454996085913e+02
-7.986371327859758118e+00,2.860152521623736011e+00,-2.502313995025265747e+00,4.989649685196977935e-01,-6.390270664793963329e-01,5.853856579194510745e-01,1.188481093353554456e+02
-7.772524123822721620e+00,3.106177942933735725e+00,-2.556506017746951631e+00,4.007305300104290202e-01,-5.132176219660787853e-01,7.589602854049946057e-01,1.203540731711023000e+02
-7.555299875090338624e+00,3.332259220105217246e+00,-2.601508728464104525e+00,2.802129632977687357e-01,-3.588700621606470964e-01,8.903319457852350016e-01,1.218600370068491543e+02
-7.281025694764133860e+00,3.585990719427488926e+00,-2.637283140536163195e+00,1.441137993019188379e-01,-1.845670773107373763e-01,9.721955599696805450e-01,1.237621414765324772e+02
-7.012485422773799826e+00,3.802145782826068299e+00,-2.641138381716489736e+00,9.999989999989881463e-07,-9.999989999989881463e-07,9.999989999989882250e-01,1.256642459462158001e+02
-6.755237072710165158e+00,3.983537369424974717e+00,-2.606987053701972812e+00,8.546902225259143115e-01,5.189015279781137302e-01,1.561498579573454386e-02,1.275663504158991230e+02
-6.513015641263695699e+00,4.134322712298948765e+00,-2.528586949024453023e+00,9.480767136406852424e-01,3.156526256749163650e-01,-3.888399358887917323e-02,1.294794431795102696e+02
-6.290932073028063343e+00,4.256829266813031865e+00,-2.400968119115606036e+00,9.912138162169631395e-01,9.567366035949337322e-02,-9.132207430011776705e-02,1.313925359431214019e+02
-6.125111141592090469e+00,4.338561643961753589e+00,-2.263509562478458026e+00,9.818151803317659576e-01,-1.293761786085003973e-01,-1.389199628529726727e-01,1.329355150966478618e+02
-5.967619472187305263e+00,4.407778666816376756e+00,-2.098414472925024032e+00,9.203789252031139290e-01,-3.475689227107123247e-01,-1.791548994805190198e-01,1.344784942501743217e+02
-5.791839832210968098e+00,4.471722309254374750e+00,-1.869079105466372903e+00,8.101612482030170481e-01,-5.473400272127806332e-01,-2.098943699125667695e-01,1.362741049894825949e+02
-5.620158222900093037e+00,4.516455734435042224e+00,-1.598678807159532811e+00,6.570038469529267955e-01,-7.181013176383330698e-01,-2.295091342306882498e-01,1.380697157287908681e+02
-5.448308642146874270e+00,4.541273749620119204e+00,-1.290311443413387327e+00,4.690242989945510033e-01,-8.508021885027508002e-01,-2.369595809243950357e-01,1.398653264680991413e+02
-5.299304646319069612e+00,4.546966220331525754e+00,-1.000727551623880718e+00,2.561858103073434978e-01,-9.384093051552941933e-01,-2.318508283261688507e-01,1.414041005170149106e+02
-5.148023824981117436e+00,4.538605751438795188e+00,-6.927946355315832694e-01,2.408126963121948461e-01,-9.252496651945995021e-01,-2.931216511144809078e-01,1.429428745659306799e+02
-4.993757359391540085e+00,4.515460139804942763e+00,-3.692668368843766147e-01,2.244369296859178853e-01,-9.082376300611751940e-01,-3.531720146530732962e-01,1.444816486148464492e+02
-4.835803788001867609e+00,4.476793114690744702e+00,-3.289839981494909610e-02,2.071266932942092964e-01,-8.874440330348285499e-01,-4.117518927170945586e-01,1.460204226637622185e+02
-4.673483627316361577e+00,4.421903374580006485e+00,3.135084972272897952e-01,1.889540606552957414e-01,-8.629554521340160322e-01,-4.686173818739488572e-01,1.475591967126779878e+02
-4.506153462527757725e+00,4.350163732692235996e+00,6.670559098588849656e-01,1.699946958516306283e-01,-8.348738495963621276e-01,-5.235317169407293081e-01,1.490979707615937571e+02
-4.313393691683580222e+00,4.248933862370468439e+00,1.064305346752607351e+00,1.503275384970668982e-01,-8.033161473180969736e-01,-5.762662567146817905e-01,1.508056497649079972e+02
-4.112702343760357593e+00,4.122930850225451138e+00,1.462909029798274974e+00,1.300344750709278852e-01,-7.684137400208467250e-01,-6.266014358751472724e-01,1.525133287682222374e+02
-3.906395693390224189e+00,3.970772498679664864e+00,1.858965264725711997e+00,1.091999979870566240e-01,-7.303119481732659457e-01,-6.743276790964708445e-01,1.542210077715364775e+02
-3.699549849197483642e+00,3.790706660400401162e+00,2.249260557178213382e+00,8.791085381681273958e-02,-6.891694129452955453e-01,-7.192462735687237263e-01,1.559286867748507177e+02
-3.501615119719792446e+00,3.585070723943437621e+00,2.624391423836647252e+00,6.625568212999582984e-02,-6.451574357136514726e-01,-7.611701962961602286e-01,1.576064998735415656e+02
-3.314661667568443715e+00,3.349497848098078823e+00,2.988579372938408696e+00,4.432464645660705305e-02,-5.984592648675032267e-01,-7.999248927314261959e-01,1.592843129722324136e+02
-3.143932740235692691e+00,3.082660239652496692e+00,3.339204578514508803e+00,2.220905890507090044e-02,-5.492693328822478849e-01,-8.353490035058631635e-01,1.609621260709232615e+02
-2.993736640049633912e+00,2.783924253948323102e+00,3.673837946503056617e+00,9.999988887668967986e-07,-4.977924468359398724e-01,-8.672950362319745699e-01,1.626399391696141095e+02
-2.863077718536041427e+00,2.440758175170263389e+00,4.001060665802821603e+00,0.000000000000000000e+00,9.988447030629378220e-01,4.803393763095126917e-02,1.643777764761805429e+02
-2.758510660990448837e+00,2.064737198937235618e+00,4.306662451903842559e+00,3.476438112528193458e-01,7.329231412926796585e-01,-5.847781198509935940e-01,1.661156137827469763e+02
-2.679067036946859215e+00,1.658737705944677732e+00,4.589385435310599171e+00,4.894745649099780382e-01,3.309397058303449601e-02,-8.713882254299828434e-01,1.678534510893134097e+02
-2.623634424436550372e+00,1.225945944893366057e+00,4.848084795253393864e+00,0.000000000000000000e+00,9.978126036217043193e-01,-6.609090750977844597e-02,1.695912883958798432e+02
-2.590839295266108788e+00,7.701732884180557681e-01,5.081841626475696927e+00,-0.000000000000000000e+00,9.968731426564392262e-01,-7.900593205231017102e-02,1.713291257024462766e+02
-2.578911867962569548e+00,3.144609182812587167e-01,5.282769279296038789e+00,-0.000000000000000000e+00,9.968731420280737554e-01,-7.900593200250984049e-02,1.729997892893018445e+02
-2.584462746422435231e+00,-1.545036328287186234e-01,5.460131468153817558e+00,1.466117055273721537e-05,8.865372112924352344e-01,-4.626551337414309129e-01,1.746704528761574124e+02
-2.606108772354450043e+00,-6.332192492913258919e-01,5.613240237226949425e+00,2.698593504396311501e-05,6.349213832685433045e-01,-7.725754567273102058e-01,1.763411164630129804e+02
-2.642428872183480770e+00,-1.118193455858893959e+00,5.741407818321140333e+00,3.501018573176461563e-05,2.821232798859937274e-01,-9.593771175703994514e-01,1.780117800498685483e+02
-2.691964080566329187e+00,-1.605942619565831286e+00,5.843946636190583632e+00,3.745515451550963980e-05,-1.156343574850347000e-01,-9.932908405718491318e-01,1.796824436367241162e+02
-2.756106189506213333e+00,-2.112558874727797686e+00,5.922100942368161647e+00,3.393121709900379042e-05,-4.949639338762473750e-01,-8.689123678539394380e-01,1.814207000302306767e+02
-2.831885316427752652e+00,-2.614508446200316527e+00,5.969822700433547347e+00,2.499997267777999052e-05,-7.954151306987617964e-01,-6.060633376394419791e-01,1.831589564237372372e+02
-2.918429619128060537e+00,-3.108255946686954374e+00,5.986345617120440998e+00,5.772616529653712414e-02,-6.378149999818046867e-01,-7.680219499722915621e-01,1.848972128172437976e+02
-3.011899587776401432e+00,-3.575925744360372249e+00,5.972353813901202457e+00,1.122871430989938191e-01,-4.455190708781650577e-01,-8.882017535331525604e-01,1.865816617169487870e+02
-3.114758225878105247e+00,-4.030556835239484492e+00,5.928720413162646530e+00,1.607399398219624131e-01,-2.289878023307753974e-01,-9.600652363930128885e-01,1.882661106166537763e+02
-3.228285329553226113e+00,-4.470540539162881188e+00,5.855077996334944856e+00,2.004488266899933369e-01,-0.000000000000000000e+00,-9.797031529391179161e-01,1.899505595163587657e+02
-3.366942214451394744e+00,-4.930874604507748060e+00,5.738795156064746550e+00,0.000000000000000000e+00,8.052988517071386215e-03,-9.999665741262685481e-01,1.917852667561002704e+02
-3.524263618369187334e+00,-5.369163305116905427e+00,5.583013283241925251e+00,-8.452989841288123529e-02,4.501064590669198728e-01,-8.889639316527502277e-01,1.936199739958417751e+02
-3.702600018672597137e+00,-5.783856057422841701e+00,5.387509940703462341e+00,2.084966276596523713e-02,1.285839353626575324e-02,-9.996989313184814208e-01,1.954546812355832799e+02
-3.901773939994696239e+00,-6.173799836785784478e+00,5.152635600908947566e+00,1.217558766213923671e-01,-4.271485671585065758e-01,-8.959450921139819890e-01,1.972893884753247846e+02
-4.138488746450251554e+00,-6.569432809096330317e+00,4.850103192929648088e+00,3.698982379086732664e-01,-2.721274050884779361e-01,-8.883242476668695708e-01,1.992943888671479442e+02
-4.387285788881994719e+00,-6.931232825207751524e+00,4.499384826111837654e+00,5.863533815208138433e-01,-9.379468871456028700e-02,-8.046056601524752550e-01,2.012993892589711038e+02
-4.637797627343791085e+00,-7.258723677134200969e+00,4.103170764953806504e+00,7.525789214884025524e-01,9.257286733496225550e-02,-6.519610656826143602e-01,2.033043896507942634e+02
-4.859095988089017659e+00,-7.530154159206769116e+00,3.704569930798934152e+00,7.832303412777787965e-01,7.126140695835685157e-02,-6.176326127856507364e-01,2.051442253461085556e+02
-5.062023344036765238e+00,-7.775118428177482777e+00,3.277895268565412135e+00,8.118671795231259258e-01,4.976665790402647060e-02,-5.817155340633572980e-01,2.069840610414228479e+02
-5.236906178051689231e+00,-7.993816154611292468e+00,2.827393160705330200e+00,8.384157839488102226e-01,2.814390426676509349e-02,-5.443022082212463086e-01,2.088238967367371401e+02
-5.359813188422464236e+00,-8.161728697296428692e+00,2.427362642227773204e+00,8.628078722419457725e-01,6.448759261190866766e-03,-5.054888614970366456e-01,2.103996389417758337e+02
-5.454633407583284743e+00,-8.313325969170795915e+00,2.018881539027430172e+00,8.849807075402095213e-01,-1.526297770936156650e-02,-4.653753203480212597e-01,2.119753811468145273e+02
-5.516562871362390652e+00,-8.448763991004588192e+00,1.605116263377345476e+00,9.477921629588134111e-01,-3.278410786887502731e-02,-3.171958670997829244e-01,2.135511233518532208e+02
-5.541662698475717796e+00,-8.568416785351859133e+00,1.189415663266858880e+00,9.857624804107966154e-01,-4.944597999686226736e-02,-1.607029162044775472e-01,2.151268655568919144e+02
-5.527726639884471993e+00,-8.673060205484178553e+00,7.754933987081294999e-01,9.978964962917117321e-01,-6.481190233636946463e-02,1.999996986248517972e-06,2.167026077619306079e+02
-5.444645174666697507e+00,-8.781913843357854077e+00,2.667488491908905912e-01,9.727361971522692219e-01,1.776938996456160769e-01,1.490206991676493176e-01,2.186786926985779189e+02
-5.278504595352186080e+00,-8.865483362657554878e+00,-2.211684046667685977e-01,8.681531199210641425e-01,4.056911936903003224e-01,2.858720268500311024e-01,2.206547776352252299e+02
-5.065764298989569703e+00,-8.921442059467992181e+00,-6.286086062143112496e-01,6.926863227971112869e-01,6.005642983262308165e-01,3.993822502157638454e-01,2.223994826581620430e+02
-4.797745807310619170e+00,-8.963144418972214922e+00,-1.009090748415039318e+00,4.606624106662593476e-01,7.464020451143851265e-01,4.802833855647918315e-01,2.241441876810988560e+02
-4.478540013150752230e+00,-8.989907003653849316e+00,-1.356980163228656666e+00,3.945158471438137138e-01,7.168725548395641356e-01,5.748469243815452767e-01,2.258888927040356691e+02
-4.113052945063024879e+00,-9.000857125610322029e+00,-1.667048081389230996e+00,3.227712547909927232e-01,6.771709017490963323e-01,6.612535723198923465e-01,2.276335977269724822e+02
-3.707846058032518766e+00,-8.996789781524991980e+00,-1.934520294172787036e+00,2.464466591675598395e-01,6.278604382736283629e-01,7.382772610861598750e-01,2.293783027499092952e+02
-3.333744623458962941e+00,-8.983178271762342959e+00,-2.130000222361025042e+00,1.666250719489444365e-01,5.696408583099646927e-01,8.048250604589254342e-01,2.308820833231763459e+02
-2.943045178457090127e+00,-8.962015702881343415e+00,-2.292784203964812750e+00,8.443912469623178485e-02,5.033382695900919801e-01,8.599526850863593586e-01,2.323858638964433965e+02
-2.539850347108542294e+00,-8.934139105916997892e+00,-2.420363248759624941e+00,1.054998706094199953e-03,4.298934727560758673e-01,9.028778926631518820e-01,2.338896444697104471e+02
-2.128406124790354959e+00,-8.900722365605302500e+00,-2.510458739688154584e+00,-1.096067013345032939e-02,7.695587405653061541e-01,6.384803900911029118e-01,2.353934250429774977e+02
-1.594242671582438264e+00,-8.851892719757614714e+00,-2.558654529323598048e+00,-2.094397647221116210e-02,9.665299142314137670e-01,2.556937127619156591e-01,2.373288210211753722e+02
-1.065067217313414361e+00,-8.800568568068415587e+00,-2.518714966053654081e+00,2.875898764462447854e-01,5.992177425653392175e-01,7.471466790124219326e-01,2.392642169993732466e+02
-5.535453380255133116e-01,-8.752966067535437489e+00,-2.386898434601044006e+00,2.059703879281635786e-01,6.749340025649153141e-01,7.085466050140947214e-01,2.411996129775711211e+02
-1.644257475512994615e-01,-8.721318482733035893e+00,-2.221531422115178067e+00,1.214910272751981296e-01,7.412790427622842904e-01,6.601085600499301265e-01,2.427390917806250172e+02
2.075674308455369432e-01,-8.697981888207747758e+00,-2.011133156414157686e+00,3.532476468753802112e-02,7.973316676221827715e-01,6.025050811440140208e-01,2.442785705836789134e+02
5.621976700864126375e-01,-8.685745026237778887e+00,-1.759923913395396999e+00,-5.133200288666883715e-02,8.423135874108866883e-01,5.365359689154854950e-01,2.458180493867328096e+02
9.001595758517469958e-01,-8.687406006085478083e+00,-1.472995909422651684e+00,-1.372760640518938813e-01,8.756002265843868537e-01,4.631171832711285519e-01,2.473575281897867058e+02
1.222118457568085681e+00,-8.705766854668649302e+00,-1.155441595576599090e+00,-2.213141003702452925e-01,8.967293977847169417e-01,3.832681256288045790e-01,2.488970069928406019e+02
1.528710318667083623e+00,-8.743633372403419202e+00,-8.123536241913450473e-01,-3.022792567457390223e-01,9.054077207657844628e-01,2.980974842496337263e-01,2.504364857958944981e+02
1.820541847140801694e+00,-8.803814989007705094e+00,-4.488248153900465387e-01,-3.790473445230942429e-01,9.015146969257388232e-01,2.087878392865833710e-01,2.519759645989483943e+02
2.098190406393279250e+00,-8.889124619266413063e+00,-6.994812361972388426e-02,-4.505524521174302799e-01,8.851043827434386113e-01,1.165792414479192296e-01,2.535154434020022904e+02
2.362204026388416533e+00,-9.002378518759622139e+00,3.191833958145837702e-01,-5.158017462248146723e-01,8.564046388403485643e-01,2.275199247695152555e-02,2.550549222050561866e+02
2.609685787399472989e+00,-9.143881107360058991e+00,7.078145915827360746e-01,-5.738892579343873868e-01,8.158139651415819982e-01,-7.139113324031098884e-02,2.565723690986664565e+02
2.845064765382020688e+00,-9.316846653794543798e+00,1.096761507120513457e+00,-6.240084622103090339e-01,7.638959662109184867e-01,-1.645429788683231143e-01,2.580898159922767263e+02
3.068793900913788786e+00,-9.521229623731343850e+00,1.482042865294884937e+00,-6.654634760330062626e-01,7.013715238074298419e-01,-2.554101557432661429e-01,2.596072628858869962e+02
3.281444202804764121e+00,-9.754650683684454648e+00,1.860618992578374042e+00,-6.976787197422277265e-01,6.291087855895267644e-01,-3.427310022627889641e-01,2.611247097794972660e+02
3.483829120440649518e+00,-1.001346624330646407e+01,2.230115883422172818e+00,-7.202069075327947045e-01,5.481111092277939356e-01,-4.252931016166438538e-01,2.626421566731075359e+02
3.676905992448820104e+00,-1.029374591698999808e+01,2.588349580255792315e+00,-7.327352563117301987e-01,4.595031295580110919e-01,-5.019501151351200008e-01,2.641596035667178057e+02
3.861671273362932588e+00,-1.059156488150500586e+01,2.933136197401787104e+00,-7.350898269024407350e-01,3.645151424186763300e-01,-5.716376976130608245e-01,2.656770504603280756e+02
4.062292447555621244e+00,-1.094695301148853517e+01,3.304114819915174195e+00,-7.272379375289245163e-01,2.644660221179022663e-01,-6.333882737818936626e-01,2.674004949065883352e+02
4.254234232503861790e+00,-1.131567277593272891e+01,3.648562079218969689e+00,-7.092886162683871287e-01,1.607449097481164491e-01,-6.863444709640489361e-01,2.691239393528485948e+02
4.440006423270189018e+00,-1.169136036361218878e+01,3.963525423266168524e+00,-6.814910863539600516e-01,5.479192654280048286e-02,-7.297710216271096062e-01,2.708473837991088544e+02
4.623477262420393252e+00,-1.206793781014031453e+01,4.247413526970283293e+00,-6.178549074621443316e-01,5.213865010663890770e-02,-7.845603064716389907e-01,2.725708282453691140e+02
4.809226997008381410e+00,-1.243948727965770651e+01,4.499315813213944359e+00,-5.498576158895129851e-01,4.911735415473501842e-02,-8.338117819808423814e-01,2.742942726916293736e+02
5.056542317231229156e+00,-1.289324882362184077e+01,4.765960989310608298e+00,-4.779791670314582630e-01,4.574936438039807485e-02,-8.771778106767440519e-01,2.764897229564932672e+02
5.265919722602151687e+00,-1.323843808177216275e+01,4.937183328328325516e+00,-4.027269105070265254e-01,4.205845353974885237e-02,-9.143522964592052382e-01,2.782646988824751020e+02
5.479550402650859908e+00,-1.356198755582950888e+01,5.074657148974856646e+00,-3.246320093265671058e-01,3.807067366509427064e-02,-9.450728449850402946e-01,2.800396748084569367e+02
5.692374348008783613e+00,-1.386096576427836524e+01,5.180001752509934221e+00,-2.442456910131781123e-01,3.381417219403527047e-02,-9.691226156586409957e-01,2.818146507344387715e+02
5.897262099093190102e+00,-1.413328771341742396e+01,5.255444906534124883e+00,-1.621353571180444153e-01,2.931899331105386128e-02,-9.863318521694373064e-01,2.835896266604206062e+02
6.086055641074275435e+00,-1.437726057487730813e+01,5.303518732648763390e+00,-7.888057856809960189e-02,2.461686590252179160e-02,-9.965790807749628222e-01,2.853646025864024409e+02
6.243897666275980640e+00,-1.458208928833572493e+01,5.326660982347158679e+00,4.930994909502411060e-03,1.974097962045976914e-02,-9.997919678678045541e-01,2.870524924873593022e+02
6.374222227510785821e+00,-1.475960246715592916e+01,5.330515405676169216e+00,-3.681009158294855088e-01,1.498837432553385036e-02,-9.296639524052076053e-01,2.887403823883161635e+02
6.470404776884688403e+00,-1.490828883687478168e+01,5.317153102236889417e+00,-6.880918042969800252e-01,8.076040703087450714e-03,-7.255773193994932146e-01,2.904282722892730249e+02
6.525603722843017707e+00,-1.502669789658953015e+01,5.288318019160594297e+00,-9.089331001752296579e-01,0.000000000000000000e+00,-4.169395872385236457e-01,2.921161621902298862e+02
6.533989607115801235e+00,-1.511325870155950923e+01,5.245097254897102879e+00,-6.783331045798046688e-01,5.390142884848517779e-01,-4.993253408754618761e-01,2.938040520911867475e+02
6.492442540366631043e+00,-1.516590606351022252e+01,5.188245944987836644e+00,-3.904632593411468400e-01,8.756795599047484391e-01,-2.841157360498864359e-01,2.954919419921436088e+02
6.399327262298046826e+00,-1.518227712218598491e+01,5.118516938535755401e+00,-7.894990794486694483e-03,9.999678340433270085e-01,-0.000000000000000000e+00,2.971798318931004701e+02
6.229813618477671788e+00,-1.515233019196150011e+01,5.026130021757855282e+00,-1.971539855655708440e-01,9.803715142622613232e-01,-0.000000000000000000e+00,2.990541810862090415e+02
5.985056495833384282e+00,-1.506589754404137871e+01,4.918287880622538744e+00,-3.792753852188076036e-01,9.252827579548139614e-01,-0.000000000000000000e+00,3.009285302793176129e+02
5.664643893175032474e+00,-1.491953840178904400e+01,4.796509227540560083e+00,-5.476658540163765743e-01,8.366959497606378804e-01,-0.000000000000000000e+00,3.028028794724261843e+02
5.339315748573732812e+00,-1.474929710301569585e+01,4.684304070013268095e+00,-6.962291560581238548e-01,7.178181958238901705e-01,-0.000000000000000000e+00,3.043951603683539702e+02
4.972753549341194734e+00,-1.453881846636704545e+01,4.566316105962655136e+00,-8.195868520933227153e-01,5.729532196234682351e-01,-0.000000000000000000e+00,3.059874412642817560e+02
4.567853503623785727e+00,-1.428665567903178335e+01,4.443920100191691702e+00,-9.132730123892169871e-01,4.073455594976950200e-01,-0.000000000000000000e+00,3.075797221602095419e+02
4.127525204353069022e+00,-1.399137849820188784e+01,4.318490848436853824e+00,-6.051112637003469574e-01,4.958913024062636676e-01,-6.228404087259294952e-01,3.091720030561373278e+02
3.655233801387749448e+00,-1.365203492744571712e+01,4.191213255066794652e+00,-0.000000000000000000e+00,3.410856895400514732e-01,-9.400311443733065930e-01,3.107642839520651137e+02
3.155535685537009361e+00,-1.326861708708188914e+01,4.062892412116053897e+00,-0.000000000000000000e+00,2.648456641198230765e-01,-9.642897770771253763e-01,3.123565648479928996e+02
2.600512124452445395e+00,-1.281284019710869515e+01,3.926319376757696933e+00,3.018549385660538112e-02,2.517672418586683336e-01,-9.673159214483735280e-01,3.140456542926685870e+02
2.025193586773427423e+00,-1.230580469814693245e+01,3.790015307403743705e+00,6.033804324452656659e-02,2.384140490861887951e-01,-9.692863672495244387e-01,3.157347437373442745e+02
1.436015652488005667e+00,-1.174819670196352206e+01,3.654759171515119309e+00,9.042474098152028517e-02,2.248006589219669338e-01,-9.701989641134018960e-01,3.174238331820199619e+02
8.394052487284721087e-01,-1.114074157602097159e+01,3.521329928203092763e+00,1.204127517563816502e-01,2.109419284387569760e-01,-9.700527161144590904e-01,3.191129226266956493e+02
2.416595566551148488e-01,-1.048471845978133921e+01,3.389879090311002763e+00,1.502693479591214742e-01,1.968529824530416694e-01,-9.688477828654595836e-01,3.208020120713713368e+02
-3.511827638872205282e-01,-9.782473771569918597e+00,3.259303291459788365e+00,1.799619453936331104e-01,1.825491970206837011e-01,-9.665854793432671066e-01,3.224911015160470242e+02
-8.994304808708827315e-01,-9.083318837380573996e+00,3.135785375683351361e+00,2.094581388339264993e-01,1.680461826584985496e-01,-9.632682744542713227e-01,3.240799573945994325e+02
-1.433956365742450778e+00,-8.350276654865874448e+00,3.010199410382253138e+00,2.387257373851761344e-01,1.533597673100351166e-01,-9.588997883410151912e-01,3.256688132731518408e+02
-1.950197241850707641e+00,-7.585669947876440666e+00,2.881190320595623966e+00,2.677327996110420161e-01,1.385059790741288988e-01,-9.534847884329458179e-01,3.272576691517042491e+02
-2.443752847432669739e+00,-6.791849496913023643e+00,2.747690355978526178e+00,2.964476683889761266e-01,1.235010287150484637e-01,-9.470291842455873521e-01,3.288465250302566574e+02
-2.910768367428282932e+00,-5.971197015773824113e+00,2.609556093672884547e+00,3.248390054555204132e-01,1.083612919732976354e-01,-9.395400209337877451e-01,3.304353809088090657e+02
-3.348038736473160526e+00,-5.126121859794991131e+00,2.467630833327171924e+00,3.528758256039394858e-01,9.310329169634930235e-02,-9.310254716060490932e-01,3.320242367873614739e+02
-3.752626318065658495e+00,-4.259053467595884435e+00,2.323107595799901226e+00,3.805275304969046868e-01,7.774367980878703344e-02,-9.214948284082968843e-01,3.336130926659138822e+02
-4.121617664261973069e+00,-3.372438096928966011e+00,2.177179420105525232e+00,4.077639420573669349e-01,6.229921914150348544e-02,-9.109584923867840578e-01,3.352019485444662905e+02
-4.453180662997487715e+00,-2.468968333570508378e+00,2.030963418146142008e+00,4.345553354012072766e-01,4.678676513976108564e-02,-8.994279621411520598e-01,3.367908044230186988e+02
-4.747624923368142902e+00,-1.551804414116069397e+00,1.885424829974727823e+00,4.608724712757535369e-01,3.122324747005243706e-02,-8.869158212799884700e-01,3.383796603015711071e+02
-4.996372876319881584e+00,-6.652420886673768852e-01,1.747665647436861258e+00,4.866866279687844243e-01,1.562565154581046709e-02,-8.734357246925246177e-01,3.398989494162532310e+02
-5.214951181081702636e+00,2.275498642132789962e-01,1.612019500564436658e+00,5.119696326532156005e-01,1.099999210732146763e-05,-8.590023836514056876e-01,3.414182385309353549e+02
-5.404584452765514690e+00,1.123753812505266403e+00,1.479229871920932471e+00,5.956896370556957754e-01,2.920263765887917695e-02,-8.026824168116059033e-01,3.429375276456174788e+02
-5.566524446034425644e+00,2.020559016112618789e+00,1.350040225770091640e+00,6.728372947655918423e-01,5.807207328657682660e-02,-7.375063451097836342e-01,3.444568167602996027e+02
-5.702050038204284022e+00,2.915161758142236437e+00,1.225194003318708091e+00,7.425614283300140395e-01,8.630078656641593238e-02,-6.641932696099374089e-01,3.459761058749817266e+02
-5.812467212080557388e+00,3.804765476113163736e+00,1.105434617959526911e+00,8.040927659970493746e-01,1.135773268077517884e-01,-5.835520666634573805e-01,3.474953949896638505e+02
-5.899109038530609972e+00,4.686580893095887212e+00,9.915054505142791852e-01,8.567524286989236515e-01,1.396007491247152066e-01,-4.964724632476649191e-01,3.490146841043459744e+02
-5.963335658791510951e+00,5.557826148780602438e+00,8.841498444768707277e-01,8.999594196863910378e-01,1.640839346776358787e-01,-4.039152204354495290e-01,3.505339732190280984e+02
-6.006534266513445353e+00,6.415726930473392819e+00,7.841111012567524297e-01,9.332370342337380498e-01,1.867567583492452110e-01,-3.069015333075610363e-01,3.520532623337102223e+02
-6.030469441639855432e+00,7.319273746483434984e+00,6.859415043052902172e-01,9.562181187464160459e-01,2.073690689209338467e-01,-2.065017642466611958e-01,3.536867832669289555e+02
-6.032536286586882568e+00,8.199071032865306918e+00,5.984660650491836487e-01,9.686491212909009718e-01,2.256934488836080943e-01,-1.038236338914444862e-01,3.553203042001476888e+02
-6.015669111680862713e+00,9.051360636431811102e+00,5.217254068989722882e-01,9.703928888893302851e-01,2.415277234480655844e-01,0.000000000000000000e+00,3.569538251333664221e+02
-5.983164590154955498e+00,9.872373560223577371e+00,4.554425809614805476e-01,9.969795307158221265e-01,-7.765188556165565636e-02,0.000000000000000000e+00,3.585873460665851553e+02
-5.938359362740439629e+00,1.065836034365417362e+01,3.993405609568044246e-01,9.988611377096775490e-01,-0.000000000000000000e+00,4.769095882966038757e-02,3.602208669998038886e+02
-5.884629987271472906e+00,1.140559127059758460e+01,3.531422452689912395e-01,9.996731843025228326e-01,-0.000000000000000000e+00,-2.552497917253214108e-02,3.618543879330226218e+02
-5.825392887837852918e+00,1.211035657725570935e+01,3.165704589971380933e-01,5.764363129604143099e-01,-1.163998612660052103e-03,-8.171400260718620912e-01,3.634879088662413551e+02
-5.745076137477957090e+00,1.296157141104398214e+01,2.850141323526172443e-01,9.955207354022702626e-01,9.453287991604687746e-02,0.000000000000000000e+00,3.656618007839354050e+02
-5.672208968379997884e+00,1.369412858350838924e+01,2.736990192709971570e-01,9.546769266703760692e-01,0.000000000000000000e+00,-2.976406653668539071e-01,3.678356927016294549e+02
-5.628810899525089617e+00,1.414590115387240310e+01,2.750197105061995551e-01,9.706551006134579440e-01,-0.000000000000000000e+00,-2.404717771844190333e-01,3.693721637586841666e+02
-5.593333624447422991e+00,1.455226100487703178e+01,2.807790343575285452e-01,9.664621381734331829e-01,-7.213593478184240904e-02,-2.464657022600012237e-01,3.709086348157388784e+02
-5.566851591944597999e+00,1.491297519120431758e+01,2.889911082486357752e-01,9.571883769943548836e-01,-1.438926388785480848e-01,-2.511639293840817744e-01,3.724451058727935902e+02
-5.549717193822849559e+00,1.523827119258108276e+01,2.976429851035595764e-01,9.428825706281636077e-01,-2.148928815560642303e-01,-2.545417597612215088e-01,3.740395342029160020e+02
-5.543960383238344392e+00,1.551317295601482016e+01,3.036253052955146803e-01,9.236199260041719761e-01,-2.847634088771276439e-01,-2.565814359085383245e-01,3.756339625330384138e+02
-5.552437830381544259e+00,1.575668433441064309e+01,3.024603766152493822e-01,8.995017080953453537e-01,-3.531369057886887819e-01,-2.572722350034256644e-01,3.773981333598889591e+02
-5.578110841376545892e+00,1.593520391195687758e+01,2.876997022848560293e-01,8.706547076112572947e-01,-4.196539269959829732e-01,-2.566105252542013604e-01,3.791623041867395045e+02
-5.621953814855110920e+00,1.605088502060444355e+01,2.538195141888046624e-01,8.372305745284972511e-01,-4.839647864793558685e-01,-2.545997850010814356e-01,3.809264750135900499e+02
-5.684324663926828336e+00,1.610672700871412744e+01,1.954057953312229590e-01,7.994050209582296285e-01,-5.457313957266571869e-01,-2.512505844466774718e-01,3.826906458404405953e+02
-5.753054965728216175e+00,1.611188189139940619e+01,1.210920169307716926e-01,7.573768975363128764e-01,-6.046290410226281553e-01,-2.465805301112810322e-01,3.842474504765693837e+02
-5.832304654076056138e+00,1.608131554190194379e+01,2.380904303064456176e-02,7.113671481853447442e-01,-6.603480904558329811e-01,-2.406141723038009994e-01,3.858042551126981721e+02
-5.921195878643415789e+00,1.601681352333286767e+01,-1.005109225137988532e-01,6.616176487367453340e-01,-7.125956216717346248e-01,-2.333828760933466251e-01,3.873785761281259283e+02
-6.015683310033417719e+00,1.592174624745198308e+01,-2.527471077454019333e-01,6.431104653736439136e-01,-7.413373685167607974e-01,-1.919005871896727056e-01,3.889528971435536846e+02
-6.111855461380423904e+00,1.579975418138625898e+01,-4.342083490283300540e-01,6.227450935910017193e-01,-7.679370924848371027e-01,-1.498638395037902027e-01,3.905272181589814409e+02
-6.205763051405729591e+00,1.565445498317880180e+01,-6.462032818712385440e-01,6.005803766210718875e-01,-7.923179416914083451e-01,-1.073940896342563678e-01,3.921015391744091971e+02
-6.293401946626094201e+00,1.548919546850082263e+01,-8.898057400610243084e-01,5.766803557775153077e-01,-8.144094746954468889e-01,-6.461404478536544871e-02,3.936758601898369534e+02
-6.370699551768047364e+00,1.530680345206425663e+01,-1.165620156409917341e+00,5.511140854704611458e-01,-8.341478638903255804e-01,-2.164730838247589523e-02,3.952501812052647097e+02
-6.436725505672856507e+00,1.509405583630664083e+01,-1.499801110092835232e+00,5.239554337625932368e-01,-8.514760798118004015e-01,2.138197689254779307e-02,3.969421508560849929e+02
-6.479201716704802827e+00,1.486656759136384842e+01,-1.874920557513258146e+00,5.318795198762957810e-01,-8.466672357197554399e-01,1.602398553526690819e-02,3.986341205069052762e+02
-6.492880405321392878e+00,1.462742889919350553e+01,-2.290730853120392041e+00,6.016131716185189049e-01,-7.980063318028489672e-01,3.529144564901447872e-02,4.003260901577255595e+02
-6.477132889786654246e+00,1.439856629976512536e+01,-2.708416691299978307e+00,6.667733989857611565e-01,-7.432790613335081842e-01,5.429061969245913000e-02,4.018894274981638546e+02
-6.437974410008591164e+00,1.418306829639981892e+01,-3.117090323895042481e+00,7.268648710793390588e-01,-6.829014499281863548e-01,7.287708058908495823e-02,4.033279978224805404e+02
-6.383905587753830879e+00,1.398836812101182936e+01,-3.496404733552560984e+00,7.814307862221128165e-01,-6.173324729510828446e-01,9.090953845765292751e-02,4.046076431591168330e+02
-6.207493533357298254e+00,1.361377797099532927e+01,-4.245953706466500499e+00,8.300563437177401749e-01,-5.470705674598344004e-01,1.082509144116477473e-01,4.070017554401334792e+02
-6.099285594403012212e+00,1.344488753592929697e+01,-4.588558522631132952e+00,7.669240327213734387e-01,-6.083619976893147596e-01,2.042576994898911147e-01,4.080531984137069799e+02
-5.874921260798989131e+00,1.314154308390115311e+01,-5.192288268585409483e+00,6.907849783365456187e-01,-6.593357951168591358e-01,2.968003082571101237e-01,4.099016829047124020e+02
-5.601260743925744912e+00,1.282699023732861221e+01,-5.785931777309573754e+00,6.029304651332196840e-01,-6.991274818158479398e-01,3.843092743916288190e-01,4.117501673957178241e+02
-5.282201305230201704e+00,1.249879052802719492e+01,-6.351620083330458577e+00,5.048504550707269001e-01,-7.270622152181295261e-01,4.653004977604566772e-01,4.135986518867232462e+02
-4.922302982893977052e+00,1.215498885036190657e+01,-6.871481012999520743e+00,3.794731911047499184e-01,-5.383771387425254629e-01,7.524281717968546168e-01,4.154471363777286683e+02
-4.501403319448612272e+00,1.177162918943638381e+01,-7.350183192367082619e+00,2.033361127284958603e-01,-2.776766396292935091e-01,9.389079342865590538e-01,4.174078258605113092e+02
-4.046862971277233711e+00,1.136791495427287835e+01,-7.730227985639531951e+00,0.000000000000000000e+00,2.016697227948724414e-02,9.997956257308727723e-01,4.193685153432939501e+02
-3.630913089066467148e+00,1.100031319131033669e+01,-7.970301572808835111e+00,2.204818902053456431e-01,2.585319636349858730e-02,9.750473569671325169e-01,4.210780970384075204e+02
-3.204639515245318204e+00,1.062049354693751724e+01,-8.121023376359580936e+00,4.301035175183399728e-01,3.026596604823502540e-02,9.022709878501654623e-01,4.227876787335210906e+02
-2.774427470424460473e+00,1.023035404904052470e+01,-8.180757956669914677e+00,0.000000000000000000e+00,-1.168708951519396300e-01,9.931461090215998322e-01,4.244972604286346609e+02
-2.346352139044746377e+00,9.832114329440663880e+00,-8.151922860118494540e+00,-0.000000000000000000e+00,-0.000000000000000000e+00,9.999989999924441264e-01,4.262068421237482312e+02
-1.930613434709894882e+00,9.433355826256017096e+00,-8.040018975880816043e+00,-1.161848472904061791e-01,1.341998236121057881e-03,9.932256945363709955e-01,4.278964229234440495e+02
-1.584986682656449597e+00,9.091964322983308477e+00,-7.886628781506212604e+00,-1.931993568520717908e-01,-4.703608791609496798e-02,9.800304153161869536e-01,4.293354488072124582e+02
-1.161748740283023773e+00,8.659526291943249632e+00,-7.616490850170851701e+00,-2.685821327393879132e-01,-9.501691039434345676e-02,9.585579923570854977e-01,4.311642364071363431e+02
-7.612336203884212393e-01,8.232384197865993514e+00,-7.260830617793521569e+00,-3.416965186031130086e-01,-1.421952399935176858e-01,9.289897754534029994e-01,4.329930240070602281e+02
-3.868484909319185316e-01,7.814256541945509227e+00,-6.828795847819799647e+00,-4.119250149237280723e-01,-1.881726246130049629e-01,8.915754849845011210e-01,4.348218116069841130e+02
-4.195689225767802039e-02,7.408884545981016423e+00,-6.329535011828076208e+00,-4.786744931376812340e-01,-2.325607537443824535e-01,8.466311035131171003e-01,4.366505992069079980e+02
3.135186029611683467e-01,6.961341233348747437e+00,-5.671908075713012920e+00,-0.000000000000000000e+00,1.466699169440138090e-02,9.998914337832129906e-01,4.387747795449688510e+02
6.135534766354754366e-01,6.546514448963096200e+00,-4.940554623184846506e+00,-0.000000000000000000e+00,-9.999989999326389967e-07,9.999989999326391876e-01,4.408989598830297041e+02
8.465620896780042814e-01,6.188380203089573151e+00,-4.198501242764113961e+00,-5.024135394088078410e-01,7.294793312446251621e-01,4.641535744839033195e-01,4.429084787836207511e+02
1.032866587669618585e+00,5.866712087325074876e+00,-3.425123912905170265e+00,-7.217103253045492606e-01,5.166585169985258297e-01,4.606475693607136046e-01,4.449179976842117981e+02
1.148532750258563606e+00,5.644360312218425157e+00,-2.822563862061888251e+00,-9.187891588802874487e-01,7.621728537608270238e-02,3.873182243766322697e-01,4.464545876710864150e+02
1.246317434330753260e+00,5.440326373988149555e+00,-2.218217026068351139e+00,-8.970066972457932941e-01,-3.823794024321847673e-01,2.217272596962054088e-01,4.479911776579610319e+02
1.328207034652358898e+00,5.255126697528615942e+00,-1.617125209394068674e+00,-6.615518139976631629e-01,-7.498907771584664150e-01,3.319597920272221361e-03,4.495277676448356488e+02
1.397166449496467955e+00,5.087010818342993623e+00,-1.015719019063277884e+00,-2.685116056353999969e-01,-9.387736212175719075e-01,-2.158786829376881378e-01,4.510868644251565343e+02
1.453872640250723824e+00,4.939263357055210690e+00,-4.278655185971479979e-01,-0.000000000000000000e+00,9.988447030609834965e-01,4.803393763085728879e-02,4.526459612054774198e+02
1.508964241640846193e+00,4.788956985103970609e+00,2.665841873586330402e-01,-0.000000000000000000e+00,9.988447023579432038e-01,4.803393759704844418e-02,4.545652864476153354e+02
1.551941742045569894e+00,4.676222969810004848e+00,9.178726616957124662e-01,-0.000000000000000000e+00,9.988447023580213635e-01,4.803393759705219118e-02,4.564846116897532511e+02
1.583463864844939284e+00,4.607658241483148842e+00,1.430312044613736511e+00,-0.000000000000000000e+00,9.988447023580682149e-01,4.803393759705444632e-02,4.581012057756331615e+02
