2.065783535913586544e+00,-5.526710121511791307e+00,-4.553977280123442384e+00,-4.314853747993044331e-01,4.454425315640121730e-02,9.010184131553395925e-01,6.233308559556005690e+01
1.550289661837472410e+00,-5.827906770465284936e+00,-4.619956669984485842e+00,-2.212879863713587414e-01,2.284408087349511923e-02,9.749398827911458509e-01,6.387935779185506391e+01
1.013481918915474012e+00,-6.100921086936252458e+00,-4.671638095824459214e+00,-0.000000000000000000e+00,-9.999989999988958197e-07,9.999989999988958544e-01,6.542562998815007802e+01
4.589548815075672472e-01,-6.344630098141586849e+00,-4.708212987681874573e+00,-4.001471294801287604e-01,5.135297246752095202e-01,7.590569785236196410e-01,6.697190218444508503e+01
-3.432106713059069891e-01,-6.622750063527052866e+00,-4.725985240048403924e+00,-6.074690999519757328e-01,7.795978449198487370e-01,1.523367742923669443e-01,6.913434444845205462e+01
-1.170044002179021492e+00,-6.815288616721153936e+00,-4.698457687792090276e+00,-0.000000000000000000e+00,4.167097442644203398e-02,9.991303868317403802e-01,7.129678671245902422e+01
-1.928039375887353524e+00,-6.916475655236744124e+00,-4.637484742610583410e+00,-4.499992964596048837e-04,3.515004504552168840e-01,9.361865363420546204e-01,7.325162535241493345e+01
-2.685828397037905102e+00,-6.950681201430279010e+00,-4.547339971149095383e+00,1.478939970728238018e-01,3.193150221813801926e-01,9.360359406778137048e-01,7.520646399237084267e+01
-3.347151798543888557e+00,-6.928046530318925811e+00,-4.447701410488058116e+00,2.928302065832057433e-01,2.797719733062908332e-01,9.143172934306411648e-01,7.693082100185546324e+01
-3.995456064538882579e+00,-6.859724195891188536e+00,-4.333293068345172472e+00,4.310190439720765210e-01,2.337824481817812605e-01,8.715310382637573294e-01,7.865517801134008380e+01
-4.624405543246594696e+00,-6.746809966584814688e+00,-4.206844552184090702e+00,5.592763940761571462e-01,1.824061263009298106e-01,8.086630448576690444e-01,8.037953502082470436e+01
-5.250479357854885620e+00,-6.582443871326968399e+00,-4.065361690773380055e+00,6.746469744001066804e-01,1.268268071975938993e-01,7.271618945668033573e-01,8.217271578294187862e+01
-5.840541787439969212e+00,-6.370868308488845777e+00,-3.916771627465216454e+00,7.565867492953690654e-01,3.852353970492891633e-02,6.527560246224863860e-01,8.396589654505905287e+01
-6.387884463641755772e+00,-6.114067546281650500e+00,-3.764776940383229853e+00,8.233585740341241577e-01,-5.055204354405961470e-02,5.652637875007061607e-01,8.575907730717622712e+01
-6.886041871963424654e+00,-5.814257140426143167e+00,-3.613250288658083953e+00,8.736238188607179378e-01,-1.386141742548499256e-01,4.664392069888190773e-01,8.755225806929340138e+01
-7.328579511173332506e+00,-5.473689795662995294e+00,-3.466064327172487136e+00,9.063747696360280326e-01,-2.238973999124539149e-01,3.582634942063920303e-01,8.934543883141057563e+01
-7.724113989627854338e+00,-5.077707477860761820e+00,-3.321353415646544960e+00,9.209548305887190756e-01,-3.046919757924185790e-01,2.429053311560975814e-01,9.121560967976374457e+01
-8.048670403169301935e+00,-4.644775793141475262e+00,-3.189409310092556460e+00,9.170716890544008404e-01,-3.793781407606504619e-01,1.226773958341475096e-01,9.308578052811691350e+01
-8.302757263252440012e+00,-4.181472889325468678e+00,-3.073407902242939027e+00,8.948031780340768293e-01,-4.464585898832771349e-01,-9.999990814011525472e-06,9.495595137647008244e+01
-8.489189435326553124e+00,-3.694293717639852481e+00,-2.975979355512607061e+00,9.506837635125726660e-01,-3.044549615287199251e-01,-5.920775450354945346e-02,9.682612222482325137e+01
-8.596635656604458831e+00,-3.289312497033631821e+00,-2.911130030654761836e+00,9.810935288103819207e-01,-1.542944130092765986e-01,-1.168191843833190774e-01,9.833373973987664840e+01
-8.672213922186559287e+00,-2.877820302662094765e+00,-2.858239175377765395e+00,9.852177632728058576e-01,-0.000000000000000000e+00,-1.713007849690220130e-01,9.984135725493004543e+01
-8.717769769766690047e+00,-2.462414242867318581e+00,-2.817937029167557839e+00,9.860954918328975749e-01,-8.289772483117234525e-02,-1.440196104903195551e-01,1.013489747699834425e+02
-8.735336137027594816e+00,-2.045473970887312642e+00,-2.790123467931184376e+00,9.794620517557992567e-01,-1.651640070093470247e-01,-1.156414283901019691e-01,1.028565922850368395e+02
-8.723445159585772046e+00,-1.587138468762312682e+00,-2.774100106641312902e+00,9.653679710652905976e-01,-2.461722201173426328e-01,-8.638239684654905326e-02,1.045178692362587043e+02
-8.680340517603552186e+00,-1.133105678791913373e+00,-2.773478560093018075e+00,9.439206052013405790e-01,-3.253053205148556115e-01,-5.646538339734694795e-02,1.061791461874805691e+02
-8.609266288199011186e+00,-6.866813780631415565e-01,-2.787572499106424129e+00,9.152833193189566785e-01,-4.019605471739210456e-01,-2.611826742357817657e-02,1.078404231387024339e+02
-8.513095629990859337e+00,-2.508913519752570265e-01,-2.814947600048395504e+00,8.796742440199001312e-01,-4.755540127427256292e-01,4.427795537656304022e-03,1.095017000899242987e+02
-8.393909163551450447e+00,1.717783116503488750e-01,-2.852673674010673288e+00,8.373646139890738027e-01,-5.455251508824855433e-01,3.494013443706988492e-02,1.111629770411461635e+02
-8.253546306577268510e+00,5.791147088382062602e-01,-2.897041204333953068e+00,7.886767021795796362e-01,-6.113409860144407570e-01,6.518633490860871460e-02,1.128242539923680283e+02
-8.110410238434573316e+00,9.339923928770250683e-01,-2.939958427064672808e+00,7.339813652679516576e-01,-6.725001929634439879e-01,9.493600952306784080e-02,1.143302178281148826e+02
-7.954561532556890135e+00,1.274281973730281736e+00,-2.982879747324346020e+00,6.736952190597765844e-01,-7.285369155810282882e-01,1.239625526203934902e-01,1.158361816638617370e+02
-7.787589490904623268e+00,1.598511282438858983e+00,-3.023672780566567742e+00,6.082774653434431800e-01,-7.790243152623896883e-01,1.520448663573955306e-01,1.173421454996085913e+02
-7.611329560189926013e+00,1.905502236531207094e+00,-3.060050169415046373e+00,5.379617392347881832e-01,-6.889704772059251914e-01,4.857106635220103108e-01,1.188481093353554456e+02
-7.428085931992820967e+00,2.194658764921421312e+00,-3.089414611863019022e+00,4.007305300104290202e-01,-5.132176219660787853e-01,7.589602854049946057e-01,1.203540731711023000e+02
-7.240396477420731891e+00,2.465682699815797907e+00,-3.109013863791433074e+00,2.136536391130217372e-01,-2.736271494305166363e-01,9.378050466857821288e-01,1.218600370068491543e+02
-7.001203551696588256e+00,2.777864736834171122e+00,-3.112372965833092309e+00,9.999989999989881463e-07,-9.999989999989881463e-07,9.999989999989882250e-01,1.237621414765324772e+02
-6.764574005893807751e+00,3.052999930285499097e+00,-3.084019427588253315e+00,4.235389183650625222e-01,2.571385557146899092e-01,8.686153048364296803e-01,1.256642459462158001e+02
-6.535669614121175641e+00,3.291847606661405745e+00,-3.018475554664667104e+00,7.357846652249943054e-01,4.467105113743744527e-01,5.089878637534158701e-01,1.275663504158991230e+02
-6.318043378676989619e+00,3.496650746942906007e+00,-2.909883064041377754e+00,8.546902225259143115e-01,5.189015279781137302e-01,1.561498579573454386e-02,1.294794431795102696e+02
-6.116411426374559923e+00,3.667197562790586840e+00,-2.753961601411277549e+00,9.480767136406852424e-01,3.156526256749163650e-01,-3.888399358887917323e-02,1.313925359431214019e+02
-5.964309693251716560e+00,3.782608757879009520e+00,-2.595137542080102833e+00,9.912138162169631395e-01,9.567366035949337322e-02,-9.132207430011776705e-02,1.329355150966478618e+02
-5.818439422547564632e+00,3.880829604849374448e+00,-2.409920195643786567e+00,9.818151803317659576e-01,-1.293761786085003973e-01,-1.389199628529726727e-01,1.344784942501743217e+02
-5.653549637151942697e+00,3.971579150826900051e+00,-2.158904801493613856e+00,9.203789252031139290e-01,-3.475689227107123247e-01,-1.791548994805190198e-01,1.362741049894825949e+02
-5.490042732220731025e+00,4.034829704759120617e+00,-1.868788158101380992e+00,8.101612482030170481e-01,-5.473400272127806332e-01,-2.098943699125667695e-01,1.380697157287908681e+02
-5.324028471745286595e+00,4.069782369336797601e+00,-1.542559209316993529e+00,6.570038469529267955e-01,-7.181013176383330698e-01,-2.295091342306882498e-01,1.398653264680991413e+02
-5.178544474080742255e+00,4.077997811454080690e+00,-1.238927117750126428e+00,4.690242989945510033e-01,-8.508021885027508002e-01,-2.369595809243950357e-01,1.414041005170149106e+02
-5.029768205837327422e+00,4.067074677646729697e+00,-9.178763939866108057e-01,2.561858103073434978e-01,-9.384093051552941933e-01,-2.318508283261688507e-01,1.429428745659306799e+02
-4.877205686839452881e+00,4.036399123081599427e+00,-5.820407290009418366e-01,2.379079178175701470e-01,-9.224412462774707056e-01,-3.041380768758646935e-01,1.444816486148464492e+02
-4.720370916926315275e+00,3.985354768220148891e+00,-2.340539108321157691e-01,2.182467089711459529e-01,-9.011096401941760536e-01,-3.746568968703617442e-01,1.460204226637622185e+02
-4.558811419053193426e+00,3.913366667697868895e+00,1.234123691515932458e-01,1.973165045292237518e-01,-8.745385221809544030e-01,-4.429972576238061510e-01,1.475591967126779878e+02
-4.392133002998838798e+00,3.819945447532585803e+00,4.876107102365911383e-01,1.752390035875674712e-01,-8.428823921579734479e-01,-5.087617955508335621e-01,1.490979707615937571e+02
-4.200303844978537704e+00,3.689172245489300117e+00,8.963895536169741440e-01,1.521425759586633453e-01,-8.063253162675804164e-01,-5.715681244848868081e-01,1.508056497649079972e+02
-4.001318157109102103e+00,3.527798244975580033e+00,1.306448826337505809e+00,1.281615157807663441e-01,-7.650798565753178515e-01,-6.310510588978246460e-01,1.525133287682222374e+02
-3.798256079053610179e+00,3.334760067663198324e+00,1.714046106222143706e+00,1.034352606927506218e-01,-7.193858351195749901e-01,-6.868647371028590021e-01,1.542210077715364775e+02
-3.596768238885045488e+00,3.108724663868763116e+00,2.115851201958197869e+00,7.810758111325498410e-02,-6.695089394965009211e-01,-7.386846321046416364e-01,1.559286867748507177e+02
-3.406508597378870906e+00,2.853446044374068791e+00,2.502007520562222531e+00,5.232574433585331780e-02,-6.157391780861576347e-01,-7.862094384132840563e-01,1.576064998735415656e+02
-3.229486779263926799e+00,2.564509562786569941e+00,2.876815635676673200e+00,2.623965829794213528e-02,-5.583891938982328274e-01,-8.291628238595211142e-01,1.592843129722324136e+02
-3.070340675420272447e+00,2.241414115009885411e+00,3.237683282140062069e+00,9.999988887668967986e-07,-4.977924468359398724e-01,-8.672950362319745699e-01,1.609621260709232615e+02
-2.932084638323944503e+00,1.884416564413415429e+00,3.582471617758596238e+00,0.000000000000000000e+00,9.988447030629378220e-01,4.803393763095126917e-02,1.626399391696141095e+02
-2.812021363186311795e+00,1.479650176085931301e+00,3.920713447262995199e+00,3.476438112528193458e-01,7.329231412926796585e-01,-5.847781198509935940e-01,1.643777764761805429e+02
-2.715359788804761809e+00,1.040612328073469373e+00,4.238122736013667513e+00,4.894745649099780382e-01,3.309397058303449601e-02,-8.713882254299828434e-01,1.661156137827469763e+02
-2.641534663249502479e+00,5.692966271735950823e-01,4.533377437953583389e+00,4.483164178467605177e-01,-8.948002630938022006e-02,-8.893838959534644539e-01,1.678534510893134097e+02
-2.589847928460079274e+00,6.796858687047056813e-02,4.805269874747592596e+00,3.995179563217124419e-01,-2.105290617827595689e-01,-8.922224592119332165e-01,1.695912883958798432e+02
-2.559358776620588305e+00,-4.605599474295993812e-01,5.052820928155664859e+00,3.439108179828405110e-01,-3.279901921711467216e-01,-8.798555467318642798e-01,1.713291257024462766e+02
-2.548719194331590554e+00,-9.910499408778377095e-01,5.267512748147907153e+00,2.824426736958116635e-01,-4.398616218531943289e-01,-8.524939235544395366e-01,1.729997892893018445e+02
-2.555061222833499013e+00,-1.540344830424002387e+00,5.459070632797319078e+00,2.161610771846393386e-01,-5.442368171793808829e-01,-8.106038955851837535e-01,1.746704528761574124e+02
-2.577381625269870025e+00,-2.105823156782406169e+00,5.626756317088079662e+00,1.461956127381243975e-01,-6.393369967953826949e-01,-7.548993623959533439e-01,1.763411164630129804e+02
-2.614640322154047514e+00,-2.684869077539859372e+00,5.769831720681727560e+00,7.373864516585511286e-02,-7.235414448539680965e-01,-6.863296509613370233e-01,1.780117800498685483e+02
-2.665760406008085059e+00,-3.274872551401831977e+00,5.887558953627021197e+00,2.499997267778856589e-05,-7.954151306990346892e-01,-6.060633376396500349e-01,1.796824436367241162e+02
-2.732669840019277263e+00,-3.897717160728979557e+00,5.981763972268981711e+00,1.122871430989938191e-01,-4.455190708781650577e-01,-8.882017535331525604e-01,1.814207000302306767e+02
-2.812804835358548861e+00,-4.526945288619307561e+00,6.045732178160807102e+00,2.004488266899933369e-01,-0.000000000000000000e+00,-9.797031529391179161e-01,1.831589564237372372e+02
-2.905733978303399301e+00,-5.159543631942504760e+00,6.078624511496745875e+00,1.079760946362622320e-01,1.569198861895872432e-01,-9.816900286265829445e-01,1.848972128172437976e+02
-3.007703471330101852e+00,-5.772964215145258926e+00,6.080539966954233932e+00,1.192085831904171785e-02,3.086332520282131231e-01,-9.511053616078374295e-01,1.865816617169487870e+02
-3.121683454200803620e+00,-6.384244479094976832e+00,6.052777926945963394e+00,-8.452989841290621531e-02,4.501064590670528776e-01,-8.889639316530130175e-01,1.882661106166537763e+02
-3.249159866257772755e+00,-6.991294380447261148e+00,5.994952591326423885e+00,-0.000000000000000000e+00,8.052988517093670473e-03,-9.999665741290355570e-01,1.899505595163587657e+02
-3.406238086762669592e+00,-7.645073460501440543e+00,5.896001055485692532e+00,1.217558766212737814e-01,-4.271485671580905197e-01,-8.959450921131094647e-01,1.917852667561002704e+02
-3.585168400438331293e+00,-8.288307094696317989e+00,5.757933205822915568e+00,3.698982379086732664e-01,-2.721274050884779361e-01,-8.883242476668695708e-01,1.936199739958417751e+02
-3.788240835285806352e+00,-8.918302579845104106e+00,5.580660301562407000e+00,5.863533815208138433e-01,-9.379468871456028700e-02,-8.046056601524752550e-01,1.954546812355832799e+02
-4.015736653926682109e+00,-9.532229770922569401e+00,5.364333579449325207e+00,7.525789214884025524e-01,9.257286733496225550e-02,-6.519610656826143602e-01,1.972893884753247846e+02
-4.288575909681284770e+00,-1.017998223177727191e+01,5.081934342554370154e+00,7.746750102182862197e-01,7.737150567254882927e-02,-6.276067866502113013e-01,1.992943888671479442e+02
-4.580013847320789644e+00,-1.079834325367536252e+01,4.750634073382163258e+00,7.957543708473537869e-01,6.206860081654737293e-02,-6.024288091271197132e-01,2.012993892589711038e+02
-4.880580691312448316e+00,-1.138255518812138156e+01,4.372465499141412693e+00,8.157893399344894325e-01,4.668423591491790980e-02,-5.764601763892197583e-01,2.033043896507942634e+02
-5.154719067336615446e+00,-1.188556520674967842e+01,3.988662281425422229e+00,8.347536244505501246e-01,3.123860097885020753e-02,-5.497349691187217724e-01,2.051442253461085556e+02
-5.417326932554851204e+00,-1.235413106496791258e+01,3.574559150724445633e+00,8.526223362539055994e-01,1.575196640496050529e-02,-5.222882607063307203e-01,2.069840610414228479e+02
-5.659035406602239249e+00,-1.278406366854926723e+01,3.133785637520421830e+00,8.693720247285443570e-01,2.446563925975302743e-04,-4.941560712556541390e-01,2.088238967367371401e+02
-5.844588145387744405e+00,-1.312036460675210847e+01,2.739518377467189403e+00,8.849807075402095213e-01,-1.526297770936156650e-02,-4.653753203480212597e-01,2.103996389417758337e+02
-6.006650010154505281e+00,-1.342646239318162316e+01,2.334180755010065944e+00,9.343647041290175093e-01,-2.846673670068930462e-02,-3.551763570108807944e-01,2.119753811468145273e+02
-6.140338439790656189e+00,-1.369960352506936374e+01,1.920543021156707830e+00,9.699603113204490201e-01,-4.125040997248095864e-02,-2.397361010369448153e-01,2.135511233518532208e+02
-6.241512750743016369e+00,-1.393697529504166077e+01,1.501538206306194390e+00,9.912422606451662954e-01,-5.342535265000009775e-02,-1.207580738722864311e-01,2.151268655568919144e+02
-6.307553570729307779e+00,-1.413561663793369938e+01,1.080424822332509027e+00,9.978964962917117321e-01,-6.481190233636946463e-02,1.999996986248517972e-06,2.167026077619306079e+02
-6.329949270364498837e+00,-1.431645457689487877e+01,5.554816545431867647e-01,9.842838733157226461e-01,1.297267356343901890e-01,1.198091431993938277e-01,2.186786926985779189e+02
-6.274271100942968360e+00,-1.440752934145964304e+01,4.159224078182600232e-02,9.191100942929432138e-01,3.174697010911591843e-01,2.333401454097311090e-01,2.206547776352252299e+02
-6.161609340240286059e+00,-1.441399359350152487e+01,-3.971376316313017796e-01,8.057892435783569063e-01,4.885822047769387555e-01,3.346477612513469868e-01,2.223994826581620430e+02
-5.994201748272535824e+00,-1.435691274429104070e+01,-8.163620134678618578e-01,6.502575451219111402e-01,6.341006231837181817e-01,4.184250526577707463e-01,2.241441876810988560e+02
-5.774418528911754223e+00,-1.424027620070240729e+01,-1.210047259892222948e+00,4.606624106662593476e-01,7.464020451143851265e-01,4.802833855647918315e-01,2.258888927040356691e+02
-5.505297107667864509e+00,-1.406865520018544657e+01,-1.572410286153352432e+00,3.805832495055258002e-01,7.097300036650328048e-01,5.928218215401718227e-01,2.276335977269724822e+02
-5.191154044578229154e+00,-1.384710188233727557e+01,-1.898133098315482492e+00,2.927316625650895343e-01,6.585635467734259896e-01,6.932533653679321395e-01,2.293783027499092952e+02
-4.889883282181531676e+00,-1.362226842033228458e+01,-2.147930459282257676e+00,1.989017844505161503e-01,5.939476165056397639e-01,7.795269777182354254e-01,2.308820833231763459e+02
-4.565682918993097417e+00,-1.337188070959105701e+01,-2.368203424507412613e+00,1.010098369689698267e-01,5.172018180642133922e-01,8.498807517688982127e-01,2.323858638964433965e+02
-4.221388769767026261e+00,-1.309906089543094687e+01,-2.556466063528397559e+00,1.054998706094199953e-03,4.298934727560758673e-01,9.028778926631518820e-01,2.338896444697104471e+02
-3.859864243460560562e+00,-1.280749536600320582e+01,-2.711092452615175397e+00,1.468217373029374329e-01,5.234665825470752321e-01,8.392997762476974710e-01,2.353934250429774977e+02
-3.371351944612925866e+00,-1.240844372231727633e+01,-2.850885015320439031e+00,2.875898764458944545e-01,5.992177425646092459e-01,7.471466790115117718e-01,2.373288210211753722e+02
-2.860755499796602042e+00,-1.198926103705902335e+01,-2.916000354398400773e+00,-2.094397647220614181e-02,9.665299142311819525e-01,2.556937127618543193e-01,2.392642169993732466e+02
-2.336256610315416093e+00,-1.156193356444475739e+01,-2.906615066048568341e+00,-6.937603376935114197e-02,9.761952298563382202e-01,2.054941340899508750e-01,2.411996129775711211e+02
-1.914497138584719815e+00,-1.122356130626877402e+01,-2.851227028090296489e+00,-1.174640498462860283e-01,9.810195054033452600e-01,1.542754906428266126e-01,2.427390917806250172e+02
-1.493123516178543442e+00,-1.089232703508214328e+01,-2.759090692853823690e+00,-1.649695516535082951e-01,9.809788166277969568e-01,1.022917804907009787e-01,2.442785705836789134e+02
-1.075474354304687852e+00,-1.057303905302346259e+01,-2.630767178274253659e+00,-2.116569548680640456e-01,9.760733651713144887e-01,4.980079577988345829e-02,2.458180493867328096e+02
-6.646531743681475257e-01,-1.027048167155879099e+01,-2.467275881539538585e+00,-2.572947321928980569e-01,9.663274775682330064e-01,-2.937155696711846523e-03,2.473575281897867058e+02
-2.636778754687064685e-01,-9.989420157303452896e+00,-2.269865451658391819e+00,-3.016565615369116715e-01,9.517894846095645844e-01,-5.566054140572338632e-02,2.488970069928406019e+02
1.243697260389799719e-01,-9.734604684652849116e+00,-2.039784760522258100e+00,-3.445224483811102911e-01,9.325314816629408643e-01,-1.081079010535625357e-01,2.504364857958944981e+02
4.970647501165381121e-01,-9.510773119989220703e+00,-1.778769958261332551e+00,-3.856798167642620512e-01,9.086489711372873757e-01,-1.600191432080871057e-01,2.519759645989483943e+02
8.533616514506986439e-01,-9.322301418498263104e+00,-1.489815069956433202e+00,-4.249245634771727231e-01,8.802603888656324038e-01,-2.111368351309044211e-01,2.535154434020022904e+02
1.192881289480943074e+00,-9.172850277139231068e+00,-1.176968456963115583e+00,-4.620620702372316702e-01,8.475065167553095247e-01,-2.612074794232048247e-01,2.550549222050561866e+02
1.510833778862455290e+00,-9.066635516630249469e+00,-8.495480809685956869e-01,-4.969081688233726868e-01,8.105497846189894107e-01,-3.099827711534897112e-01,2.565723690986664565e+02
1.811874404133108074e+00,-9.004083379979919144e+00,-5.074852780774794514e-01,-5.292900543850064254e-01,7.695734646496733555e-01,-3.572208292324639545e-01,2.580898159922767263e+02
2.095523648271440109e+00,-8.986898200458778518e+00,-1.549668123501068140e-01,-5.590471423956313579e-01,7.247807625352583605e-01,-4.026873959281990767e-01,2.596072628858869962e+02
2.361491540241551945e+00,-9.013789551638286213e+00,2.038799141259154957e-01,-5.860318650014553210e-01,6.763938097209258871e-01,-4.461569985728205956e-01,2.611247097794972660e+02
2.609907173243370515e+00,-9.081415855591593811e+00,5.654133735795199289e-01,-6.101104028160471149e-01,6.246525618178151440e-01,-4.874140676996264188e-01,2.626421566731075359e+02
2.841141496422722845e+00,-9.185680173602369436e+00,9.263968123778104635e-01,-6.311633485323125958e-01,5.698136086218554830e-01,-5.262540060657658891e-01,2.641596035667178057e+02
3.055620858892295733e+00,-9.322197245025522605e+00,1.283668973686712844e+00,-6.490862990613353034e-01,5.121489016448659282e-01,-5.624842032593457830e-01,2.656770504603280756e+02
3.278175095969032338e+00,-9.512848462163308483e+00,1.680087834953475801e+00,-6.637903732621687203e-01,4.519444054689957802e-01,-5.959249908598106549e-01,2.674004949065883352e+02
3.477888501786448483e+00,-9.736913743227239237e+00,2.061179135739337198e+00,-6.752026526957497499e-01,3.894986796131787443e-01,-6.264105334153983184e-01,2.691239393528485948e+02
3.656522882042400280e+00,-9.987291472370763756e+00,2.422457765539762775e+00,-6.832665432178854914e-01,3.251213979446967994e-01,-6.537896508198552947e-01,2.708473837991088544e+02
3.817443999181754144e+00,-1.025725276327954738e+01,2.760987812858395785e+00,-6.879420556188504676e-01,2.591318129784678237e-01,-6.779265680108803593e-01,2.725708282453691140e+02
3.964865938556531688e+00,-1.054026981668449459e+01,3.074608071451426561e+00,-6.892060039185806675e-01,1.918571726797654586e-01,-6.987015882732339200e-01,2.742942726916293736e+02
4.137251994869191485e+00,-1.091019253094871644e+01,3.429365570183828371e+00,-6.870521203347581540e-01,1.236310976214031465e-01,-7.160116868083169495e-01,2.764897229564932672e+02
4.266662386970262233e+00,-1.121019915206198547e+01,3.678261593908499716e+00,-6.814910863542392727e-01,5.479192654282293018e-02,-7.297710216274087003e-01,2.782646988824751020e+02
4.390383508676217517e+00,-1.150400796027116712e+01,3.896730323112701733e+00,-7.165000130519287858e-01,4.823598375133621163e-02,-6.959159584078464800e-01,2.800396748084569367e+02
4.509649146847011458e+00,-1.178610709538827095e+01,4.084778730072093467e+00,-7.497787500636273750e-01,4.156356251915954703e-02,-6.603804178065764141e-01,2.818146507344387715e+02
4.624086879490080015e+00,-1.205184327140093004e+01,4.243191862527563529e+00,-7.812469390867787800e-01,3.479077485651975443e-02,-6.232502083040741825e-01,2.835896266604206062e+02
4.732549087754346573e+00,-1.229698601062210628e+01,4.373143931931875450e+00,-8.108285934660200978e-01,2.793397510678910858e-02,-5.846149887329601391e-01,2.853646025864024409e+02
4.829314205377964520e+00,-1.250776978167477971e+01,4.471974591563744106e+00,-8.384522816221127162e-01,2.100972046733209225e-02,-5.445680518420339400e-01,2.870524924873593022e+02
4.916959370183120015e+00,-1.269404635588652397e+01,4.548482014634422477e+00,-8.640512994940204861e-01,1.403473102099644237e-02,-5.032060990947480050e-01,2.887403823883161635e+02
4.988106835758575386e+00,-1.285322006749881929e+01,4.604176536042441370e+00,-8.875638315777419907e-01,7.025849374374961397e-03,-4.606290072429860549e-01,2.904282722892730249e+02
5.033092060597271988e+00,-1.298314110492808027e+01,4.640487930690054164e+00,-9.089331001738548688e-01,0.000000000000000000e+00,-4.169395872378929835e-01,2.921161621902298862e+02
5.043822974707679485e+00,-1.308189084272810732e+01,4.658343404057874615e+00,-6.783331045798046688e-01,5.390142884848517779e-01,-4.993253408754618761e-01,2.938040520911867475e+02
5.015506074768169675e+00,-1.314752923654182304e+01,4.658474570192324471e+00,4.930994909503877768e-03,1.974097962046563945e-02,-9.997919678681019828e-01,2.954919419921436088e+02
4.945020287453904650e+00,-1.317801456949662331e+01,4.641652258004892673e+00,-7.894990794488210631e-03,9.999678340435189661e-01,-0.000000000000000000e+00,2.971798318931004701e+02
4.810305246125543555e+00,-1.316554658293534708e+01,4.602986960698878249e+00,-5.476658540163765743e-01,8.366959497606378804e-01,-0.000000000000000000e+00,2.990541810862090415e+02
4.608948272859846540e+00,-1.309901285111419078e+01,4.543336985494284441e+00,-9.132730123892169871e-01,4.073455594976950200e-01,-0.000000000000000000e+00,3.009285302793176129e+02
4.338552868994694833e+00,-1.297552026819864146e+01,4.464276098093286294e+00,-6.051112637003469574e-01,4.958913024062636676e-01,-6.228404087259294952e-01,3.028028794724261843e+02
4.059575210429238190e+00,-1.282734903061032306e+01,4.384426141285759471e+00,-0.000000000000000000e+00,3.410856895400514732e-01,-9.400311443733065930e-01,3.043951603683539702e+02
3.741880771007035644e+00,-1.264164578693250540e+01,4.295576665142128547e+00,-0.000000000000000000e+00,3.032083730870910876e-01,-9.529232301022695362e-01,3.059874412642817560e+02
3.387735483064814979e+00,-1.241737656188836247e+01,4.199174146477297143e+00,-0.000000000000000000e+00,2.648456641198230765e-01,-9.642897770771253763e-01,3.075797221602095419e+02
2.999417295597970323e+00,-1.215351888790277179e+01,4.096665115153363956e+00,2.587452932622455112e-02,2.536527468046950173e-01,-9.669481851529477812e-01,3.091720030561373278e+02
2.579874346884774017e+00,-1.184944663440601964e+01,3.989322002547135426e+00,5.172831063990009082e-02,2.422564405431955892e-01,-9.688312540859254085e-01,3.107642839520651137e+02
2.133376082875422686e+00,-1.150531934709067272e+01,3.878068991241678365e+00,7.754061354272295814e-02,2.306658832807344794e-01,-9.699374740372578296e-01,3.123565648479928996e+02
1.635096679652858764e+00,-1.109584708752283078e+01,3.756529002887452950e+00,1.032907408977081359e-01,2.188903687097631667e-01,-9.702659580398315109e-01,3.140456542926685870e+02
1.116641020007354212e+00,-1.064010686526440175e+01,3.632167830490767191e+00,1.289580454225762451e-01,2.069393388215702567e-01,-9.698164427194061465e-01,3.157347437373442745e+02
5.842168496844787340e-01,-1.013888306689801766e+01,3.505935296732556328e+00,1.545219462431682289e-01,1.948223763363837457e-01,-9.685892885056592849e-01,3.174238331820199619e+02
4.401926118076272126e-02,-9.592993712826313413e+00,3.378781239041605655e+00,1.799619453936331104e-01,1.825491970206837011e-01,-9.665854793432671066e-01,3.191129226266956493e+02
-4.977756760930822644e-01,-9.003715266640408998e+00,3.251052210012347121e+00,2.052576442501751475e-01,1.701296418978762437e-01,-9.638066219032478399e-01,3.208020120713713368e+02
-1.035025563817945748e+00,-8.373207383971735140e+00,3.121888182595362604e+00,2.303887598852023821e-01,1.575736693585656212e-01,-9.602549442952005299e-01,3.224911015160470242e+02
-1.531125093750994592e+00,-7.745726728582077669e+00,2.997877029474859789e+00,2.553351413287789917e-01,1.448913471767427075e-01,-9.559332942814664502e-01,3.240799573945994325e+02
-2.013477233503392583e+00,-7.088071613870898346e+00,2.870307239760419904e+00,2.800767857243597891e-01,1.320928444382813427e-01,-9.508451369946396836e-01,3.256688132731518408e+02
-2.477533632414325560e+00,-6.402342901767197780e+00,2.738388464234669861e+00,3.045938543658687214e-01,1.191884233882060246e-01,-9.449945521602511889e-01,3.272576691517042491e+02
-2.919325584790856354e+00,-5.690668037280375735e+00,2.602227534923265306e+00,3.288666886032765579e-01,1.061884312032581046e-01,-9.383862308268434704e-01,3.288465250302566574e+02
-3.335496764247374291e+00,-4.955196900423243456e+00,2.462659823070397991e+00,3.528758256039394858e-01,9.310329169634930235e-02,-9.310254716060490932e-01,3.304353809088090657e+02
-3.722924673670854556e+00,-4.198096768534871792e+00,2.320707346495701540e+00,3.766020139570734893e-01,7.994349695954319768e-02,-9.229181764256739751e-01,3.320242367873614739e+02
-4.078515065640176296e+00,-3.421550792185790613e+00,2.177392139682301941e+00,4.000262291088644284e-01,6.671959895225856862e-02,-9.140708457991822966e-01,3.336130926659138822e+02
-4.400244229206059288e+00,-2.627908347817972334e+00,2.033662114905645524e+00,4.231296886158479875e-01,5.344220104142902161e-02,-9.044905736153590059e-01,3.352019485444662905e+02
-4.688204055055682495e+00,-1.819828241239546118e+00,1.890316923881222078e+00,4.458938672043398777e-01,4.012194950039456309e-02,-8.941850414523134782e-01,3.367908044230186988e+02
-4.943563969954532844e+00,-1.000117346068267965e+00,1.748082083887217530e+00,4.683005116238483923e-01,2.676952497333283040e-02,-8.831625124203685839e-01,3.383796603015711071e+02
-5.158911405752339085e+00,-2.081142685272997783e-01,1.613733268285086009e+00,4.903316552825668362e-01,1.339563391206679069e-02,-8.714318245387554507e-01,3.398989494162532310e+02
-5.347727075285458653e+00,5.893081086744134112e-01,1.481595887907491305e+00,5.119696326532156005e-01,1.099999210732146763e-05,-8.590023836514056876e-01,3.414182385309353549e+02
-5.511078544603502216e+00,1.389818239741125616e+00,1.352276487781494341e+00,5.883369230451683807e-01,2.655734181836785779e-02,-8.081784286762258018e-01,3.429375276456174788e+02
-5.650062657119905296e+00,2.191089911559636061e+00,1.226381594882418824e+00,6.593387089250972721e-01,5.286148287271335428e-02,-7.499840868591320930e-01,3.444568167602996027e+02
-5.765805521297621361e+00,2.990802376780335781e+00,1.104517714253074878e+00,7.243274739386572625e-01,7.868353596804472661e-02,-6.849500796888770005e-01,3.459761058749817266e+02
-5.859462498071926539e+00,3.786640486848954268e+00,9.872913251230885923e-01,7.827105396909714852e-01,1.037880107500798593e-01,-6.136695037900558036e-01,3.474953949896638505e+02
-5.932218188010407900e+00,4.576294824987984455e+00,8.753088770283580233e-01,8.339554705257479217e-01,1.279459612594963380e-01,-5.367924218712496476e-01,3.490146841043459744e+02
-5.985286418210198356e+00,5.357461839126747449e+00,7.691767859306509747e-01,8.775949288781769164e-01,1.509370737903112936e-01,-4.550199342488850940e-01,3.505339732190280984e+02
-6.019910228932529250e+00,6.127843974779075609e+00,6.695014303373637565e-01,9.132309369495378304e-01,1.725516760098128877e-01,-3.690977850183825848e-01,3.520532623337102223e+02
-6.037433458247023488e+00,6.940841194698045946e+00,5.705579659474657728e-01,9.405385058652591113e-01,1.925926490246018807e-01,-2.798095611795188287e-01,3.536867832669289555e+02
-6.035586946286787935e+00,7.734524799922073868e+00,4.812039239425437986e-01,9.592685992442785414e-01,2.108772249629914108e-01,-1.879695467273383991e-01,3.553203042001476888e+02
-6.016469346163273890e+00,8.505812968899476800e+00,4.019510307925195924e-01,9.692504041732353803e-01,2.272386536880108276e-01,-9.441529685974703323e-02,3.569538251333664221e+02
-5.982854018798746232e+00,9.251558809181194221e+00,3.327140980196449105e-01,9.703928888893302851e-01,2.415277234480655844e-01,0.000000000000000000e+00,3.585873460665851553e+02
-5.937874053856731393e+00,9.968592263959932254e+00,2.731094429302460824e-01,9.969795307158221265e-01,-7.765188556165565636e-02,0.000000000000000000e+00,3.602208669998038886e+02
-5.884706553125522710e+00,1.065375979492672265e+01,2.227533115549495402e-01,9.988611377096775490e-01,-0.000000000000000000e+00,4.769095882966038757e-02,3.618543879330226218e+02
-5.826572590496886583e+00,1.130392459750038903e+01,1.812618814889705998e-01,9.996731843025228326e-01,-0.000000000000000000e+00,-2.552497917253214108e-02,3.634879088662413551e+02
-5.748232167047039987e+00,1.209754040809576026e+01,1.415091224587759766e-01,9.955207353933168690e-01,9.453287991519666866e-02,0.000000000000000000e+00,3.656618007839354050e+02
-5.677471812508390947e+00,1.279283315265151799e+01,1.196637330816451433e-01,9.546769266703760692e-01,0.000000000000000000e+00,-2.976406653668539071e-01,3.678356927016294549e+02
-5.635404021334784908e+00,1.322936521928500397e+01,1.122196158223061346e-01,5.764363129601857150e-01,-1.163998612659590233e-03,-8.171400260715380170e-01,3.693721637586841666e+02
-5.600999042979901255e+00,1.362788440015846625e+01,1.082998427199102498e-01,9.706551006283296035e-01,-0.000000000000000000e+00,-2.404717771881034194e-01,3.709086348157388784e+02
-5.575226075000442094e+00,1.398795338644164055e+01,1.059240217863036682e-01,9.737941657982212007e-01,-2.686673639228503649e-02,-2.258342337483312812e-01,3.724451058727935902e+02
-5.558333589122976370e+00,1.432000426773258006e+01,1.026307632755352056e-01,9.760120850502158607e-01,-5.370805700288585477e-02,-2.109830667344739785e-01,3.740395342029160020e+02
-5.552205063464559665e+00,1.460897081497001437e+01,9.571231487953259232e-02,9.773067605480686426e-01,-8.049857188170232714e-02,-1.959323243160105421e-01,3.756339625330384138e+02
-5.559386587250600975e+00,1.487636232554581106e+01,7.919164178893529915e-02,9.776769677594686625e-01,-1.072129391482243982e-01,-1.806962434355524616e-01,3.773981333598889591e+02
-5.582656438484856487e+00,1.508714034227392453e+01,4.800376995501146743e-02,9.771223566130220473e-01,-1.338258889609348079e-01,-1.652892363426467504e-01,3.791623041867395045e+02
-5.622844244052467744e+00,1.524259440022463785e+01,-3.225757440959433568e-03,9.756434518283629842e-01,-1.603122474184994761e-01,-1.497258769618677321e-01,3.809264750135900499e+02
-5.680177470977806564e+00,1.534473580038482687e+01,-7.970807773968559273e-02,9.732416524190192764e-01,-1.866469603701568225e-01,-1.340208871080628139e-01,3.826906458404405953e+02
-5.743295928587001775e+00,1.539504226942698573e+01,-1.703546329067655296e-01,9.699192303685130190e-01,-2.128051171128050589e-01,-1.181891225617835439e-01,3.842474504765693837e+02
-5.815849686593264067e+00,1.541256239871837863e+01,-2.841369933464386599e-01,9.656793284809476186e-01,-2.387619739523932916e-01,-1.022455590180606361e-01,3.858042551126981721e+02
-5.896827678921375160e+00,1.539886645640308060e+01,-4.251446693920070685e-01,9.605259574081237428e-01,-2.644929776073514649e-01,-8.620527792180264492e-02,3.873785761281259283e+02
-5.982241124858572512e+00,1.535588143538502415e+01,-5.938917863259437491e-01,9.544639918559890690e-01,-2.899737884319421033e-01,-7.008345220320545688e-02,3.889528971435536846e+02
-6.068185982598156336e+00,1.528626545537593096e+01,-7.915007732328657175e-01,9.474991659740129579e-01,-3.151803034375879053e-01,-5.389533192665155181e-02,3.905272181589814409e+02
-6.150722171013846662e+00,1.519265651853998023e+01,-1.019093860833889531e+00,9.396380679318406814e-01,-3.400886790904193435e-01,-3.765622986666246341e-02,3.921015391744091971e+02
-6.225862520956638058e+00,1.507752572600538699e+01,-1.277546051629858681e+00,9.308881336883505497e-01,-3.646753538634975311e-01,-2.138150702453493757e-02,3.936758601898369534e+02
-6.289564389187767723e+00,1.494303042350158073e+01,-1.567238091743319295e+00,9.212576399589996745e-01,-3.889170705223988778e-01,-5.086558099346744945e-03,3.952501812052647097e+02
-6.339758844735203347e+00,1.477848392282843548e+01,-1.914919406606015784e+00,9.107556963880997225e-01,-4.127908981230992702e-01,1.121320307293541436e-02,3.969421508560849929e+02
-6.365147431013879142e+00,1.459497605159400813e+01,-2.301724691329287698e+00,8.993922369334128586e-01,-4.362742537013656885e-01,2.750235809848780230e-02,3.986341205069052762e+02
-6.360538266341764668e+00,1.439494866064363165e+01,-2.727081482530652856e+00,8.871780104712041481e-01,-4.593449236331549890e-01,4.376549860902147898e-02,4.003260901577255595e+02
-6.326920748543252593e+00,1.419768602997998563e+01,-3.151478037798926213e+00,8.741245706306208785e-01,-4.819810846458282283e-01,5.998724083575198568e-02,4.018894274981638546e+02
-6.270608210584754261e+00,1.400754293161904229e+01,-3.564448908911314273e+00,8.602442648669942349e-01,-5.041613244603181387e-01,7.615224016017313469e-02,4.033279978224805404e+02
-6.200810004561864375e+00,1.383266146198088187e+01,-3.946049791507976412e+00,8.455502227843826324e-01,-5.258646620447340325e-01,9.224520562788109113e-02,4.046076431591168330e+02
-5.993798467682910136e+00,1.348602248299119566e+01,-4.693036107815064639e+00,8.300563437183797744e-01,-5.470705674602559521e-01,1.082509144117311389e-01,4.070017554401334792e+02
-5.871763665507600649e+00,1.332587413653325470e+01,-5.031570139768389183e+00,7.429301180668868021e-01,-6.265461117362475241e-01,2.355691183845560477e-01,4.080531984137069799e+02
-5.623075548530132473e+00,1.303490929114945018e+01,-5.623942059002496663e+00,6.334288717749341213e-01,-6.871517416853971660e-01,3.557925635816819865e-01,4.099016829047124020e+02
-5.325513368547955650e+00,1.272935684035215154e+01,-6.199208812620044640e+00,5.048504550707269001e-01,-7.270622152181295261e-01,4.653004977604566772e-01,4.117501673957178241e+02
-4.983599899499645325e+00,1.240843187336774989e+01,-6.738519683334288857e+00,5.239552306718643360e-01,-6.057048886255536058e-01,5.988242681685282953e-01,4.135986518867232462e+02
-4.602551753545427005e+00,1.207168818558031909e+01,-7.222985329375338992e+00,5.258107432200209708e-01,-4.644070262411141292e-01,7.126339707685243052e-01,4.154471363777286683e+02
-4.162011251348771701e+00,1.169700175167957568e+01,-7.652696153187560135e+00,5.103559144679159498e-01,-3.078203207817371556e-01,8.029828707279407229e-01,4.174078258605113092e+02
-3.691720688126236549e+00,1.130452030348377868e+01,-7.970266938755667496e+00,4.780995355578068207e-01,-1.410997817095064610e-01,8.668965830489062663e-01,4.193685153432939501e+02
-3.265605009399018321e+00,1.094944329634389035e+01,-8.148352947654545986e+00,4.301035175187940540e-01,3.026596604826698247e-02,9.022709878511181447e-01,4.210780970384075204e+02
-2.832564059208683815e+00,1.058483724958657390e+01,-8.238005930182474401e+00,0.000000000000000000e+00,-1.168708951519396300e-01,9.931461090215998322e-01,4.227876787335210906e+02
-2.399094656145489779e+00,1.021271177160336840e+01,-8.241081014855401676e+00,-0.000000000000000000e+00,-0.000000000000000000e+00,9.999989999924441264e-01,4.244972604286346609e+02
-1.971401266079839676e+00,9.835306453717057806e+00,-8.159818825115625174e+00,-1.161848472904061791e-01,1.341998236121057881e-03,9.932256945363709955e-01,4.262068421237482312e+02
-1.559831533577035634e+00,9.459724778952770308e+00,-8.000037952749819326e+00,-9.302458479231964783e-02,4.014339024324637371e-03,9.956547150960320947e-01,4.278964229234440495e+02
-1.220722245259152183e+00,9.139746679030420040e+00,-7.808588727465640922e+00,-6.981320943674672319e-02,6.684474332361906371e-03,9.975366828229664806e-01,4.293354488072124582e+02
-8.101357045028474424e-01,8.736357760295502928e+00,-7.493610206178239252e+00,-4.656347076063446083e-02,9.350937505758039753e-03,9.988705637591858144e-01,4.311642364071363431e+02
-4.274086433523403006e-01,8.340012576992888782e+00,-7.097179670046627642e+00,-2.328813938002751924e-02,1.201226390240998920e-02,9.996556247357402114e-01,4.329930240070602281e+02
-7.539965902087059080e-02,7.953833574351517832e+00,-6.628102250810758100e+00,-0.000000000000000000e+00,1.466699169430323718e-02,9.998914337765223426e-01,4.348218116069841130e+02
2.430798324768599084e-01,7.580960052536688032e+00,-6.095183753777065228e+00,-7.217103253061220025e-01,5.166585169996518179e-01,4.606475693617175238e-01,4.366505992069079980e+02
5.647566611668345393e-01,7.170639394724300786e+00,-5.403095663015551331e+00,-5.024135394077114958e-01,7.294793312430333243e-01,4.641535744828904630e-01,4.387747795449688510e+02
8.311692668977758158e-01,6.790833482796020171e+00,-4.642959364682605283e+00,-7.805059566588116171e-01,3.310727233091743105e-01,5.302822866160723514e-01,4.408989598830297041e+02
1.034777533365228708e+00,6.462668232772523780e+00,-3.878503341265334026e+00,-8.709360646310240206e-01,-1.469368435940107964e-01,4.689114365375537385e-01,4.429084787836207511e+02
1.194713601466142583e+00,6.167258221504456905e+00,-3.086524161676368117e+00,-7.519600857339147071e-01,-5.896177971558104192e-01,2.947963411164945535e-01,4.449179976842117981e+02
1.292358738333899915e+00,5.962498780256759723e+00,-2.471715069196407821e+00,-4.521842911793911290e-01,-8.905319889692231428e-01,4.980103844248604666e-02,4.464545876710864150e+02
1.373911418454772715e+00,5.774113896920230360e+00,-1.856339197439900834e+00,-4.368697578786884250e-02,-9.773284583464662001e-01,-2.071678851837208402e-01,4.479911776579610319e+02
1.441483189023619049e+00,5.602584399556392647e+00,-1.245283996783198788e+00,-2.685116056345077662e-01,-9.387736212144522918e-01,-2.158786829369707672e-01,4.495277676448356488e+02
1.497999477288036507e+00,5.446293827555092726e+00,-6.347236728126931515e-01,-5.019516136385371308e-01,-7.877551922558253539e-01,-3.570494848534851995e-01,4.510868644251565343e+02
1.544485537682318999e+00,5.308313238330534034e+00,-3.856543647075380554e-02,-6.865874504554446700e-01,-5.601420263994217885e-01,-4.635046743316877937e-01,4.526459612054774198e+02
1.590493367892815035e+00,5.166981948503019062e+00,6.649907352689876650e-01,-8.044661251533606894e-01,-2.780639580095519703e-01,-5.248930259779570617e-01,4.545652864476153354e+02
1.628437040555149817e+00,5.059817096230480260e+00,1.324271939594977132e+00,-8.441248279987034753e-01,3.105235780018392872e-02,-5.352448279162121958e-01,4.564846116897532511e+02
1.658440371455781381e+00,4.993746852089806509e+00,1.842779062007444457e+00,-8.017065174502226998e-01,3.371499636529904920e-01,-4.935529980317618359e-01,4.581012057756331615e+02
1.689950236130138173e+00,4.947255549444959044e+00,2.326792293430196779e+00,-6.813357326158541172e-01,6.104649551177712130e-01,-4.038714622457345582e-01,4.597177998615130718e+02
1.725731027834786158e+00,4.919897719839009476e+00,2.772837690223184381e+00,-4.947174464470727173e-01,8.244217198471910368e-01,-2.749208540891341368e-01,4.613343939473929822e+02
1.768292530631351722e+00,4.911150581278310945e+00,3.177935795738275893e+00,-2.599980547326616320e-01,9.582175319228685151e-01,-1.192399808977271242e-01,4.629509880332728926e+02
1.819640167389118934e+00,4.920352829667349326e+00,3.540095873787303393e+00,-0.000000000000000000e+00,9.988447030609834965e-01,4.803393763085728879e-02,4.645675821191528030e+02
1.881521739913641911e+00,4.946770251979204502e+00,3.857821711180092539e+00,-0.000000000000000000e+00,9.998087923684008116e-01,1.950329944675330968e-02,4.661841762050327134e+02
1.957881759049999726e+00,4.991149815796122269e+00,4.135197577406263036e+00,-0.000000000000000000e+00,9.999581091659919263e-01,-9.043223972639461566e-03,4.678412304909839463e+02
2.049362282689771053e+00,5.052445491817248779e+00,4.361457081191834284e+00,-0.000000000000000000e+00,9.992925322310477476e-01,-3.758237637286021560e-02,4.694982847769351793e+02
2.157860188540841939e+00,5.129816678057527390e+00,4.534949648558154855e+00,-0.000000000000000000e+00,9.978126036139498556e-01,-6.609090750926480129e-02,4.711553390628864122e+02
2.284920460394845865e+00,5.222731635246520732e+00,4.654925684231185024e+00,-0.000000000000000000e+00,9.968731426564392262e-01,-7.900593205231017102e-02,4.728123933488376451e+02
2.431041948736353930e+00,5.331203215650231364e+00,4.722848843852489154e+00,-0.000000000000000000e+00,9.968731420280737554e-01,-7.900593200250984049e-02,4.744694476347888781e+02
2.595666236462236931e+00,5.455390518967526248e+00,4.741907135331288714e+00,-1.043608991941315789e-01,9.912163797162940604e-01,-8.122124908070227356e-02,4.761265019207401110e+02
2.766130856350120126e+00,5.586160613507129113e+00,4.719575525913579206e+00,-2.075813306549647019e-01,9.747274791966015206e-01,-8.254897009198614022e-02,4.776849414182245255e+02
2.950541180698690535e+00,5.730096764659586839e+00,4.662404992131913950e+00,-3.085332896694530369e-01,9.475866331467140968e-01,-8.297458555535884572e-02,4.792433809157089399e+02
3.148184834728460668e+00,5.887266687087964634e+00,4.573212625081004568e+00,-4.061135613221051877e-01,9.100904388975965542e-01,-8.249344421273138717e-02,4.808018204131933544e+02
3.357970064509453234e+00,6.057636886405917132e+00,4.454806966723396044e+00,-4.992557764327715253e-01,8.626486580214783872e-01,-8.111080392170158526e-02,4.823602599106777689e+02
3.580253375844582475e+00,6.242873239849235922e+00,4.308338997896937528e+00,-5.869420648891549019e-01,8.057797385786108491e-01,-7.884177420857216290e-02,4.839337802713719157e+02
3.810792919196559048e+00,6.441115918861772371e+00,4.137566501604041491e+00,-6.682141790337615683e-01,7.401051496430106624e-01,-7.571115116405761902e-02,4.855073006320660625e+02
4.047258479843113932e+00,6.652032084113642441e+00,3.945381545078046948e+00,-7.421839655505945155e-01,6.663425900012350800e-01,-7.175314648453504085e-02,4.870808209927602093e+02
4.287315724746687984e+00,6.875300839513733386e+00,3.734676342513469027e+00,-8.080430714105388823e-01,5.852981452213878999e-01,-6.701101361832946524e-02,4.886543413534543561e+02
4.572571727444177725e+00,7.156643236334041980e+00,3.463730747645473063e+00,-8.650717777989398449e-01,4.978574787837349858e-01,-6.153657510097229610e-02,4.905162175005103791e+02
4.855081798701148976e+00,7.457589694691765025e+00,3.172568013323333158e+00,-9.126468654734968267e-01,4.049761535237199062e-01,-5.538965624334377114e-02,4.923780936475664021e+02
5.129985955942566456e+00,7.777312791206115072e+00,2.866413746184107936e+00,-9.502484255816627812e-01,3.076691891470837437e-01,-4.863743136029205494e-02,4.942399697946224251e+02
5.391892362962138918e+00,8.114462429375985053e+00,2.549605082709232029e+00,-9.774655414889854566e-01,2.069999699308046059e-01,-4.135368968349387858e-02,4.961018459416784481e+02
5.634021628147665162e+00,8.465593591829840392e+00,2.227682084829588405e+00,-9.940007795075153085e-01,1.040686238308485834e-01,-3.361802898049865568e-02,4.979543546617159109e+02
5.852180161246323564e+00,8.830786873508506218e+00,1.902914350847878300e+00,-9.996734394317157157e-01,0.000000000000000000e+00,-2.551498569243596318e-02,4.998068633817533737e+02
6.040777740794416317e+00,9.208361950560970399e+00,1.578065793885931711e+00,-8.817421944340054774e-01,0.000000000000000000e+00,-4.717294802694306233e-01,5.016593721017908365e+02
6.194240304925693330e+00,9.596299783849138620e+00,1.253797602875471817e+00,-5.759863546497749898e-01,0.000000000000000000e+00,-8.174580840985133934e-01,5.035118808218282993e+02
6.317140715793538419e+00,1.007170504528296462e+01,8.662366560457466225e-01,-9.988620449104033128e-01,0.000000000000000000e+00,4.767195441714103948e-02,5.057270832796972968e+02
6.359539128337108771e+00,1.055714425592014116e+01,4.774205916627359825e-01,-9.546707119054288482e-01,-0.000000000000000000e+00,-2.976605983798433774e-01,5.079422857375662943e+02
6.301549566560125548e+00,1.108927965662048898e+01,5.204647042745597085e-02,-9.796745246587165168e-01,-0.000000000000000000e+00,2.005886979233616751e-01,5.103365104308559239e+02
6.199298354835326208e+00,1.146673799468296906e+01,-2.518045694502230036e-01,-9.919216726385305938e-01,-0.000000000000000000e+00,1.268439803264406474e-01,5.120221874069994783e+02
6.072203679250546493e+00,1.180993761416766219e+01,-5.299584102421380782e-01,-9.986256781080270484e-01,-0.000000000000000000e+00,5.239040959916777679e-02,5.135516736204031076e+02
5.914175614540202908e+00,1.215321984858410787e+01,-8.093939031139749662e-01,-9.997490736100211883e-01,-0.000000000000000000e+00,-2.235597928444674545e-02,5.150811598338067370e+02
5.699281499771013948e+00,1.253542231037388888e+01,-1.120738053610900398e+00,-9.997490729075863003e-01,-0.000000000000000000e+00,-2.235597926873918173e-02,5.167870918690236977e+02
