3.428312375389779731e+00,6.132080710162520099e+00,-9.133876940765887076e-01,-9.198461773529198471e-01,3.896294044302756054e-01,4.549656265387468090e-02,2.231002242856899542e+01
3.594512899378256243e+00,5.796425107378314401e+00,-1.111929621617832264e+00,-8.961866411628904849e-01,4.234091010087353557e-01,1.325603160260409863e-01,2.398781657771844067e+01
3.753035214060605362e+00,5.426019490816868185e+00,-1.300880397568855651e+00,-8.642096347303513948e-01,4.532591560632304728e-01,2.183937835306933029e-01,2.566561072686788592e+01
3.887711764111434043e+00,5.066495045508601081e+00,-1.463056001169858567e+00,-8.242119356622915616e-01,4.789025320786539641e-01,3.022003472553502768e-01,2.717037033555352465e+01
4.014496866710296707e+00,4.683365938414175034e+00,-1.619178036640235963e+00,-7.765647616856108382e-01,5.001012337829556786e-01,3.832022010345740304e-01,2.867512994423916339e+01
4.132180323926424315e+00,4.277673297413215892e+00,-1.769652893696214813e+00,-7.217103253062072676e-01,5.166585169997127691e-01,4.606475693617719247e-01,3.017988955292480213e+01
4.251730581090725991e+00,3.790980903290531501e+00,-1.933499726746444658e+00,-6.830659609706232205e-01,6.550686637882738861e-01,3.229612030662342148e-01,3.188581978371834680e+01
4.353257631351842960e+00,3.277234156316043645e+00,-2.090358224736752479e+00,-6.173665117571922600e-01,7.675325526342523519e-01,1.724829580217883962e-01,3.359175001451188791e+01
4.434014945375964523e+00,2.739759663878315710e+00,-2.240884447989077710e+00,-5.272142253730137673e-01,8.495957517032641793e-01,1.517297770659927804e-02,3.529768024530542903e+01
4.490979298921922158e+00,2.182053306824678796e+00,-2.385678852977515696e+00,-8.702658960748291817e-01,4.925043183370537703e-01,8.646765285194882300e-03,3.700361047609897014e+01
4.520509578966427355e+00,1.588824249086188356e+00,-2.529597915179585765e+00,-9.998919759349480518e-01,1.462998501632503667e-02,0.000000000000000000e+00,3.876497308659306640e+01
4.515554181817407198e+00,9.820754150157430251e-01,-2.668239602710452907e+00,-9.998919679150287676e-01,1.463048489846496304e-02,-0.000000000000000000e+00,4.052633569708716266e+01
4.471750697213594528e+00,3.663775974744456487e-01,-2.802096723958981350e+00,-9.998919606002018012e-01,1.463098479091418103e-02,-0.000000000000000000e+00,4.228769830758125892e+01
4.385292437173029079e+00,-2.536604343462531275e-01,-2.931437981449327879e+00,-9.986771916293771811e-01,5.606302119080827304e-03,-5.109242888494943541e-02,4.404906091807535518e+01
4.253440800713319980e+00,-8.733899417078778704e-01,-3.056083822551560747e+00,-9.947726228045428165e-01,-3.433479874166002737e-03,-1.020472445880236667e-01,4.581042352856945143e+01
4.150600117903816333e+00,-1.258484275551495779e+00,-3.131707836768715669e+00,-9.881887697143983962e-01,-1.246401601465950762e-02,-1.527272199324519464e-01,4.690964255100129066e+01
3.937123050953598380e+00,-1.903799344655039860e+00,-3.255207515585418321e+00,-9.789433609053522778e-01,-2.146098598938219609e-02,-2.029958674759157755e-01,4.877315272108899791e+01
3.665947544694606375e+00,-2.533792172271241316e+00,-3.370531787932268930e+00,-9.712492437917624732e-01,-2.129274942670876525e-02,2.371065694069642293e-01,5.063666289117670516e+01
3.403013801057584775e+00,-3.038109684136392374e+00,-3.458634526505075524e+00,-7.753758227629558020e-01,-1.699904785987610759e-02,6.312696459096401869e-01,5.217061025651571526e+01
3.108549020313581490e+00,-3.527713689359686544e+00,-3.539992583288162464e+00,-4.292736469358403029e-01,-9.411787585262072764e-03,9.031243293708580699e-01,5.370455762185472537e+01
2.783472236866514127e+00,-3.999979006787736768e+00,-3.613448894020558022e+00,-0.000000000000000000e+00,-9.999989999994787901e-07,9.999989999994787215e-01,5.523850498719373547e+01
2.428723978793860372e+00,-4.452286077097435069e+00,-3.677846445959647159e+00,-3.284508388772175436e-01,3.390725810709574461e-02,9.439111951283090107e-01,5.677245235253274558e+01
1.779229292177515465e+00,-5.114010838512030865e+00,-3.750821881427520044e+00,-6.200574967888745626e-01,6.401194805074594818e-02,7.819393654127396731e-01,5.924054120297004289e+01
1.325485882588223197e+00,-5.484487949775203930e+00,-3.776042294204992711e+00,-6.712518812307376459e-01,2.381798725189455124e-01,7.019182717893380774e-01,6.078681339926504990e+01
8.486372726960603741e-01,-5.827526711425345951e+00,-3.788675468302188598e+00,-6.960266023595524931e-01,4.029732585776916176e-01,5.942705795175969863e-01,6.233308559556005690e+01
3.515833044515492278e-01,-6.141855101666821248e+00,-3.788190976249649289e+00,-6.934065915919782608e-01,5.519060692898628551e-01,4.632331911890715248e-01,6.387935779185506391e+01
-1.627659546614644848e-01,-6.426219031160314010e+00,-3.774058477505169762e+00,-6.634949939576905154e-01,6.791165338788519579e-01,3.139635749685511512e-01,6.542562998815007802e+01
-6.914902573893842996e-01,-6.679382395439231956e+00,-3.745747721969912458e+00,-6.074690999518655987e-01,7.795978449197072946e-01,1.523367742923392998e-01,6.697190218444508503e+01
-1.452459244900974111e+00,-6.966464212692912383e+00,-3.675439368115620553e+00,-4.499992964605512838e-04,3.515004504559560705e-01,9.361865363440234900e-01,6.913434444845205462e+01
-2.232892535822573521e+00,-7.161925612141661013e+00,-3.564112648341291489e+00,1.074092225954319385e-01,3.556308924055112675e-01,9.284330494281067825e-01,7.129678671245902422e+01
-2.945599677404381556e+00,-7.260409798959678085e+00,-3.431544243197588884e+00,2.140105993882235880e-01,3.555966076502897755e-01,9.098068564146577497e-01,7.325162535241493345e+01
-3.655650200142238404e+00,-7.286749879928208884e+00,-3.274108792593187545e+00,3.181057433932625855e-01,3.513979971210160480e-01,8.805260834532513403e-01,7.520646399237084267e+01
-4.273300167299278307e+00,-7.252938305250807183e+00,-3.118921720224804073e+00,4.184756162544464586e-01,3.430842292070773181e-01,8.409336301229387578e-01,7.693082100185546324e+01
-4.876836374673629848e+00,-7.169613065393611429e+00,-2.952812904760473423e+00,5.139448047702303013e-01,3.307526640361642123e-01,7.914931540351398676e-01,7.865517801134008380e+01
-5.460277502499853775e+00,-7.037936947167157342e+00,-2.779222791637498080e+00,6.033952859155212733e-01,3.145477134025179700e-01,7.327836412816001177e-01,8.037953502082470436e+01
-6.038935736948098487e+00,-6.850404407460633394e+00,-2.594858463473348920e+00,6.857795198669369707e-01,2.946591496850404224e-01,6.654926262849454321e-01,8.217271578294187862e+01
-6.582151356164025024e+00,-6.612258901021768942e+00,-2.411032253532781056e+00,7.601327176951844233e-01,2.713198835489084582e-01,5.904081404265533184e-01,8.396589654505905287e+01
-7.083471445894584662e+00,-6.325520487711827400e+00,-2.232412570795777818e+00,8.255841400449417389e-01,2.448032364460373256e-01,5.084094837169512715e-01,8.575907730717622712e+01
-7.536461559464332716e+00,-5.992255426022053300e+00,-2.063667777771564626e+00,8.813672944634173279e-01,2.154197398477731840e-01,4.204569275629054248e-01,8.755225806929340138e+01
-7.934709061234721084e+00,-5.615529904819803519e+00,-1.909144583841036580e+00,9.268289119316382996e-01,1.835134986880965213e-01,3.275804692107192606e-01,8.934543883141057563e+01
-8.285562550477422405e+00,-5.181018579495791698e+00,-1.766929339663741105e+00,9.614365974470340248e-01,1.494581616021702364e-01,2.308677695595259260e-01,9.121560967976374457e+01
-8.568591881731171256e+00,-4.710050548448594832e+00,-1.646286445272392207e+00,9.847850650348168866e-01,1.136525451531502084e-01,1.314514156104658882e-01,9.308578052811691350e+01
-8.785882715932123332e+00,-4.209654343608765004e+00,-1.548350854717446268e+00,9.966008841470649360e-01,7.651596329547478981e-02,3.049565673460798501e-02,9.495595137647008244e+01
-8.940753089851714464e+00,-3.686743685175093876e+00,-1.474052577653330642e+00,9.967456818477095082e-01,3.848331677754057017e-02,-7.081722988926540674e-02,9.682612222482325137e+01
-9.026202083356023920e+00,-3.254099747491875583e+00,-1.430347278881106909e+00,9.852177632738948754e-01,0.000000000000000000e+00,-1.713007849692113893e-01,9.833373973987664840e+01
-9.082450005792209069e+00,-2.816052331717575186e+00,-1.399806988801711283e+00,9.822539118468358588e-01,-4.999466703921053717e-02,-1.807644487465892846e-01,9.984135725493004543e+01
-9.111245997729277235e+00,-2.375353197870700761e+00,-1.382528805324220622e+00,9.767383442979448160e-01,-9.985945663523160265e-02,-1.897585194400046027e-01,1.013489747699834425e+02
-9.114409007480920977e+00,-1.934513373355235100e+00,-1.378105355694356327e+00,9.686853890697803005e-01,-1.494648295035366781e-01,-1.982596321635923808e-01,1.028565922850368395e+02
-9.089161883923051022e+00,-1.451696529225550369e+00,-1.388047365592614435e+00,9.581159662082801010e-01,-1.986819202727210520e-01,-2.062457026338878896e-01,1.045178692362587043e+02
-9.035070812671442297e+00,-9.753754844440943872e-01,-1.413334124219093768e+00,9.450575330182132694e-01,-2.473828722423615512e-01,-2.136959845389297119e-01,1.061791461874805691e+02
-8.954943617608524420e+00,-5.090292393141514493e-01,-1.452992839060381014e+00,9.295440127377249118e-01,-2.954411695209087085e-01,-2.205911234319283543e-01,1.078404231387024339e+02
-8.851348441580178417e+00,-5.583165404326877884e-02,-1.505499857364346772e+00,9.116157064171496183e-01,-3.427319656810298154e-01,-2.269132070095228049e-01,1.095017000899242987e+02
-8.726339146619210396e+00,3.816325361089265011e-01,-1.568229927567196258e+00,8.913191882308911795e-01,-3.891324080788539086e-01,-2.326458116440386081e-01,1.111629770411461635e+02
-8.581720892116820210e+00,8.010779646082958338e-01,-1.638006969615734221e+00,8.687071844941705034e-01,-4.345219569948143290e-01,-2.377740450488799728e-01,1.128242539923680283e+02
-8.435776277633893372e+00,1.164660103290747317e+00,-1.704640125590705768e+00,8.438384366987473628e-01,-4.787826987672111345e-01,-2.422845849662255691e-01,1.143302178281148826e+02
-8.277714183121114289e+00,1.511551656301677093e+00,-1.772011468151383440e+00,8.167775489232107500e-01,-5.217996521051909697e-01,-2.461657137765187464e-01,1.158361816638617370e+02
-8.108793098843051439e+00,1.840232344542229281e+00,-1.837976142634849763e+00,7.875948200139950561e-01,-5.634610667855297628e-01,-2.494073489398280219e-01,1.173421454996085913e+02
-7.930400293469727302e+00,2.149503027591644688e+00,-1.900301097868679179e+00,7.563660609728442008e-01,-6.036587139573470484e-01,-2.520010691899710054e-01,1.188481093353554456e+02
-7.744234910955505313e+00,2.438800434839145215e+00,-1.956555078325274977e+00,7.231723980248435657e-01,-6.422881673006494152e-01,-2.539401364133194172e-01,1.203540731711023000e+02
-7.552256478471758960e+00,2.707951859276116480e+00,-2.004152740725546167e+00,6.881000618783585931e-01,-6.792490743083143823e-01,-2.552195131554040319e-01,1.218600370068491543e+02
-7.304399981970214561e+00,3.014998999497865650e+00,-2.044881629990082939e+00,6.512401637240728958e-01,-7.144454169867490156e-01,-2.558358757097903835e-01,1.237621414765324772e+02
-7.054145889915295342e+00,3.282329405888364082e+00,-2.056533781900133473e+00,6.126884585547891504e-01,-7.477857612978988655e-01,-2.557876227551627024e-01,1.256642459462158001e+02
-6.805757839901664497e+00,3.511638403080755477e+00,-2.033835307334345366e+00,5.725450964206028059e-01,-7.791834946945007667e-01,-2.550748795181188577e-01,1.275663504158991230e+02
-6.561833561690149530e+00,3.706084148223039776e+00,-1.971417025378134014e+00,5.309143622654241002e-01,-8.085570511313627806e-01,-2.536994974507923439e-01,1.294794431795102696e+02
-6.326953154767483767e+00,3.866487366757362043e+00,-1.864945906765905548e+00,4.879044050205086913e-01,-8.358301229679577782e-01,-2.516650494240727509e-01,1.313925359431214019e+02
-6.144063156940730686e+00,3.974373313229948579e+00,-1.748236988837741812e+00,4.436269566585999691e-01,-8.609318592116462776e-01,-2.489768204488413406e-01,1.329355150966478618e+02
-5.965595637643057003e+00,4.065970763771817431e+00,-1.606879860990898967e+00,3.981970419383954463e-01,-8.837970495863008979e-01,-2.456417939492583635e-01,1.344784942501743217e+02
-5.762410646708191031e+00,4.150697900437593901e+00,-1.409201471813171791e+00,3.517326795932781969e-01,-9.043662939479109042e-01,-2.416686336236976984e-01,1.362741049894825949e+02
-5.562543511795275286e+00,4.210280815704252610e+00,-1.174886327240344253e+00,3.043545757405099472e-01,-9.225861566067997677e-01,-2.370676609403877810e-01,1.380697157287908681e+02
-5.364357202770904998e+00,4.244323912711022828e+00,-9.066282434493574405e-01,2.561858103073418325e-01,-9.384093051552879761e-01,-2.318508283261673519e-01,1.398653264680991413e+02
-5.195390769601528014e+00,4.254043749682815623e+00,-6.540119288770851469e-01,4.043724195786259634e-01,-8.507785853295445344e-01,-3.356437769756148715e-01,1.414041005170149106e+02
-5.027200787790452985e+00,4.246756049391910537e+00,-3.848141505825181663e-01,5.362181114889110756e-01,-7.287662364327910369e-01,-4.258731143628075033e-01,1.429428745659306799e+02
-4.859828117598630648e+00,4.222032162893873952e+00,-1.014061754528854525e-01,6.463946713253916343e-01,-5.773025887672170731e-01,-4.988924231447067759e-01,1.444816486148464492e+02
-4.693317359652041887e+00,4.179443547037318574e+00,1.938406363279740474e-01,7.304493860396690241e-01,-4.025082866689837502e-01,-5.517506443855251241e-01,1.460204226637622185e+02
-4.527733353536817162e+00,4.118603319718140199e+00,4.985080724026971222e-01,7.849850766743764474e-01,-2.114470514672015244e-01,-5.823114062117499268e-01,1.475591967126779878e+02
-4.363177197062820589e+00,4.039207951472297609e+00,8.100843096709763325e-01,8.077975110764644695e-01,-1.184024876842382917e-02,-5.893394519172803214e-01,1.490979707615937571e+02
-4.181965387216537877e+00,3.927811116712386585e+00,1.160987533306310215e+00,7.979645992606257954e-01,1.882452144961680451e-01,-5.725506418863264280e-01,1.508056497649079972e+02
-4.003446004853895346e+00,3.790168486202793563e+00,1.514208425712518125e+00,7.558837251493367715e-01,3.807230269304047177e-01,-5.326234793914758070e-01,1.525133287682222374e+02
-3.830771669040359928e+00,3.625257238263023485e+00,1.866623584871599961e+00,6.832556818973445356e-01,5.578144152333716077e-01,-4.711716792161236289e-01,1.542210077715364775e+02
-3.668092393872190549e+00,3.431866011351290879e+00,2.215362091645929343e+00,5.830158619804859388e-01,7.123626240725202674e-01,-3.906788917893177504e-01,1.559286867748507177e+02
-3.521881666672864952e+00,3.213227802671761779e+00,2.551716211217071262e+00,4.592155101866699507e-01,8.381221807179600747e-01,-2.943982428318396849e-01,1.576064998735415656e+02
-3.392712574968471007e+00,2.965626231033638316e+00,2.879284173519485179e+00,3.168578814249418674e-01,9.300112385756803546e-01,-1.862207805139750871e-01,1.592843129722324136e+02
-3.283612987767895675e+00,2.688779932665328776e+00,3.195688442725116207e+00,1.616959681139758798e-01,9.843168191964035696e-01,-7.051817736416654547e-02,1.609621260709232615e+02
-3.196631375136412601e+00,2.383208727467347909e+00,3.498925017938735671e+00,0.000000000000000000e+00,9.988447030609716171e-01,4.803393763085671286e-02,1.626399391696141095e+02
-3.130960672382600229e+00,2.037632309169730149e+00,3.797278414745428154e+00,9.999988887670539232e-07,-4.977924468360180876e-01,-8.672950362321107942e-01,1.643777764761805429e+02
-3.090491082902154130e+00,1.664330724905979331e+00,4.078023646986022044e+00,0.000000000000000000e+00,9.988447030629378220e-01,4.803393763095126917e-02,1.661156137827469763e+02
-3.075142336844670421e+00,1.265729217944703500e+00,4.339801540525821899e+00,-0.000000000000000000e+00,9.978126036139498556e-01,-6.609090750926480129e-02,1.678534510893134097e+02
-3.084710121238994240e+00,8.445159363071249592e-01,4.581358712730153826e+00,4.894745649099760398e-01,3.309397058303437111e-02,-8.713882254299792907e-01,1.695912883958798432e+02
-3.118761111803961317e+00,4.039046965423910285e-01,4.801653215687557541e+00,0.000000000000000000e+00,9.968731427319673655e-01,-7.900593205829604948e-02,1.713291257024462766e+02
-3.173667026954263282e+00,-3.449218455605344152e-02,4.992925466833731285e+00,-0.000000000000000000e+00,9.968731420280737554e-01,-7.900593200250984049e-02,1.729997892893018445e+02
-3.249379138423248214e+00,-4.840661694673697446e-01,5.163674713134626337e+00,1.882960363597710463e-01,9.024538070779593024e-01,-3.874528729825248985e-01,1.746704528761574124e+02
-3.345359627599299390e+00,-9.418570095968460398e-01,5.313101663867880298e+00,3.503228603640040073e-01,6.821329465671234216e-01,-6.418461939706995301e-01,1.763411164630129804e+02
-3.461043755203994543e+00,-1.404908281179291452e+00,5.440407193257896346e+00,4.634760755981825464e-01,3.666475369304529885e-01,-8.066954264227983451e-01,1.780117800498685483e+02
-3.595839872371165757e+00,-1.870267535120796465e+00,5.544792346658447002e+00,5.119696326536163911e-01,1.099999210733007517e-05,-8.590023836520779277e-01,1.796824436367241162e+02
-3.756063549882489472e+00,-2.353677329280700725e+00,5.627677544942160992e+00,4.531930647540909352e-01,8.860055499714526210e-06,-8.914112664629185723e-01,1.814207000302306767e+02
-3.936370883917092112e+00,-2.833054431215414226e+00,5.682939535526387864e+00,3.923748667014474445e-01,6.680204720996110936e-06,-9.198043074118226192e-01,1.831589564237372372e+02
-4.136252675096788067e+00,-3.305293818932667715e+00,5.709726242434536303e+00,3.297890180242481484e-01,4.470259746196045444e-06,-9.440536020627352531e-01,1.848972128172437976e+02
-4.347957770275190370e+00,-3.753453693925292267e+00,5.708174352233811533e+00,2.657174601260933189e-01,2.240176094637206427e-06,-9.640499112473528420e-01,1.865816617169487870e+02
-4.576956662428635525e+00,-4.190069844924205533e+00,5.679326916463167230e+00,2.004488266896339022e-01,0.000000000000000000e+00,-9.797031529373612102e-01,1.882661106166537763e+02
-4.823551074276218209e+00,-4.613494922565590350e+00,5.622737658187559440e+00,0.000000000000000000e+00,8.052988517071386215e-03,-9.999665741262685481e-01,1.899505595163587657e+02
-5.113381800543110423e+00,-5.057518937000105907e+00,5.527743026031010309e+00,-8.452989841288123529e-02,4.501064590669198728e-01,-8.889639316527502277e-01,1.917852667561002704e+02
-5.425992860973695819e+00,-5.481667389776067267e+00,5.396437403409277245e+00,2.084966276596523713e-02,1.285839353626575324e-02,-9.996989313184814208e-01,1.936199739958417751e+02
-5.760906256668523184e+00,-5.884712819109174653e+00,5.228811354875245065e+00,1.217558766213923671e-01,-4.271485671585065758e-01,-8.959450921139819890e-01,1.954546812355832799e+02
-6.116252842869359441e+00,-6.265542664324920352e+00,5.025079284264373669e+00,3.698982379086732664e-01,-2.721274050884779361e-01,-8.883242476668695708e-01,1.972893884753247846e+02
-6.522926410787458273e+00,-6.654066971879111669e+00,4.760016161278132429e+00,5.863533815208138433e-01,-9.379468871456028700e-02,-8.046056601524752550e-01,1.992943888671479442e+02
-6.941432635149709540e+00,-7.011608287968829956e+00,4.449960341596914226e+00,7.525789214884025524e-01,9.257286733496225550e-02,-6.519610656826143602e-01,2.012993892589711038e+02
-7.362051906335943308e+00,-7.337332968638402342e+00,4.096858603081263261e+00,7.746750102182862197e-01,7.737150567254882927e-02,-6.276067866502113013e-01,2.033043896507942634e+02
-7.740436307882339051e+00,-7.608859096853630710e+00,3.739055560862034611e+00,7.957543708473537869e-01,6.206860081654737293e-02,-6.024288091271197132e-01,2.051442253461085556e+02
-8.102051649141944978e+00,-7.855072145627276292e+00,3.353385841594840766e+00,8.157893399344894325e-01,4.668423591491790980e-02,-5.764601763892197583e-01,2.069840610414228479e+02
-8.437410279573070326e+00,-8.075813584881062823e+00,2.943118110810829968e+00,8.347536244505501246e-01,3.123860097885020753e-02,-5.497349691187217724e-01,2.088238967367371401e+02
-8.698635878260141396e+00,-8.245797372875433240e+00,2.576187048517641465e+00,8.526223362539055994e-01,1.575196640496050529e-02,-5.222882607063307203e-01,2.103996389417758337e+02
-8.931793351164001749e+00,-8.399490793482405238e+00,2.198859337519215362e+00,8.693720247285443570e-01,2.446563925975302743e-04,-4.941560712556541390e-01,2.119753811468145273e+02
-9.131430135211633825e+00,-8.536875885939032571e+00,1.813594390688787028e+00,8.849807075402095213e-01,-1.526297770936156650e-02,-4.653753203480212597e-01,2.135511233518532208e+02
-9.292362415304108225e+00,-8.658109067225762345e+00,1.422990153728856066e+00,9.477921629588134111e-01,-3.278410786887502731e-02,-3.171958670997829244e-01,2.151268655568919144e+02
-9.409946962968252393e+00,-8.763658567050960357e+00,1.029921565496049407e+00,9.857624804107966154e-01,-4.944597999686226736e-02,-1.607029162044775472e-01,2.167026077619306079e+02
-9.479011846816499443e+00,-8.872005145173277540e+00,5.387923139589927413e-01,9.978964962917117321e-01,-6.481190233636946463e-02,1.999996986248517972e-06,2.186786926985779189e+02
-9.442984233588852305e+00,-8.952474790940767591e+00,5.619991075792715035e-02,8.948031780328368212e-01,-4.464585898826584076e-01,-9.999990813997666319e-06,2.206547776352252299e+02
-9.321379384707592308e+00,-9.003057645077992888e+00,-3.577907573601709079e-01,8.920439782952948038e-01,-4.409484666436323530e-01,9.909586546653260941e-02,2.223994826581620430e+02
-9.115422703905041502e+00,-9.037431857455938911e+00,-7.560608839907148049e-01,8.804892542009189471e-01,-4.310906059319187800e-01,1.972246503730419875e-01,2.241441876810988560e+02
-8.823774019878047881e+00,-9.057358750341984788e+00,-1.133896588655439297e+00,8.602529342965270498e-01,-4.169822055625311830e-01,2.934088091370112283e-01,2.258888927040356691e+02
-8.451681326616791168e+00,-9.063980763909704308e+00,-1.486754715916663638e+00,8.315345470426845909e-01,-3.987623733769866119e-01,3.866999698138161023e-01,2.276335977269724822e+02
-8.007683992262247585e+00,-9.057207381529304158e+00,-1.810427840452188297e+00,7.946172535673107218e-01,-3.766107556976683313e-01,4.761782849171754539e-01,2.293783027499092952e+02
-7.576818113219411011e+00,-9.041273151833120636e+00,-2.064847976284882591e+00,7.498650558273102229e-01,-3.507457660842109304e-01,5.609615010174382466e-01,2.308820833231763459e+02
-7.110407216994055091e+00,-9.017457490686732413e+00,-2.296106497104862587e+00,6.977192076962817069e-01,-3.214224318513618228e-01,6.402136577073337387e-01,2.323858638964433965e+02
-6.613484052050419670e+00,-8.986694047437920219e+00,-2.502317115527519675e+00,6.386938643527911852e-01,-2.889298795754574600e-01,7.131533301661873159e-01,2.338896444697104471e+02
-6.091088030488103655e+00,-8.949885722746815375e+00,-2.681593701209330050e+00,5.733710128538253015e-01,-2.535884843762772900e-01,7.790613340496204131e-01,2.353934250429774977e+02
-5.385697423149242269e+00,-8.893520337562557998e+00,-2.862375782729618567e+00,5.023947338664122020e-01,-2.157467110768107599e-01,8.372878167292489016e-01,2.373288210211753722e+02
-4.650472923959415361e+00,-8.828263240489963692e+00,-2.977016481336841380e+00,4.264648511270382469e-01,-1.757776783826284495e-01,8.872586649539981885e-01,2.392642169993732466e+02
-3.898735737515317101e+00,-8.758541088952989995e+00,-3.021746922156602011e+00,3.463300312382023294e-01,-1.340754799550396559e-01,9.284811657420264375e-01,2.411996129775711211e+02
-3.297291261537165674e+00,-8.703203282715463729e+00,-3.010112177764134866e+00,2.627804018344349068e-01,-9.105129865096800446e-02,9.605488646737192493e-01,2.427390917806250172e+02
-2.699428860990047419e+00,-8.650610593808867321e+00,-2.960309014649485704e+00,1.766397609026035820e-01,-4.712935224367893750e-02,9.831455736693338610e-01,2.442785705836789134e+02
-2.110461450132692374e+00,-8.602721873718818912e+00,-2.871016823800260021e+00,8.875745407615488747e-02,-2.742710601862801550e-03,9.960484887216595196e-01,2.458180493867328096e+02
-1.535719104770106203e+00,-8.561462820876574398e+00,-2.740915255685190122e+00,0.000000000000000000e+00,4.167097442644275562e-02,9.991303868317576997e-01,2.473575281897867058e+02
-9.804591795544911337e-01,-8.528817637940770524e+00,-2.568873763493426221e+00,-1.051462100381836962e-01,5.563087299962996696e-02,9.928985247666393121e-01,2.488970069928406019e+02
-4.497774837736849829e-01,-8.506921434314573816e+00,-2.354141145126950718e+00,-2.091053461330929231e-01,6.896272515365600708e-02,9.754573782375535185e-01,2.504364857958944981e+02
5.177974645855195485e-02,-8.497977112485941120e+00,-2.097079691031301873e+00,-3.107037703155847153e-01,8.151602245122180346e-02,9.470038570121021015e-01,2.519759645989483943e+02
5.216551836225915562e-01,-8.504185946790901340e+00,-1.800916213990197523e+00,-4.087944981674309641e-01,9.314904615486400974e-02,9.078591925343183489e-01,2.535154434020022904e+02
9.598512446742927251e-01,-8.527765040665725493e+00,-1.471835239750107771e+00,-5.022701468697914340e-01,1.037304670220870056e-01,8.584653107583986031e-01,2.550549222050561866e+02
1.361985313370561057e+00,-8.570038745285961213e+00,-1.122401024369948264e+00,-5.900754360124974562e-01,1.131408277991245159e-01,7.993798426908295118e-01,2.565723690986664565e+02
1.735723182376982088e+00,-8.633215360480999578e+00,-7.551375431147899775e-01,-6.712191001329844697e-01,1.212738916912422665e-01,7.312698290040269278e-01,2.580898159922767263e+02
2.082000997084750615e+00,-8.719411930028634572e+00,-3.768432232672022097e-01,-7.447850786012036872e-01,1.280378416000581832e-01,6.549041897958894909e-01,2.596072628858869962e+02
2.401850446797386684e+00,-8.830563555499917783e+00,5.900388937434103767e-03,-8.546856892570265929e-01,-2.260996982536807864e-01,4.673214087001361094e-01,2.611247097794972660e+02
2.696515541865592169e+00,-8.968236401845768313e+00,3.869456218020342897e-01,-8.169998103190999617e-01,-5.411946751271374811e-01,1.990417884584515240e-01,2.626421566731075359e+02
2.967341151008996647e+00,-9.133816867658618222e+00,7.603617659452898137e-01,-6.382348386912227722e-01,-7.628365499313519704e-01,-1.036083431468610150e-01,2.641596035667178057e+02
3.215659396302889661e+00,-9.328699827912592113e+00,1.120218160693872145e+00,-3.492598354841313091e-01,-8.527522019156871247e-01,-3.883674155305412712e-01,2.656770504603280756e+02
3.470379433165460270e+00,-9.588797130486533149e+00,1.503373791795620029e+00,2.499997267778862348e-05,-7.954151306990366876e-01,-6.060633376396513672e-01,2.674004949065883352e+02
3.696392941661462039e+00,-9.889723060562813473e+00,1.851381384889564385e+00,-2.125979658525083416e-01,-6.461272834673571497e-01,-7.330208990716302608e-01,2.691239393528485948e+02
3.896370315435143006e+00,-1.022525246804958066e+01,2.160238734780009384e+00,-4.074447634267278073e-01,-4.428143556007214654e-01,-7.986878058613349207e-01,2.708473837991088544e+02
4.073887605664360478e+00,-1.058835387118004157e+01,2.428216080428837298e+00,-5.682235629551481981e-01,-2.024761057708653611e-01,-7.975734505962636112e-01,2.725708282453691140e+02
4.233006949370922811e+00,-1.097221534483567140e+01,2.654234758671791372e+00,-6.814910863541825403e-01,5.479192654281835745e-02,-7.297710216273478601e-01,2.742942726916293736e+02
4.412513975353970608e+00,-1.148293262113052293e+01,2.870947661795295591e+00,-5.637833419045163996e-01,4.975006751706153446e-02,-8.244217817197356801e-01,2.764897229564932672e+02
4.541975821647882938e+00,-1.190666798576261520e+01,2.987472278237673251e+00,-4.331991660778467534e-01,4.357195005990019410e-02,-9.002432824955516333e-01,2.782646988824751020e+02
4.662233593014506461e+00,-1.233173748446395912e+01,3.058292408918295457e+00,-2.927209972792390036e-01,3.639867746020840344e-02,-9.555038220916700631e-01,2.800396748084569367e+02
4.773910674133734489e+00,-1.275271434392571557e+01,3.084441195794702661e+00,-1.455572423738064058e-01,2.839408122165609782e-02,-9.889412850845279435e-01,2.818146507344387715e+02
4.873051002616750615e+00,-1.316567644359636091e+01,3.067846588460594770e+00,4.930994909502411060e-03,1.974097962045976914e-02,-9.997919678678045541e-01,2.835896266604206062e+02
4.953419364290010840e+00,-1.356742049547992224e+01,3.010884118583124103e+00,-9.089331001752296579e-01,0.000000000000000000e+00,-4.169395872385236457e-01,2.853646025864024409e+02
5.007402120842752602e+00,-1.393647009048495633e+01,2.922238091143802841e+00,-0.000000000000000000e+00,2.648456641228463249e-01,-9.642897770881325714e-01,2.870524924873593022e+02
5.034788835670199525e+00,-1.429040148484946471e+01,2.802864739528553972e+00,-6.783331045801358483e-01,5.390142884851149008e-01,-4.993253408757056255e-01,2.887403823883161635e+02
5.030555984252696788e+00,-1.462648806969963111e+01,2.654707403020889700e+00,-4.854381389842506445e-01,5.129623416611309716e-01,-7.079671244190135493e-01,2.904282722892730249e+02
4.989690092126053855e+00,-1.494206235280032224e+01,2.479586546653860690e+00,-2.530193903473855754e-01,4.451456436977997422e-01,-8.589671379080189295e-01,2.921161621902298862e+02
4.908140297345759073e+00,-1.523440334104648208e+01,2.279222787196975020e+00,-0.000000000000000000e+00,3.410856895399453914e-01,-9.400311443730142713e-01,2.938040520911867475e+02
4.783802097716178814e+00,-1.550044551850291441e+01,2.055506123129096530e+00,-3.329102066544730679e-03,6.857485227912833992e-01,-7.278295683537916450e-01,2.954919419921436088e+02
4.615567107110544853e+00,-1.573690478522556724e+01,1.810472879344534824e+00,-6.112785333250671770e-03,9.180628020142636014e-01,-3.963853244186368863e-01,2.971798318931004701e+02
4.372924241935247203e+00,-1.595844299804073074e+01,1.514674654937526510e+00,-7.894990794487707561e-03,9.999678340434552393e-01,-0.000000000000000000e+00,2.990541810862090415e+02
4.067212436034103540e+00,-1.613004875875577326e+01,1.195572804464864802e+00,-9.132730123892169871e-01,4.073455594976950200e-01,-0.000000000000000000e+00,3.009285302793176129e+02
3.698255375570277614e+00,-1.624674682187498220e+01,8.568634998068084263e-01,-8.589215515003821855e-01,4.982611289662505216e-01,1.182692509935774489e-01,3.028028794724261843e+02
3.340139150380133870e+00,-1.630246369039327803e+01,5.579151044731545106e-01,-7.829189159072020843e-01,5.766168414474754922e-01,2.335572505294144230e-01,3.043951603683539702e+02
2.946906063067883608e+00,-1.631884983052794524e+01,2.528076042347309760e-01,-6.871809236832139289e-01,6.404375543583037400e-01,3.429578940545351950e-01,3.059874412642817560e+02
2.520671688495727647e+00,-1.629342436660098059e+01,-5.559760786564370977e-02,-5.741208681831299065e-01,6.881145097016203582e-01,4.437134776580987094e-01,3.075797221602095419e+02
2.063572425017351719e+00,-1.622371972266488171e+01,-3.644391156043247926e-01,-4.465886883696270071e-01,7.184458872531264140e-01,5.332842117575351537e-01,3.091720030561373278e+02
1.578212626531262375e+00,-1.610752327594615707e+01,-6.708128615237621828e-01,-3.077991321905365618e-01,7.306671009476153333e-01,6.094122429159498644e-01,3.107642839520651137e+02
1.068108853589688323e+00,-1.594312285062888535e+01,-9.717295291791976375e-01,-1.612507231562050614e-01,7.244700744143536264e-01,6.701785699048948830e-01,3.123565648479928996e+02
5.037591014467983630e-01,-1.571275213765175316e+01,-1.281216666392331671e+00,-1.063757229649257147e-02,7.000110092635491998e-01,7.140514189926605582e-01,3.140456542926685870e+02
-8.037720590044894475e-02,-1.542144629856937144e+01,-1.576731523262790757e+00,1.402437416678932736e-01,6.579064497531478262e-01,7.399248585471904782e-01,3.157347437373442745e+02
-6.792322039864286953e-01,-1.506743911790023205e+01,-1.854435092327566981e+00,2.875898764464029367e-01,5.992177425656688428e-01,7.471466790128329372e-01,3.174238331820199619e+02
-1.287722094024299269e+00,-1.464899841236449696e+01,-2.110488507007100001e+00,1.945416212149591872e-01,5.508379670615830559e-01,8.116212735357506425e-01,3.191129226266956493e+02
-1.900618226216131523e+00,-1.416528556602556499e+01,-2.341310913201345212e+00,9.854504700687125029e-02,4.941099659938912314e-01,8.637952391705732147e-01,3.208020120713713368e+02
-2.512551428038269918e+00,-1.361730481148622296e+01,-2.544191423809454289e+00,1.054998706092888068e-03,4.298934727555412949e-01,9.028778926620291134e-01,3.224911015160470242e+02
-3.082810230825067777e+00,-1.304656053527865112e+01,-2.708770233622526558e+00,-2.094397647221116210e-02,9.665299142314137670e-01,2.556937127619156591e-01,3.240799573945994325e+02
-3.643793281072110979e+00,-1.242564713115544883e+01,-2.847550910512840705e+00,4.606624106659285012e-01,7.464020451138489998e-01,4.802833855644469407e-01,3.256688132731518408e+02
-4.191514682497241573e+00,-1.175658077589395667e+01,-2.960179941762486333e+00,5.419998690073466463e-01,6.161020976129496507e-01,5.715350796879260509e-01,3.272576691517042491e+02
-4.721989659723317523e+00,-1.104194017894659474e+01,-3.047773789441490244e+00,6.060362426637543320e-01,4.661357356541689367e-01,6.445428989022585764e-01,3.288465250302566574e+02
-5.231248078828101278e+00,-1.028459788980922163e+01,-3.112183986713193740e+00,6.507274668824005737e-01,3.012899831490998825e-01,6.969764055547562620e-01,3.304353809088090657e+02
-5.715344765576184649e+00,-9.487451511835333307e+00,-3.155262228992497864e+00,6.746469744000578306e-01,1.268268071975847122e-01,7.271618945667507328e-01,3.320242367873614739e+02
-6.170359570777079306e+00,-8.653423569947488403e+00,-3.178860360982064925e+00,6.186973559245070309e-01,1.163087140349637061e-01,7.769709549350873878e-01,3.336130926659138822e+02
-6.592397435360165758e+00,-7.785461378069076233e+00,-3.184830363708676781e+00,5.592075881606153320e-01,1.051251093629229361e-01,8.223342293290636373e-01,3.352019485444662905e+02
-6.977588455166094938e+00,-6.886536906277500592e+00,-3.175024341558882579e+00,4.965180660803309443e-01,9.333998473734979318e-02,8.629921536759548317e-01,3.367908044230186988e+02
-7.322087945454233804e+00,-5.959646647680050258e+00,-3.151294509314001679e+00,4.309874929720216574e-01,8.102077348389054301e-02,8.987120869148741420e-01,3.383796603015711071e+02
-7.610808931515267162e+00,-5.050394585861981867e+00,-3.117499170920668750e+00,3.629908281509633405e-01,6.823796488407166128e-02,9.292896420534266788e-01,3.398989494162532310e+02
-7.858145185122673126e+00,-4.122154699034448200e+00,-3.074485276572977543e+00,2.929171416719922871e-01,5.506470087884173664e-02,9.545498556035350024e-01,3.414182385309353549e+02
-8.063998042932404076e+00,-3.178407845205832416e+00,-3.023092803945985896e+00,2.211673883085369108e-01,4.157635759510554252e-02,9.743481887080390758e-01,3.429375276456174788e+02
-8.230185633575352711e+00,-2.222854180115833245e+00,-2.963806751122009864e+00,1.481521135237690023e-01,2.785011408758456680e-02,9.885713542300768042e-01,3.444568167602996027e+02
-8.359078783925419032e+00,-1.259129912427370712e+00,-2.897040896760803896e+00,7.428910454896031634e-02,1.396451076152913084e-02,9.971379650704446096e-01,3.459761058749817266e+02
-8.453077991343036501e+00,-2.908564983952740546e-01,-2.823212920586108510e+00,9.999989999985432422e-07,-9.999989999985432422e-07,9.999989999985432476e-01,3.474953949896638505e+02
-8.514613385921878219e+00,6.783595081182643982e-01,-2.742748253932462799e+00,4.007305300104290202e-01,-5.132176219660787853e-01,7.589602854049946057e-01,3.490146841043459744e+02
-8.546144692426294043e+00,1.644926605473914005e+00,-2.656076223803385705e+00,6.082774653435700785e-01,-7.790243152625521139e-01,1.520448663574272274e-01,3.505339732190280984e+02
-8.550161191922519777e+00,2.605268493928515561e+00,-2.563626196904726484e+00,8.086152182767397667e-01,-5.701875086871813769e-01,1.450021851876020784e-01,3.520532623337102223e+02
-8.525817920425359020e+00,3.626245202448751481e+00,-2.458054074982877868e+00,9.411927937870143701e-01,-3.135702639555560389e-01,1.258086423386865771e-01,3.536867832669289555e+02
-8.474104144754477375e+00,4.630325329119668432e+00,-2.346408521728306606e+00,9.949004988875450595e-01,-3.067653653300366975e-02,9.607261535181164935e-02,3.553203042001476888e+02
-8.398469157308223743e+00,5.612795140870000310e+00,-2.229263456592561976e+00,9.652377531612574835e-01,2.547878172082398418e-01,5.828591661224116760e-02,3.569538251333664221e+02
-8.302417818610285494e+00,6.569030649376248476e+00,-2.107313595457891431e+00,8.546902225259083163e-01,5.189015279781100665e-01,1.561498579573443457e-02,3.585873460665851553e+02
-8.189523008385592107e+00,7.494564968532062998e+00,-1.981495201269334094e+00,9.025323494255671486e-01,4.304917364537743096e-01,1.049871811541440957e-02,3.602208669998038886e+02
-8.063410997674628433e+00,8.385021701743509581e+00,-1.852865321337962001e+00,9.412305863045108412e-01,3.377205150959005087e-01,5.276086150934267832e-03,3.618543879330226218e+02
-7.927747641000797429e+00,9.236048206299276586e+00,-1.722481023750471740e+00,9.703928888871868885e-01,2.415277234475320944e-01,0.000000000000000000e+00,3.634879088662413551e+02
-7.738999819387891499e+00,1.028612788981701698e+01,-1.548158578361618520e+00,9.969795307158221265e-01,-7.765188556165565636e-02,0.000000000000000000e+00,3.656618007839354050e+02
-7.549492525046002989e+00,1.122145442793063452e+01,-1.375989574197370668e+00,9.706551006259609427e-01,-0.000000000000000000e+00,-2.404717771875165555e-01,3.678356927016294549e+02
-7.419141011404742692e+00,1.181782287492652728e+01,-1.257363159711826217e+00,9.955207353996179398e-01,9.453287991579502336e-02,0.000000000000000000e+00,3.693721637586841666e+02
-7.293497072417258309e+00,1.236902665852632488e+01,-1.142648680773306280e+00,9.546769266703760692e-01,0.000000000000000000e+00,-2.976406653668539071e-01,3.709086348157388784e+02
-7.173808223417609931e+00,1.287441828140678801e+01,-1.033665379095287884e+00,9.988611377177328832e-01,-0.000000000000000000e+00,4.769095883004498271e-02,3.724451058727935902e+02
-7.057006211798857009e+00,1.334922146564939993e+01,-9.289530596875978929e-01,9.983100963216351431e-01,-2.758923851493134266e-02,5.112519437251322046e-02,3.740395342029160020e+02
-6.948776523042788256e+00,1.377254606993780151e+01,-8.353251831737716904e-01,9.969870965401125273e-01,-5.515714128533760058e-02,5.451989634056388784e-02,3.756339625330384138e+02
-6.840537439043546719e+00,1.417843083087955769e+01,-7.490353274287373520e-01,9.948931615483178614e-01,-8.268239122989771983e-02,5.787243976365603892e-02,3.773981333598889591e+02
-6.745830503915326126e+00,1.451676977705728788e+01,-6.858221965283689547e-01,9.920299106329890648e-01,-1.101437042599735655e-01,6.118023227110015033e-02,3.791623041867395045e+02
-6.665436774732366842e+00,1.478917813717655250e+01,-6.500489624501437635e-01,9.883995579406286147e-01,-1.375198457356202886e-01,6.444071609638293840e-02,3.809264750135900499e+02
-6.600050307434401908e+00,1.499782600067010208e+01,-6.461279083812725421e-01,9.840049107647934612e-01,-1.647896468833022210e-01,6.765137005468367659e-02,3.826906458404405953e+02
-6.554560755955121110e+00,1.513365132467900231e+01,-6.708419176320140620e-01,9.788493673749220081e-01,-1.919320211626353301e-01,7.080971149210725513e-02,3.842474504765693837e+02
-6.519776152679190417e+00,1.522901938539606626e+01,-7.229905715112154851e-01,9.729369143883831450e-01,-2.189259805695168704e-01,7.391329820512941573e-02,3.858042551126981721e+02
-6.494410703781852590e+00,1.528648333414248128e+01,-8.056117493455275946e-01,9.662721236877785946e-01,-2.457506518630534487e-01,7.695973032877176379e-02,3.873785761281259283e+02
-6.476654227893132720e+00,1.530757367713662376e+01,-9.194046476600383766e-01,9.588601488858827793e-01,-2.723852927037548333e-01,7.994665219204846740e-02,3.889528971435536846e+02
-6.463760965873927233e+00,1.529554804552974190e+01,-1.064986347493594998e+00,9.507067213409524653e-01,-2.988093076905342649e-01,8.287175413925272627e-02,3.905272181589814409e+02
-6.452956577306852459e+00,1.525364614331734892e+01,-1.242973711402030279e+00,9.418181457254837241e-01,-3.250022642841271514e-01,8.573277431567542795e-02,3.921015391744091971e+02
-6.441412872227300745e+00,1.518492150550677344e+01,-1.453770729699118469e+00,9.322012951518388046e-01,-3.509439086046356460e-01,8.852750041637819090e-02,3.936758601898369534e+02
-6.426224527997637992e+00,1.509207304449969556e+01,-1.697355868160139503e+00,9.218636058585059079e-01,-3.766141810909962584e-01,9.125377139666929205e-02,3.952501812052647097e+02
-6.402045579717862367e+00,1.496742380399622796e+01,-1.996827797561405493e+00,9.108130714610934708e-01,-4.019932320102783119e-01,9.390947914296204901e-02,3.969421508560849929e+02
-6.365663192747464727e+00,1.481927607866323626e+01,-2.336398140358229902e+00,8.990582367724985202e-01,-4.270614368048358256e-01,9.649257010272493940e-02,3.986341205069052762e+02
-6.313268662700227019e+00,1.465074005891166031e+01,-2.715133197486961691e+00,8.866081911970128404e-01,-4.517994112654575845e-01,9.900104687226404798e-02,4.003260901577255595e+02
-6.248378593165109685e+00,1.447974637887558380e+01,-3.096888929490996034e+00,8.734725617034707623e-01,-4.761880265187982131e-01,1.014329697411118225e-01,4.018894274981638546e+02
-6.173898404523376016e+00,1.431189022031933256e+01,-3.471045530580159522e+00,8.596615053828554620e-01,-5.002084238175110720e-01,1.037864581918284124e-01,4.033279978224805404e+02
-6.095878695673518699e+00,1.415563270953590980e+01,-3.818619211423978310e+00,8.451857015961086184e-01,-5.238420291216590030e-01,1.060596923540566977e-01,4.046076431591168330e+02
-5.902362838862577732e+00,1.383994834078693792e+01,-4.506294422133069411e+00,8.300563437181998072e-01,-5.470705674601373802e-01,1.082509144117076855e-01,4.070017554401334792e+02
-5.797815444179806654e+00,1.369188402399477056e+01,-4.820954058479466120e+00,7.669240327213734387e-01,-6.083619976893147596e-01,2.042576994898911147e-01,4.080531984137069799e+02
-5.591659378962531513e+00,1.342041323194932367e+01,-5.376022111149408644e+00,6.907849783365456187e-01,-6.593357951168591358e-01,2.968003082571101237e-01,4.099016829047124020e+02
-5.352598753688017297e+00,1.313154829858514994e+01,-5.922976547238850031e+00,6.029304651332196840e-01,-6.991274818158479398e-01,3.843092743916288190e-01,4.117501673957178241e+02
-5.082370714339520923e+00,1.282426703089266695e+01,-6.445809406728842283e+00,5.048504550707269001e-01,-7.270622152181295261e-01,4.653004977604566772e-01,4.135986518867232462e+02
-4.783110630134737029e+00,1.249787532486386610e+01,-6.928503020011171465e+00,4.436676085589408847e-01,-6.619261072840308957e-01,6.041613042990341409e-01,4.154471363777286683e+02
-4.436370127798415552e+00,1.213014332075092661e+01,-7.376361858218825063e+00,3.703866502330014354e-01,-5.787403219276727739e-01,7.265475683705776566e-01,4.174078258605113092e+02
-4.062545916238206267e+00,1.174001204614287452e+01,-7.736871232722577929e+00,2.870058323433269387e-01,-4.797732006331239529e-01,8.291220224768505176e-01,4.193685153432939501e+02
-3.719325858923157480e+00,1.138327586618226128e+01,-7.970180093774572150e+00,1.957988106946531026e-01,-3.677234113814306093e-01,9.090876296889043306e-01,4.210780970384075204e+02
-3.365605805614934720e+00,1.101376514346878288e+01,-8.123786813721423528e+00,9.925264828604696277e-02,-2.456463634500808957e-01,9.642638518230368661e-01,4.227876787335210906e+02
-3.005911524534703894e+00,1.063348653806129640e+01,-8.195380278274738473e+00,0.000000000000000000e+00,-1.168708951520591871e-01,9.931461090226156863e-01,4.244972604286346609e+02
-2.644565368413576145e+00,1.024466857280651588e+01,-8.185979419798847800e+00,4.301035175183857140e-01,3.026596604823824505e-02,9.022709878502616077e-01,4.262068421237482312e+02
-2.289607854914746721e+00,9.854607217793990515e+00,-8.099176498694772519e+00,0.000000000000000000e+00,0.000000000000000000e+00,9.999989999986806932e-01,4.278964229234440495e+02
-1.991160760844551847e+00,9.519964576754393448e+00,-7.970373792448959271e+00,-1.161848472904061791e-01,1.341998236121057881e-03,9.932256945363709955e-01,4.293354488072124582e+02
-1.620234408039973983e+00,9.095133358862337758e+00,-7.734412782291777866e+00,-8.722603518090864261e-02,4.682136933138279257e-03,9.961765387554982754e-01,4.311642364071363431e+02
-1.261593548777295126e+00,8.674805897678941946e+00,-7.415874650710831517e+00,-5.819233776242925538e-02,8.018256532587940411e-03,9.982721870182488244e-01,4.329930240070602281e+02
-9.176380856879764458e-01,8.262879541749672541e+00,-7.023503066119394234e+00,-2.910867255269037820e-02,1.134749387540628235e-02,9.995108401366866735e-01,4.348218116069841130e+02
-5.908151592194803570e-01,7.862871964994152307e+00,-6.566047436257631986e+00,-0.000000000000000000e+00,1.466699169430323718e-02,9.998914337765223426e-01,4.366505992069079980e+02
-2.380776349470105080e-01,7.420066869510461238e+00,-5.959289876649367379e+00,-7.217103253061220025e-01,5.166585169996518179e-01,4.606475693617175238e-01,4.387747795449688510e+02
8.109615409124842911e-02,7.007900550174958276e+00,-5.280650394863370067e+00,-5.024135394077114958e-01,7.294793312430333243e-01,4.641535744828904630e-01,4.408989598830297041e+02
3.518209431109124430e-01,6.650110333923652917e+00,-4.589089057441477770e+00,-7.805059566588116171e-01,3.310727233091743105e-01,5.302822866160723514e-01,4.429084787836207511e+02
5.935329729964425871e-01,6.326511160962228431e+00,-3.865596150649307283e+00,-8.709360646310240206e-01,-1.469368435940107964e-01,4.689114365375537385e-01,4.449179976842117981e+02
7.615647557515479171e-01,6.101226527221681017e+00,-3.300185360516147970e+00,-7.519600857339147071e-01,-5.896177971558104192e-01,2.947963411164945535e-01,4.464545876710864150e+02
9.182666307045083132e-01,5.893156774063245784e+00,-2.731700870650120461e+00,-4.521842911793911290e-01,-8.905319889692231428e-01,4.980103844248604666e-02,4.479911776579610319e+02
1.064857475244681995e+00,5.702842572889518458e+00,-2.164741704737071615e+00,-4.368697578786884250e-02,-9.773284583464662001e-01,-2.071678851837208402e-01,4.495277676448356488e+02
1.204577158059392250e+00,5.528468786526894441e+00,-1.595729695425213146e+00,-1.571261495725260748e-01,-9.643530046557341473e-01,-2.129146672417542852e-01,4.510868644251565343e+02
1.336464796579673209e+00,5.373434125154128438e+00,-1.037562438770643691e+00,-2.685116056345077662e-01,-9.387736212144522918e-01,-2.158786829369707672e-01,4.526459612054774198e+02
1.488851046826480395e+00,5.212803746595265686e+00,-3.746593306856036421e-01,-8.331036627168645348e-01,1.863803856925007052e-01,-5.207673559048091594e-01,4.545652864476153354e+02
1.631677155612248908e+00,5.088453430999135385e+00,2.519366052087321228e-01,-0.000000000000000000e+00,9.988447030609834965e-01,4.803393763085728879e-02,4.564846116897532511e+02
1.747123164810401752e+00,5.009379796915936822e+00,7.489870740639136271e-01,-6.040581767537982205e-02,9.970934950626486604e-01,4.640796587130548850e-02,4.581012057756331615e+02
1.860534017330690570e+00,4.951017793485319451e+00,1.216817703292973674e+00,-1.205908780666197083e-01,9.916983284092198980e-01,4.461239243815639383e-02,4.597177998615130718e+02
1.973682375932364064e+00,4.912874669072461842e+00,1.652158743595975476e+00,-1.803352306318271314e-01,9.826789199426987365e-01,4.265377937258776897e-02,4.613343939473929822e+02
2.088173476960333730e+00,4.894375509067820929e+00,2.052197965978608707e+00,-2.394205353711040540e-01,9.700682314415629559e-01,4.053928455170779238e-02,4.629509880332728926e+02
2.205281356273416815e+00,4.894793898964685752e+00,2.415037967006610664e+00,-2.976308607401427775e-01,9.539123491752141693e-01,3.827663553098478721e-02,4.645675821191528030e+02
2.326110417829252874e+00,4.913324874988233226e+00,2.739238897669437289e+00,-3.547534727649125919e-01,9.342703154966546242e-01,3.587410130479685988e-02,4.661841762050327134e+02
2.455047135257315549e+00,4.950492804396904312e+00,3.029402904402112462e+00,-4.105796124743907871e-01,9.112139130903684769e-01,3.334046208835657332e-02,4.678412304909839463e+02
2.590372871820385559e+00,5.005401216552267663e+00,3.274814488520990441e+00,-4.649052588108653072e-01,8.848274026631345324e-01,3.068497723139030839e-02,4.694982847769351793e+02
2.733282628908693113e+00,5.077138107021529123e+00,3.473885156555938991e+00,-5.175318742302511543e-01,8.552072150355179980e-01,2.791735138077757264e-02,4.711553390628864122e+02
2.884719562233081458e+00,5.165146018678419715e+00,3.625821426580641216e+00,-5.682671302679626057e-01,8.224615987583557830e-01,2.504769901575523705e-02,4.728123933488376451e+02
3.045135824689799264e+00,5.269586610941808580e+00,3.731419493006054466e+00,-6.169256104189164702e-01,7.867102245410227956e-01,2.208650748524089782e-02,4.744694476347888781e+02
