3.046248188615999553e+00,-3.194465318920817865e+00,-3.322282719263838224e+00,-0.000000000000000000e+00,-9.999989999994787901e-07,9.999989999994787215e-01,5.217061025651571526e+01
2.730441017511577861e+00,-3.712969870076720191e+00,-3.381734357911631239e+00,-1.665777887292572146e-01,1.719596612710206154e-02,9.858773448310166332e-01,5.370455762185472537e+01
2.384513147416589263e+00,-4.209025216251792045e+00,-3.436025248585411696e+00,-3.284508388772175436e-01,3.390725810709574461e-02,9.439111951283090107e-01,5.523850498719373547e+01
2.009522740576712874e+00,-4.679958587863024100e+00,-3.483725659099841554e+00,-4.810473465813659422e-01,4.966089651542442140e-02,8.752858080102411398e-01,5.677245235253274558e+01
1.329749105441989210e+00,-5.356830097190127482e+00,-3.535875745108590262e+00,-6.200574967888745626e-01,6.401194805074594818e-02,7.819393654127396731e-01,5.924054120297004289e+01
8.586639689040238554e-01,-5.727582126813981489e+00,-3.551527349026071256e+00,-5.120714983611107662e-01,1.292679198728514944e-01,8.491587516230828525e-01,6.078681339926504990e+01
3.655920018250302106e-01,-6.065895053725176567e+00,-3.556222649932822222e+00,-3.936199446817038594e-01,1.918819085649877965e-01,8.990231767395124862e-01,6.233308559556005690e+01
-1.464110644113938431e-01,-6.370679619097549207e+00,-3.549214625551648350e+00,-2.671237226598657255e-01,2.505742341054698619e-01,9.305135517528445588e-01,6.387935779185506391e+01
-6.742821120387585410e-01,-6.640868005677833530e+00,-3.529756331158222071e+00,-1.351681216348798176e-01,3.041453688906851083e-01,9.429863060920457007e-01,6.542562998815007802e+01
-1.214950694354694605e+00,-6.875413877329563661e+00,-3.497100904533333221e+00,-4.499992964603603558e-04,3.515004504558069121e-01,9.361865363436262522e-01,6.697190218444508503e+01
-1.989141082580972997e+00,-7.127945935780976683e+00,-3.423426320790472488e+00,1.074092225954319385e-01,3.556308924055112675e-01,9.284330494281067825e-01,6.913434444845205462e+01
-2.778046579069248345e+00,-7.278465878401931377e+00,-3.313812100876276201e+00,2.140105993882235880e-01,3.555966076502897755e-01,9.098068564146577497e-01,7.129678671245902422e+01
-3.494260300958088372e+00,-7.328651706501691621e+00,-3.187468080045257945e+00,3.181057433932625855e-01,3.513979971210160480e-01,8.805260834532513403e-01,7.325162535241493345e+01
-4.203686859786037289e+00,-7.300721344711515570e+00,-3.040044648968559304e+00,4.184756162544464586e-01,3.430842292070773181e-01,8.409336301229387578e-01,7.520646399237084267e+01
-4.817218540872990395e+00,-7.215133265679460450e+00,-2.896418996773857835e+00,5.139448047702303013e-01,3.307526640361642123e-01,7.914931540351398676e-01,7.693082100185546324e+01
-5.413142015233819215e+00,-7.077541358222679158e+00,-2.744068715653308566e+00,6.033952859155212733e-01,3.145477134025179700e-01,7.327836412816001177e-01,7.865517801134008380e+01
-5.985063188534514467e+00,-6.890104896646421118e+00,-2.586289617118876727e+00,6.857795198669369707e-01,2.946591496850404224e-01,6.654926262849454321e-01,8.037953502082470436e+01
-6.546940507274467969e+00,-6.644185376404522003e+00,-2.420457149263863350e+00,7.601327176951844233e-01,2.713198835489084582e-01,5.904081404265533184e-01,8.217271578294187862e+01
-7.067749611606616966e+00,-6.348532910941197649e+00,-2.257214814757940946e+00,8.255841400449417389e-01,2.448032364460373256e-01,5.084094837169512715e-01,8.396589654505905287e+01
-7.540385791045231656e+00,-6.006515332541260577e+00,-2.101107965900925301e+00,8.813672944634173279e-01,2.154197398477731840e-01,4.204569275629054248e-01,8.575907730717622712e+01
-7.957772978497191119e+00,-5.622096351585611274e+00,-1.956534175031753531e+00,9.268289119316382996e-01,1.835134986880965213e-01,3.275804692107192606e-01,8.755225806929340138e+01
-8.315038087640035158e+00,-5.200367287504931824e+00,-1.826864593386153812e+00,9.614365974470340248e-01,1.494581616021702364e-01,2.308677695595259260e-01,8.934543883141057563e+01
-8.621751130913283490e+00,-4.726291738586175128e+00,-1.709807520119052127e+00,9.847850650348168866e-01,1.136525451531502084e-01,1.314514156104658882e-01,9.121560967976374457e+01
-8.861812645523363230e+00,-4.223040412943808164e+00,-1.612875846056172291e+00,9.966008841470649360e-01,7.651596329547478981e-02,3.049565673460798501e-02,9.308578052811691350e+01
-9.037815186662145450e+00,-3.697264264421666891e+00,-1.537188245706169409e+00,9.967456818477095082e-01,3.848331677754057017e-02,-7.081722988926540674e-02,9.495595137647008244e+01
-9.153415388325134572e+00,-3.155578801648546872e+00,-1.483662585880704876e+00,9.852177632738948754e-01,0.000000000000000000e+00,-1.713007849692113893e-01,9.682612222482325137e+01
-9.208688242825566306e+00,-2.712054027344203977e+00,-1.455716027026731307e+00,9.824151603592072846e-01,-4.807336612627146483e-02,-1.804089913699240266e-01,9.833373973987664840e+01
-9.236039951749598131e+00,-2.266357498164815798e+00,-1.440152020109960684e+00,9.772529266098169964e-01,-9.603126599209992065e-02,-1.890838792333679463e-01,9.984135725493004543e+01
-9.237306470905323863e+00,-1.821124716425560619e+00,-1.437060549589457503e+00,9.697434610350231798e-01,-1.437585113750819710e-01,-1.973046126892906149e-01,1.013489747699834425e+02
-9.214371006559597177e+00,-1.378745897356750794e+00,-1.446021409722469286e+00,9.599048003269449181e-01,-1.911404680514665055e-01,-2.050514466756674370e-01,1.028565922850368395e+02
-9.162177788960510938e+00,-8.977181627888538573e-01,-1.469712404100868230e+00,9.477605755402068732e-01,-2.380633311234310878e-01,-2.123057743621893922e-01,1.045178692362587043e+02
-9.083193312859391355e+00,-4.268300787199104107e-01,-1.507630457189501838e+00,9.333399553360663958e-01,-2.844143983547003929e-01,-2.190501718401584863e-01,1.061791461874805691e+02
-8.980289149232582702e+00,3.062822455452717668e-02,-1.558779665452978413e+00,9.166775759272041135e-01,-3.300823408581837759e-01,-2.252684399714756369e-01,1.078404231387024339e+02
-8.856109701622639108e+00,4.717049164254695226e-01,-1.621604732500975699e+00,8.978134578913568031e-01,-3.749574704856594720e-01,-2.309456432962248285e-01,1.095017000899242987e+02
-8.712816344371447030e+00,8.941003854210688440e-01,-1.693431689412152608e+00,8.767929100534757048e-01,-4.189320032774390690e-01,-2.360681459054177755e-01,1.111629770411461635e+02
-8.552334745335503641e+00,1.295847118290748501e+00,-1.771027206774218987e+00,8.536664206671386035e-01,-4.619003183393936007e-01,-2.406236441927427638e-01,1.128242539923680283e+02
-8.394100264475582662e+00,1.641457504421084845e+00,-1.843648299059178264e+00,8.284895361564248439e-01,-5.037592115256814829e-01,-2.446011964066516220e-01,1.143302178281148826e+02
-8.225717244861449728e+00,1.968870320718439038e+00,-1.915973918618890881e+00,8.013227277093216694e-01,-5.444081433179731588e-01,-2.479912489317944724e-01,1.158361816638617370e+02
-8.048514998691512545e+00,2.276784763326037631e+00,-1.985820569028833971e+00,7.722312460429047176e-01,-5.837494803058809190e-01,-2.507856592366625725e-01,1.173421454996085913e+02
-7.863942365759537090e+00,2.564275956236229614e+00,-2.050911070894425148e+00,7.412849646889236865e-01,-6.216887296886389747e-01,-2.529777154322966903e-01,1.188481093353554456e+02
-7.673674571725890736e+00,2.831162897525804745e+00,-2.108780877630211492e+00,7.085582121760068963e-01,-6.581347662348175920e-01,-2.545621523950543086e-01,1.203540731711023000e+02
-7.479497472551780213e+00,3.077643133591411395e+00,-2.156871789498878478e+00,6.741295935113519322e-01,-6.930000511549372355e-01,-2.555351644146741652e-01,1.218600370068491543e+02
-7.231484514343482495e+00,3.356073899037012254e+00,-2.196574317882332927e+00,6.380818013904889785e-01,-7.262008423612446029e-01,-2.558944143372179902e-01,1.237621414765324772e+02
-6.983780800903598873e+00,3.595261149659305655e+00,-2.205411728068210397e+00,6.005014175883695016e-01,-7.576573956095676854e-01,-2.556390391808833207e-01,1.256642459462158001e+02
-6.740109917513699145e+00,3.797575311848523150e+00,-2.178375131348003091e+00,5.614787050086427200e-01,-7.872941560400444905e-01,-2.547696522111490003e-01,1.275663504158991230e+02
-6.502601326029555651e+00,3.966797916663555856e+00,-2.110311766352011897e+00,5.211073908904252372e-01,-8.150399396565518595e-01,-2.532883414702205016e-01,1.294794431795102696e+02
-6.275366236577469614e+00,4.104663250481573655e+00,-1.997157708943024357e+00,4.794844416931315356e-01,-8.408281043088059459e-01,-2.511986647642515114e-01,1.313925359431214019e+02
-6.099308136365938715e+00,4.196515445776690889e+00,-1.874499665241834867e+00,4.367098301999458032e-01,-8.645967097662968781e-01,-2.485056411203312998e-01,1.329355150966478618e+02
-5.928164799931006534e+00,4.273950601191901733e+00,-1.726855312260536790e+00,3.928862953992287022e-01,-8.862886664994057417e-01,-2.452157387337058347e-01,1.344784942501743217e+02
-5.734179449196921574e+00,4.344812959476403336e+00,-1.521519484926616483e+00,3.481190957205244629e-01,-9.058518728101643269e-01,-2.413368594341319395e-01,1.362741049894825949e+02
-5.544314406346953383e+00,4.393459360152773385e+00,-1.279276270905254087e+00,3.025157562178290016e-01,-9.232393399830883807e-01,-2.368783197086289372e-01,1.380697157287908681e+02
-5.356935600537079623e+00,4.419293313688528180e+00,-1.002947280814452169e+00,2.561858103073418325e-01,-9.384093051552879761e-01,-2.318508283261673519e-01,1.398653264680991413e+02
-5.197782652475946286e+00,4.423813728152295788e+00,-7.433885080291799952e-01,4.043724195786259634e-01,-8.507785853295445344e-01,-3.356437769756148715e-01,1.414041005170149106e+02
-5.039805013898145170e+00,4.412673558360835635e+00,-4.672970062047881457e-01,5.362181114889110756e-01,-7.287662364327910369e-01,-4.258731143628075033e-01,1.429428745659306799e+02
-4.882981818892904613e+00,4.385256719492425681e+00,-1.771069577168856157e-01,6.463946713253916343e-01,-5.773025887672170731e-01,-4.988924231447067759e-01,1.444816486148464492e+02
-4.727296794777761768e+00,4.340946794647256191e+00,1.247473624962649880e-01,7.304493860396690241e-01,-4.025082866689837502e-01,-5.517506443855251241e-01,1.460204226637622185e+02
-4.572751729802405407e+00,4.279170138927932854e+00,4.357870811592239879e-01,7.849850766743764474e-01,-2.114470514672015244e-01,-5.823114062117499268e-01,1.475591967126779878e+02
-4.419379516235965255e+00,4.199439110497970695e+00,7.534442211775475018e-01,8.077975110764644695e-01,-1.184024876842382917e-02,-5.893394519172803214e-01,1.490979707615937571e+02
-4.250664757127498916e+00,4.088165641619081470e+00,1.110662780521597837e+00,7.979645992606257954e-01,1.882452144961680451e-01,-5.725506418863264280e-01,1.508056497649079972e+02
-4.084617043793641322e+00,3.950868378761302147e+00,1.469661168304159160e+00,7.558837251493367715e-01,3.807230269304047177e-01,-5.326234793914758070e-01,1.525133287682222374e+02
-3.924218347886924363e+00,3.786051096301962460e+00,1.827281781502215541e+00,6.832556818973445356e-01,5.578144152333716077e-01,-4.711716792161236289e-01,1.542210077715364775e+02
-3.773427940005403602e+00,3.591965773626337288e+00,2.180635352228113888e+00,5.830158619804859388e-01,7.123626240725202674e-01,-3.906788917893177504e-01,1.559286867748507177e+02
-3.638345557452556278e+00,3.371376085949882029e+00,2.520936336311574433e+00,4.592155101866699507e-01,8.381221807179600747e-01,-2.943982428318396849e-01,1.576064998735415656e+02
-3.519599824046621084e+00,3.120123231523359131e+00,2.851858909409723086e+00,3.168578814249418674e-01,9.300112385756803546e-01,-1.862207805139750871e-01,1.592843129722324136e+02
-3.420087148620489792e+00,2.837579666646089738e+00,3.171015002539185001e+00,1.616959681139758798e-01,9.843168191964035696e-01,-7.051817736416654547e-02,1.609621260709232615e+02
-3.341781514631960714e+00,2.524082657089979254e+00,3.476395179473877217e+00,0.000000000000000000e+00,9.988447030609716171e-01,4.803393763085671286e-02,1.626399391696141095e+02
-3.284131736322794648e+00,2.167955964142536995e+00,3.776316452625907871e+00,9.999988887670539232e-07,-4.977924468360180876e-01,-8.672950362321107942e-01,1.643777764761805429e+02
-3.250743929976934510e+00,1.781856867706338887e+00,4.057957924696476759e+00,0.000000000000000000e+00,9.988447030629378220e-01,4.803393763095126917e-02,1.661156137827469763e+02
-3.241601996428505217e+00,1.368392163614154722e+00,4.319964227581840177e+00,4.894745649099780382e-01,3.309397058303449601e-02,-8.713882254299828434e-01,1.678534510893134097e+02
-3.256560792889256817e+00,9.304853610567304090e-01,4.561087600932951958e+00,0.000000000000000000e+00,9.978126036217043193e-01,-6.609090750977844597e-02,1.695912883958798432e+02
-3.295234310412159751e+00,4.716927571419800014e-01,4.780295345993237355e+00,-0.000000000000000000e+00,9.968731426564392262e-01,-7.900593205231017102e-02,1.713291257024462766e+02
-3.353912519718567520e+00,1.479691695012947533e-02,4.969928861402854281e+00,-0.000000000000000000e+00,9.968731420280737554e-01,-7.900593200250984049e-02,1.729997892893018445e+02
-3.432791538883171789e+00,-4.539078659161293050e-01,5.138478533295335993e+00,2.464489069413976219e-01,8.418144700438139338e-01,-4.802180070477777840e-01,1.746704528761574124e+02
-3.531371951703614176e+00,-9.311238087951774212e-01,5.285154531158968716e+00,4.323325443753098796e-01,4.798782744336909101e-01,-7.634156225812209762e-01,1.763411164630129804e+02
-3.649128640990686012e+00,-1.413557212714338096e+00,5.409167193696577058e+00,5.119696326536163911e-01,1.099999210733007517e-05,-8.590023836520779277e-01,1.780117800498685483e+02
-3.785510800975068868e+00,-1.897918612511707348e+00,5.509727034934923218e+00,4.531930647540909352e-01,8.860055499714526210e-06,-8.914112664629185723e-01,1.796824436367241162e+02
-3.946902949373662484e+00,-2.400311868109235913e+00,5.588065869663210172e+00,3.923748667014474445e-01,6.680204720996110936e-06,-9.198043074118226192e-01,1.814207000302306767e+02
-4.127902218582165439e+00,-2.897493903436710205e+00,5.638206070994040253e+00,3.297890180242481484e-01,4.470259746196045444e-06,-9.440536020627352531e-01,1.831589564237372372e+02
-4.327981553108577906e+00,-3.386034421391068250e+00,5.659314258889148519e+00,2.657174601260933189e-01,2.240176094637206427e-06,-9.640499112473528420e-01,1.848972128172437976e+02
-4.539378080281563754e+00,-3.848301057802503422e+00,5.651756059053274939e+00,2.004488266896339022e-01,0.000000000000000000e+00,-9.797031529373612102e-01,1.865816617169487870e+02
-4.767517833314458109e+00,-4.297185767819385660e+00,5.616437273978125866e+00,1.007376321419742177e-01,4.047114985055142583e-03,-9.949037894814460881e-01,1.882661106166537763e+02
-5.012571690547539482e+00,-4.730987329403651742e+00,5.552940923318605115e+00,0.000000000000000000e+00,8.052988517071386215e-03,-9.999665741262685481e-01,1.899505595163587657e+02
-5.299707944156180517e+00,-5.184106894190016135e+00,5.449951790657841855e+00,-8.452989841288123529e-02,4.501064590669198728e-01,-8.889639316527502277e-01,1.917852667561002704e+02
-5.608315017967199445e+00,-5.615052959888731543e+00,5.310200742635483806e+00,2.084966276596523713e-02,1.285839353626575324e-02,-9.996989313184814208e-01,1.936199739958417751e+02
-5.937702164910150238e+00,-6.022725692133847453e+00,5.133748109060795706e+00,1.217558766213923671e-01,-4.271485671585065758e-01,-8.959450921139819890e-01,1.954546812355832799e+02
-6.285875166619811161e+00,-6.406153805059548567e+00,4.920886430177956683e+00,3.698982379086732664e-01,-2.721274050884779361e-01,-8.883242476668695708e-01,1.972893884753247846e+02
-6.682802006501497694e+00,-6.795298531457557800e+00,4.645605320233199720e+00,5.863533815208138433e-01,-9.379468871456028700e-02,-8.046056601524752550e-01,1.992943888671479442e+02
-7.089665153489063343e+00,-7.151288814849527498e+00,4.325207039504527451e+00,7.525789214884025524e-01,9.257286733496225550e-02,-6.519610656826143602e-01,2.012993892589711038e+02
-7.497002873056922923e+00,-7.473569001023768088e+00,3.961802850857595093e+00,7.782596069044326326e-01,7.482753227946332963e-02,-6.234667791230743550e-01,2.033043896507942634e+02
-7.862115720903986471e+00,-7.740576303395806157e+00,3.594736760000561304e+00,8.025500643387982747e-01,5.694853520637224720e-02,-5.938587867195275205e-01,2.051442253461085556e+02
-8.209807562648078871e+00,-7.981274143551562616e+00,3.200141989482385707e+00,8.254069065913730574e-01,3.896781187434677357e-02,-5.631899752174216456e-01,2.069840610414228479e+02
-8.530915862642872938e+00,-8.195719420695839474e+00,2.781454546589242849e+00,8.467893067807775731e-01,2.091747967948213993e-02,-5.315151258073066431e-01,2.088238967367371401e+02
-8.779914714072365456e+00,-8.359857397910177568e+00,2.407815943119935298e+00,8.666590712097337335e-01,2.829780328487247441e-03,-4.988908163409978003e-01,2.103996389417758337e+02
-9.001032322525556850e+00,-8.507428616705199786e+00,2.024333748122306265e+00,8.849807075402095213e-01,-1.526297770936156650e-02,-4.653753203480212597e-01,2.119753811468145273e+02
-9.189001109363829300e+00,-8.638510932220803795e+00,1.633580090819955588e+00,9.312758388397874842e-01,-1.690395983359965215e-01,-3.227211275827721049e-01,2.135511233518532208e+02
-9.338799533926554375e+00,-8.753387322424309502e+00,1.238273703661530556e+00,9.346011554481568062e-01,-3.150166210017840140e-01,-1.651762959018167054e-01,2.151268655568919144e+02
-9.445900355621798639e+00,-8.852710488579855763e+00,8.414264567916145410e-01,8.948031780336588303e-01,-4.464585898830685240e-01,-9.999990814006853238e-06,2.167026077619306079e+02
-9.503050378052726899e+00,-8.953865132219350542e+00,3.473262272846121546e-01,9.978964962912724168e-01,-6.481190233634093190e-02,1.999996986247637058e-06,2.186786926985779189e+02
-9.456817220925513467e+00,-9.028350213290286419e+00,-1.357714756581742954e-01,9.938739386643862250e-01,-6.069913302225127261e-02,9.234830424044326858e-02,2.206547776352252299e+02
-9.327676598904899308e+00,-9.075025127910279821e+00,-5.480023156908984117e-01,9.813428725783147621e-01,-5.606672114264039941e-02,1.839040217668115595e-01,2.223994826581620430e+02
-9.115519817969722993e+00,-9.107171113073965429e+00,-9.423032296418476506e-01,9.604105744023936353e-01,-5.095432435783926739e-02,2.738853508444359375e-01,2.241441876810988560e+02
-8.818979837374273600e+00,-9.127016531989010417e+00,-1.313695977588984265e+00,9.312562421955007386e-01,-4.540570942490818052e-02,3.615219674173555386e-01,2.258888927040356691e+02
-8.443225189466003755e+00,-9.135811441508689512e+00,-1.657549575560473665e+00,8.941294618038831965e-01,-3.946837753556749206e-02,4.460636195775949386e-01,2.276335977269724822e+02
-7.996686860375071149e+00,-9.132859088313475482e+00,-1.969918502071311250e+00,8.493480704298236317e-01,-3.319315768479755985e-02,5.267865502663903188e-01,2.293783027499092952e+02
-7.564391976447334187e+00,-9.120885036625452358e+00,-2.213157119302045839e+00,7.972954359423296555e-01,-2.663377154946932474e-02,6.029996932337066129e-01,2.308820833231763459e+02
-7.097111168388482660e+00,-9.101245783509360976e+00,-2.432262374767061974e+00,7.384171751982322451e-01,-1.984637360022539765e-02,6.740505892204113891e-01,2.323858638964433965e+02
-6.599786800459777503e+00,-9.074649716963723023e+00,-2.625569476357569876e+00,6.732173394434354252e-01,-1.288907038205573154e-02,7.393309717159318728e-01,2.338896444697104471e+02
-6.077365273535585644e+00,-9.041770781556651926e+00,-2.791413793708998003e+00,6.022540994269971470e-01,-5.821423077673914225e-03,7.982819744661658889e-01,2.353934250429774977e+02
-5.372381990773924088e+00,-8.989572515940464470e+00,-2.954463776490251270e+00,5.261349671461438282e-01,1.296062388659796573e-03,8.503989161382616846e-01,2.373288210211753722e+02
-4.637900679072416210e+00,-8.926991770198855036e+00,-3.051319566147081108e+00,4.455115951113143291e-01,8.402453342062580349e-03,8.952356211633818450e-01,2.392642169993732466e+02
-3.887012367455233264e+00,-8.858281426924017765e+00,-3.078803039088082727e+00,3.610741976426203315e-01,1.543691200807108081e-02,9.324082397452581050e-01,2.411996129775711211e+02
-3.286189810673687983e+00,-8.802655219621387417e+00,-3.054120929049770172e+00,2.735456419512515835e-01,2.233921635732289551e-02,9.615985343075234004e-01,2.427390917806250172e+02
-2.688799253282218249e+00,-8.748910555022456847e+00,-2.992069814603206979e+00,1.836752595930979670e-01,2.905027568383727193e-02,9.825566042200251093e-01,2.442785705836789134e+02
-2.100059120768396959e+00,-8.698988382850917134e+00,-2.891563314490715797e+00,9.223243128245257882e-02,3.551263650155830898e-02,9.951030254544891429e-01,2.458180493867328096e+02
-1.525202347570566275e+00,-8.654792521053382259e+00,-2.751515300142539644e+00,0.000000000000000000e+00,4.167097442644275562e-02,9.991303868317578107e-01,2.473575281897867058e+02
-9.693938137114309628e-01,-8.618298093415535988e+00,-2.571030176047250482e+00,-6.074690999519724022e-01,7.795978449198442961e-01,1.523367742923661117e-01,2.488970069928406019e+02
-4.376488509558211781e-01,-8.591660747824091615e+00,-2.349593158870468823e+00,-6.592814128996382639e-01,7.122110344726344522e-01,2.410424464320147231e-01,2.504364857958944981e+02
6.539976590769187859e-02,-8.577115816903278400e+00,-2.087544450806511520e+00,-7.011423807196542901e-01,6.340739587575469072e-01,3.261097618683372890e-01,2.519759645989483943e+02
5.369113625355128594e-01,-8.576894852290800841e+00,-1.787791409783095808e+00,-7.324201494088509179e-01,5.463660326502669529e-01,4.062547022588544054e-01,2.535154434020022904e+02
9.766957644999821886e-01,-8.593249749193169862e+00,-1.456382089630910315e+00,-7.526426073083023471e-01,4.504111326128514836e-01,4.802675476065362270e-01,2.550549222050561866e+02
1.380286961213856634e+00,-8.627668039179544834e+00,-1.105959708861901758e+00,-7.615045108746184566e-01,3.476576150334622639e-01,5.470311349714349625e-01,2.565723690986664565e+02
1.755315992010287873e+00,-8.682302720957681075e+00,-7.390768378789229764e-01,-7.588720921825279353e-01,2.396564559049435550e-01,6.055377204193612695e-01,2.580898159922767263e+02
2.102662909248283363e+00,-8.759308362858392982e+00,-3.626117780292350545e-01,-7.447850786012123470e-01,1.280378416000596542e-01,6.549041897958970404e-01,2.596072628858869962e+02
2.423296208477278224e+00,-8.860611970898181866e+00,1.677485741905745259e-02,-8.546856892570265929e-01,-2.260996982536807864e-01,4.673214087001361094e-01,2.611247097794972660e+02
2.718380155694557487e+00,-8.987679949680883240e+00,3.928579350554496918e-01,-8.169998103190999617e-01,-5.411946751271374811e-01,1.990417884584515240e-01,2.626421566731075359e+02
2.989173108607916518e+00,-9.141753440979925927e+00,7.596300918166745131e-01,-6.382348386912227722e-01,-7.628365499313519704e-01,-1.036083431468610150e-01,2.641596035667178057e+02
3.236923559847941778e+00,-9.324082694340740218e+00,1.111084024085929656e+00,-3.492598354841313091e-01,-8.527522019156871247e-01,-3.883674155305412712e-01,2.656770504603280756e+02
3.490179865041939777e+00,-9.569325389732744824e+00,1.481839681582010959e+00,2.499997267778862348e-05,-7.954151306990366876e-01,-6.060633376396513672e-01,2.674004949065883352e+02
3.713666432436791176e+00,-9.856132329186454655e+00,1.813368200563919341e+00,-2.125979658525083416e-01,-6.461272834673571497e-01,-7.330208990716302608e-01,2.691239393528485948e+02
3.909856092696871954e+00,-1.017848045482290331e+01,2.101439584396906479e+00,-4.074447634267278073e-01,-4.428143556007214654e-01,-7.986878058613349207e-01,2.708473837991088544e+02
4.082055984695178275e+00,-1.052847418314798489e+01,2.344686784815150915e+00,-5.682235629551481981e-01,-2.024761057708653611e-01,-7.975734505962636112e-01,2.725708282453691140e+02
4.234023470467903394e+00,-1.089848689765604028e+01,2.542399947075118849e+00,-6.814910863541825403e-01,5.479192654281835745e-02,-7.297710216273478601e-01,2.742942726916293736e+02
4.400806017957762606e+00,-1.138890376144714622e+01,2.717847038556570727e+00,-5.322324850918742634e-01,4.830697122230637880e-02,-8.452177342822330131e-01,2.764897229564932672e+02
4.516733038911613818e+00,-1.179332825601786894e+01,2.797188060866985460e+00,-3.640007640744199469e-01,4.009995986874612117e-02,-9.305339526167990538e-01,2.782646988824751020e+02
4.620648202023426521e+00,-1.219612984687591251e+01,2.828338895768923056e+00,-1.827930415400305930e-01,3.046345559110806567e-02,-9.826783206312216246e-01,2.800396748084569367e+02
4.714214328758649764e+00,-1.259118106746354293e+01,2.812757738658890450e+00,4.930994909502411060e-03,1.974097962045976914e-02,-9.997919678678045541e-01,2.818146507344387715e+02
4.795825337929993104e+00,-1.297388657300667703e+01,2.752790895194083376e+00,-9.089331001752296579e-01,0.000000000000000000e+00,-4.169395872385236457e-01,2.835896266604206062e+02
4.860452429618550063e+00,-1.334083748771317346e+01,2.651307959346477894e+00,-0.000000000000000000e+00,2.648456641228463249e-01,-9.642897770881325714e-01,2.853646025864024409e+02
4.901091700622636438e+00,-1.367277209834380436e+01,2.519763038686715806e+00,-3.763582426798396940e-01,4.460040530459311592e-01,-8.120547135722799847e-01,2.870524924873593022e+02
4.916680525418478886e+00,-1.398583311735557899e+01,2.357420786016719561e+00,-6.783331045801358483e-01,5.390142884851149008e-01,-4.993253408757056255e-01,2.887403823883161635e+02
4.902189675882436148e+00,-1.427735865558289419e+01,2.166671662082928052e+00,-0.000000000000000000e+00,3.410856895399453914e-01,-9.400311443730142713e-01,2.904282722892730249e+02
4.852606707597843183e+00,-1.454478864368905811e+01,1.949808399036879747e+00,-2.527522775787650194e-03,6.081616110092920024e-01,-7.938079531751853768e-01,2.921161621902298862e+02
4.763836667909467693e+00,-1.478558038984563794e+01,1.709103135561986564e+00,-4.820699801177337485e-03,8.188503574246833727e-01,-5.739850633945959846e-01,2.938040520911867475e+02
4.633612025192001660e+00,-1.499685097278745616e+01,1.447080458104602840e+00,-6.666914330055717479e-03,9.536174989954808723e-01,-3.009438782633888088e-01,2.954919419921436088e+02
4.460593540047574912e+00,-1.517547598993886560e+01,1.166440227697466581e+00,-7.894990794487707561e-03,9.999678340434552393e-01,-0.000000000000000000e+00,2.971798318931004701e+02
4.213672169810154244e+00,-1.532920472922440425e+01,8.353386767898026699e-01,-9.132730123892169871e-01,4.073455594976950200e-01,-0.000000000000000000e+00,2.990541810862090415e+02
3.904467869271542213e+00,-1.542925700087876351e+01,4.865465936419895443e-01,-8.515155288636800934e-01,5.076266152899396866e-01,1.312803243232082140e-01,3.009285302793176129e+02
3.532342307952073046e+00,-1.547097625769396245e+01,1.248297389190985707e-01,-7.632717635896458797e-01,5.921180210444705327e-01,2.584772022096607502e-01,3.028028794724261843e+02
3.171381499636332979e+00,-1.546080669470974378e+01,-1.880085504236607141e-01,-6.512865127101592488e-01,6.581916824865434723e-01,3.776341979590784326e-01,3.043951603683539702e+02
2.774763086427531888e+00,-1.540981322847656010e+01,-5.015265670658189956e-01,-5.190430467675171133e-01,7.037923795683694861e-01,4.850449484989938775e-01,3.059874412642817560e+02
2.344213912155785007e+00,-1.531581811565732920e+01,-8.122110662769420619e-01,-3.706547693254690912e-01,7.275016953320865287e-01,5.773684484500349878e-01,3.075797221602095419e+02
1.881476218709738468e+00,-1.517665580468034570e+01,-1.116548823240919308e+00,-2.107372744818531152e-01,7.285821388473674443e-01,6.517329730009985278e-01,3.091720030561373278e+02
1.388731925326388117e+00,-1.499053216032485913e+01,-1.410952178481223340e+00,-4.426478166877326897e-02,7.070000889021073043e-01,7.058254057457999942e-01,3.107642839520651137e+02
8.690232470337350135e-01,-1.475638784339175658e+01,-1.691684583809546671e+00,1.235845873371130971e-01,6.634268436588102169e-01,7.379631920939636602e-01,3.123565648479928996e+02
2.913778807089423828e-01,-1.445314865447402575e+01,-1.969583077719187836e+00,2.875898764464029367e-01,5.992177425656688428e-01,7.471466790128329372e-01,3.140456542926685870e+02
-3.099738212106524782e-01,-1.409108975194793878e+01,-2.221788184994637483e+00,2.181361055402203097e-01,5.637464533101917974e-01,7.966207227012114256e-01,3.157347437373442745e+02
-9.306234943911622093e-01,-1.366941911936002718e+01,-2.443474611002450114e+00,1.468217373029374329e-01,5.234665825470752321e-01,8.392997762476974710e-01,3.174238331820199619e+02
-1.565700004131573397e+00,-1.318783882826835807e+01,-2.631416756046800920e+00,7.425504957573948739e-02,4.787217044260124177e-01,8.748198199182751766e-01,3.191129226266956493e+02
-2.209296918638491203e+00,-1.264733714875993620e+01,-2.785769050847731521e+00,1.054998706092888068e-03,4.298934727555412949e-01,9.028778926620291134e-01,3.208020120713713368e+02
-2.854820571533050799e+00,-1.205006314152104530e+01,-2.908647358212242295e+00,-2.094397647221116210e-02,9.665299142314137670e-01,2.556937127619156591e-01,3.224911015160470242e+02
-3.458006635654480299e+00,-1.143997593945566926e+01,-2.998277704673511845e+00,4.606624106659285012e-01,7.464020451138489998e-01,4.802833855644469407e-01,3.240799573945994325e+02
-4.051867959355959670e+00,-1.078662072278712891e+01,-3.065421071705040301e+00,5.419998690073466463e-01,6.161020976129496507e-01,5.715350796879260509e-01,3.256688132731518408e+02
-4.631193207593712557e+00,-1.009205298276349794e+01,-3.111876155547365297e+00,6.060362426637543320e-01,4.661357356541689367e-01,6.445428989022585764e-01,3.272576691517042491e+02
-5.190786388831503118e+00,-9.358365868045128266e+00,-3.139441797223629038e+00,6.507274668824005737e-01,3.012899831490998825e-01,6.969764055547562620e-01,3.288465250302566574e+02
-5.725466958905887083e+00,-8.587690099243657116e+00,-3.149916969946897183e+00,6.746469744000578306e-01,1.268268071975847122e-01,7.271618945667507328e-01,3.304353809088090657e+02
-6.230069924705930795e+00,-7.782193883009161262e+00,-3.145100766526814251e+00,6.186973559245070309e-01,1.163087140349637061e-01,7.769709549350873878e-01,3.320242367873614739e+02
-6.699445947666708534e+00,-6.944082825666269443e+00,-3.126792386775637311e+00,5.592075881606153320e-01,1.051251093629229361e-01,8.223342293290636373e-01,3.336130926659138822e+02
-7.128461447075936874e+00,-6.075599846400023374e+00,-3.096791124913707005e+00,4.965180660803309443e-01,9.333998473734979318e-02,8.629921536759548317e-01,3.352019485444662905e+02
-7.511998703193079940e+00,-5.179025089992292052e+00,-3.056896356974438067e+00,4.309874929720216574e-01,8.102077348389054301e-02,8.987120869148741420e-01,3.367908044230186988e+02
-7.845619130343727043e+00,-4.256976353489041465e+00,-3.008700205274417172e+00,3.629908281509633405e-01,6.823796488407166128e-02,9.292896420534266788e-01,3.383796603015711071e+02
-8.117209906732091085e+00,-3.354967334397864764e+00,-2.955902916871200770e+00,2.929171416719922871e-01,5.506470087884173664e-02,9.545498556035350024e-01,3.398989494162532310e+02
-8.344675236487942627e+00,-2.437008090033117469e+00,-2.897040718834811290e+00,2.211673883085369108e-01,4.157635759510554252e-02,9.743481887080390758e-01,3.414182385309353549e+02
-8.530397613539470569e+00,-1.506614285671381559e+00,-2.832307393827524944e+00,1.481521135237690023e-01,2.785011408758456680e-02,9.885713542300768042e-01,3.429375276456174788e+02
-8.676783805550957851e+00,-5.672846355374550065e-01,-2.761956252675748846e+00,7.428910454896031634e-02,1.396451076152913084e-02,9.971379650704446096e-01,3.444568167602996027e+02
-8.786264808322098219e+00,3.774992256673379565e-01,-2.686270387441609842e+00,9.999989999985432422e-07,-9.999989999985432422e-07,9.999989999985432476e-01,3.459761058749817266e+02
-8.861295799921766303e+00,1.324272871046184852e+00,-2.605532924304021503e+00,4.007305300104290202e-01,-5.132176219660787853e-01,7.589602854049946057e-01,3.474953949896638505e+02
-8.904356094566923119e+00,2.269589209589823131e+00,-2.520027021747305085e+00,6.082774653435700785e-01,-7.790243152625521139e-01,1.520448663574272274e-01,3.490146841043459744e+02
-8.917949096236592155e+00,3.210018614066859843e+00,-2.430035868749649719e+00,8.086152182767397667e-01,-5.701875086871813769e-01,1.450021851876020784e-01,3.505339732190280984e+02
-8.904602252021188491e+00,4.142149048720295212e+00,-2.335842682971432716e+00,9.411927937870143701e-01,-3.135702639555560389e-01,1.258086423386865771e-01,3.520532623337102223e+02
-8.862291407576197599e+00,5.130596253434728915e+00,-2.230044001265008902e+00,9.949004988875450595e-01,-3.067653653300366975e-02,9.607261535181164935e-02,3.536867832669289555e+02
-8.793391671666183740e+00,6.100007696758375175e+00,-2.119753656043460222e+00,9.652377531612574835e-01,2.547878172082398418e-01,5.828591661224116760e-02,3.553203042001476888e+02
-8.701380332434368370e+00,7.045898882586584477e+00,-2.005350214876901127e+00,8.546902225259083163e-01,5.189015279781100665e-01,1.561498579573443457e-02,3.569538251333664221e+02
-8.589761158928054030e+00,7.963801581518654693e+00,-1.887344166748398777e+00,9.025323494255671486e-01,4.304917364537743096e-01,1.049871811541440957e-02,3.585873460665851553e+02
-8.462056646170873719e+00,8.849254179765530637e+00,-1.766509809286678001e+00,9.412305863045108412e-01,3.377205150959005087e-01,5.276086150934267832e-03,3.602208669998038886e+02
-8.321815876992824101e+00,9.697811526667797111e+00,-1.643753352030204118e+00,9.703928888871868885e-01,2.415277234475320944e-01,0.000000000000000000e+00,3.618543879330226218e+02
-8.172622281561856994e+00,1.050505486085976514e+01,-1.519981018715265808e+00,9.969795307158221265e-01,-7.765188556165565636e-02,0.000000000000000000e+00,3.634879088662413551e+02
-7.966716439760557655e+00,1.149326416434718467e+01,-1.355473084709537090e+00,9.546769266703332146e-01,-0.000000000000000000e+00,-2.976406653668405844e-01,3.656618007839354050e+02
-7.760852495578498988e+00,1.236208863405606984e+01,-1.194061095948729445e+00,9.706551006134579440e-01,-0.000000000000000000e+00,-2.404717771844190333e-01,3.678356927016294549e+02
-7.619257705308468687e+00,1.290905165288515555e+01,-1.083375517082496131e+00,9.988611377171598971e-01,-0.000000000000000000e+00,4.769095883001762959e-02,3.693721637586841666e+02
-7.482523145429338385e+00,1.340937081592737101e+01,-9.767207307688985374e-01,9.955207353940758175e-01,9.453287991526874989e-02,0.000000000000000000e+00,3.709086348157388784e+02
-7.351864551991161179e+00,1.386257402910159442e+01,-8.758508678057996821e-01,9.979367971900037215e-01,6.396702659686565040e-02,5.326192160188436726e-03,3.724451058727935902e+02
-7.223788882999996552e+00,1.428204808878548704e+01,-7.795519442238200147e-01,9.993863781122902523e-01,3.333922353381078146e-02,1.064722584539739419e-02,3.740395342029160020e+02
-7.104374963532739784e+00,1.464908046798647945e+01,-6.942731703224835904e-01,9.998680743727528242e-01,2.679132872511326945e-03,1.595794778900214844e-02,3.756339625330384138e+02
-6.983820864975331943e+00,1.499188230422956281e+01,-6.170824630052513804e-01,9.993814195208586826e-01,-2.798355197895158880e-02,2.125321471186977784e-02,3.773981333598889591e+02
-6.876810151039515873e+00,1.526668437765953534e+01,-5.627624672411191131e-01,9.979268849027518318e-01,-5.861913510445928427e-02,2.652789830297834842e-02,3.791623041867395045e+02
-6.784067274820799298e+00,1.547555548214724119e+01,-5.356269696942964620e-01,9.955058792045080596e-01,-8.919794683662744805e-02,3.177689018553819800e-02,3.809264750135900499e+02
-6.706209775377542925e+00,1.562111686562796109e+01,-5.400547403025904858e-01,9.921207470878966594e-01,-1.196903724881460546e-01,3.699510686381048130e-02,3.826906458404405953e+02
-6.649569502668312815e+00,1.570194441968960852e+01,-5.718911901486281035e-01,9.877747669199711256e-01,-1.500668810298897982e-01,4.217749464583681746e-02,3.842474504765693837e+02
-6.603484241041408076e+00,1.574322072328692634e+01,-6.309333434111955574e-01,9.824721475986839536e-01,-1.802980536880527951e-01,4.731903453731751974e-02,3.858042551126981721e+02
-6.566574437648741380e+00,1.574727319134576575e+01,-7.202852982745593380e-01,9.762180244775937599e-01,-2.103546124326395872e-01,5.241474710190322656e-02,3.873785761281259283e+02
-6.537264324887636313e+00,1.571668093909904584e+01,-8.405657767302278094e-01,9.690184543936042338e-01,-2.402074483297479135e-01,5.745969728319730296e-02,3.889528971435536846e+02
-6.512943738042966224e+00,1.565515014155893070e+01,-9.923932438641154263e-01,9.608804098025393037e-01,-2.698276497302111165e-01,6.244899918380353299e-02,3.905272181589814409e+02
-6.490974725419711433e+00,1.556636748392817893e+01,-1.176385947941939403e+00,9.518117720282196492e-01,-2.991865302673253346e-01,6.737782079679455194e-02,3.921015391744091971e+02
-6.468666098276655951e+00,1.545377501950164145e+01,-1.392950673953249785e+00,9.418213236315662318e-01,-3.282556566365683604e-01,7.224138868502254229e-02,3.936758601898369534e+02
-6.443250249924473927e+00,1.532034478405744515e+01,-1.642071498608387525e+00,9.309187399070991686e-01,-3.570068761304299176e-01,7.703499260374413460e-02,3.952501812052647097e+02
-6.408866031386430961e+00,1.515615034781757764e+01,-1.947232683232678285e+00,9.191145795150527098e-01,-3.854123439017048125e-01,8.175399006208530772e-02,3.969421508560849929e+02
-6.363293535865930828e+00,1.497309001188559030e+01,-2.292222331539980118e+00,9.064202742581529693e-01,-4.134445499288652015e-01,8.639381081893185432e-02,3.986341205069052762e+02
-6.302899874005890801e+00,1.477450011708730315e+01,-2.676114789768192725e+00,8.928481180129395067e-01,-4.410763456574117725e-01,9.094996130889358710e-02,4.003260901577255595e+02
-6.231763460537637300e+00,1.457999168040048765e+01,-3.062415960005010263e+00,8.784112548263236508e-01,-4.682809702914160765e-01,9.541802899405761595e-02,4.018894274981638546e+02
-6.152515058969291850e+00,1.439383395478865246e+01,-3.440584893520865162e+00,8.631236661888879169e-01,-4.950320767098046471e-01,9.979368663731817690e-02,4.033279978224805404e+02
-6.071009939008320977e+00,1.422368270431469561e+01,-3.791602693523819401e+00,8.470001574972240155e-01,-5.213037569822925876e-01,1.040726964931449755e-01,4.046076431591168330e+02
-5.873766769489296991e+00,1.389000827988675546e+01,-4.485237261491801242e+00,8.300563437183928750e-01,-5.470705674602646118e-01,1.082509144117328598e-01,4.070017554401334792e+02
-5.768704883993195587e+00,1.373715957039396329e+01,-4.802313348962126582e+00,7.669240327213734387e-01,-6.083619976893147596e-01,2.042576994898911147e-01,4.080531984137069799e+02
-5.562859030791171833e+00,1.346007228279515999e+01,-5.361377189300455370e+00,6.907849783365456187e-01,-6.593357951168591358e-01,2.968003082571101237e-01,4.099016829047124020e+02
-5.325802338764904498e+00,1.316903932980349268e+01,-5.911928520619003535e+00,6.029304651332196840e-01,-6.991274818158479398e-01,3.843092743916288190e-01,4.117501673957178241e+02
-5.059075880847960782e+00,1.286189594659015967e+01,-6.437933822948839868e+00,5.048504550707269001e-01,-7.270622152181295261e-01,4.653004977604566772e-01,4.135986518867232462e+02
-4.764600977471559418e+00,1.253687554240179303e+01,-6.923350412380164798e+00,4.436676085589408847e-01,-6.619261072840308957e-01,6.041613042990341409e-01,4.154471363777286683e+02
-4.424076743912312537e+00,1.217089253543397298e+01,-7.373562775078737808e+00,3.703866502330014354e-01,-5.787403219276727739e-01,7.265475683705776566e-01,4.174078258605113092e+02
-4.057341186677472678e+00,1.178177788783094648e+01,-7.735831125788187101e+00,2.870058323433269387e-01,-4.797732006331239529e-01,8.291220224768505176e-01,4.193685153432939501e+02
-3.720731581007833189e+00,1.142471454581103529e+01,-7.970197904814503076e+00,1.957988106946531026e-01,-3.677234113814306093e-01,9.090876296889043306e-01,4.210780970384075204e+02
-3.373767811305617315e+00,1.105345381183129305e+01,-8.124450450660553713e+00,9.925264828604696277e-02,-2.456463634500808957e-01,9.642638518230368661e-01,4.227876787335210906e+02
-3.020770264138389116e+00,1.066978491542539231e+01,-8.196308706656767029e+00,0.000000000000000000e+00,-1.168708951520591871e-01,9.931461090226156863e-01,4.244972604286346609e+02
-2.665873083514588959e+00,1.027576373532468779e+01,-8.186839233623853573e+00,4.301035175183857140e-01,3.026596604823824505e-02,9.022709878502616077e-01,4.262068421237482312e+02
-2.316896886417771917e+00,9.878706674541303911e+00,-8.099692516105122309e+00,0.000000000000000000e+00,0.000000000000000000e+00,9.999989999986806932e-01,4.278964229234440495e+02
-2.023180903549958831e+00,9.536749521888889802e+00,-7.970431066291385314e+00,-1.161848472904061791e-01,1.341998236121057881e-03,9.932256945363709955e-01,4.293354488072124582e+02
-1.657673134068928800e+00,9.100809944530304563e+00,-7.733707975298135473e+00,-2.692904211577962226e-01,1.230372046058869351e-01,9.551662239405074306e-01,4.311642364071363431e+02
-1.303659954629912798e+00,8.667391763223891488e+00,-7.414216754019992806e+00,-4.117052583490556916e-01,2.398478752661644953e-01,8.791869977310508011e-01,4.329930240070602281e+02
-9.634373512543088491e-01,8.240874787028790394e+00,-7.020724648044239125e+00,-5.377755579393023178e-01,3.471366829834606760e-01,7.683043489473611043e-01,4.348218116069841130e+02
-6.393152584951042883e-01,7.825341770665478869e+00,-6.562002866831670111e+00,-6.424963778457110086e-01,4.406443059104162563e-01,6.269202502110627906e-01,4.366505992069079980e+02
-2.880897400812841846e-01,7.364093719642787583e+00,-5.953609277369416475e+00,-7.217103253060799251e-01,5.166585169996217308e-01,4.606475693616906564e-01,4.387747795449688510e+02
3.160169757656337147e-02,6.933868102222899843e+00,-5.273182884233327705e+00,-0.000000000000000000e+00,1.466699169441205812e-02,9.998914337839409638e-01,4.408989598830297041e+02
3.046782037657242981e-01,6.560047183645942859e+00,-4.579838925953350071e+00,-5.024135394088041773e-01,7.294793312446198330e-01,4.641535744838998778e-01,4.429084787836207511e+02
5.504409786367635560e-01,6.221964947362935483e+00,-3.854522369057093556e+00,-8.224100363950812564e-01,2.146638352581771436e-01,5.268388462009717665e-01,4.449179976842117981e+02
7.225286206724611526e-01,5.986736733628976737e+00,-3.287715382220385951e+00,-8.369935740605074503e-01,-3.798711599819862839e-01,3.938751817402157962e-01,4.464545876710864150e+02
8.839033791498079884e-01,5.769661495916082572e+00,-2.717853259165807778e+00,-5.407470413873790571e-01,-8.333356504909588125e-01,1.146400054430184445e-01,4.479911776579610319e+02
1.035701438707400168e+00,5.571322808848292674e+00,-2.149550837571443385e+00,-4.368697578786884250e-02,-9.773284583464662001e-01,-2.071678851837208402e-01,4.495277676448356488e+02
1.181162048462188308e+00,5.389841175687761776e+00,-1.579227594660949752e+00,-1.571261495725260748e-01,-9.643530046557341473e-01,-2.129146672417542852e-01,4.510868644251565343e+02
1.319168977631481443e+00,5.228754979273777082e+00,-1.019817345153007260e+00,-2.685116056345077662e-01,-9.387736212144522918e-01,-2.158786829369707672e-01,4.526459612054774198e+02
1.479549963669600121e+00,5.062261671119971496e+00,-3.555162518314919917e-01,-8.331036627168645348e-01,1.863803856925007052e-01,-5.207673559048091594e-01,4.545652864476153354e+02
1.630767378582217209e+00,4.933841235724830909e+00,2.722950152480497210e-01,-0.000000000000000000e+00,9.988447030609834965e-01,4.803393763085728879e-02,4.564846116897532511e+02
1.753405545271232935e+00,4.852498513116147549e+00,7.702252249234908810e-01,-1.012112603122564958e-01,9.864282388197115337e-01,-1.292811295063959753e-01,4.581012057756331615e+02
1.873941419006205811e+00,4.792686356741941545e+00,1.238807865002858888e+00,-1.981879938681708475e-01,9.327409848346318588e-01,-3.011872744614481623e-01,4.597177998615130718e+02
1.993998820031262165e+00,4.753788192849651040e+00,1.674765913013296137e+00,-2.868728255453922293e-01,8.400291281611971250e-01,-4.604921777897290625e-01,4.613343939473929822e+02
2.115044776792899039e+00,4.735098005446267244e+00,2.075281579722391800e+00,-3.635552988304456279e-01,7.121715969870108243e-01,-6.005307328841688053e-01,4.629509880332728926e+02
2.238236746869124882e+00,4.735744246756159903e+00,2.438455326389669775e+00,-4.250271185151580089e-01,5.545177742426421474e-01,-7.154439087565077626e-01,4.645675821191528030e+02
2.364573323601568244e+00,4.754769772696399777e+00,2.762846881688945988e+00,-4.687163839134300680e-01,3.736636862885933663e-01,-8.004238883250984760e-01,4.661841762050327134e+02
2.498435921518546099e+00,4.792562064252210874e+00,3.053055412364333421e+00,-4.927951955134862727e-01,1.771760308422959396e-01,-8.519152242887787496e-01,4.678412304909839463e+02
2.637835252123084118e+00,4.848050194061673146e+00,3.298356464640253005e+00,-4.962561322563069921e-01,-2.672440828603922860e-02,-8.677635952268811792e-01,4.694982847769351793e+02
2.783849005825695944e+00,4.920153658187727430e+00,3.497161082261457832e+00,-4.789543995528269815e-01,-2.295067122760398592e-01,-8.473059377643143986e-01,4.711553390628864122e+02
2.937317762936494159e+00,5.008242108643346846e+00,3.648678903211649782e+00,-5.320608519531992986e-01,-2.209093076231278818e-01,-8.173789375959704673e-01,4.728123933488376451e+02
3.098621103547285038e+00,5.112595851503175304e+00,3.753716405994551142e+00,-5.831508766462978333e-01,-2.114746913112579008e-01,-7.843541993274925073e-01,4.744694476347888781e+02
3.267661002467420861e+00,5.233839222400940017e+00,3.814264594782355022e+00,-6.320308512242952537e-01,-2.012386189074819032e-01,-7.483568810147295247e-01,4.761265019207401110e+02
3.433015567580723015e+00,5.363160915939495510e+00,3.834107590670775778e+00,-6.785155288687908515e-01,-1.902398833250842913e-01,-7.095234061519903879e-01,4.776849414182245255e+02
3.603673591915740992e+00,5.507062351134028866e+00,3.821702814547767613e+00,-7.224287403738840485e-01,-1.785201678137117443e-01,-6.680009466809747609e-01,4.792433809157089399e+02
3.778973690869004809e+00,5.665779356461192684e+00,3.779514512650401947e+00,-7.636040617735424529e-01,-1.661238879970729221e-01,-6.239468652703794582e-01,4.808018204131933544e+02
3.958014853371606190e+00,5.839418219646773878e+00,3.710030449828191301e+00,-8.018854450439444337e-01,-1.530980235564609049e-01,-5.775281189784216007e-01,4.823602599106777689e+02
4.141176428122189890e+00,6.029792863574182427e+00,3.614649095908522014e+00,-8.371278094912011358e-01,-1.394919401975795170e-01,-5.289206265568247023e-01,4.839337802713719157e+02
4.325067319483198780e+00,6.235083283511874797e+00,3.496439407749050154e+00,-8.691975915835628008e-01,-1.253572025749554453e-01,-4.783086017925070599e-01,4.855073006320660625e+02
4.507995036226482455e+00,6.455011909994649244e+00,3.358060072829645470e+00,-8.979732511443982990e-01,-1.107473788824799993e-01,-4.258838554118943853e-01,4.870808209927602093e+02
4.688213720082328173e+00,6.689172849921970254e+00,3.201974452267961624e+00,-9.233457319873126234e-01,-9.571783785021342750e-02,-3.718450681919257539e-01,4.886543413534543561e+02
4.894487411894235862e+00,6.985424116722106724e+00,2.995452026379180399e+00,-9.452188752471211153e-01,-8.032553891638485877e-02,-3.163970380310188180e-01,4.905162175005103791e+02
5.089220299025490668e+00,7.302739570485232257e+00,2.766712178814203060e+00,-9.635097838393936742e-01,-6.462881636942209573e-02,-2.597499038320690845e-01,4.923780936475664021e+02
5.268655384170439326e+00,7.639584141298647602e+00,2.519434758291981158e+00,-9.781491366662423692e-01,-4.868715827774645205e-02,-2.021183491376063179e-01,4.942399697946224251e+02
5.429021316065353098e+00,7.994455504126984913e+00,2.257299791660199784e+00,-9.890814513762606897e-01,-3.256098104488013706e-02,-1.437207885341767466e-01,4.961018459416784481e+02
5.565973210456921727e+00,8.363936657465263380e+00,1.985404570667107960e+00,-9.962652946813203014e-01,-1.631140044406399064e-02,-8.477853990857425748e-02,4.979543546617159109e+02
5.676698121408549902e+00,8.748315157691964217e+00,1.706106553470142728e+00,-9.996734394315608396e-01,-0.000000000000000000e+00,-2.551498569243200801e-02,4.998068633817533737e+02
5.757490342202077116e+00,9.145964761143325461e+00,1.422155518973204247e+00,-8.817421944340054774e-01,0.000000000000000000e+00,-4.717294802694306233e-01,5.016593721017908365e+02
5.804691188418930281e+00,9.554790223385326797e+00,1.134587155605296216e+00,-5.759863546497749898e-01,0.000000000000000000e+00,-8.174580840985133934e-01,5.035118808218282993e+02
5.805986535365545542e+00,1.005605320237416755e+01,7.857598952634201606e-01,-9.988620449104033128e-01,0.000000000000000000e+00,4.767195441714103948e-02,5.057270832796972968e+02
