-5.244604149694739981e+00,4.460015910034096365e+00,-7.870108231838274238e-01,2.561858103073418325e-01,-9.384093051552879761e-01,-2.318508283261673519e-01,1.414041005170149106e+02
-5.078249508831009784e+00,4.444424869160926050e+00,-4.993107046669482685e-01,4.151670841146004043e-01,-8.425589065556470247e-01,-3.431162794811182803e-01,1.429428745659306799e+02
-4.913159017529981298e+00,4.412981500618498920e+00,-1.984372081187296688e-01,5.547013419104128706e-01,-7.072404867897058578e-01,-4.383096110261477385e-01,1.444816486148464492e+02
-4.749385161079556994e+00,4.365027345735898123e+00,1.132298722220611287e-01,6.682522615639630015e-01,-5.387922450067167413e-01,-5.129715699927076544e-01,1.460204226637622185e+02
-4.586997847785829308e+00,4.299946226405298333e+00,4.332661895063522617e-01,7.505004180209962072e-01,-3.451044807644592094e-01,-5.636044888824071064e-01,1.475591967126779878e+02
-4.426096482085514872e+00,4.217206481572152832e+00,7.591583784447408778e-01,7.975926035964165939e-01,-1.352501264588929220e-01,-5.878362373657560758e-01,1.490979707615937571e+02
-4.249501470415926185e+00,4.102902374250400719e+00,1.124646157813911307e+00,8.073225074665053569e-01,8.094025538793132857e-02,-5.845314738950309064e-01,1.508056497649079972e+02
-4.076164936930605442e+00,3.962864589412400829e+00,1.491021691652453462e+00,7.792342158956470088e-01,2.933391022026242134e-01,-5.538449312536665170e-01,1.525133287682222374e+02
-3.909092865128822591e+00,3.795560372260198712e+00,1.855183797253185274e+00,7.146436237329772956e-01,4.919964758958952356e-01,-4.972141980526483818e-01,1.542210077715364775e+02
-3.752243231472959017e+00,3.599215112680863360e+00,2.214290800010904725e+00,6.165767316930679254e-01,6.676063598850595637e-01,-4.172923221922785197e-01,1.559286867748507177e+02
-3.611799674045395037e+00,3.376598517444484138e+00,2.559529090762234116e+00,4.896277451471233166e-01,8.119426995887577547e-01,-3.178234159965136474e-01,1.576064998735415656e+02
-3.488271647963444799e+00,3.123484636714003226e+00,2.894729905795220937e+00,3.397436844108882581e-01,9.182447127874990844e-01,-2.034671382155684161e-01,1.592843129722324136e+02
-3.384548610292188453e+00,2.839224873419273543e+00,3.217546130146292427e+00,1.739456707598161234e-01,9.815334303552544215e-01,-7.958032869254033637e-02,1.609621260709232615e+02
-3.302588400473517538e+00,2.524140191770327668e+00,3.526008118924926382e+00,0.000000000000000000e+00,9.988447030609716171e-01,4.803393763085671286e-02,1.626399391696141095e+02
-3.241716078986458971e+00,2.166496920324660014e+00,3.828544438326216603e+00,9.999988887670539232e-07,-4.977924468360180876e-01,-8.672950362321107942e-01,1.643777764761805429e+02
-3.205645989084437542e+00,1.779006956846332255e+00,4.112248189690366651e+00,0.000000000000000000e+00,9.988447030629378220e-01,4.803393763095126917e-02,1.661156137827469763e+02
-3.194318712306672747e+00,1.364269635743562192e+00,4.375809714763133407e+00,-0.000000000000000000e+00,9.978126036139498556e-01,-6.609090750926480129e-02,1.678534510893134097e+02
-3.207548251094076708e+00,9.252028339426553449e-01,4.618024540926193744e+00,4.894745649099760398e-01,3.309397058303437111e-02,-8.713882254299792907e-01,1.695912883958798432e+02
-3.244912646265287748e+00,4.653612454807704579e-01,4.837898408308244136e+00,0.000000000000000000e+00,9.968731427319673655e-01,-7.900593205829604948e-02,1.713291257024462766e+02
-3.302690816568475629e+00,7.559857563811551821e-03,5.027811248947766209e+00,-0.000000000000000000e+00,9.968731420280737554e-01,-7.900593200250984049e-02,1.729997892893018445e+02
-3.380984553970609152e+00,-4.619516727492809505e-01,5.196325109793400010e+00,2.464489069413976219e-01,8.418144700438139338e-01,-4.802180070477777840e-01,1.746704528761574124e+02
-3.479265528417807118e+00,-9.398757076315613634e-01,5.342680927522398981e+00,4.323325443753098796e-01,4.798782744336909101e-01,-7.634156225812209762e-01,1.763411164630129804e+02
-3.596979597555958641e+00,-1.422918894623782959e+00,5.466119810226569342e+00,5.119696326536163911e-01,1.099999210733007517e-05,-8.590023836520779277e-01,1.780117800498685483e+02
-3.733546819705589215e+00,-1.907792317166668195e+00,5.565883043283527343e+00,4.631382104037747860e-01,9.219746223826054131e-06,-8.862849417516157624e-01,1.796824436367241162e+02
-3.895345517754145170e+00,-2.410613274269175044e+00,5.643185982917692023e+00,4.128577106997987078e-01,7.410653600437802821e-06,-9.107944392988438498e-01,1.814207000302306767e+02
-4.076945945722551201e+00,-2.908114830873332224e+00,5.692106989624436508e+00,3.612854492426289532e-01,5.578374442103478695e-06,-9.324541941197055372e-01,1.831589564237372372e+02
-4.277803199394161204e+00,-3.396867734390343063e+00,5.711839590403264388e+00,3.085827826832957532e-01,3.728641482951916052e-06,-9.511964393407507101e-01,1.848972128172437976e+02
-4.490108249768293369e+00,-3.859240444449582252e+00,5.702823340232586524e+00,2.549146039767669625e-01,1.867242057275741286e-06,-9.669625352994600798e-01,1.865816617169487870e+02
-4.719302091492848739e+00,-4.308137073539004547e+00,5.665945057112117489e+00,2.004488266896339022e-01,0.000000000000000000e+00,-9.797031529373612102e-01,1.882661106166537763e+02
-4.965565623442686594e+00,-4.741861811131856896e+00,5.600803185420012653e+00,0.000000000000000000e+00,8.052988517071386215e-03,-9.999665741262685481e-01,1.899505595163587657e+02
-5.254226990274355025e+00,-5.194800857221030910e+00,5.495934077331600776e+00,-8.452989841288123529e-02,4.501064590669198728e-01,-8.889639316527502277e-01,1.917852667561002704e+02
-5.564608599965146674e+00,-5.625470069237082704e+00,5.354218630937541690e+00,2.084966276596523713e-02,1.285839353626575324e-02,-9.996989313184814208e-01,1.936199739958417751e+02
-5.896045979197869435e+00,-6.032778401369230714e+00,5.175726374435771326e+00,1.217558766213923671e-01,-4.271485671585065758e-01,-8.959450921139819890e-01,1.954546812355832799e+02
-6.246556018817741140e+00,-6.415762780771356866e+00,4.960757920378989105e+00,3.698982379086732664e-01,-2.721274050884779361e-01,-8.883242476668695708e-01,1.972893884753247846e+02
-6.646354867145813472e+00,-6.804337574378665821e+00,4.683101357004413323e+00,5.863533815208138433e-01,-9.379468871456028700e-02,-8.046056601524752550e-01,1.992943888671479442e+02
-7.056390390321542583e+00,-7.159675377346595759e+00,4.360254294600688141e+00,7.525789214884025524e-01,9.257286733496225550e-02,-6.519610656826143602e-01,2.012993892589711038e+02
-7.467140937880876628e+00,-7.481230282835506173e+00,3.994337023209241888e+00,7.782596069044326326e-01,7.482753227946332963e-02,-6.234667791230743550e-01,2.033043896507942634e+02
-7.835524365716787010e+00,-7.747517062456047654e+00,3.624921256507131595e+00,8.025500643387982747e-01,5.694853520637224720e-02,-5.938587867195275205e-01,2.051442253461085556e+02
-8.186543635150133724e+00,-7.987450116854299509e+00,3.227949061269419051e+00,8.254069065913730574e-01,3.896781187434677357e-02,-5.631899752174216456e-01,2.069840610414228479e+02
-8.510970078403913064e+00,-8.201091862260529552e+00,2.806869590846083451e+00,8.467893067807775731e-01,2.091747967948213993e-02,-5.315151258073066431e-01,2.088238967367371401e+02
-8.762759104933964593e+00,-8.364514790215075379e+00,2.431182397502106518e+00,8.666590712097337335e-01,2.829780328487247441e-03,-4.988908163409978003e-01,2.103996389417758337e+02
-8.986581794024345982e+00,-8.511349271555651796e+00,2.045662863448090896e+00,8.849807075402095213e-01,-1.526297770936156650e-02,-4.653753203480212597e-01,2.119753811468145273e+02
-9.177134023330197010e+00,-8.641674964520095870e+00,1.652893063264619267e+00,9.343647041290175093e-01,-2.846673670068930462e-02,-3.551763570108807944e-01,2.135511233518532208e+02
-9.329362169625429857e+00,-8.755777513831507264e+00,1.255602159044111321e+00,9.699603113204490201e-01,-4.125040997248095864e-02,-2.397361010369448153e-01,2.151268655568919144e+02
-9.438715839275541697e+00,-8.854313892242460682e+00,8.568134192229081014e-01,9.912422606451662954e-01,-5.342535265000009775e-02,-1.207580738722864311e-01,2.167026077619306079e+02
-9.498370615155776520e+00,-8.954472190371717488e+00,3.603706324931565952e-01,9.978964962917117321e-01,-6.481190233636946463e-02,1.999996986248517972e-06,2.186786926985779189e+02
-9.454211862226552299e+00,-9.027961048308073444e+00,-1.249319348105598498e-01,8.948031780328368212e-01,-4.464585898826584076e-01,-9.999990813997666319e-06,2.206547776352252299e+02
-9.326538547846569216e+00,-9.073766198675178529e+00,-5.389803973360124401e-01,8.764522895450076456e-01,-4.722374326097635855e-01,9.392119778359418747e-02,2.223994826581620430e+02
-9.115520893981454265e+00,-9.105062306398489014e+00,-9.349667074474549144e-01,8.494907796609648676e-01,-4.933768346097674451e-01,1.869297042762253502e-01,2.241441876810988560e+02
-8.819800092422596549e+00,-9.124089713136795510e+00,-1.307895374257626919e+00,8.141835209195527057e-01,-5.096691099045662643e-01,2.781017667530324422e-01,2.258888927040356691e+02
-8.444569285042536677e+00,-9.132104067803274106e+00,-1.653121510303904751e+00,7.708773784621507641e-01,-5.209541919881275351e-01,3.665416718792563477e-01,2.276335977269724822e+02
-7.998292199542740732e+00,-9.128401324102149772e+00,-1.966692420028259614e+00,7.199978029662302825e-01,-5.271212067876204221e-01,4.513805457449329706e-01,2.293783027499092952e+02
-7.566048107458683170e+00,-9.115796557464024730e+00,-2.210837182694152414e+00,6.620446514114199932e-01,-5.281095623609328715e-01,5.317848904196519344e-01,2.308820833231763459e+02
-7.098692654662344559e+00,-9.095540135644762714e+00,-2.430738083175174147e+00,5.975872766878460585e-01,-5.239095445880691537e-01,6.069647731361904608e-01,2.323858638964433965e+02
-6.601190372232536241e+00,-9.068343548762104689e+00,-2.624731472887488426e+00,5.272589342527411738e-01,-5.145624129679561287e-01,6.761815875998269387e-01,2.338896444697104471e+02
-6.078509867489569451e+00,-9.034883848941840156e+00,-2.791153865677217016e+00,4.517505607681081004e-01,-5.001599955477732395e-01,7.387553111125453320e-01,2.353934250429774977e+02
-5.373101317910664143e+00,-8.981978084241005078e+00,-2.954765241961929245e+00,3.718039858409441512e-01,-4.808437869398385911e-01,7.940711861487744772e-01,2.373288210211753722e+02
-4.638128703876898129e+00,-8.918752828803421906e+00,-3.051961307108888022e+00,2.882046435757548708e-01,-4.568035582723155574e-01,8.415857606736832919e-01,2.392642169993732466e+02
-3.886736139891867836e+00,-8.849488079581867339e+00,-3.079579013499396556e+00,2.017738555802403577e-01,-4.282754927256438027e-01,8.808322278008061668e-01,2.411996129775711211e+02
-3.285531865551547082e+00,-8.793497892953672235e+00,-3.054880369168603060e+00,1.133607612891814609e-01,-3.955398649785323850e-01,9.114250122804740117e-01,2.427390917806250172e+02
-2.687798834600977127e+00,-8.739465064317901266e+00,-2.992726233605967678e+00,2.383397494596397811e-02,-3.589182873786664341e-01,9.330635587254366703e-01,2.442785705836789134e+02
-2.098776164713225256e+00,-8.689343955303881373e+00,-2.892037854539525998e+00,-6.592694872911261661e-02,-3.187705499189624203e-01,9.455352843409868813e-01,2.458180493867328096e+02
-1.523717653972592290e+00,-8.645051820181169688e+00,-2.751736732903461657e+00,-1.550401562763898677e-01,-2.754910850975353376e-01,9.487176671549852891e-01,2.473575281897867058e+02
-9.678080413170805363e-01,-8.608578363014748547e+00,-2.570936542672901393e+00,-2.426301596845608921e-01,-2.295050924286665128e-01,9.425794492558531301e-01,2.488970069928406019e+02
-4.360803527491995402e-01,-8.582096082948252658e+00,-2.349135049436237299e+00,-3.278364378640012400e-01,-1.812643607163982040e-01,9.271809432585104149e-01,2.504364857958944981e+02
6.681468670467695381e-02,-8.567858241531743246e+00,-2.086679801552075553e+00,-4.098218908729139298e-01,-1.312428291690272975e-01,9.026734390422684884e-01,2.519759645989483943e+02
5.380283590870136301e-01,-8.568114202741858421e+00,-1.786476950386598039e+00,-4.877810638282166766e-01,-7.993193099279809199e-02,8.692977166529427535e-01,2.535154434020022904e+02
9.773861389792117826e-01,-8.585133701203025325e+00,-1.454576765281951678e+00,-5.609480597147995518e-01,-2.783576523187564558e-02,8.273816800462108212e-01,2.550549222050561866e+02
1.380458654206865310e+00,-8.620406735815867805e+00,-1.103637715421275312e+00,-6.286040633814286016e-01,2.453385570099174753e-02,7.773371349839078848e-01,2.565723690986664565e+02
1.754898739891755932e+00,-8.676110265838515190e+00,-7.362128315022918867e-01,-6.900844028473134273e-01,7.666243414843489090e-02,7.196557427949223928e-01,2.580898159922767263e+02
2.101612457079688578e+00,-8.754416166069775684e+00,-3.591873516127668808e-01,-7.447850786011156465e-01,1.280378416000430564e-01,6.549041897958119973e-01,2.596072628858869962e+02
2.421595752597313300e+00,-8.857267801133660967e+00,2.077294011103935495e-02,-8.546856892570265929e-01,-2.260996982536807864e-01,4.673214087001361094e-01,2.611247097794972660e+02
2.716043458322649151e+00,-8.986145895396367322e+00,3.974412712857354757e-01,-8.169998103190999617e-01,-5.411946751271374811e-01,1.990417884584515240e-01,2.626421566731075359e+02
2.986245993983970948e+00,-9.142304987948977057e+00,7.648104057909868025e-01,-6.382348386912227722e-01,-7.628365499313519704e-01,-1.036083431468610150e-01,2.641596035667178057e+02
3.233483770136798441e+00,-9.327008908855876967e+00,1.116873166878015855e+00,-3.492598354841313091e-01,-8.527522019156871247e-01,-3.883674155305412712e-01,2.656770504603280756e+02
3.486305544669489720e+00,-9.575235669137232009e+00,1.488375978397459054e+00,2.499997267778862348e-05,-7.954151306990366876e-01,-6.060633376396513672e-01,2.674004949065883352e+02
3.709574435196938413e+00,-9.865150724364932344e+00,1.820774242813396615e+00,-2.125979658525083416e-01,-6.461272834673571497e-01,-7.330208990716302608e-01,2.691239393528485948e+02
3.905825789001087678e+00,-1.019059570045973118e+01,2.109837276859585220e+00,-4.074447634267278073e-01,-4.428143556007214654e-01,-7.986878058613349207e-01,2.708473837991088544e+02
4.078442663048893913e+00,-1.054363321717979396e+01,2.354152369135278366e+00,-5.682235629551481981e-01,-2.024761057708653611e-01,-7.975734505962636112e-01,2.725708282453691140e+02
4.231265244040200102e+00,-1.091659600973886768e+01,2.552969258387392859e+00,-6.814910863541825403e-01,5.479192654281835745e-02,-7.297710216273478601e-01,2.742942726916293736e+02
4.400024369256471779e+00,-1.141053451238161109e+01,2.729808703721948504e+00,-5.322324850918742634e-01,4.830697122230637880e-02,-8.452177342822330131e-01,2.764897229564932672e+02
4.518364942484176083e+00,-1.181756558316637928e+01,2.810225766602463260e+00,-3.640007640744199469e-01,4.009995986874612117e-02,-9.305339526167990538e-01,2.782646988824751020e+02
4.625418753189053156e+00,-1.222273643342614413e+01,2.842375367278216380e+00,-1.827930415400305930e-01,3.046345559110806567e-02,-9.826783206312216246e-01,2.800396748084569367e+02
4.722685576387642747e+00,-1.261990990902170040e+01,2.827695571064098523e+00,4.930994909502411060e-03,1.974097962045976914e-02,-9.997919678678045541e-01,2.818146507344387715e+02
4.808129752369894483e+00,-1.300452646230377418e+01,2.768532855515687174e+00,-9.089331001752296579e-01,0.000000000000000000e+00,-4.169395872385236457e-01,2.835896266604206062e+02
4.876458963570182270e+00,-1.337321282415886436e+01,2.667761039986528360e+00,-0.000000000000000000e+00,2.648456641228463249e-01,-9.642897770881325714e-01,2.853646025864024409e+02
4.920444192900472302e+00,-1.370665702485374560e+01,2.536808276349596714e+00,-3.763582426798396940e-01,4.460040530459311592e-01,-8.120547135722799847e-01,2.870524924873593022e+02
4.939158740023794181e+00,-1.402111160465038964e+01,2.374978468144761212e+00,-6.783331045801358483e-01,5.390142884851149008e-01,-4.993253408757056255e-01,2.887403823883161635e+02
4.927521033391337291e+00,-1.431393104846988784e+01,2.184662208950251649e+00,-0.000000000000000000e+00,3.410856895399453914e-01,-9.400311443730142713e-01,2.904282722892730249e+02
4.880464226189565657e+00,-1.458256953372034914e+01,1.968150553819857151e+00,-2.527522775787650194e-03,6.081616110092920024e-01,-7.938079531751853768e-01,2.921161621902298862e+02
4.793846543317476616e+00,-1.482449048382261303e+01,1.727710879094505492e+00,-4.820699801177337485e-03,8.188503574246833727e-01,-5.739850633945959846e-01,2.938040520911867475e+02
4.665374944050150852e+00,-1.503680682836156990e+01,1.465862269458381162e+00,-6.666914330055717479e-03,9.536174989954808723e-01,-3.009438782633888088e-01,2.954919419921436088e+02
4.493696459615679650e+00,-1.521638584008221962e+01,1.185299620134269150e+00,-7.894990794487707561e-03,9.999678340434552393e-01,-0.000000000000000000e+00,2.971798318931004701e+02
4.247732994942887252e+00,-1.537104867874223757e+01,8.541579257695126604e-01,-9.132730123892169871e-01,4.073455594976950200e-01,-0.000000000000000000e+00,2.990541810862090415e+02
3.938882522684388210e+00,-1.547188447577728709e+01,5.051792377854253946e-01,-8.515155288636800934e-01,5.076266152899396866e-01,1.312803243232082140e-01,3.009285302793176129e+02
3.566502155196847657e+00,-1.551421981042723530e+01,1.431259674317459096e-01,-7.632717635896458797e-01,5.921180210444705327e-01,2.584772022096607502e-01,3.028028794724261843e+02
3.204895814989542568e+00,-1.550443519459421182e+01,-1.701047386853043741e-01,-6.512865127101592488e-01,6.581916824865434723e-01,3.776341979590784326e-01,3.043951603683539702e+02
2.807297162620592257e+00,-1.545369368730976412e+01,-4.840991141018090027e-01,-5.190430467675171133e-01,7.037923795683694861e-01,4.850449484989938775e-01,3.059874412642817560e+02
2.375455436978580526e+00,-1.535980278416107758e+01,-7.953390963276973924e-01,-3.706547693254690912e-01,7.275016953320865287e-01,5.773684484500349878e-01,3.075797221602095419e+02
1.911135452272013868e+00,-1.522058228188453555e+01,-1.100306642231169141e+00,-2.107372744818531152e-01,7.285821388473674443e-01,6.517329730009985278e-01,3.091720030561373278e+02
1.416546527356823626e+00,-1.503422298610871977e+01,-1.395409316583669401e+00,-4.426478166877326897e-02,7.070000889021073043e-01,7.058254057457999942e-01,3.107642839520651137e+02
8.947677419365976936e-01,-1.479964960043306732e+01,-1.676905881127943809e+00,1.235845873371130971e-01,6.634268436588102169e-01,7.379631920939636602e-01,3.123565648479928996e+02
3.147212585605564938e-01,-1.449571831629313934e+01,-1.955682606613881491e+00,2.875898764464029367e-01,5.992177425656688428e-01,7.471466790128329372e-01,3.140456542926685870e+02
-2.891981961001673929e-01,-1.413269715754490363e+01,-2.208831910298440171e+00,2.181361055402203097e-01,5.637464533101917974e-01,7.966207227012114256e-01,3.157347437373442745e+02
-9.125291361904019904e-01,-1.370977397796390385e+01,-2.431522611906951514e+00,1.468217373029374329e-01,5.234665825470752321e-01,8.392997762476974710e-01,3.174238331820199619e+02
-1.550345444595910616e+00,-1.322662833510760017e+01,-2.620518670245242543e+00,7.425504957573948739e-02,4.787217044260124177e-01,8.748198199182751766e-01,3.191129226266956493e+02
-2.196681517881680090e+00,-1.268421994470243952e+01,-2.775957114131530457e+00,1.054998706092888068e-03,4.298934727555412949e-01,9.028778926620291134e-01,3.208020120713713368e+02
-2.844881354296788345e+00,-1.208466490222827261e+01,-2.899936150340275631e+00,-2.094397647221116210e-02,9.665299142314137670e-01,2.556937127619156591e-01,3.224911015160470242e+02
-3.450475180214326087e+00,-1.147207134780048854e+01,-2.990601697524329250e+00,4.606624106659285012e-01,7.464020451138489998e-01,4.802833855644469407e-01,3.240799573945994325e+02
-4.046589158454013457e+00,-1.081584338427083480e+01,-3.058767355641222707e+00,5.419998690073466463e-01,6.161020976129496507e-01,5.715350796879260509e-01,3.256688132731518408e+02
-4.627962227993163147e+00,-1.011801048159976624e+01,-3.106219681125233389e+00,6.060362426637543320e-01,4.661357356541689367e-01,6.445428989022585764e-01,3.272576691517042491e+02
-5.189348539600593391e+00,-9.380639955367767513e+00,-3.134745375368686915e+00,6.507274668824005737e-01,3.012899831490998825e-01,6.969764055547562620e-01,3.288465250302566574e+02
-5.725517560053482669e+00,-8.605836882183206527e+00,-3.146131272214226726e+00,6.746469744000578306e-01,1.268268071975847122e-01,7.271618945667507328e-01,3.304353809088090657e+02
-6.231254176170667236e+00,-7.795744014637034702e+00,-3.142164325446440643e+00,6.122561461680694483e-01,1.150978172505969649e-01,7.822358365255075441e-01,3.320242367873614739e+02
-6.701358798661700256e+00,-6.952541695805101618e+00,-3.124631596282850587e+00,5.455407485255397981e-01,1.025558530234594590e-01,8.317845807118732226e-01,3.336130926659138822e+02
-7.130647465791023265e+00,-6.078447773298870871e+00,-3.095320240864350758e+00,4.749720117970508970e-01,8.928950206990728111e-02,8.754581502451947994e-01,3.352019485444662905e+02
-7.513951946856591846e+00,-5.175717512865332104e+00,-3.056017497745151523e+00,4.010483830461137877e-01,7.539246840085139789e-02,9.129480654262924766e-01,3.367908044230186988e+02
-7.846868449749888619e+00,-4.246992713014774878e+00,-3.008289086459621231e+00,3.242920057074336060e-01,6.096291068375643551e-02,9.439895224822004716e-01,3.383796603015711071e+02
-8.117478931633611339e+00,-3.338220821288091056e+00,-2.955786281171643992e+00,2.452450318711873190e-01,4.610274898244196007e-02,9.683632639043840973e-01,3.398989494162532310e+02
-8.343754728890447225e+00,-2.413257195292791035e+00,-2.897040722701052839e+00,1.644657932434892278e-01,3.091694492963744864e-02,9.858971271738200537e-01,3.414182385309353549e+02
-8.528102874769553310e+00,-1.475724998967275603e+00,-2.832229190536278196e+00,8.252485780509805080e-02,1.551276041221168536e-02,9.964672609318326879e-01,3.429375276456174788e+02
-8.672955576742580774e+00,-5.292303475009909608e-01,-2.761596285377454496e+00,9.999989999985432422e-07,-9.999989999985432422e-07,9.999989999985432476e-01,3.444568167602996027e+02
-8.780770170705585187e+00,4.226378257333072708e-01,-2.685420536363535504e+00,2.802129632977686802e-01,-3.588700621606470964e-01,8.903319457852350016e-01,3.459761058749817266e+02
-8.854029074905920282e+00,1.376307902055877719e+00,-2.603980508082341938e+00,4.989649685196977380e-01,-6.390270664793962219e-01,5.853856579194511855e-01,3.474953949896638505e+02
-8.895239743606326854e+00,2.328225710156662132e+00,-2.517554798788384396e+00,6.082774653435700785e-01,-7.790243152625521139e-01,1.520448663574272274e-01,3.490146841043459744e+02
-8.906934620474645570e+00,3.274854658578409961e+00,-2.426422038620521082e+00,8.486521378207412258e-01,-5.097281358071232837e-01,1.412967676194674671e-01,3.505339732190280984e+02
-8.891671091699439700e+00,4.212675868005145041e+00,-2.330860887819463656e+00,9.783488203437300523e-01,-1.739551762164967541e-01,1.121212843326343939e-01,3.520532623337102223e+02
-8.847316540817148578e+00,5.206521668195242647e+00,-2.223323444044549735e+00,9.804529888496948953e-01,1.845043452562902253e-01,6.832337256106611745e-02,3.536867832669289555e+02
-8.776432542054257269e+00,6.180424858692759038e+00,-2.111001234875332866e+00,8.546902225259083163e-01,5.189015279781100665e-01,1.561498579573443457e-02,3.553203042001476888e+02
-8.682526969860017374e+00,7.129805030711158231e+00,-1.994394818574900974e+00,8.914116734204926562e-01,4.530388824485439558e-01,1.178980390126027102e-02,3.569538251333664221e+02
-8.569116440437301918e+00,8.050200528933803668e+00,-1.874260936162510216e+00,9.230511790031867836e-01,3.845934890974356257e-01,7.897409797425742825e-03,3.585873460665851553e+02
-8.439738669689893058e+00,8.937222127064176291e+00,-1.751484430273226645e+00,9.494283740791515935e-01,3.139555397583295715e-01,3.959993092368503664e-03,3.602208669998038886e+02
-8.297965318426220094e+00,9.786506831629639080e+00,-1.626950163069762478e+00,9.703928888871868885e-01,2.415277234475320944e-01,0.000000000000000000e+00,3.618543879330226218e+02
-8.147401918000459986e+00,1.059371807573606539e+01,-1.501543009696884923e+00,9.969795307158221265e-01,-7.765188556165565636e-02,0.000000000000000000e+00,3.634879088662413551e+02
-7.940021978772421107e+00,1.158067447915495940e+01,-1.335074080627330684e+00,9.546769266703332146e-01,-0.000000000000000000e+00,-2.976406653668405844e-01,3.656618007839354050e+02
-7.733180681603412765e+00,1.244690258552560636e+01,-1.171928186482821932e+00,9.706551006134579440e-01,-0.000000000000000000e+00,-2.404717771844190333e-01,3.678356927016294549e+02
-7.591183017693812651e+00,1.299141630921548796e+01,-1.060118020252345472e+00,9.988611377171598971e-01,-0.000000000000000000e+00,4.769095883001762959e-02,3.693721637586841666e+02
-7.454251024168899065e+00,1.348894794570283473e+01,-9.523961362184950596e-01,9.955207353940758175e-01,9.453287991526874989e-02,0.000000000000000000e+00,3.709086348157388784e+02
-7.323600024461804914e+00,1.393907602304108373e+01,-8.505145598419229236e-01,9.979367971900037215e-01,6.396702659686565040e-02,5.326192160188436726e-03,3.724451058727935902e+02
-7.195747442163850316e+00,1.435510300556426877e+01,-7.532257706157444721e-01,9.993863781122902523e-01,3.333922353381078146e-02,1.064722584539739419e-02,3.740395342029160020e+02
-7.076773618899254714e+00,1.471847526822036301e+01,-6.670221497423493018e-01,9.998680743727528242e-01,2.679132872511326945e-03,1.595794778900214844e-02,3.756339625330384138e+02
-6.956964018818236006e+00,1.505702960760681819e+01,-5.888986122760403452e-01,9.993814195208586826e-01,-2.798355197895158880e-02,2.125321471186977784e-02,3.773981333598889591e+02
-6.850971045440089391e+00,1.532743069062326846e+01,-5.337595032605738643e-01,9.979268849027518318e-01,-5.861913510445928427e-02,2.652789830297834842e-02,3.791623041867395045e+02
-6.759510048824330042e+00,1.553181266331928434e+01,-5.059359639906529926e-01,9.955058792045080596e-01,-8.919794683662744805e-02,3.177689018553819800e-02,3.809264750135900499e+02
-6.683192313508252269e+00,1.567285445788498421e+01,-5.098283854938524540e-01,9.921207470878966594e-01,-1.196903724881460546e-01,3.699510686381048130e-02,3.826906458404405953e+02
-6.628110433240851584e+00,1.574970864328451015e+01,-5.413292606204443969e-01,9.877747669199711256e-01,-1.500668810298897982e-01,4.217749464583681746e-02,3.842474504765693837e+02
-6.583751642793957970e+00,1.578705965076508555e+01,-6.001710456823868833e-01,9.824721475986839536e-01,-1.802980536880527951e-01,4.731903453731751974e-02,3.858042551126981721e+02
-6.548739102960865033e+00,1.578722039248871489e+01,-6.894703168182418906e-01,9.762180244775937599e-01,-2.103546124326395872e-01,5.241474710190322656e-02,3.873785761281259283e+02
-6.521445552589242745e+00,1.575284013482681900e+01,-8.098575135703238725e-01,9.690184543936042338e-01,-2.402074483297479135e-01,5.745969728319730296e-02,3.889528971435536846e+02
-6.499222190334707605e+00,1.568764914002652056e+01,-9.619572295527113459e-01,9.608804098025393037e-01,-2.698276497302111165e-01,6.244899918380353299e-02,3.905272181589814409e+02
-6.479392114073344366e+00,1.559535799276550705e+01,-1.146393840422020638e+00,9.518117720282196492e-01,-2.991865302673253346e-01,6.737782079679455194e-02,3.921015391744091971e+02
-6.459225165045048733e+00,1.547942954746869404e+01,-1.363579642254786783e+00,9.418213236315662318e-01,-3.282556566365683604e-01,7.224138868502254229e-02,3.936758601898369534e+02
-6.435915081582604280e+00,1.534285063615936728e+01,-1.613502991382001150e+00,9.309187399070991686e-01,-3.570068761304299176e-01,7.703499260374413460e-02,3.952501812052647097e+02
-6.403704753474295686e+00,1.517550311102096572e+01,-1.919741273140917137e+00,9.191145795150527098e-01,-3.854123439017048125e-01,8.175399006208530772e-02,3.969421508560849929e+02
-6.360160984929207117e+00,1.498955142241890393e+01,-2.266042684219486070e+00,9.064202742581529693e-01,-4.134445499288652015e-01,8.639381081893185432e-02,3.986341205069052762e+02
-6.301601895239882012e+00,1.478834440007923057e+01,-2.651482484596727307e+00,8.928481180129395067e-01,-4.410763456574117725e-01,9.094996130889358710e-02,4.003260901577255595e+02
-6.231959568502908553e+00,1.459165866543345302e+01,-3.039409631324935468e+00,8.784112548263236508e-01,-4.682809702914160765e-01,9.541802899405761595e-02,4.018894274981638546e+02
-6.153905789518637981e+00,1.440368777342233564e+01,-3.419219648612852325e+00,8.631236661888879169e-01,-4.950320767098046471e-01,9.979368663731817690e-02,4.033279978224805404e+02
-6.073320072427310201e+00,1.423206155948633445e+01,-3.771793342372987912e+00,8.470001574972240155e-01,-5.213037569822925876e-01,1.040726964931449755e-01,4.046076431591168330e+02
-5.877229036541502083e+00,1.389610391127493294e+01,-4.468600548218198298e+00,8.300563437183928750e-01,-5.470705674602646118e-01,1.082509144117328598e-01,4.070017554401334792e+02
-5.772439902476479645e+00,1.374244019921433413e+01,-4.787162182795666965e+00,7.669240327213734387e-01,-6.083619976893147596e-01,2.042576994898911147e-01,4.080531984137069799e+02
-5.566812927009260115e+00,1.346410687301948883e+01,-5.348872718778638458e+00,6.907849783365456187e-01,-6.593357951168591358e-01,2.968003082571101237e-01,4.099016829047124020e+02
-5.329599503021980489e+00,1.317207924331451530e+01,-5.902061689323378602e+00,6.029304651332196840e-01,-6.991274818158479398e-01,3.843092743916288190e-01,4.117501673957178241e+02
-5.062371056409302739e+00,1.286414799962615874e+01,-6.430605033443566043e+00,5.048504550707269001e-01,-7.270622152181295261e-01,4.653004977604566772e-01,4.135986518867232462e+02
-4.767084887700319129e+00,1.253850417965938213e+01,-6.918370009677016874e+00,4.436676085589408847e-01,-6.619261072840308957e-01,6.041613042990341409e-01,4.154471363777286683e+02
-4.425406835926857241e+00,1.217200052950981615e+01,-7.370754609098098875e+00,3.703866502330014354e-01,-5.787403219276727739e-01,7.265475683705776566e-01,4.174078258605113092e+02
-4.057270108190949465e+00,1.178247076492378653e+01,-7.734750392750201264e+00,2.870058323433269387e-01,-4.797732006331239529e-01,8.291220224768505176e-01,4.193685153432939501e+02
-3.719297716688191979e+00,1.142509720777732163e+01,-7.970205073010512287e+00,1.957988106946531026e-01,-3.677234113814306093e-01,9.090876296889043306e-01,4.210780970384075204e+02
-3.370900472083348642e+00,1.105354936668073051e+01,-8.125138981823912587e+00,9.925264828604696277e-02,-2.456463634500808957e-01,9.642638518230368661e-01,4.227876787335210906e+02
-3.016448454919617106e+00,1.066960035568451914e+01,-8.197282684500297734e+00,0.000000000000000000e+00,-1.168708951520591871e-01,9.931461090226156863e-01,4.244972604286346609e+02
-2.660123295363461704e+00,1.027529152136132495e+01,-8.187740071389949748e+00,4.301035175183857140e-01,3.026596604823824505e-02,9.022709878502616077e-01,4.262068421237482312e+02
-2.309802756601972540e+00,9.877931536184039629e+00,-8.100212211427193054e+00,0.000000000000000000e+00,0.000000000000000000e+00,9.999989999986806932e-01,4.278964229234440495e+02
-2.015014493938794171e+00,9.535696683678976271e+00,-7.970431967531236062e+00,-1.161848472904061791e-01,1.341998236121057881e-03,9.932256945363709955e-01,4.293354488072124582e+02
-1.648278245745673498e+00,9.099370266398564056e+00,-7.732826331946862197e+00,-2.692904211577962226e-01,1.230372046058869351e-01,9.551662239405074306e-01,4.311642364071363431e+02
-1.293223776898464905e+00,8.665525305598665184e+00,-7.412206540582592318e+00,-4.117052583490556916e-01,2.398478752661644953e-01,8.791869977310508011e-01,4.329930240070602281e+02
-9.521686995292214517e-01,8.238552062326057523e+00,-7.017366528828209660e+00,-5.377755579393023178e-01,3.471366829834606760e-01,7.683043489473611043e-01,4.348218116069841130e+02
-6.274440785289724376e-01,7.822548134901143868e+00,-6.557104162886794541e+00,-6.424963778457110086e-01,4.406443059104162563e-01,6.269202502110627906e-01,4.366505992069079980e+02
-2.758640391369652778e-01,7.360756130518948837e+00,-5.946699040891510357e+00,-7.217103253060799251e-01,5.166585169996217308e-01,4.606475693616906564e-01,4.387747795449688510e+02
4.376399420151146080e-02,6.930013006190995029e+00,-5.264054449684316239e+00,-0.000000000000000000e+00,1.466699169441205812e-02,9.998914337839409638e-01,4.408989598830297041e+02
3.164046930970276783e-01,6.555745304953840780e+00,-4.568481156867147064e+00,-5.024135394088041773e-01,7.294793312446198330e-01,4.641535744838998778e-01,4.429084787836207511e+02
5.613938846138201155e-01,6.217271583341774210e+00,-3.840870226801690102e+00,-8.224100363950812564e-01,2.146638352581771436e-01,5.268388462009717665e-01,4.449179976842117981e+02
7.327006245442936327e-01,5.981783124760584158e+00,-3.272298867763466568e+00,-8.369935740605074503e-01,-3.798711599819862839e-01,3.938751817402157962e-01,4.464545876710864150e+02
8.931724787315196146e-01,5.764479677464606766e+00,-2.700690154913654606e+00,-5.407470413873790571e-01,-8.333356504909588125e-01,1.146400054430184445e-01,4.479911776579610319e+02
1.043962519560980073e+00,5.565945991224805489e+00,-2.130678693195805717e+00,-4.368697578786884250e-02,-9.773284583464662001e-01,-2.071678851837208402e-01,4.495277676448356488e+02
1.188310808354311909e+00,5.384301305716539865e+00,-1.558680282908046388e+00,-2.685116056345077662e-01,-9.387736212144522918e-01,-2.158786829369707672e-01,4.510868644251565343e+02
1.325131787069510070e+00,5.223087507472933488e+00,-9.976739726491847815e-01,-8.044661251533606894e-01,-2.780639580095519703e-01,-5.248930259779570617e-01,4.526459612054774198e+02
1.483964106746777922e+00,5.056489863801811424e+00,-3.315619596127118984e-01,-6.813357326158541172e-01,6.104649551177712130e-01,-4.038714622457345582e-01,4.545652864476153354e+02
1.633558119290667632e+00,4.928024587479066021e+00,2.978450147322611596e-01,-0.000000000000000000e+00,9.988447030609834965e-01,4.803393763085728879e-02,4.564846116897532511e+02
1.754806768067294520e+00,4.846683348161564098e+00,7.969452345324511411e-01,-1.012112603122564958e-01,9.864282388197115337e-01,-1.292811295063959753e-01,4.581012057756331615e+02
1.873968008219254244e+00,4.786901151445241531e+00,1.266537973037135778e+00,-1.981879938681708475e-01,9.327409848346318588e-01,-3.011872744614481623e-01,4.597177998615130718e+02
1.992694811824679224e+00,4.748057215829079247e+00,1.703332635205960122e+00,-2.868728255453922293e-01,8.400291281611971250e-01,-4.604921777897290625e-01,4.613343939473929822e+02
2.112481076425787752e+00,4.729441068323850139e+00,2.104500549490279759e+00,-3.635552988304456279e-01,7.121715969870108243e-01,-6.005307328841688053e-01,4.629509880332728926e+02
2.234506613236655781e+00,4.730176384442383863e+00,2.468136674157951127e+00,-4.250271185151580089e-01,5.545177742426421474e-01,-7.154439087565077626e-01,4.645675821191528030e+02
2.359790073714772340e+00,4.749301032557522007e+00,2.792797925261104819e+00,-4.687163839134300680e-01,3.736636862885933663e-01,-8.004238883250984760e-01,4.661841762050327134e+02
2.492713689980946334e+00,4.787199973079959925e+00,3.083077383831082763e+00,-4.927951955134862727e-01,1.771760308422959396e-01,-8.519152242887787496e-01,4.678412304909839463e+02
2.631339580512179310e+00,4.842794208747993601e+00,3.328235723581116634e+00,-4.962561322563069921e-01,-2.672440828603922860e-02,-8.677635952268811792e-01,4.694982847769351793e+02
2.776767340232002113e+00,4.914997338379655467e+00,3.526680888105055534e+00,-4.789543995528269815e-01,-2.295067122760398592e-01,-8.473059377643143986e-01,4.711553390628864122e+02
2.929856394759122740e+00,5.003175962716905900e+00,3.677624862612462131e+00,-5.320608519531992986e-01,-2.209093076231278818e-01,-8.173789375959704673e-01,4.728123933488376451e+02
3.090999186957696487e+00,5.107613179631901978e+00,3.781887365918772392e+00,-5.831508766462978333e-01,-2.114746913112579008e-01,-7.843541993274925073e-01,4.744694476347888781e+02
3.260104336488510501e+00,5.228938714723767589e+00,3.841480032061188155e+00,-6.320308512242952537e-01,-2.012386189074819032e-01,-7.483568810147295247e-01,4.761265019207401110e+02
3.425720611344676314e+00,5.358340522201499034e+00,3.860285070134665375e+00,-6.785155288687908515e-01,-1.902398833250842913e-01,-7.095234061519903879e-01,4.776849414182245255e+02
3.596825868075496313e+00,5.502328358694107635e+00,3.846733251393752440e+00,-7.224287403738840485e-01,-1.785201678137117443e-01,-6.680009466809747609e-01,4.792433809157089399e+02
3.772756331050280298e+00,5.661141511726946796e+00,3.803309524098995364e+00,-7.636040617735424529e-01,-1.661238879970729221e-01,-6.239468652703794582e-01,4.808018204131933544e+02
3.952605312943016536e+00,5.834889203222104470e+00,3.732521632639861586e+00,-8.018854450439444337e-01,-1.530980235564609049e-01,-5.775281189784216007e-01,4.823602599106777689e+02
4.136750781789999998e+00,6.025388633811591177e+00,3.635773123697707998e+00,-8.371278094912011358e-01,-1.394919401975795170e-01,-5.289206265568247023e-01,4.839337802713719157e+02
4.321779332422866382e+00,6.230820389705800544e+00,3.516163460774189620e+00,-8.691975915835628008e-01,-1.253572025749554453e-01,-4.783086017925070599e-01,4.855073006320660625e+02
4.505982252653895515e+00,6.450908457236549154e+00,3.376369842110047870e+00,-8.979732511443982990e-01,-1.107473788824799993e-01,-4.258838554118943853e-01,4.870808209927602093e+02
4.687596809316944224e+00,6.685247982023192925e+00,3.218871707289585604e+00,-9.233457319873126234e-01,-9.571783785021342750e-02,-3.718450681919257539e-01,4.886543413534543561e+02
4.895663913707085868e+00,6.981738273355365010e+00,3.010698066445130827e+00,-9.452188752471211153e-01,-8.032553891638485877e-02,-3.163970380310188180e-01,4.905162175005103791e+02
5.092322760464297993e+00,7.299324687756318930e+00,2.780345742542702503e+00,-9.635097838393936742e-01,-6.462881636942209573e-02,-2.597499038320690845e-01,4.923780936475664021e+02
5.273779252821596764e+00,7.636471242700105577e+00,2.531511795325875447e+00,-9.781491366662423692e-01,-4.868715827774645205e-02,-2.021183491376063179e-01,4.942399697946224251e+02
5.436224868863574144e+00,7.991674866976057778e+00,2.267893462128825810e+00,-9.890814513762606897e-01,-3.256098104488013706e-02,-1.437207885341767466e-01,4.961018459416784481e+02
5.575266952197884152e+00,8.361515988998416304e+00,1.994611737232956150e+00,-9.962652946813203014e-01,-1.631140044406399064e-02,-8.477853990857425748e-02,4.979543546617159109e+02
5.688066213126893977e+00,8.746283259176740543e+00,1.714033093840095168e+00,-9.996734394315608396e-01,-0.000000000000000000e+00,-2.551498569243200801e-02,4.998068633817533737e+02
5.770879517205106168e+00,9.144348980522902792e+00,1.428916138058774932e+00,-8.817421944340054774e-01,0.000000000000000000e+00,-4.717294802694306233e-01,5.016593721017908365e+02
5.820009069879855446e+00,9.553614205698840678e+00,1.140289310356910502e+00,-5.759863546497749898e-01,0.000000000000000000e+00,-8.174580840985133934e-01,5.035118808218282993e+02
5.823409528764933007e+00,1.005543066731398483e+01,7.903270216499737044e-01,-9.988620449104033128e-01,0.000000000000000000e+00,4.767195441714103948e-02,5.057270832796972968e+02
5.755529735555274584e+00,1.056812215289731327e+01,4.343341176325541397e-01,-9.796745246543689944e-01,-0.000000000000000000e+00,2.005886979224715261e-01,5.079422857375662943e+02
5.592414808166321194e+00,1.113072333835063255e+01,4.073839837432386562e-02,-9.546707119062373126e-01,-0.000000000000000000e+00,-2.976605983800955091e-01,5.103365104308559239e+02
5.425189315233133414e+00,1.153034982648820339e+01,-2.420414678397141695e-01,-9.997490736108965992e-01,-0.000000000000000000e+00,-2.235597928446631660e-02,5.120221874069994783e+02
5.244638398158740777e+00,1.189422387394674274e+01,-5.014085173312827770e-01,-9.997490729075863003e-01,-0.000000000000000000e+00,-2.235597926873918173e-02,5.135516736204031076e+02
5.038351397949653254e+00,1.225878152364797558e+01,-7.622457101736602736e-01,-9.806274510304194836e-01,-5.679901366187417588e-02,1.874611275263669830e-01,5.150811598338067370e+02
4.776472804771998426e+00,1.266554504683248794e+01,-1.053066637818934836e+00,-9.148131939228887344e-01,-1.108935272933450483e-01,3.883522187783219337e-01,5.167870918690236977e+02
4.479841955308341284e+00,1.307168717275150271e+01,-1.341241446848182806e+00,-8.054400681183249144e-01,-1.597078338153125054e-01,5.707518764652778076e-01,5.184930239042406583e+02
4.155957396640690860e+00,1.346898094432565429e+01,-1.618712122206379167e+00,-6.577158765383417371e-01,-2.009176439402010628e-01,7.259751552938554786e-01,5.201680246548465902e+02
3.801385347317323582e+00,1.386372323400795459e+01,-1.887688440612061314e+00,-4.786744931382211354e-01,-2.325607537446447715e-01,8.466311035140721142e-01,5.218430254054525221e+02
3.287844496323547361e+00,1.437157002136358841e+01,-2.217401555989279682e+00,-7.270129289254706473e-01,2.249116686480390204e-01,6.487410442398188204e-01,5.240318645899048988e+02
2.717507794562544987e+00,1.486486974667275440e+01,-2.512415594131123253e+00,-7.336364931816877766e-01,-1.974641385742361560e-02,6.792536897313438127e-01,5.262207037743572755e+02
2.198844735330840017e+00,1.526938342477774846e+01,-2.731947346069505400e+00,-6.956310338151854289e-01,-2.632033267533403498e-01,6.684455651589368275e-01,5.280771218491685204e+02
1.657957965681751800e+00,1.565953365787265383e+01,-2.921406963134501211e+00,-6.153084743170402771e-01,-4.906489803142607409e-01,6.169741157870403114e-01,5.299335399239797653e+02
1.101474762825098264e+00,1.603278169845616219e+01,-3.077169597945255131e+00,-4.975549908913272645e-01,-6.882472340027077085e-01,5.279704309213232305e-01,5.317899579987910101e+02
5.359986126516759208e-01,1.638653199248412307e+01,-3.195610725070553659e+00,-3.495338061256503259e-01,-8.439775889749832061e-01,4.068488019933065858e-01,5.336463760736022550e+02
-2.153316413721328287e-02,1.671251783069147123e+01,-3.272464901253274494e+00,-1.802494522921430919e-01,-9.483664598981550453e-01,2.609773796491136055e-01,5.354688333942036707e+02
-5.752527772358929647e-01,1.701516873064617030e+01,-3.307647262589320736e+00,-0.000000000000000000e+00,-9.950635238632212776e-01,9.922995251857916199e-02,5.372912907148050863e+02
-1.119152710392720351e+00,1.729219666343647077e+01,-3.299093355244149706e+00,-0.000000000000000000e+00,2.016697227948960336e-02,9.997956257309895678e-01,5.391137480354065019e+02
-1.601421075010650563e+00,1.752139280071602911e+01,-3.253637831912743916e+00,-0.000000000000000000e+00,-9.993865585873626944e-01,3.499294952975979395e-02,5.407727398335346152e+02
-2.067611696190962522e+00,1.772816368550713406e+01,-3.172840532782128964e+00,-0.000000000000000000e+00,-2.786296520870032781e-02,9.996107518285665128e-01,5.424317316316627284e+02
-2.513534845019583130e+00,1.791133186203737182e+01,-3.055889280553393927e+00,1.988204361794075614e-01,-3.419242093322981679e-01,9.184531938162823206e-01,5.440907234297908417e+02
-2.934775583642675212e+00,1.807054642866589589e+01,-2.902585796722759959e+00,3.688614651162481772e-01,-6.064916634383274996e-01,7.043486932857143668e-01,5.457497152279189550e+02
-3.326826482619626990e+00,1.820584595159771268e+01,-2.713164694547706368e+00,4.855094802091107775e-01,-7.832689248184659947e-01,3.882889852181489188e-01,5.474087070260470682e+02
-3.686428608823086872e+00,1.831716872524774331e+01,-2.488952458569341886e+00,5.318795199250155870e-01,-8.466672357973096252e-01,1.602398553673469242e-02,5.490676988241751815e+02
-4.012752838374481712e+00,1.840431708542315903e+01,-2.233081621438262943e+00,5.239554337157279473e-01,-8.514760797356397681e-01,2.138197689063527085e-02,5.507266906223032947e+02
-4.306174122293008999e+00,1.846703569737272232e+01,-1.949524947238701733e+00,5.563571614583451286e-01,-8.303912742505019651e-01,-3.024963701578816874e-02,5.523856824204314080e+02
-4.567068168761561076e+00,1.850507172095481678e+01,-1.642255411313654045e+00,5.864442911338012543e-01,-8.058518147919113694e-01,-8.175540343021811540e-02,5.540446742185595213e+02
-4.797802042909664166e+00,1.851804450427355420e+01,-1.311759315929880154e+00,6.140916564286836854e-01,-7.779597877278949802e-01,-1.329210524322680109e-01,5.557204815715816721e+02
-4.995790795808859208e+00,1.850505057762462258e+01,-9.650540850828177586e-01,6.391842393756093088e-01,-7.468312249756395849e-01,-1.835337285936528284e-01,5.573962889246038230e+02
-5.161427947199823230e+00,1.846583454794735957e+01,-6.062766994587795999e-01,6.616176487355824865e-01,-7.125956216704822932e-01,-2.333828760929364809e-01,5.590720962776259739e+02
-5.295289937893371324e+00,1.840083430821820087e+01,-2.392275917031248811e-01,6.739452934080327751e-01,-6.824053188610957887e-01,-2.830525079888065454e-01,5.607479036306481248e+02
-5.398310826523094796e+00,1.831187354783240906e+01,1.329660252042738355e-01,6.838935693895674683e-01,-6.498057876213308992e-01,-3.317228121746303438e-01,5.624237109836702757e+02
-5.471588950532022544e+00,1.820147384428251769e+01,5.075135402607341417e-01,6.914273566729752796e-01,-6.149121164552010521e-01,-3.792219659729597070e-01,5.640995183366924266e+02
-5.516201028343851398e+00,1.807216483274149610e+01,8.816243241311901846e-01,6.965200581091893772e-01,-5.778474918529930004e-01,-4.253822807853794852e-01,5.657753256897145775e+02
-5.532822798035420320e+00,1.792117825967336131e+01,1.264554794955214057e+00,6.991536932629164314e-01,-5.387427636394032104e-01,-4.700407937807614678e-01,5.675064042357203107e+02
-5.519708795772853449e+00,1.775505294724761285e+01,1.641348905996079743e+00,7.583919158557471674e-01,-4.895814693338919610e-01,-4.302902355954418834e-01,5.692374827817260439e+02
-5.476640869154490332e+00,1.757672988677215997e+01,2.010623919086691025e+00,8.119375453670187870e-01,-4.367453287899853986e-01,-3.873098762011834006e-01,5.709685613277317771e+02
-5.413830938536181137e+00,1.741020593489183099e+01,2.333141945034244102e+00,8.593886671057044957e-01,-3.806309369184580627e-01,-3.414223318860344913e-01,5.725113390616890001e+02
-5.328961168722653241e+00,1.723898146404713572e+01,2.649551796864267228e+00,9.003891123254257334e-01,-3.216594944585336457e-01,-2.929720396732202747e-01,5.740541167956462232e+02
-5.214090303526385917e+00,1.705494394536045277e+01,2.977521334647397655e+00,9.346311312931965265e-01,-2.602736464815330053e-01,-2.423226719988718636e-01,5.756848040928169894e+02
-5.072179996657041556e+00,1.686994372210052262e+01,3.299342441087367739e+00,9.618577029591358629e-01,-1.969341600013694293e-01,-1.898544070666932648e-01,5.773154913899877556e+02
-4.902931733544989790e+00,1.668627017060842732e+01,3.615898070451279978e+00,9.818644639147593445e-01,-1.321164656202789556e-01,-1.359610753609524769e-01,5.789461786871585218e+02
-4.706714261651685050e+00,1.650580063301899969e+01,3.928286250357258425e+00,9.945012421793807400e-01,-6.630708915358020372e-02,-8.104720372427136332e-02,5.805768659843292880e+02
-4.350866297314174957e+00,1.624756126749461416e+01,4.389278354469824173e+00,9.996731843147608210e-01,-0.000000000000000000e+00,-2.552497917284462028e-02,5.830193496539939133e+02
-4.089813494634515045e+00,1.609231693919822703e+01,4.677217187977714907e+00,7.506141027916850561e-01,1.873007761195624732e-01,-6.336362426152086780e-01,5.845630451399946423e+02
-3.810676782197808254e+00,1.594124121618553680e+01,4.963729572449841143e+00,5.764363129592826596e-01,-1.163998612657766822e-03,-8.171400260702578189e-01,5.861067406259953714e+02
-3.515506759254694025e+00,1.579367115781061059e+01,5.248971326857009956e+00,9.978431604534077071e-01,-0.000000000000000000e+00,-6.562794478318881297e-02,5.876504361119961004e+02
-3.206358364947609285e+00,1.564895844737237773e+01,5.533098278511949353e+00,0.000000000000000000e+00,-9.988619020529999615e-01,4.767494759579319480e-02,5.891941315979968294e+02
-2.885290838636765720e+00,1.550646941513181964e+01,5.816266262036522861e+00,9.978431604536932564e-01,-0.000000000000000000e+00,-6.562794478320758962e-02,5.907378270839975585e+02
-2.554367680178412314e+00,1.536558506116116085e+01,6.098631118328893486e+00,6.008035540476830416e-01,8.946493359377760690e-02,-7.943734103685630155e-01,5.922815225699982875e+02
-2.215656610155624762e+00,1.522570107802487271e+01,6.380348693530668136e+00,5.279577460791007315e-01,-4.313229501133264421e-01,-7.315867214903434279e-01,5.938252180559990165e+02
-1.871229530061859325e+00,1.508622787329227144e+01,6.661574837994008291e+00,3.070359794636655093e-01,-8.311380476250018745e-01,-4.636123953316079183e-01,5.953689135419997456e+02
