4.172143422022573489e+00,-1.262218471329071834e+00,-3.115481582041087272e+00,-9.881887697143983962e-01,-1.246401601465950762e-02,-1.527272199324519464e-01,4.690964255100129066e+01
3.957125016014922725e+00,-1.907521472466597867e+00,-3.241858739666669376e+00,-9.789433609053522778e-01,-2.146098598938219609e-02,-2.029958674759157755e-01,4.877315272108899791e+01
3.684339511312226367e+00,-2.537490167763586157e+00,-3.359763121491094573e+00,-9.712492437917624732e-01,-2.129274942670876525e-02,2.371065694069642293e-01,5.063666289117670516e+01
3.420055247776021989e+00,-3.041779652182305949e+00,-3.449791933609998917e+00,-7.753758227629558020e-01,-1.699904785987610759e-02,6.312696459096401869e-01,5.217061025651571526e+01
3.124235667054905630e+00,-3.531348893793405441e+00,-3.532924041831249973e+00,-4.292736469358403029e-01,-9.411787585262072764e-03,9.031243293708580699e-01,5.370455762185472537e+01
2.797811706679958821e+00,-4.003572957227563123e+00,-3.608009559041586822e+00,-0.000000000000000000e+00,-9.999989999994787901e-07,9.999989999994787215e-01,5.523850498719373547e+01
2.441735758016232882e+00,-4.455832609625975493e+00,-3.673898650591242543e+00,-3.284508388772175436e-01,3.390725810709574461e-02,9.439111951283090107e-01,5.677245235253274558e+01
1.790200759343275383e+00,-5.117468442818170260e+00,-3.748907093319006734e+00,-6.200574967888745626e-01,6.401194805074594818e-02,7.819393654127396731e-01,5.924054120297004289e+01
1.335248145753190840e+00,-5.487882475279588945e+00,-3.775180407952355655e+00,-6.712518812307376459e-01,2.381798725189455124e-01,7.019182717893380774e-01,6.078681339926504990e+01
8.572348995558928264e-01,-5.830853180072963937e+00,-3.788753397479855956e+00,-6.960266023595524931e-01,4.029732585776916176e-01,5.942705795175969863e-01,6.233308559556005690e+01
3.590628847887288866e-01,-6.145108728983970536e+00,-3.789103593185310537e+00,-6.934065915919782608e-01,5.519060692898628551e-01,4.632331911890715248e-01,6.387935779185506391e+01
-1.563558270072865630e-01,-6.429395260903287834e+00,-3.775708613976762162e+00,-6.634949939576905154e-01,6.791165338788519579e-01,3.139635749685511512e-01,6.542562998815007802e+01
-6.860990026637870942e-01,-6.682476934176263761e+00,-3.748046169849826637e+00,-6.074690999518655987e-01,7.795978449197072946e-01,1.523367742923392998e-01,6.697190218444508503e+01
-1.448383241916295638e+00,-6.969437768035401604e+00,-3.678481361419414064e+00,-4.499992964605512838e-04,3.515004504559560705e-01,9.361865363440234900e-01,6.913434444845205462e+01
-2.229981605147326462e+00,-7.164770853839633524e+00,-3.567705347270490712e+00,1.074092225954319385e-01,3.556308924055112675e-01,9.284330494281067825e-01,7.129678671245902422e+01
-2.943615887082516203e+00,-7.263132913839375426e+00,-3.435496674003180928e+00,2.140105993882235880e-01,3.555966076502897755e-01,9.098068564146577497e-01,7.325162535241493345e+01
-3.654481227568612489e+00,-7.289344782823254931e+00,-3.278313788386824523e+00,3.181057433932625855e-01,3.513979971210160480e-01,8.805260834532513403e-01,7.520646399237084267e+01
-4.272764261703516198e+00,-7.255415008820530254e+00,-3.123275919071013984e+00,4.184756162544464586e-01,3.430842292070773181e-01,8.409336301229387578e-01,7.693082100185546324e+01
-4.876861936687788557e+00,-7.171966874755089094e+00,-2.957260927480388268e+00,5.139448047702303013e-01,3.307526640361642123e-01,7.914931540351398676e-01,7.865517801134008380e+01
-5.460796290617945026e+00,-7.040163132122250644e+00,-2.783716732324598819e+00,6.033952859155212733e-01,3.145477134025179700e-01,7.327836412816001177e-01,8.037953502082470436e+01
-6.039896528304121937e+00,-6.852492623721651022e+00,-2.599355857261608449e+00,6.857795198669369707e-01,2.946591496850404224e-01,6.654926262849454321e-01,8.217271578294187862e+01
-6.583483053782765104e+00,-6.614203520884429643e+00,-2.415494381075502517e+00,7.601327176951844233e-01,2.713198835489084582e-01,5.904081404265533184e-01,8.396589654505905287e+01
-7.085105568946715948e+00,-6.327315703588722862e+00,-2.236808240668325620e+00,8.255841400449417389e-01,2.448032364460373256e-01,5.084094837169512715e-01,8.575907730717622712e+01
-7.538332205423960986e+00,-5.993895288397283139e+00,-2.067973326749390051e+00,8.813672944634173279e-01,2.154197398477731840e-01,4.204569275629054248e-01,8.755225806929340138e+01
-7.936752864785322714e+00,-5.617008996465076009e+00,-1.913344000080501983e+00,9.268289119316382996e-01,1.835134986880965213e-01,3.275804692107192606e-01,8.934543883141057563e+01
-8.287723150264850958e+00,-5.182326189370742853e+00,-1.771007427119158706e+00,9.614365974470340248e-01,1.494581616021702364e-01,2.308677695595259260e-01,9.121560967976374457e+01
-8.570812647810393869e+00,-4.711185519867593818e+00,-1.650235139062541379e+00,9.847850650348168866e-01,1.136525451531502084e-01,1.314514156104658882e-01,9.308578052811691350e+01
-8.788117654225942488e+00,-4.210618186602080648e+00,-1.552162963665653761e+00,9.966008841470649360e-01,7.651596329547478981e-02,3.049565673460798501e-02,9.495595137647008244e+01
-8.942963362407892802e+00,-3.687540226021125633e+00,-1.477721258069935262e+00,9.967456818477095082e-01,3.848331677754057017e-02,-7.081722988926540674e-02,9.682612222482325137e+01
-9.028369673421835273e+00,-3.254765186341797900e+00,-1.433895828286035012e+00,9.852177632738948754e-01,0.000000000000000000e+00,-1.713007849692113893e-01,9.833373973987664840e+01
-9.084559545300587402e+00,-2.816590665545951389e+00,-1.403231892520653501e+00,9.822539118468358588e-01,-4.999466703921053717e-02,-1.807644487465892846e-01,9.984135725493004543e+01
-9.113284141426939655e+00,-2.375769170894514115e+00,-1.385826593786349870e+00,9.767383442979448160e-01,-9.985945663523160265e-02,-1.897585194400046027e-01,1.013489747699834425e+02
-9.116364061025372223e+00,-1.934812283522793219e+00,-1.381272623505534813e+00,9.686853890697803005e-01,-1.494648295035366781e-01,-1.982596321635923808e-01,1.028565922850368395e+02
-9.091013032823555662e+00,-1.451873472528846243e+00,-1.391066754501899094e+00,9.581159662082801010e-01,-1.986819202727210520e-01,-2.062457026338878896e-01,1.045178692362587043e+02
-9.036806478944521714e+00,-9.754387296410522712e-01,-1.416201289704909660e+00,9.450575330182132694e-01,-2.473828722423615512e-01,-2.136959845389297119e-01,1.061791461874805691e+02
-8.956554265570279227e+00,-5.089876406219044913e-01,-1.455703545095646589e+00,9.295440127377249118e-01,-2.954411695209087085e-01,-2.205911234319283543e-01,1.078404231387024339e+02
-8.852827061620848426e+00,-5.569445649224551848e-02,-1.508050113939377823e+00,9.116157064171496183e-01,-3.427319656810298154e-01,-2.269132070095228049e-01,1.095017000899242987e+02
-8.727682276684070928e+00,3.818560505210475964e-01,-1.570616265701258119e+00,8.913191882308911795e-01,-3.891324080788539086e-01,-2.326458116440386081e-01,1.111629770411461635e+02
-8.582929111855202464e+00,8.013786755824762187e-01,-1.640226578874080632e+00,8.687071844941705034e-01,-4.345219569948143290e-01,-2.377740450488799728e-01,1.128242539923680283e+02
-8.436865747139751903e+00,1.165023399596702536e+00,-1.706706778072527353e+00,8.438384366987473628e-01,-4.787826987672111345e-01,-2.422845849662255691e-01,1.143302178281148826e+02
-8.278690980779055408e+00,1.511971022484368765e+00,-1.773924004823074885e+00,8.167775489232107500e-01,-5.217996521051909697e-01,-2.461657137765187464e-01,1.158361816638617370e+02
-8.109665959435437443e+00,1.840701455000536946e+00,-1.839733849716540304e+00,7.875948200139950561e-01,-5.634610667855297628e-01,-2.494073489398280219e-01,1.173421454996085913e+02
-7.931180255233723386e+00,2.150015927965698292e+00,-1.901903691653271222e+00,7.563660609728442008e-01,-6.036587139573470484e-01,-2.520010691899710054e-01,1.188481093353554456e+02
-7.744933571237245573e+00,2.439351875924794300e+00,-1.958002963601452429e+00,7.231723980248435657e-01,-6.422881673006494152e-01,-2.539401364133194172e-01,1.203540731711023000e+02
-7.552883520471870504e+00,2.708537330323943060e+00,-2.005447641085088772e+00,6.881000618783585931e-01,-6.792490743083143823e-01,-2.552195131554040319e-01,1.218600370068491543e+02
-7.304946605054914777e+00,3.015620976368150075e+00,-2.045989558853450241e+00,6.512401637240728958e-01,-7.144454169867490156e-01,-2.558358757097903835e-01,1.237621414765324772e+02
-7.054618675929793525e+00,3.282980907106653579e+00,-2.057465972935946574e+00,6.126884585547891504e-01,-7.477857612978988655e-01,-2.557876227551627024e-01,1.256642459462158001e+02
-6.806157722562162782e+00,3.512313970280150244e+00,-2.034606562937351981e+00,5.725450964206028059e-01,-7.791834946945007667e-01,-2.550748795181188577e-01,1.275663504158991230e+02
-6.562156004792763397e+00,3.706780171535102308e+00,-1.972044664226752841e+00,5.309143622654241002e-01,-8.085570511313627806e-01,-2.536994974507923439e-01,1.294794431795102696e+02
-6.327191083779365677e+00,3.867201810530645378e+00,-1.865451207327748273e+00,4.879044050205086913e-01,-8.358301229679577782e-01,-2.516650494240727509e-01,1.313925359431214019e+02
-6.144229413321768085e+00,3.975102071490780542e+00,-1.748658939088572062e+00,4.436269566585999691e-01,-8.609318592116462776e-01,-2.489768204488413406e-01,1.329355150966478618e+02
-5.965691317416635719e+00,4.066713824401451127e+00,-1.607230991905179263e+00,3.981970419383954463e-01,-8.837970495863008979e-01,-2.456417939492583635e-01,1.344784942501743217e+02
-5.762432345384341126e+00,4.151457786244133530e+00,-1.409487360949970958e+00,3.517326795932781969e-01,-9.043662939479109042e-01,-2.416686336236976984e-01,1.362741049894825949e+02
-5.562508179610542669e+00,4.211057634353831070e+00,-1.175126252295867424e+00,3.043545757405099472e-01,-9.225861566067997677e-01,-2.370676609403877810e-01,1.380697157287908681e+02
-5.364289091668322129e+00,4.245117384690575868e+00,-9.068404339367891476e-01,2.561858103073418325e-01,-9.384093051552879761e-01,-2.318508283261673519e-01,1.398653264680991413e+02
-5.195315722591186791e+00,4.254850886617908223e+00,-6.542128375279906427e-01,2.419448097244796814e-01,-9.263181386694494535e-01,-2.887826432098863361e-01,1.414041005170149106e+02
-5.027138647515999814e+00,4.247575892348375959e+00,-3.850131801672378451e-01,2.268351711094892253e-01,-9.109012690923309341e-01,-3.446776510216208456e-01,1.429428745659306799e+02
-4.859800442334695880e+00,4.222863371666955246e+00,-1.016116837735625833e-01,2.109111418947623717e-01,-8.922140478837297106e-01,-3.993351762414313888e-01,1.444816486148464492e+02
-4.693347420880186860e+00,4.180284410690155106e+00,1.936213364922705071e-01,1.942298932715494364e-01,-8.703235676442884206e-01,-4.525589863906711030e-01,1.460204226637622185e+02
-4.527846091577115928e+00,4.119451755533184212e+00,4.982687443940919669e-01,1.768513149303939658e-01,-8.453084212072722314e-01,-5.041579965089024729e-01,1.475591967126779878e+02
-4.363399135726504063e+00,4.040061492140511135e+00,8.098198550939457174e-01,1.588378000449108263e-01,-8.172584194500811527e-01,-5.539469551458368057e-01,1.490979707615937571e+02
-4.182343422804902566e+00,3.928666713827203338e+00,1.160690448324598112e+00,1.402540212707126255e-01,-7.862742688390169654e-01,-6.017471094069564153e-01,1.508056497649079972e+02
-4.004017907171474988e+00,3.791021595916488351e+00,1.513874854115697000e+00,1.211666985635198729e-01,-7.524672098653931718e-01,-6.473868466668304400e-01,1.525133287682222374e+02
-3.831568753539533745e+00,3.626102724945310829e+00,1.866250662662265469e+00,1.016443596497622615e-01,-7.159586176711866257e-01,-6.907023106479385222e-01,1.542210077715364775e+02
-3.669136580774772227e+00,3.432698117561434170e+00,2.214947686877703603e+00,8.175709400926654824e-02,-6.768795662978813743e-01,-7.315379896548189764e-01,1.559286867748507177e+02
-3.523180833448810834e+00,3.214040592466421931e+00,2.551259688748191756e+00,6.157630125284257322e-02,-6.353703581224665609e-01,-7.697472748532504516e-01,1.576064998735415656e+02
-3.394270407610277207e+00,2.966413105694206021e+00,2.878784862841750503e+00,4.117443479763854830e-02,-5.915800201692555937e-01,-8.051929865915827822e-01,1.592843129722324136e+02
-3.285426182211406587e+00,2.689533922387190135e+00,3.195146279381901433e+00,2.062474175997114356e-02,-5.456657691048686365e-01,-8.377478668758995273e-01,1.609621260709232615e+02
-3.198691772268470235e+00,2.383922815902725922e+00,3.498340410798618905e+00,9.999988887668967986e-07,-4.977924468359398724e-01,-8.672950362319745699e-01,1.626399391696141095e+02
-3.133266446301356645e+00,2.038298008185123855e+00,3.796650565562501800e+00,0.000000000000000000e+00,9.988447030629378220e-01,4.803393763095126917e-02,1.643777764761805429e+02
-3.093030949506706317e+00,1.664941472200745842e+00,4.077353470157916604e+00,-0.000000000000000000e+00,9.988447023578338468e-01,4.803393759704317062e-02,1.661156137827469763e+02
-3.077904798480047610e+00,1.266279234422704070e+00,4.339090124575581520e+00,4.894745649099780382e-01,3.309397058303449601e-02,-8.713882254299828434e-01,1.678534510893134097e+02
-3.087683487871811572e+00,8.450003326318277219e-01,4.580607310354933404e+00,0.000000000000000000e+00,9.978126036217043193e-01,-6.609090750977844597e-02,1.695912883958798432e+02
-3.121933516685972076e+00,4.043196882757512101e-01,4.800863223863760965e+00,-0.000000000000000000e+00,9.968731426564392262e-01,-7.900593205231017102e-02,1.713291257024462766e+02
-3.177019675096458329e+00,-3.414631501795292040e-02,4.992099790972407192e+00,-0.000000000000000000e+00,9.968731420280737554e-01,-7.900593200250984049e-02,1.729997892893018445e+02
-3.252901281386773480e+00,-4.837906544355597971e-01,5.162814830663899457e+00,1.882960363597710463e-01,9.024538070779593024e-01,-3.874528729825248985e-01,1.746704528761574124e+02
-3.349040468495974920e+00,-9.416520603165948744e-01,5.312209167010329303e+00,3.503228603640040073e-01,6.821329465671234216e-01,-6.418461939706995301e-01,1.763411164630129804e+02
-3.464872485657789269e+00,-1.404773093003542028e+00,5.439483789018246362e+00,4.634760755981825464e-01,3.666475369304529885e-01,-8.066954264227983451e-01,1.780117800498685483e+02
-3.599805709499684259e+00,-1.870200292553108268e+00,5.543839856810369504e+00,5.119696326536163911e-01,1.099999210733007517e-05,-8.590023836520779277e-01,1.796824436367241162e+02
-3.760160424073067720e+00,-2.353677702399043614e+00,5.626696893069980554e+00,4.531930647540909352e-01,8.860055499714526210e-06,-8.914112664629185723e-01,1.814207000302306767e+02
-3.940586221478302065e+00,-2.833118155668672422e+00,5.681933078716927987e+00,3.923748667014474445e-01,6.680204720996110936e-06,-9.198043074118226192e-01,1.831589564237372372e+02
-4.140572244546601333e+00,-3.305415660113767196e+00,5.708696605296373683e+00,3.297890180242481484e-01,4.470259746196045444e-06,-9.440536020627352531e-01,1.848972128172437976e+02
-4.352362936567248042e+00,-3.753626113997689639e+00,5.707125005553873365e+00,2.657174601260933189e-01,2.240176094637206427e-06,-9.640499112473528420e-01,1.865816617169487870e+02
-4.581429573626141227e+00,-4.190286667884832283e+00,5.678260818616145400e+00,2.004488266896339022e-01,0.000000000000000000e+00,-9.797031529373612102e-01,1.882661106166537763e+02
-4.828069105910746117e+00,-4.613749750059469967e+00,5.621658069140495151e+00,0.000000000000000000e+00,8.052988517071386215e-03,-9.999665741262685481e-01,1.899505595163587657e+02
-5.117914993197936191e+00,-5.057807589059486020e+00,5.526653033253963621e+00,-8.452989841288123529e-02,4.501064590669198728e-01,-8.889639316527502277e-01,1.917852667561002704e+02
-5.430497425923557664e+00,-5.481981880783199479e+00,5.395342126274328187e+00,2.084966276596523713e-02,1.285839353626575324e-02,-9.996989313184814208e-01,1.936199739958417751e+02
-5.765331263699052577e+00,-5.885045513565721365e+00,5.227716427407095523e+00,1.217558766213923671e-01,-4.271485671585065758e-01,-8.959450921139819890e-01,1.954546812355832799e+02
-6.120543089121420088e+00,-6.265886363236003120e+00,5.023990825501090995e+00,3.698982379086732664e-01,-2.721274050884779361e-01,-8.883242476668695708e-01,1.972893884753247846e+02
-6.527005288182503584e+00,-6.654414713946781745e+00,4.758942644732826466e+00,5.863533815208138433e-01,-9.379468871456028700e-02,-8.046056601524752550e-01,1.992943888671479442e+02
-6.945236116485236089e+00,-7.011952155095340977e+00,4.448910860297243808e+00,7.525789214884025524e-01,9.257286733496225550e-02,-6.519610656826143602e-01,2.012993892589711038e+02
-7.365524213617492322e+00,-7.337665960566450707e+00,4.095842588888767288e+00,7.746750102182862197e-01,7.737150567254882927e-02,-6.276067866502113013e-01,2.033043896507942634e+02
-7.743567343382687262e+00,-7.609177046910393649e+00,3.738078153821376759e+00,7.957543708473537869e-01,6.206860081654737293e-02,-6.024288091271197132e-01,2.051442253461085556e+02
-8.104818254754500018e+00,-7.855371274490599909e+00,3.352454007973616701e+00,8.157893399344894325e-01,4.668423591491790980e-02,-5.764601763892197583e-01,2.069840610414228479e+02
-8.439799822975995625e+00,-8.076090817931692811e+00,2.942238430068127908e+00,8.347536244505501246e-01,3.123860097885020753e-02,-5.497349691187217724e-01,2.088238967367371401e+02
-8.700700335360421533e+00,-8.246054084219220925e+00,2.575356484937292745e+00,8.526223362539055994e-01,1.575196640496050529e-02,-5.222882607063307203e-01,2.103996389417758337e+02
-8.933537649766986277e+00,-8.399725955474602657e+00,2.198081163229400836e+00,8.693720247285443570e-01,2.446563925975302743e-04,-4.941560712556541390e-01,2.119753811468145273e+02
-9.132865200927575700e+00,-8.537088800902537855e+00,1.812871435464779468e+00,8.849807075402095213e-01,-1.526297770936156650e-02,-4.653753203480212597e-01,2.135511233518532208e+02
-9.293504430061204857e+00,-8.658299441525025841e+00,1.422324765620188503e+00,9.477921629588134111e-01,-3.278410786887502731e-02,-3.171958670997829244e-01,2.151268655568919144e+02
-9.410815874726461416e+00,-8.763826657866299996e+00,1.029315532103646680e+00,9.857624804107966154e-01,-4.944597999686226736e-02,-1.607029162044775472e-01,2.167026077619306079e+02
-9.479576204425844921e+00,-8.872146728916256109e+00,5.382624496946738502e-01,9.978964962917117321e-01,-6.481190233636946463e-02,1.999996986248517972e-06,2.186786926985779189e+02
-9.443296724680893206e+00,-8.952592828290814708e+00,5.574707931824703783e-02,8.948031780328368212e-01,-4.464585898826584076e-01,-9.999990813997666319e-06,2.206547776352252299e+02
-9.321515066854734854e+00,-9.003158533419343357e+00,-3.581759554488496144e-01,8.920439782952948038e-01,-4.409484666436323530e-01,9.909586546653260941e-02,2.223994826581620430e+02
-9.115422788828286826e+00,-9.037520250491864360e+00,-7.563797596873912399e-01,8.804892542009189471e-01,-4.310906059319187800e-01,1.972246503730419875e-01,2.241441876810988560e+02
-8.823678539028200873e+00,-9.057440680125655064e+00,-1.134151339646907175e+00,8.602529342965270498e-01,-4.169822055625311830e-01,2.934088091370112283e-01,2.258888927040356691e+02
-8.451527214936991328e+00,-9.064062705208410620e+00,-1.486948508333011620e+00,8.315345470426845909e-01,-3.987623733769866119e-01,3.866999698138161023e-01,2.276335977269724822e+02
-8.007504125599103517e+00,-9.057294425999995013e+00,-1.810564963065442345e+00,7.946172535673107218e-01,-3.766107556976683313e-01,4.761782849171754539e-01,2.293783027499092952e+02
-7.576637831035045068e+00,-9.041367058586327943e+00,-2.064940239966008839e+00,7.498650558273102229e-01,-3.507457660842109304e-01,5.609615010174382466e-01,2.308820833231763459e+02
-7.110242001355725705e+00,-9.017559519403326007e+00,-2.296157896959347688e+00,6.977192076962817069e-01,-3.214224318513618228e-01,6.402136577073337387e-01,2.323858638964433965e+02
-6.613346380540258806e+00,-8.986804906006994997e+00,-2.502332121102277540e+00,6.386938643527911852e-01,-2.889298795754574600e-01,7.131533301661873159e-01,2.338896444697104471e+02
-6.090987359999600947e+00,-8.950005546940971612e+00,-2.681577256464670267e+00,5.733710128538253015e-01,-2.535884843762772900e-01,7.790613340496204131e-01,2.353934250429774977e+02
-5.385654211349296006e+00,-8.893650730504342405e+00,-2.862328274765239211e+00,5.023947338664122020e-01,-2.157467110768107599e-01,8.372878167292489016e-01,2.373288210211753722e+02
-4.650492901263947765e+00,-8.828401995885867493e+00,-2.976950492622106648e+00,4.264648511270382469e-01,-1.757776783826284495e-01,8.872586649539981885e-01,2.392642169993732466e+02
-3.898817624273697380e+00,-8.758685442681155564e+00,-3.021675654398993771e+00,3.463300312382023294e-01,-1.340754799550396559e-01,9.284811657420264375e-01,2.411996129775711211e+02
-3.297417921731505164e+00,-8.703350154686043894e+00,-3.010045511283106379e+00,2.627804018344349068e-01,-9.105129865096800446e-02,9.605488646737192493e-01,2.427390917806250172e+02
-2.699593631694268137e+00,-8.650758320522546896e+00,-2.960253971895065117e+00,1.766397609026035820e-01,-4.712935224367893750e-02,9.831455736693338610e-01,2.442785705836789134e+02
-2.110654944910131281e+00,-8.602868644212705362e+00,-2.870980585212930425e+00,8.875745407615488747e-02,-2.742710601862801550e-03,9.960484887216595196e-01,2.458180493867328096e+02
-1.535929182226535072e+00,-8.561606652270095097e+00,-2.740905159648702405e+00,0.000000000000000000e+00,4.167097442644275562e-02,9.991303868317576997e-01,2.473575281897867058e+02
-9.806711186475868258e-01,-8.528956395870334717e+00,-2.568897213179942352e+00,-1.051462100381836962e-01,5.563087299962996696e-02,9.928985247666393121e-01,2.488970069928406019e+02
-4.499743645598552333e-01,-8.507052897474570941e+00,-2.354205422235129408e+00,-2.091053461330929231e-01,6.896272515365600708e-02,9.754573782375535185e-01,2.504364857958944981e+02
5.161392128268733198e-02,-8.498098965461016618e+00,-2.097187964265593507e+00,-3.107037703155847153e-01,8.151602245122180346e-02,9.470038570121021015e-01,2.519759645989483943e+02
5.215316923275464811e-01,-8.504295730593881331e+00,-1.801063725451265363e+00,-4.087944981674309641e-01,9.314904615486400974e-02,9.078591925343183489e-01,2.535154434020022904e+02
9.597778671113618154e-01,-8.527860176301576445e+00,-1.472013372887248428e+00,-5.022701468697914340e-01,1.037304670220870056e-01,8.584653107583986031e-01,2.550549222050561866e+02
1.361967551647009778e+00,-8.570116854741257839e+00,-1.122601088424996396e+00,-5.900754360124974562e-01,1.131408277991245159e-01,7.993798426908295118e-01,2.565723690986664565e+02
1.735765869946216178e+00,-8.633273812049445439e+00,-7.553515236323729010e-01,-6.712191001329844697e-01,1.212738916912422665e-01,7.312698290040269278e-01,2.580898159922767263e+02
2.082107718092111703e+00,-8.719448010540910232e+00,-3.770632232622395108e-01,-7.447850786012036872e-01,1.280378416000581832e-01,6.549041897958894909e-01,2.596072628858869962e+02
2.402023285678492215e+00,-8.830574364222396611e+00,5.682049499106521517e-03,-8.546856892570265929e-01,-2.260996982536807864e-01,4.673214087001361094e-01,2.611247097794972660e+02
2.696754546297429833e+00,-8.968218637099047541e+00,3.867362070942204078e-01,-8.169998103190999617e-01,-5.411946751271374811e-01,1.990417884584515240e-01,2.626421566731075359e+02
2.967644075208151211e+00,-9.133766718051793632e+00,7.601680248048497957e-01,-6.382348386912227722e-01,-7.628365499313519704e-01,-1.036083431468610150e-01,2.641596035667178057e+02
3.216021727187313495e+00,-9.328612969341731898e+00,1.120046326577632589e+00,-3.492598354841313091e-01,-8.527522019156871247e-01,-3.883674155305412712e-01,2.656770504603280756e+02
3.470800113069851811e+00,-9.588668013983358662e+00,1.503231003048689729e+00,2.499997267778862348e-05,-7.954151306990366876e-01,-6.060633376396513672e-01,2.674004949065883352e+02
3.696858163048106771e+00,-9.889560619811865294e+00,1.851266387095564347e+00,-2.125979658525083416e-01,-6.461272834673571497e-01,-7.330208990716302608e-01,2.691239393528485948e+02
3.896861202879687625e+00,-1.022506916316797643e+01,2.160148397452316349e+00,-4.074447634267278073e-01,-4.428143556007214654e-01,-7.986878058613349207e-01,2.708473837991088544e+02
4.074377978076271667e+00,-1.058815959468768320e+01,2.428148799253931234e+00,-5.682235629551481981e-01,-2.024761057708653611e-01,-7.975734505962636112e-01,2.725708282453691140e+02
4.233462163871950956e+00,-1.097201751781264178e+01,2.654190141338880427e+00,-6.814910863541825403e-01,5.479192654281835745e-02,-7.297710216273478601e-01,2.742942726916293736e+02
4.412851912648729780e+00,-1.148273821220495705e+01,2.870933148616433783e+00,-5.637833419045163996e-01,4.975006751706153446e-02,-8.244217817197356801e-01,2.764897229564932672e+02
4.542152178820908048e+00,-1.190648047000638421e+01,2.987483861194320411e+00,-4.331991660778467534e-01,4.357195005990019410e-02,-9.002432824955516333e-01,2.782646988824751020e+02
4.662189297207400607e+00,-1.233155769973140181e+01,3.058332073538636564e+00,-2.927209972792390036e-01,3.639867746020840344e-02,-9.555038220916700631e-01,2.800396748084569367e+02
4.773586451210928061e+00,-1.275254161134244235e+01,3.084511209031113310e+00,-1.455572423738064058e-01,2.839408122165609782e-02,-9.889412850845279435e-01,2.818146507344387715e+02
4.872397807252699664e+00,-1.316550960146211935e+01,3.067949083565463031e+00,4.930994909502411060e-03,1.974097962045976914e-02,-9.997919678678045541e-01,2.835896266604206062e+02
4.952403571787312941e+00,-1.356725845464281832e+01,3.011020887538027768e+00,-9.089331001752296579e-01,0.000000000000000000e+00,-4.169395872385236457e-01,2.853646025864024409e+02
5.006024478473650952e+00,-1.393631170394849761e+01,2.922408779325638140e+00,-0.000000000000000000e+00,2.648456641228463249e-01,-9.642897770881325714e-01,2.870524924873593022e+02
5.033046162197742035e+00,-1.429024600382412125e+01,2.803070319391052667e+00,-6.783331045801358483e-01,5.390142884851149008e-01,-4.993253408757056255e-01,2.887403823883161635e+02
5.028457572084929161e+00,-1.462633493443833643e+01,2.654948567655941893e+00,-4.854381389842506445e-01,5.129623416611309716e-01,-7.079671244190135493e-01,2.904282722892730249e+02
4.987257870803941451e+00,-1.494191129587238542e+01,2.479863757763943521e+00,-2.530193903473855754e-01,4.451456436977997422e-01,-8.589671379080189295e-01,2.921161621902298862e+02
4.905407051880489533e+00,-1.523425444473225809e+01,2.279536284397268631e+00,-0.000000000000000000e+00,3.410856895399453914e-01,-9.400311443730142713e-01,2.938040520911867475e+02
4.780807322698187534e+00,-1.550029909533531658e+01,2.055855798623395181e+00,-3.329102066544730679e-03,6.857485227912833992e-01,-7.278295683537916450e-01,2.954919419921436088e+02
4.612354802922657981e+00,-1.573676129374348598e+01,1.810858191276039530e+00,-6.112785333250671770e-03,9.180628020142636014e-01,-3.963853244186368863e-01,2.971798318931004701e+02
4.369530901268285028e+00,-1.595830359382761721e+01,1.515098281921798407e+00,-7.894990794487707561e-03,9.999678340434552393e-01,-0.000000000000000000e+00,2.990541810862090415e+02
4.063711080050686597e+00,-1.612991467265871037e+01,1.196032743468033122e+00,-9.132730123892169871e-01,4.073455594976950200e-01,-0.000000000000000000e+00,3.009285302793176129e+02
3.694722741054376147e+00,-1.624661963956701527e+01,8.573567567084298124e-01,-8.589215515003821855e-01,4.982611289662505216e-01,1.182692509935774489e-01,3.028028794724261843e+02
3.336634914916196681e+00,-1.630234384203376052e+01,5.584334301972065928e-01,-7.829189159072020843e-01,5.766168414474754922e-01,2.335572505294144230e-01,3.043951603683539702e+02
2.943473304204146324e+00,-1.631873884395452734e+01,2.533471160402671618e-01,-6.871809236832139289e-01,6.404375543583037400e-01,3.429578940545351950e-01,3.059874412642817560e+02
2.517350779415001849e+00,-1.629332402602794971e+01,-5.504182881052958887e-02,-5.741208681831299065e-01,6.881145097016203582e-01,4.437134776580987094e-01,3.075797221602095419e+02
2.060400997309914217e+00,-1.622363206708228134e+01,-3.638730241879242766e-01,-4.465886883696270071e-01,7.184458872531264140e-01,5.332842117575351537e-01,3.091720030561373278e+02
1.575224651064187187e+00,-1.610745073458698329e+01,-6.702434932967593628e-01,-3.077991321905365618e-01,7.306671009476153333e-01,6.094122429159498644e-01,3.107642839520651137e+02
1.065332842822812820e+00,-1.594306851274178705e+01,-9.711650896009440537e-01,-1.612507231562050614e-01,7.244700744143536264e-01,6.701785699048948830e-01,3.123565648479928996e+02
5.012325766345445688e-01,-1.571272148624748510e+01,-1.280668135281760822e+00,-1.063757229649257147e-02,7.000110092635491998e-01,7.140514189926605582e-01,3.140456542926685870e+02
-8.263591090429571462e-02,-1.542144487974718814e+01,-1.576211681035992962e+00,1.402437416678932736e-01,6.579064497531478262e-01,7.399248585471904782e-01,3.157347437373442745e+02
-6.812128914722700435e-01,-1.506747344796641919e+01,-1.853958256578177366e+00,2.875898764464029367e-01,5.992177425656688428e-01,7.471466790128329372e-01,3.174238331820199619e+02
-1.289422739005634755e+00,-1.464907596352167118e+01,-2.110070532393036657e+00,1.945416212149591872e-01,5.508379670615830559e-01,8.116212735357506425e-01,3.191129226266956493e+02
-1.902045242280904214e+00,-1.416541355315717432e+01,-2.340968962614867532e+00,9.854504700687125029e-02,4.941099659938912314e-01,8.637952391705732147e-01,3.208020120713713368e+02
-2.513718606152299806e+00,-1.361748693975875746e+01,-2.543939784824035932e+00,1.054998706092888068e-03,4.298934727555412949e-01,9.028778926620291134e-01,3.224911015160470242e+02
-3.083749097586400811e+00,-1.304679152464942860e+01,-2.708607419872082644e+00,-2.094397647221116210e-02,9.665299142314137670e-01,2.556937127619156591e-01,3.240799573945994325e+02
-3.644521335467278078e+00,-1.242591915589983564e+01,-2.847468849482516440e+00,4.606624106659285012e-01,7.464020451138489998e-01,4.802833855644469407e-01,3.256688132731518408e+02
-4.192051585954627235e+00,-1.175688186827324877e+01,-2.960162684887870377e+00,5.419998690073466463e-01,6.161020976129496507e-01,5.715350796879260509e-01,3.272576691517042491e+02
-4.722357130256351176e+00,-1.104225723003345649e+01,-3.047804123877983606e+00,6.060362426637543320e-01,4.661357356541689367e-01,6.445428989022585764e-01,3.288465250302566574e+02
-5.231469824576478800e+00,-1.028491815901930195e+01,-3.112246741285359164e+00,6.507274668824005737e-01,3.012899831490998825e-01,6.969764055547562620e-01,3.304353809088090657e+02
-5.715446445559124733e+00,-9.487762644802421264e+00,-3.155344274300254881e+00,6.746469744000578306e-01,1.268268071975847122e-01,7.271618945667507328e-01,3.320242367873614739e+02
-6.170368755727219323e+00,-8.653713616539711495e+00,-3.178950609492597223e+00,6.186973559245070309e-01,1.163087140349637061e-01,7.769709549350873878e-01,3.336130926659138822e+02
-6.592343568638345808e+00,-7.785718810545706248e+00,-3.184919769834044345e+00,5.592075881606153320e-01,1.051251093629229361e-01,8.223342293290636373e-01,3.352019485444662905e+02
-6.977502813757292088e+00,-6.886750637586039225e+00,-3.175105901719339929e+00,4.965180660803309443e-01,9.333998473734979318e-02,8.629921536759548317e-01,3.367908044230186988e+02
-7.322003601044908550e+00,-5.959806049893141555e+00,-3.151363261987023989e+00,4.309874929720216574e-01,8.102077348389054301e-02,8.987120869148741420e-01,3.383796603015711071e+02
-7.610757649790999224e+00,-5.050492731221680742e+00,-3.117552943925823605e+00,3.629908281509633405e-01,6.823796488407166128e-02,9.292896420534266788e-01,3.398989494162532310e+02
-7.858157167116680775e+00,-4.122183477178805511e+00,-3.074523272627154746e+00,2.929171416719922871e-01,5.506470087884173664e-02,9.545498556035350024e-01,3.414182385309353549e+02
-8.064100583784945542e+00,-3.178360406195050114e+00,-3.023115834490721632e+00,2.211673883085369108e-01,4.157635759510554252e-02,9.743481887080390758e-01,3.429375276456174788e+02
-8.230402879791158810e+00,-2.222724850457434620e+00,-2.963816804051277565e+00,1.481521135237690023e-01,2.785011408758456680e-02,9.885713542300768042e-01,3.444568167602996027e+02
-8.359432430564410765e+00,-1.258913971713905733e+00,-2.897040896729793147e+00,7.428910454896031634e-02,1.396451076152913084e-02,9.971379650704446096e-01,3.459761058749817266e+02
-8.453587239036810530e+00,-2.905501758687649150e-01,-2.823206522105633720e+00,9.999989999985432422e-07,-9.999989999985432422e-07,9.999989999985432476e-01,3.474953949896638505e+02
-8.515294897862069945e+00,6.787590368592567591e-01,-2.742739427571836419e+00,4.007305300104290202e-01,-5.132176219660787853e-01,7.589602854049946057e-01,3.490146841043459744e+02
-8.547012551325209984e+00,1.645421221624390640e+00,-2.656069049278133587e+00,6.082774653435700785e-01,-7.790243152625521139e-01,1.520448663574272274e-01,3.505339732190280984e+02
-8.551226856946312793e+00,2.605859138484171389e+00,-2.563624863050477654e+00,8.086152182767397667e-01,-5.701875086871813769e-01,1.450021851876020784e-01,3.520532623337102223e+02
-8.527106290375547459e+00,3.626939005210941147e+00,-2.458064009153659857e+00,9.411927937870143701e-01,-3.135702639555560389e-01,1.258086423386865771e-01,3.536867832669289555e+02
-8.475622546604952845e+00,4.631120979812554772e+00,-2.346435210812923611e+00,9.949004988875450595e-01,-3.067653653300366975e-02,9.607261535181164935e-02,3.553203042001476888e+02
-8.400221233451802050e+00,5.613690083271848152e+00,-2.229312533287357567e+00,9.652377531612574835e-01,2.547878172082398418e-01,5.828591661224116760e-02,3.569538251333664221e+02
-8.304403305422638937e+00,6.570021074938542149e+00,-2.107390776418123668e+00,8.546902225259083163e-01,5.189015279781100665e-01,1.561498579573443457e-02,3.585873460665851553e+02
-8.191737356890605781e+00,7.495645798666770609e+00,-1.981606163452977132e+00,9.025323494255671486e-01,4.304917364537743096e-01,1.049871811541440957e-02,3.602208669998038886e+02
-8.065845155893669016e+00,8.386186577862725144e+00,-1.853015640156751687e+00,9.412305863045108412e-01,3.377205150959005087e-01,5.276086150934267832e-03,3.618543879330226218e+02
-7.930387996446071064e+00,9.237289488872706400e+00,-1.722676173028651725e+00,9.703928888871868885e-01,2.415277234475320944e-01,0.000000000000000000e+00,3.634879088662413551e+02
-7.741878928517497371e+00,1.028745355620572610e+01,-1.548423247963993665e+00,9.969795307158221265e-01,-7.765188556165565636e-02,0.000000000000000000e+00,3.656618007839354050e+02
-7.552553607742268582e+00,1.122283950047884993e+01,-1.376335835360637416e+00,9.706551006259609427e-01,-0.000000000000000000e+00,-2.404717771875165555e-01,3.678356927016294549e+02
-7.422295279006180024e+00,1.181923581252596911e+01,-1.257773042315515788e+00,9.955207353996179398e-01,9.453287991579502336e-02,0.000000000000000000e+00,3.693721637586841666e+02
-7.296717752101219645e+00,1.237045784048421915e+01,-1.143125589679150123e+00,9.546769266703760692e-01,0.000000000000000000e+00,-2.976406653668539071e-01,3.709086348157388784e+02
-7.177067845974634430e+00,1.287585817613263117e+01,-1.034212067381661715e+00,9.988611377177328832e-01,-0.000000000000000000e+00,4.769095883004498271e-02,3.724451058727935902e+02
-7.060276722630240975e+00,1.335066040010368305e+01,-9.295742942178987223e-01,9.983100963216351431e-01,-2.758923851493134266e-02,5.112519437251322046e-02,3.740395342029160020e+02
-6.952027428335312287e+00,1.377397404750372978e+01,-8.360222323673525135e-01,9.969870965401125273e-01,-5.515714128533760058e-02,5.451989634056388784e-02,3.756339625330384138e+02
-6.843729425514766262e+00,1.417983517545107475e+01,-7.498162671966921433e-01,9.948931615483178614e-01,-8.268239122989771983e-02,5.787243976365603892e-02,3.773981333598889591e+02
-6.748922978449136245e+00,1.451813877048045143e+01,-6.866852764850051027e-01,9.920299106329890648e-01,-1.101437042599735655e-01,6.118023227110015033e-02,3.791623041867395045e+02
-6.668389352213959675e+00,1.479050115522997011e+01,-6.509904717531130869e-01,9.883995579406286147e-01,-1.375198457356202886e-01,6.444071609638293840e-02,3.809264750135900499e+02
-6.602822387565746354e+00,1.499909362854832118e+01,-6.471420428979690609e-01,9.840049107647934612e-01,-1.647896468833022210e-01,6.765137005468367659e-02,3.826906458404405953e+02
-6.557141406561862063e+00,1.513486355539697215e+01,-6.719140353772208307e-01,9.788493673749220081e-01,-1.919320211626353301e-01,7.080971149210725513e-02,3.842474504765693837e+02
-6.522137697390558486e+00,1.523017139053222735e+01,-7.241139355945098721e-01,9.729369143883831450e-01,-2.189259805695168704e-01,7.391329820512941573e-02,3.858042551126981721e+02
-6.496525188187765032e+00,1.528757056801488012e+01,-8.067789903300908172e-01,9.662721236877785946e-01,-2.457506518630534487e-01,7.695973032877176379e-02,3.873785761281259283e+02
-6.478501073313925218e+00,1.530859351337803176e+01,-9.206069750367136262e-01,9.588601488858827793e-01,-2.723852927037548333e-01,7.994665219204846740e-02,3.889528971435536846e+02
-6.465325662844430887e+00,1.529649922996378031e+01,-1.066214333120639735e+00,9.507067213409524653e-01,-2.988093076905342649e-01,8.287175413925272627e-02,3.905272181589814409e+02
-6.454230722506633100e+00,1.525452880976145487e+01,-1.244217289569897522e+00,9.418181457254837241e-01,-3.250022642841271514e-01,8.573277431567542795e-02,3.921015391744091971e+02
-6.442394188165622815e+00,1.518573705835328980e+01,-1.455019252472217195e+00,9.322012951518388046e-01,-3.509439086046356460e-01,8.852750041637819090e-02,3.936758601898369534e+02
-6.426916863577099015e+00,1.509282390765445037e+01,-1.698598215995192007e+00,9.218636058585059079e-01,-3.766141810909962584e-01,9.125377139666929205e-02,3.952501812052647097e+02
-6.402439296899115284e+00,1.496810909555211744e+01,-1.998050126647286096e+00,9.108130714610934708e-01,-4.019932320102783119e-01,9.390947914296204901e-02,3.969421508560849929e+02
-6.365778906267514081e+00,1.481990123678869686e+01,-2.337585582569500886e+00,8.990582367724985202e-01,-4.270614368048358256e-01,9.649257010272493940e-02,3.986341205069052762e+02
-6.313134782765462027e+00,1.465131162482499150e+01,-2.716270572197337696e+00,8.866081911970128404e-01,-4.517994112654575845e-01,9.900104687226404798e-02,4.003260901577255595e+02
-6.248044003463066431e+00,1.448027468544926499e+01,-3.097967167500045971e+00,8.734725617034707623e-01,-4.761880265187982131e-01,1.014329697411118225e-01,4.018894274981638546e+02
-6.173406269496498844e+00,1.431238394084212828e+01,-3.472059644143431267e+00,8.596615053828554620e-01,-5.002084238175110720e-01,1.037864581918284124e-01,4.033279978224805404e+02
-6.095268168485455718e+00,1.415609954139111260e+01,-3.819569676866828800e+00,8.451857015961086184e-01,-5.238420291216590030e-01,1.060596923540566977e-01,4.046076431591168330e+02
-5.901616143414343263e+00,1.384037860864039082e+01,-4.507106479674966693e+00,8.300563437181998072e-01,-5.470705674601373802e-01,1.082509144117076855e-01,4.070017554401334792e+02
-5.797043890854692627e+00,1.369230369518211887e+01,-4.821698254929128957e+00,7.669240327213734387e-01,-6.083619976893147596e-01,2.042576994898911147e-01,4.080531984137069799e+02
-5.590883200372476658e+00,1.342081902548890326e+01,-5.376642802462372472e+00,6.907849783365456187e-01,-6.593357951168591358e-01,2.968003082571101237e-01,4.099016829047124020e+02
-5.351873718907366850e+00,1.313194587915186418e+01,-5.923470890975181646e+00,6.029304651332196840e-01,-6.991274818158479398e-01,3.843092743916288190e-01,4.117501673957178241e+02
-5.081747596659994315e+00,1.282465972409840305e+01,-6.446179682716045356e+00,5.048504550707269001e-01,-7.270622152181295261e-01,4.653004977604566772e-01,4.135986518867232462e+02
-4.782634343663763055e+00,1.249826423580442025e+01,-6.928756607155017733e+00,4.436676085589408847e-01,-6.619261072840308957e-01,6.041613042990341409e-01,4.154471363777286683e+02
-4.436091211118318611e+00,1.213052712548497958e+01,-7.376505934911106621e+00,3.703866502330014354e-01,-5.787403219276727739e-01,7.265475683705776566e-01,4.174078258605113092e+02
-4.062498217362960240e+00,1.174038731178539052e+01,-7.736926984379102201e+00,2.870058323433269387e-01,-4.797732006331239529e-01,8.291220224768505176e-01,4.193685153432939501e+02
-3.719497987856925203e+00,1.138363974938034318e+01,-7.970179476709211563e+00,1.957988106946531026e-01,-3.677234113814306093e-01,9.090876296889043306e-01,4.210780970384075204e+02
-3.366005485966771626e+00,1.101411367732141677e+01,-8.123750409958960361e+00,9.925264828604696277e-02,-2.456463634500808957e-01,9.642638518230368661e-01,4.227876787335210906e+02
-3.006538734077766950e+00,1.063381551581065843e+01,-8.195328534443916624e+00,0.000000000000000000e+00,-1.168708951520591871e-01,9.931461090226156863e-01,4.244972604286346609e+02
-2.645412769463989289e+00,1.024497361887812907e+01,-8.185931278629773544e+00,4.301035175183857140e-01,3.026596604823824505e-02,9.022709878502616077e-01,4.262068421237482312e+02
-2.290659522233751133e+00,9.854884335049391098e+00,-8.099148667821223668e+00,0.000000000000000000e+00,0.000000000000000000e+00,9.999989999986806932e-01,4.278964229234440495e+02
-1.992373183776759538e+00,9.520214914997222166e+00,-7.970374110393621869e+00,-1.161848472904061791e-01,1.341998236121057881e-03,9.932256945363709955e-01,4.293354488072124582e+02
-1.621628139283315839e+00,9.095345760950301894e+00,-7.734461776804175237e+00,-8.722603518090864261e-02,4.682136933138279257e-03,9.961765387554982754e-01,4.311642364071363431e+02
-1.263137313324677491e+00,8.674976105175884911e+00,-7.415986664442923981e+00,-5.819233776242925538e-02,8.018256532587940411e-03,9.982721870182488244e-01,4.329930240070602281e+02
-9.192973106664001914e-01,8.263004470018607606e+00,-7.023690895297865389e+00,-2.910867255269037820e-02,1.134749387540628235e-02,9.995108401366866735e-01,4.348218116069841130e+02
-5.925517313366410743e-01,7.862949892959755438e+00,-6.566322322821785740e+00,-0.000000000000000000e+00,1.466699169430323718e-02,9.998914337765223426e-01,4.366505992069079980e+02
-2.398466997957443558e-01,7.420089928785061240e+00,-5.959678822526050190e+00,-7.217103253061220025e-01,5.166585169996518179e-01,4.606475693617175238e-01,4.387747795449688510e+02
7.936399974446477212e-02,7.007870417865464496e+00,-5.281165435246850670e+00,-5.024135394077114958e-01,7.294793312430333243e-01,4.641535744828904630e-01,4.408989598830297041e+02
3.501859129444914731e-01,6.650033006233142530e+00,-4.589731040487001756e+00,-7.805059566588116171e-01,3.310727233091743105e-01,5.302822866160723514e-01,4.429084787836207511e+02
5.920506009977579698e-01,6.326390815738889728e+00,-3.866368939071463728e+00,-8.709360646310240206e-01,-1.469368435940107964e-01,4.689114365375537385e-01,4.449179976842117981e+02
7.602299618045775809e-01,6.101076163563857513e+00,-3.301058819830466007e+00,-7.519600857339147071e-01,-5.896177971558104192e-01,2.947963411164945535e-01,4.464545876710864150e+02
9.170989336119981239e-01,5.892978643130094341e+00,-2.732674037784158294e+00,-4.521842911793911290e-01,-8.905319889692231428e-01,4.980103844248604666e-02,4.479911776579610319e+02
1.063873329787387911e+00,5.702638987651448055e+00,-2.165812478987605871e+00,-4.368697578786884250e-02,-9.773284583464662001e-01,-2.071678851837208402e-01,4.495277676448356488e+02
1.203792799078589271e+00,5.528241780858405896e+00,-1.596896179023400864e+00,-1.571261495725260748e-01,-9.643530046557341473e-01,-2.129146672417542852e-01,4.510868644251565343e+02
1.335890804476927096e+00,5.373186129207954131e+00,-1.038820143061502499e+00,-2.685116056345077662e-01,-9.387736212144522918e-01,-2.158786829369707672e-01,4.526459612054774198e+02
1.488547624163834016e+00,5.212533630215660629e+00,-3.760205827256039579e-01,-3.126880748970977675e-01,-9.254261140919193274e-01,-2.140342850473561376e-01,4.545652864476153354e+02
1.631652621697699868e+00,5.088165429840494802e+00,2.504840524054054995e-01,-3.561975424649502786e-01,-9.101045596459187426e-01,-2.117333258027283560e-01,4.564846116897532511e+02
1.747334379005478500e+00,5.009079356325206511e+00,7.474675413392058987e-01,-3.989471976576962620e-01,-8.928416404437719001e-01,-2.089807133985635001e-01,4.581012057756331615e+02
1.860976466306309973e+00,4.950706649622585331e+00,1.215240323863235661e+00,-4.408458505297921382e-01,-8.736741801584579914e-01,-2.057823194468147987e-01,4.597177998615130718e+02
1.974346977220351684e+00,4.912554266819287641e+00,1.650533433413607032e+00,-4.818041263818482745e-01,-8.526430650283589596e-01,-2.021449664528786050e-01,4.613343939473929822e+02
2.089046933917480420e+00,4.894046994277987395e+00,2.050535270247046071e+00,-5.217346563998530584e-01,-8.297931566490656108e-01,-1.980764132637456432e-01,4.629509880332728926e+02
2.206346864310437805e+00,4.894458085612124698e+00,2.413348753277576808e+00,-5.605522640167022175e-01,-8.051731962862879177e-01,-1.935853385190786646e-01,4.645675821191528030e+02
2.327348022462342403e+00,4.912982234188531194e+00,2.737534202351036505e+00,-5.981741465986332162e-01,-7.788357009138274778e-01,-1.886813221404854968e-01,4.661841762050327134e+02
2.456436808609364419e+00,4.950143314627445612e+00,3.027694118666722112e+00,-6.345200520691253177e-01,-7.508368511981929894e-01,-1.833748248984355400e-01,4.678412304909839463e+02
2.591886283256559675e+00,5.005044695025141266e+00,3.273113863556313508e+00,-6.695124500935879519e-01,-7.212363716686155390e-01,-1.776771661003673231e-01,4.694982847769351793e+02
2.734887999758176313e+00,5.076774033103172989e+00,3.472205129589559292e+00,-7.030766974597421060e-01,-6.900974033278710618e-01,-1.716004994475366086e-01,4.711553390628864122e+02
2.886382146968424323e+00,5.164773768552676003e+00,3.624174311236611157e+00,-7.351411973009457368e-01,-6.574863689754432139e-01,-1.651577871120607499e-01,4.728123933488376451e+02
3.046818858367577931e+00,5.269205911752341542e+00,3.729816860113684740e+00,-7.656375518228267785e-01,-6.234728315300970269e-01,-1.583627720894097701e-01,4.744694476347888781e+02
3.216139597039522346e+00,5.390493406857486569e+00,3.791107559246766012e+00,-7.945007082074041493e-01,-5.881293456538756459e-01,-1.512299488852724416e-01,4.761265019207401110e+02
3.382781484251435433e+00,5.519676149748552696e+00,3.811754810479240252e+00,-8.216690973834146483e-01,-5.515313029938191391e-01,-1.437745325992801915e-01,4.776849414182245255e+02
3.555679016895330058e+00,5.663134398551970428e+00,3.800237238925467498e+00,-8.470847653667401556e-01,-5.137567713713350193e-01,-1.360124264714917264e-01,4.792433809157089399e+02
3.734162088161664173e+00,5.820974679574421273e+00,3.759003341570692935e+00,-8.706934968906636652e-01,-4.748863282620732207e-01,-1.279601879608242287e-01,4.808018204131933544e+02
3.917303888535088152e+00,5.993192282003689364e+00,3.690525769654700916e+00,-8.924449310620954368e-01,-4.350028889213471417e-01,-1.196349934277493449e-01,4.823602599106777689e+02
4.105480473667188157e+00,6.181501039543278786e+00,3.596199538444437405e+00,-9.122926687969047377e-01,-3.941915295215960846e-01,-1.110546014965559103e-01,4.839337802713719157e+02
4.295190796179523041e+00,6.384030900225910798e+00,3.479070613355067731e+00,-9.301943718050083021e-01,-3.525393056790345758e-01,-1.022373151753008524e-01,4.855073006320660625e+02
4.484662232230498091e+00,6.600445033750940382e+00,3.341783957162899110e+00,-9.461118529138765609e-01,-3.101350667565040964e-01,-9.320194281422534976e-02,4.870808209927602093e+02
4.672065386216059046e+00,6.830297439810218307e+00,3.186791105854262618e+00,-9.600111575375825934e-01,-2.670692663385742516e-01,-8.396775798589721507e-02,4.886543413534543561e+02
4.887607324039617396e+00,7.120329268310786830e+00,2.981549239788308103e+00,-9.718626361174009798e-01,-2.234337692831333821e-01,-7.455445837264526587e-02,4.905162175005103791e+02
5.092343816878004858e+00,7.430151099414356253e+00,2.754064783067116995e+00,-9.816410073792171120e-01,-1.793216557610436690e-01,-6.498212374897725796e-02,4.923780936475664021e+02
5.282333545632865501e+00,7.758260791109263366e+00,2.508005577336525516e+00,-9.893254122725967381e-01,-1.348270227018871503e-01,-5.527117314860802849e-02,4.942399697946224251e+02
5.453618801872660349e+00,8.103186286391069970e+00,2.247039642728750231e+00,-9.948994584762476112e-01,-9.004478306938948351e-02,-4.544232130747166698e-02,4.961018459416784481e+02
5.601610180072551515e+00,8.461599884427254636e+00,1.976247041502591228e+00,-9.983512553747387885e-01,-4.507046339476930563e-02,-3.551653447564156324e-02,4.979543546617159109e+02
5.723361318182848656e+00,8.833769472693379754e+00,1.697979608357857106e+00,-9.996734394316759698e-01,-0.000000000000000000e+00,-2.551498569243494663e-02,4.998068633817533737e+02
