1.191648502402893106e+00,1.080291611294152254e+01,-1.998428641561070362e+00,-4.478278264459594760e-01,-8.850550944596093927e-01,-1.269870766393332295e-01,4.940417052672827936e+00
1.418207157562317411e+00,1.052441297215527349e+01,-2.042948685226972039e+00,-5.307271669612688703e-01,-8.437340518137231848e-01,-8.024664516836862993e-02,6.587222736897103914e+00
1.640941485399179056e+00,1.023679845713810010e+01,-2.085504176031099277e+00,-6.079135468835797917e-01,-7.933306960353599946e-01,-3.264239949610112795e-02,8.234028421121379893e+00
1.841516283186257263e+00,9.964677602050429073e+00,-2.122728258476888286e+00,-6.785560984704134269e-01,-7.343875858422779235e-01,1.531322926768480600e-02,9.741130347787926524e+00
2.039054956291638021e+00,9.683248453781345688e+00,-2.158317048865077581e+00,-7.418943931736854402e-01,-6.675392057089479803e-01,6.310402697139987083e-02,1.124823227445447316e+01
2.233531394117316271e+00,9.391429466852546426e+00,-2.192208941257348886e+00,-7.972466273882344856e-01,-5.935051364360101056e-01,1.102155530907352882e-01,1.275533420112101979e+01
2.424709155119332493e+00,9.087984764896559042e+00,-2.224321822912353142e+00,-8.440169619648335564e-01,-5.130823096483763113e-01,1.561406783715570401e-01,1.426243612778756642e+01
2.612088669460272516e+00,8.771480657258532432e+00,-2.254680872585656193e+00,-8.817019364545209958e-01,-4.271364295618044205e-01,2.003850438385899047e-01,1.576953805445411305e+01
2.795257694882600230e+00,8.440550602377467015e+00,-2.283587393092234130e+00,-9.098958890024353430e-01,-3.365926543306922425e-01,2.424723824018294172e-01,1.727663998112065968e+01
2.993638480268544733e+00,8.052505517208068397e+00,-2.314565749856443144e+00,-9.282953235078127419e-01,-2.424256372716643015e-01,2.819496457656700539e-01,1.895443413027010493e+01
3.185562135406967421e+00,7.640989356737988736e+00,-2.344852041357205596e+00,-9.367021769977039725e-01,-1.456490351612267087e-01,3.183918814365853667e-01,2.063222827941955018e+01
3.370575236886974579e+00,7.204079031597554916e+00,-2.375136912947670265e+00,-9.350259520034397420e-01,-4.730459655574808381e-02,3.514068073118103430e-01,2.231002242856899542e+01
3.547940564354885140e+00,6.740547440708316351e+00,-2.406066031905132796e+00,-9.232846909531839952e-01,5.154905238487000191e-02,3.806390345852821988e-01,2.398781657771844067e+01
3.716379315983735054e+00,6.250559092703356967e+00,-2.438195104339459185e+00,-9.016047820688130043e-01,1.498478038222411657e-01,4.057738934931999775e-01,2.566561072686788592e+01
3.858989577269150040e+00,5.790317983218952413e+00,-2.468362512262855191e+00,-8.702195988456326026e-01,2.465335232024204737e-01,4.265408206991818663e-01,2.717037033555352465e+01
3.992893456909080374e+00,5.312129911994261100e+00,-2.500093660728309963e+00,-8.294669877623793708e-01,3.405654399074060645e-01,4.427162718418472531e-01,2.867512994423916339e+01
4.116937290707057606e+00,4.816883867457491419e+00,-2.533685896977321050e+00,-7.797856312800157674e-01,4.309313509393785102e-01,4.541261278844896943e-01,3.017988955292480213e+01
4.242820949211954407e+00,4.235583152993982914e+00,-2.574505736388942534e+00,-7.217103253061546431e-01,5.166585169996751326e-01,4.606475693617383960e-01,3.188581978371834680e+01
4.349800347440206494e+00,3.634782548196772378e+00,-2.618702854245167799e+00,-6.534595872335227096e-01,7.148486634238729875e-01,2.489577398957520671e-01,3.359175001451188791e+01
4.435215122437859314e+00,3.017558486793802341e+00,-2.666604511294994762e+00,-5.272142253730137673e-01,8.495957517032641793e-01,1.517297770659927804e-02,3.529768024530542903e+01
4.496123319021924303e+00,2.387150442466968059e+00,-2.718457394737926691e+00,-7.764005591134290896e-01,6.301395107777780780e-01,1.115207454677461830e-02,3.700361047609897014e+01
4.529050833256889064e+00,1.726080863588306480e+00,-2.776301105091821153e+00,-9.399722441750043567e-01,3.411969423327132489e-01,5.901417174436181592e-03,3.876497308659306640e+01
4.526878404920552157e+00,1.058641304740326472e+00,-2.838594108888496503e+00,-9.998919759349480518e-01,1.462998501632503667e-02,0.000000000000000000e+00,4.052633569708716266e+01
4.485317895655795972e+00,3.890908101558218646e-01,-2.905342047913493708e+00,-9.998919606002018012e-01,1.463098479091418103e-02,-0.000000000000000000e+00,4.228769830758125892e+01
4.400632549905923341e+00,-2.782741213632727306e-01,-2.976315634890142281e+00,-9.986771916293771811e-01,5.606302119080827304e-03,-5.109242888494943541e-02,4.404906091807535518e+01
4.270149837279507032e+00,-9.391187736629756921e-01,-3.050815764765412830e+00,-9.947726228045428165e-01,-3.433479874166002737e-03,-1.020472445880236667e-01,4.581042352856945143e+01
4.167997539374741933e+00,-1.347278414601586816e+00,-3.098542644117225908e+00,-9.881887697143983962e-01,-1.246401601465950762e-02,-1.527272199324519464e-01,4.690964255100129066e+01
3.955437329152152071e+00,-2.027213133468006578e+00,-3.180487501071012524e+00,-9.789433609053522778e-01,-2.146098598938219609e-02,-2.029958674759157755e-01,4.877315272108899791e+01
3.684887381084561930e+00,-2.685420321366090768e+00,-3.262294928704188912e+00,-9.997706912706986193e-01,-5.995721058076585938e-03,-2.050892989348576320e-02,5.063666289117670516e+01
3.422299158457470014e+00,-3.208743797658861752e+00,-3.327953657039745661e+00,-9.866313154007505526e-01,9.673242627151126469e-03,1.626747547964863816e-01,5.217061025651571526e+01
3.128064188011364433e+00,-3.714119112774729281e+00,-3.390670541085651024e+00,-9.399716523001553359e-01,2.501356081920092650e-02,3.403316245190819989e-01,5.370455762185472537e+01
2.803124230660845928e+00,-4.199066037468969448e+00,-3.448986802799484330e+00,-8.613769463878782062e-01,3.950405536866115341e-02,5.064258937312426934e-01,5.523850498719373547e+01
2.448440422585380194e+00,-4.661110249494638147e+00,-3.501443692815211062e+00,-7.535174081053001016e-01,5.265242048164946176e-02,6.553146101684332869e-01,5.677245235253274558e+01
1.798932646645452715e+00,-5.330656762816925465e+00,-3.563237259194310447e+00,-6.200574967891760991e-01,6.401194805077710381e-02,7.819393654131201465e-01,5.924054120297004289e+01
1.345137101279666902e+00,-5.701324964807385598e+00,-3.586145258720482065e+00,-6.712518812307376459e-01,2.381798725189455124e-01,7.019182717893380774e-01,6.078681339926504990e+01
8.682265283814420975e-01,-6.042165395147424789e+00,-3.598740899774706570e+00,-6.960266023595524931e-01,4.029732585776916176e-01,5.942705795175969863e-01,6.233308559556005690e+01
3.711097365641650714e-01,-6.352094099833927032e+00,-3.600249523232546434e+00,-6.934065915919782608e-01,5.519060692898628551e-01,4.632331911890715248e-01,6.387935779185506391e+01
-1.432962470118382126e-01,-6.630045662777136251e+00,-3.589896543435900700e+00,-6.634949939576905154e-01,6.791165338788519579e-01,3.139635749685511512e-01,6.542562998815007802e+01
-6.720662245180826222e-01,-6.874973248366936573e+00,-3.566907453328421074e+00,-6.074690999518655987e-01,7.795978449197072946e-01,1.523367742923392998e-01,6.697190218444508503e+01
-1.433083653804337665e+00,-7.147276628863448167e+00,-3.506575407742268613e+00,-4.499992964605512838e-04,3.515004504559560705e-01,9.361865363440234900e-01,6.913434444845205462e+01
-2.213556580765539294e+00,-7.324196912321527364e+00,-3.407887270679065050e+00,1.074092225954319385e-01,3.556308924055112675e-01,9.284330494281067825e-01,7.129678671245902422e+01
-2.926305482049037288e+00,-7.403349023809428608e+00,-3.288349605677856946e+00,2.140105993882235880e-01,3.555966076502897755e-01,9.098068564146577497e-01,7.325162535241493345e+01
-3.636428711017297921e+00,-7.408551219012405653e+00,-3.144931386731444345e+00,3.181057433932625855e-01,3.513979971210160480e-01,8.805260834532513403e-01,7.520646399237084267e+01
-4.254188291232894770e+00,-7.355049224507938632e+00,-3.002611003882885932e+00,4.184756162544464586e-01,3.430842292070773181e-01,8.409336301229387578e-01,7.693082100185546324e+01
-4.857899124138084446e+00,-7.251516278007386518e+00,-2.849579265117772486e+00,5.139448047702303013e-01,3.307526640361642123e-01,7.914931540351398676e-01,7.865517801134008380e+01
-5.441614375537714210e+00,-7.099510173276158298e+00,-2.689090341353560287e+00,6.033952859155212733e-01,3.145477134025179700e-01,7.327836412816001177e-01,8.037953502082470436e+01
-6.020714246345945320e+00,-6.891159986283957650e+00,-2.518189955923227696e+00,6.857795198669369707e-01,2.946591496850404224e-01,6.654926262849454321e-01,8.217271578294187862e+01
-6.564590126611656196e+00,-6.633006196048755854e+00,-2.347481921073291566e+00,7.601327176951844233e-01,2.713198835489084582e-01,5.904081404265533184e-01,8.396589654505905287e+01
-7.066848763733723615e+00,-6.327556836642956206e+00,-2.181449991212542461e+00,8.255841400449417389e-01,2.448032364460373256e-01,5.084094837169512715e-01,8.575907730717622712e+01
-7.521119311625112935e+00,-5.977367185154407458e+00,-2.024577879009668457e+00,8.813672944634173279e-01,2.154197398477731840e-01,4.204569275629054248e-01,8.755225806929340138e+01
-7.921056085049279716e+00,-5.585851060400568002e+00,-1.881091751181279248e+00,9.268289119316382996e-01,1.835134986880965213e-01,3.275804692107192606e-01,8.934543883141057563e+01
-8.274157741305145919e+00,-5.138304178060001171e+00,-1.749489451222895564e+00,9.614365974470340248e-01,1.494581616021702364e-01,2.308677695595259260e-01,9.121560967976374457e+01
-8.559912324138704065e+00,-4.656701689544282985e+00,-1.638608597917343035e+00,9.847850650348168866e-01,1.136525451531502084e-01,1.314514156104658882e-01,9.308578052811691350e+01
-8.780339024957225291e+00,-4.147981226872245131e+00,-1.549671206749485552e+00,9.966008841470649360e-01,7.651596329547478981e-02,3.049565673460798501e-02,9.495595137647008244e+01
-8.938691892432409247e+00,-3.618968089599504445e+00,-1.483691790752240669e+00,9.967456818477095082e-01,3.848331677754057017e-02,-7.081722988926540674e-02,9.682612222482325137e+01
-9.027141161164037086e+00,-3.182831385151949188e+00,-1.446288235491126839e+00,9.852177632738948754e-01,0.000000000000000000e+00,-1.713007849692113893e-01,9.833373973987664840e+01
-9.086505718558948175e+00,-2.742370159116793715e+00,-1.421772531991019273e+00,9.824151603592072846e-01,-4.807336612627146483e-02,-1.804089913699240266e-01,9.984135725493004543e+01
-9.118504545393586014e+00,-2.300292458493653491e+00,-1.410271484574798118e+00,9.772529266098169964e-01,-9.603126599209992065e-02,-1.890838792333679463e-01,1.013489747699834425e+02
-9.124924861663460618e+00,-1.859052584322195223e+00,-1.411396544914401696e+00,9.697434610350231798e-01,-1.437585113750819710e-01,-1.973046126892906149e-01,1.028565922850368395e+02
-9.103289686650857249e+00,-1.376906244501743481e+00,-1.427191250199985273e+00,9.599048003269449181e-01,-1.911404680514665055e-01,-2.050514466756674370e-01,1.045178692362587043e+02
-9.052787919596822164e+00,-9.023880969062372248e-01,-1.458062467092139824e+00,9.477605755402068732e-01,-2.380633311234310878e-01,-2.123057743621893922e-01,1.061791461874805691e+02
-8.976174210351254956e+00,-4.388833302220642163e-01,-1.503057142279525360e+00,9.333399553360663958e-01,-2.844143983547003929e-01,-2.190501718401584863e-01,1.078404231387024339e+02
-8.875958712517890703e+00,1.054756118901532466e-02,-1.560658596728497383e+00,9.166775759272041135e-01,-3.300823408581837759e-01,-2.252684399714756369e-01,1.095017000899242987e+02
-8.754129762149705840e+00,4.434719765043931838e-01,-1.628223019672081051e+00,8.978134578913568031e-01,-3.749574704856594720e-01,-2.309456432962248285e-01,1.111629770411461635e+02
-8.612421976339495799e+00,8.577759561755418094e-01,-1.702543006458822283e+00,8.767929100534757048e-01,-4.189320032774390690e-01,-2.360681459054177755e-01,1.128242539923680283e+02
-8.468837818996835409e+00,1.216332436834301367e+00,-1.773029701163070682e+00,8.536664206671386035e-01,-4.619003183393936007e-01,-2.406236441927427638e-01,1.143302178281148826e+02
-8.312831677370883909e+00,1.557994147783497985e+00,-1.843992999317893622e+00,8.284895361564248439e-01,-5.037592115256814829e-01,-2.446011964066516220e-01,1.158361816638617370e+02
-8.145609738741415029e+00,1.881356311876864806e+00,-1.913266897197493766e+00,8.013227277093216694e-01,-5.444081433179731588e-01,-2.479912489317944724e-01,1.173421454996085913e+02
-7.968503944605263456e+00,2.185359297818153301e+00,-1.978592993626406837e+00,7.722312460429047176e-01,-5.837494803058809190e-01,-2.507856592366625725e-01,1.188481093353554456e+02
-7.783185306872653975e+00,2.469627535827677356e+00,-2.037495918944199680e+00,7.412849646889236865e-01,-6.216887296886389747e-01,-2.529777154322966903e-01,1.203540731711023000e+02
-7.591645839278539754e+00,2.734140621970322371e+00,-2.087341599357436461e+00,7.085582121760068963e-01,-6.581347662348175920e-01,-2.545621523950543086e-01,1.218600370068491543e+02
-7.343796780642686706e+00,3.036016079635329046e+00,-2.130223077102662455e+00,6.741295935113519322e-01,-6.930000511549372355e-01,-2.555351644146741652e-01,1.237621414765324772e+02
-7.093005451654295079e+00,3.299003500240029307e+00,-2.143189598894509995e+00,6.380818013904889785e-01,-7.262008423612446029e-01,-2.558944143372179902e-01,1.256642459462158001e+02
-6.843678753817476590e+00,3.524854344493328018e+00,-2.120978241909739825e+00,6.005014175883695016e-01,-7.576573956095676854e-01,-2.556390391808833207e-01,1.275663504158991230e+02
-6.598543464501236855e+00,3.716816624818995329e+00,-2.058226324555463727e+00,5.614787050086427200e-01,-7.872941560400444905e-01,-2.547696522111490003e-01,1.294794431795102696e+02
-6.362314850651341835e+00,3.875841145083436690e+00,-1.950610371450713032e+00,5.211073908904252372e-01,-8.150399396565518595e-01,-2.532883414702205016e-01,1.313925359431214019e+02
-6.178309782002788353e+00,3.983399359305699328e+00,-1.832453647204356662e+00,4.794844416931315356e-01,-8.408281043088059459e-01,-2.511986647642515114e-01,1.329355150966478618e+02
-5.998749593906907762e+00,4.075299465571586843e+00,-1.689255172458532517e+00,4.367098301999458032e-01,-8.645967097662968781e-01,-2.485056411203312998e-01,1.344784942501743217e+02
-5.794371604169421985e+00,4.161211454014440925e+00,-1.488928052098288379e+00,3.928862953992287022e-01,-8.862886664994057417e-01,-2.452157387337058347e-01,1.362741049894825949e+02
-5.593446195538737342e+00,4.222866834593089536e+00,-1.251424321958221508e+00,3.481190957205244629e-01,-9.058518728101643269e-01,-2.413368594341319395e-01,1.380697157287908681e+02
-5.394382113086357400e+00,4.259762132903158971e+00,-9.794932823518539555e-01,3.025157562178290016e-01,-9.232393399830883807e-01,-2.368783197086289372e-01,1.398653264680991413e+02
-5.224826203739945107e+00,4.272419307980490188e+00,-7.234128331564187997e-01,2.561858103073418325e-01,-9.384093051552879761e-01,-2.318508283261673519e-01,1.414041005170149106e+02
-5.056210394381883688e+00,4.268399710675630843e+00,-4.505261235623009841e-01,2.408126963121948461e-01,-9.252496651945995021e-01,-2.931216511144809078e-01,1.429428745659306799e+02
-4.888599692875238212e+00,4.247197851669715085e+00,-1.632429080538904120e-01,2.244369296859178853e-01,-9.082376300611751940e-01,-3.531720146530732962e-01,1.444816486148464492e+02
-4.722063332968505556e+00,4.208308503195197225e+00,1.360269643652598504e-01,2.071266932942092964e-01,-8.874440330348285499e-01,-4.117518927170945586e-01,1.460204226637622185e+02
-4.556689682617412807e+00,4.151270383642041928e+00,4.448280659281294014e-01,1.889540606552957414e-01,-8.629554521340160322e-01,-4.686173818739488572e-01,1.475591967126779878e+02
-4.392600669698556004e+00,4.075709969355430395e+00,7.606139061590569961e-01,1.699946958516306283e-01,-8.348738495963621276e-01,-5.235317169407293081e-01,1.490979707615937571e+02
-4.212252623816772790e+00,3.968518780088991171e+00,1.116238076877577479e+00,1.503275384970668982e-01,-8.033161473180969736e-01,-5.762662567146817905e-01,1.508056497649079972e+02
-4.035001030624226104e+00,3.834916074361587324e+00,1.474189499423609995e+00,1.300344750709278852e-01,-7.684137400208467250e-01,-6.266014358751472724e-01,1.525133287682222374e+02
-3.864010780767532349e+00,3.673731241856799556e+00,1.831300439404741187e+00,1.091999979870566240e-01,-7.303119481732659457e-01,-6.743276790964708445e-01,1.542210077715364775e+02
-3.703438712296063251e+00,3.483590714887581541e+00,2.184657751614321963e+00,8.791085381681273958e-02,-6.891694129452955453e-01,-7.192462735687237263e-01,1.559286867748507177e+02
-3.559714215433598561e+00,3.267533505695365381e+00,2.525435347576940437e+00,6.625568212999582984e-02,-6.451574357136514726e-01,-7.611701962961602286e-01,1.576064998735415656e+02
-3.433443984466424848e+00,3.021777359148523967e+00,2.857277609178258793e+00,4.432464645660705305e-02,-5.984592648675032267e-01,-7.999248927314261959e-01,1.592843129722324136e+02
-3.327652584716924711e+00,2.745945570463963925e+00,3.177777324153488347e+00,2.220905890507090044e-02,-5.492693328822478849e-01,-8.353490035058631635e-01,1.609621260709232615e+02
-3.244375689308694355e+00,2.440520572740638272e+00,3.484910080012868505e+00,9.999988887668967986e-07,-4.977924468359398724e-01,-8.672950362319745699e-01,1.626399391696141095e+02
-3.182940673621931005e+00,2.094210725416882024e+00,3.787076125156215500e+00,0.000000000000000000e+00,9.988447030629378220e-01,4.803393763095126917e-02,1.643777764761805429e+02
-3.147085116364903623e+00,1.719350963423771361e+00,4.071400687520716488e+00,-0.000000000000000000e+00,9.988447023578338468e-01,4.803393759704317062e-02,1.661156137827469763e+02
-3.136693848847568411e+00,1.318460142416739922e+00,4.336521962174520795e+00,4.894745649099780382e-01,3.309397058303449601e-02,-8.713882254299828434e-01,1.678534510893134097e+02
-3.151521637514547169e+00,8.943375976989936804e-01,4.581186100466916322e+00,0.000000000000000000e+00,9.978126036217043193e-01,-6.609090750977844597e-02,1.695912883958798432e+02
-3.191082016738468585e+00,4.503436991650902610e-01,4.804355016060446459e+00,-0.000000000000000000e+00,9.968731426564392262e-01,-7.900593205231017102e-02,1.713291257024462766e+02
-3.251462002894716097e+00,8.404692492321202968e-03,4.998180896538525708e+00,-0.000000000000000000e+00,9.968731420280737554e-01,-7.900593200250984049e-02,1.729997892893018445e+02
-3.332766767385262785e+00,-4.448460645157374382e-01,5.171287661487606435e+00,1.882960363597710463e-01,9.024538070779593024e-01,-3.874528729825248985e-01,1.746704528761574124e+02
-3.434407582006391735e+00,-9.063093065665985826e-01,5.322881170205832291e+00,3.503228603640040073e-01,6.821329465671234216e-01,-6.418461939706995301e-01,1.763411164630129804e+02
-3.555768695105252952e+00,-1.372890079337808933e+00,5.452167448415941031e+00,4.634760755981825464e-01,3.666475369304529885e-01,-8.066954264227983451e-01,1.780117800498685483e+02
-3.696207344180800991e+00,-1.841497891814104504e+00,5.558352694407963313e+00,5.119696326536163911e-01,1.099999210733007517e-05,-8.590023836520779277e-01,1.796824436367241162e+02
-3.862207074109504923e+00,-2.327830249863600098e+00,5.642920843919057461e+00,4.531930647540909352e-01,8.860055499714526210e-06,-8.914112664629185723e-01,1.814207000302306767e+02
-4.048123694967816100e+00,-2.809510149174114790e+00,5.699673747492639997e+00,3.923748667014474445e-01,6.680204720996110936e-06,-9.198043074118226192e-01,1.831589564237372372e+02
-4.253359149418439955e+00,-3.283306340687472957e+00,5.727764165347335457e+00,3.297890180242481484e-01,4.470259746196045444e-06,-9.440536020627352531e-01,1.848972128172437976e+02
-4.469921838629776545e+00,-3.732168824662017048e+00,5.727303821503984871e+00,2.657174601260933189e-01,2.240176094637206427e-06,-9.640499112473528420e-01,1.865816617169487870e+02
-4.703360663024094279e+00,-4.168632561829460847e+00,5.699386247067956823e+00,2.004488266896339022e-01,0.000000000000000000e+00,-9.797031529373612102e-01,1.882661106166537763e+02
-4.953863632606004153e+00,-4.591036104298235720e+00,5.643571228446500498e+00,0.000000000000000000e+00,8.052988517071386215e-03,-9.999665741262685481e-01,1.899505595163587657e+02
-5.247147700469659171e+00,-5.032947459705019888e+00,5.549243916006358468e+00,-8.452989841288123529e-02,4.501064590669198728e-01,-8.889639316527502277e-01,1.917852667561002704e+02
-5.562132142906932586e+00,-5.453963779834530179e+00,5.418425628795899840e+00,2.084966276596523713e-02,1.285839353626575324e-02,-9.996989313184814208e-01,1.936199739958417751e+02
-5.898104415084942431e+00,-5.852941996544267056e+00,5.251119280457206884e+00,1.217558766213923671e-01,-4.271485671585065758e-01,-8.959450921139819890e-01,1.954546812355832799e+02
-6.252941276526735592e+00,-6.228867743286146563e+00,5.047554110647925363e+00,3.698982379086732664e-01,-2.721274050884779361e-01,-8.883242476668695708e-01,1.972893884753247846e+02
-6.656799266003052828e+00,-6.611189764170145367e+00,4.782515784560597005e+00,5.863533815208138433e-01,-9.379468871456028700e-02,-8.046056601524752550e-01,1.992943888671479442e+02
-7.069613701101996384e+00,-6.961798581972138855e+00,4.472342987341755283e+00,7.525789214884025524e-01,9.257286733496225550e-02,-6.519610656826143602e-01,2.012993892589711038e+02
-7.481195033071754708e+00,-7.280083025048583067e+00,4.119024613918362832e+00,7.782596069044326326e-01,7.482753227946332963e-02,-6.234667791230743550e-01,2.033043896507942634e+02
-7.848047592122174620e+00,-7.544561614729131449e+00,3.760987784338615025e+00,8.025500643387982747e-01,5.694853520637224720e-02,-5.938587867195275205e-01,2.051442253461085556e+02
-8.194760476806552063e+00,-7.783743693191436108e+00,3.375107576213646876e+00,8.254069065913730574e-01,3.896781187434677357e-02,-5.631899752174216456e-01,2.069840610414228479e+02
-8.511453581566659210e+00,-7.997683130778946214e+00,2.964710887755572788e+00,8.467893067807775731e-01,2.091747967948213993e-02,-5.315151258073066431e-01,2.088238967367371401e+02
-8.753624734751261016e+00,-8.162165898045582679e+00,2.597776495064803015e+00,8.666590712097337335e-01,2.829780328487247441e-03,-4.988908163409978003e-01,2.103996389417758337e+02
-8.964873197574666719e+00,-8.310780689679964084e+00,2.220583019754196474e+00,8.849807075402095213e-01,-1.526297770936156650e-02,-4.653753203480212597e-01,2.119753811468145273e+02
-9.139519750274317289e+00,-8.443639184857524072e+00,1.835631571140734497e+00,9.312758388397874842e-01,-1.690395983359965215e-01,-3.227211275827721049e-01,2.135511233518532208e+02
-9.272155444668335633e+00,-8.561046153121189661e+00,1.445563467143115233e+00,9.346011554481568062e-01,-3.150166210017840140e-01,-1.651762959018167054e-01,2.151268655568919144e+02
-9.357914046058263935e+00,-8.663652890880737090e+00,1.053300371314935813e+00,8.948031780336588303e-01,-4.464585898830685240e-01,-9.999990814006853238e-06,2.167026077619306079e+02
-9.380951273856881656e+00,-8.770095009765034533e+00,5.637086270279461075e-01,9.978964962912724168e-01,-6.481190233634093190e-02,1.999996986247637058e-06,2.186786926985779189e+02
-9.290959766874667736e+00,-8.851255781642104026e+00,8.340017315126457831e-02,9.933392714561178893e-01,-6.042444138769845902e-02,9.810187902384999437e-02,2.206547776352252299e+02
-9.115105479849873404e+00,-8.904888765968388853e+00,-3.279025898542312634e-01,9.791827890410721436e-01,-5.545306119497908637e-02,1.952537417101106176e-01,2.223994826581620430e+02
-8.852111577633248629e+00,-8.944855747784306033e+00,-7.228196755486880898e-01,9.555638500672625213e-01,-4.994580306214819326e-02,2.905187518955877901e-01,2.241441876810988560e+02
-8.507005526764322312e+00,-8.972519298715790015e+00,-1.096697660770371341e+00,9.227106961060131951e-01,-4.395588677949122808e-02,3.829763064612957124e-01,2.258888927040356691e+02
-8.088123759855646355e+00,-8.987721162831391553e+00,-1.445144433351348567e+00,8.809408039272349500e-01,-3.754119635912452763e-02,4.717329313855221917e-01,2.276335977269724822e+02
-7.603794082903260865e+00,-8.989513613236853828e+00,-1.763898404639958173e+00,8.306578178904269194e-01,-3.076372069817746857e-02,5.559309157330424300e-01,2.293783027499092952e+02
-7.142892314014022581e+00,-8.980807036390478615e+00,-2.013551584342843981e+00,7.723476496919521317e-01,-2.368895457208571032e-02,6.347566001609528108e-01,2.308820833231763459e+02
-6.650410028246776406e+00,-8.964026646149941158e+00,-2.239467260828864603e+00,7.065737831228152688e-01,-1.638526574383861178e-02,7.074482398530188565e-01,2.323858638964433965e+02
-6.131345163668697751e+00,-8.940080780795485182e+00,-2.439649879449859782e+00,6.339718291725837673e-01,-8.923234302856779959e-03,7.733033658960031254e-01,2.338896444697104471e+02
-5.590701961131447462e+00,-8.909846234774661866e+00,-2.612104046895597165e+00,5.552433840616364247e-01,-1.374970616129721993e-03,8.316855739474879883e-01,2.353934250429774977e+02
-4.868406291092526317e+00,-8.861456590225538221e+00,-2.782520893924065319e+00,4.711492495253893353e-01,6.186581518328224116e-03,8.820306745694282968e-01,2.373288210211753722e+02
-4.124469728950597158e+00,-8.803558945897028920e+00,-2.884586052438310677e+00,3.825020808449350329e-01,1.368834978181425119e-02,9.238521457625303857e-01,2.392642169993732466e+02
-3.372334903695537900e+00,-8.740694312094001717e+00,-2.914279252660493924e+00,2.901585336583201724e-01,2.105783949640275404e-02,9.567458349746670310e-01,2.411996129775711211e+02
-2.776081837502772043e+00,-8.690579237953759417e+00,-2.888955386203865050e+00,1.950109854411302412e-01,2.822383421199555278e-02,9.803938651072570121e-01,2.427390917806250172e+02
-2.187774274445514422e+00,-8.643110404011990155e+00,-2.824011713649833499e+00,9.797891166626070125e-02,3.511708394661659793e-02,9.945677067369647073e-01,2.442785705836789134e+02
-1.612803112777940528e+00,-8.600313107629832032e+00,-2.718033477856057090e+00,0.000000000000000000e+00,4.167097442644275562e-02,9.991303868317578107e-01,2.458180493867328096e+02
-1.056481853057708697e+00,-8.564275464978390318e+00,-2.569800101699614370e+00,-1.051462100381836962e-01,5.563087299962996696e-02,9.928985247666393121e-01,2.473575281897867058e+02
-5.239530423222460431e-01,-8.537246692544592008e+00,-2.378479106479445271e+00,-2.091053461330929231e-01,6.896272515365600708e-02,9.754573782375535185e-01,2.488970069928406019e+02
-1.993535155892337332e-02,-8.521546607088970049e+00,-2.144114805276926550e+00,-3.107037703155847153e-01,8.151602245122180346e-02,9.470038570121021015e-01,2.504364857958944981e+02
4.527287068067129550e-01,-8.519490059956687844e+00,-1.869294558860720379e+00,-4.087944981674309641e-01,9.314904615486400974e-02,9.078591925343183489e-01,2.519759645989483943e+02
8.939219802528322045e-01,-8.533408430581777893e+00,-1.559643728723676848e+00,-5.022701468697914340e-01,1.037304670220870056e-01,8.584653107583986031e-01,2.535154434020022904e+02
1.304705135728431165e+00,-8.565647756227832588e+00,-1.221965473543276337e+00,-5.900754360124974562e-01,1.131408277991245159e-01,7.993798426908295118e-01,2.550549222050561866e+02
1.681059160127906127e+00,-8.617499222751963117e+00,-8.684257662509810016e-01,-6.712191001329844697e-01,1.212738916912422665e-01,7.312698290040269278e-01,2.565723690986664565e+02
2.030246743507368556e+00,-8.691397116118192656e+00,-5.009824855571554103e-01,-7.447850786012036872e-01,1.280378416000581832e-01,6.549041897958894909e-01,2.580898159922767263e+02
2.353211129471562302e+00,-8.789575235322994118e+00,-1.260580328269938211e-01,-8.464142446110302087e-01,-1.681642758548103078e-01,5.052738889419337021e-01,2.596072628858869962e+02
2.650976721932599922e+00,-8.914067249352829236e+00,2.501373327192969453e-01,-8.460897018391938529e-01,-4.441105088667024470e-01,2.947813975747316517e-01,2.611247097794972660e+02
2.924751699094377155e+00,-9.066501162650279610e+00,6.218177235626523025e-01,-7.438504186146802644e-01,-6.665620308719550913e-01,4.878128459406382011e-02,2.626421566731075359e+02
3.175830988677925237e+00,-9.248306798047693178e+00,9.834094709170170256e-01,-5.520114651413634554e-01,-8.087236025127166883e-01,-2.030947490493395791e-01,2.641596035667178057e+02
3.405496990577624672e+00,-9.460922443047772745e+00,1.329338970406301224e+00,-2.936806487533412113e-01,-8.534712847957598436e-01,-4.305071922480542823e-01,2.656770504603280756e+02
3.640394068535637739e+00,-9.741943684254399827e+00,1.695259432042063974e+00,2.499997267778862348e-05,-7.954151306990366876e-01,-6.060633376396513672e-01,2.674004949065883352e+02
3.848069666586609205e+00,-1.006238580316769138e+01,2.026317950613552465e+00,-2.803710027424674012e-01,-5.836002932636100704e-01,-7.621028792264286089e-01,2.691239393528485948e+02
4.031139135583977406e+00,-1.041476166106646595e+01,2.319416135668113998e+00,-5.193179911140078930e-01,-2.855083807590643175e-01,-8.054761254210165422e-01,2.708473837991088544e+02
4.193100620859886440e+00,-1.079199814304530669e+01,2.572761220587624909e+00,-6.814910863541825403e-01,5.479192654281835745e-02,-7.297710216273478601e-01,2.725708282453691140e+02
4.337923809207370418e+00,-1.118724564857647152e+01,2.785213421740286854e+00,-5.637833419045163996e-01,4.975006751706153446e-02,-8.244217817197356801e-01,2.742942726916293736e+02
4.501110940941759786e+00,-1.170783809443405943e+01,2.986301376461089951e+00,-4.331991660778467534e-01,4.357195005990019410e-02,-9.002432824955516333e-01,2.764897229564932672e+02
4.618785410745352316e+00,-1.213572317983854987e+01,3.091488313206732563e+00,-2.927209972792390036e-01,3.639867746020840344e-02,-9.555038220916700631e-01,2.782646988824751020e+02
4.728174618173695443e+00,-1.256190840707628276e+01,3.151912233048448364e+00,-1.455572423738064058e-01,2.839408122165609782e-02,-9.889412850845279435e-01,2.800396748084569367e+02
4.829779113119017531e+00,-1.298105608415790080e+01,3.168544533754186876e+00,4.930994909502411060e-03,1.974097962045976914e-02,-9.997919678678045541e-01,2.818146507344387715e+02
4.919600016744119841e+00,-1.338950610722011447e+01,3.143267466120730269e+00,-9.089331001752296579e-01,0.000000000000000000e+00,-4.169395872385236457e-01,2.835896266604206062e+02
4.991396661331645390e+00,-1.378440273370496882e+01,3.078418882270419932e+00,-0.000000000000000000e+00,2.648456641228463249e-01,-9.642897770881325714e-01,2.853646025864024409e+02
5.037897423328778324e+00,-1.414512742450171601e+01,2.982961820552529897e+00,-3.763582426798396940e-01,4.460040530459311592e-01,-8.120547135722799847e-01,2.870524924873593022e+02
5.058426118917513037e+00,-1.448930338122379879e+01,2.857398987511631905e+00,-6.783331045801358483e-01,5.390142884851149008e-01,-4.993253408757056255e-01,2.887403823883161635e+02
5.047943753049238147e+00,-1.481448438817706226e+01,2.703642896151678965e+00,-3.730448983751468717e-01,4.840052070290817299e-01,-7.915645667701377564e-01,2.904282722892730249e+02
5.001416343054657432e+00,-1.511827764879758362e+01,2.523478262976273090e+00,-0.000000000000000000e+00,3.410856895399453914e-01,-9.400311443730142713e-01,2.921161621902298862e+02
4.914768668926916995e+00,-1.539819828571000215e+01,2.318580478198319916e+00,-2.527522775787650194e-03,6.081616110092920024e-01,-7.938079531751853768e-01,2.938040520911867475e+02
4.785872431128759708e+00,-1.565135458498316368e+01,2.090790115175191310e+00,-4.820699801177337485e-03,8.188503574246833727e-01,-5.739850633945959846e-01,2.954919419921436088e+02
4.613595333109390850e+00,-1.587460722735827190e+01,1.842094431565109103e+00,-6.666914330055717479e-03,9.536174989954808723e-01,-3.009438782633888088e-01,2.971798318931004701e+02
4.367064188026398952e+00,-1.608127685954804420e+01,1.542673236919083424e+00,-7.894990794487707561e-03,9.999678340434552393e-01,-0.000000000000000000e+00,2.990541810862090415e+02
4.058082687995562488e+00,-1.623799315667617194e+01,1.220369768385423104e+00,-9.132730123892169871e-01,4.073455594976950200e-01,-0.000000000000000000e+00,3.009285302793176129e+02
3.686432007592512772e+00,-1.633999253298458498e+01,8.788146890095001051e-01,-8.589215515003821855e-01,4.982611289662505216e-01,1.182692509935774489e-01,3.028028794724261843e+02
3.326429558990354529e+00,-1.638349132172695732e+01,5.776775614574561901e-01,-7.829189159072020843e-01,5.766168414474754922e-01,2.335572505294144230e-01,3.043951603683539702e+02
2.931632616388451407e+00,-1.638799771181389886e+01,2.705506227083239734e-01,-6.871809236832139289e-01,6.404375543583037400e-01,3.429578940545351950e-01,3.059874412642817560e+02
2.504138271174946695e+00,-1.635113171380159969e+01,-3.972460832465051633e-02,-5.741208681831299065e-01,6.881145097016203582e-01,4.437134776580987094e-01,3.075797221602095419e+02
2.046062692813236605e+00,-1.627052693160178620e+01,-3.503065905980808359e-01,-4.465886883696270071e-01,7.184458872531264140e-01,5.332842117575351537e-01,3.091720030561373278e+02
1.559990994388626984e+00,-1.614408964712294647e+01,-6.583109506383431064e-01,-3.077991321905365618e-01,7.306671009476153333e-01,6.094122429159498644e-01,3.107642839520651137e+02
1.049424139271169842e+00,-1.597026189563936605e+01,-9.607676725425999820e-01,-1.612507231562050614e-01,7.244700744143536264e-01,6.701785699048948830e-01,3.123565648479928996e+02
4.848450187652109111e-01,-1.573101084302931696e+01,-1.271808933537486919e+00,-1.063757229649257147e-02,7.000110092635491998e-01,7.140514189926605582e-01,3.140456542926685870e+02
-9.926500254903529441e-02,-1.543222061881472662e+01,-1.568816816283275628e+00,1.402437416678932736e-01,6.579064497531478262e-01,7.399248585471904782e-01,3.157347437373442745e+02
-6.978620728870746914e-01,-1.507234503950294346e+01,-1.847976511746774131e+00,2.875898764464029367e-01,5.992177425656688428e-01,7.471466790128329372e-01,3.174238331820199619e+02
-1.305889082115265554e+00,-1.464987287977508501e+01,-2.105473352070279969e+00,1.945416212149591872e-01,5.508379670615830559e-01,8.116212735357506425e-01,3.191129226266956493e+02
-1.918151741779152042e+00,-1.416402258620380650e+01,-2.337739338125097266e+00,9.854504700687125029e-02,4.941099659938912314e-01,8.637952391705732147e-01,3.208020120713713368e+02
-2.529316200230872003e+00,-1.361552646163502622e+01,-2.542031856623358177e+00,1.054998706092888068e-03,4.298934727555412949e-01,9.028778926620291134e-01,3.224911015160470242e+02
-3.098748048418050516e+00,-1.304536583250453141e+01,-2.707838187228741145e+00,-2.094397647221116210e-02,9.665299142314137670e-01,2.556937127619156591e-01,3.240799573945994325e+02
-3.658810343272383303e+00,-1.242568211158464209e+01,-2.847662673809740141e+00,4.606624106659285012e-01,7.464020451138489998e-01,4.802833855644469407e-01,3.256688132731518408e+02
-4.205516874901348956e+00,-1.175817923198994919e+01,-2.961095541332187775e+00,5.419998690073466463e-01,6.161020976129496507e-01,5.715350796879260509e-01,3.272576691517042491e+02
-4.734878818270332523e+00,-1.104518050394482209e+01,-3.049254752098858212e+00,6.060362426637543320e-01,4.661357356541689367e-01,6.445428989022585764e-01,3.288465250302566574e+02
-5.242918713891692839e+00,-1.028933193287661929e+01,-3.114022221609285879e+00,6.507274668824005737e-01,3.012899831490998825e-01,6.969764055547562620e-01,3.304353809088090657e+02
-5.725681061865558696e+00,-9.493305438374871841e+00,-3.157280029070892891e+00,6.746469744000578306e-01,1.268268071975847122e-01,7.271618945667507328e-01,3.320242367873614739e+02
-6.179232390408175846e+00,-8.659798736336419722e+00,-3.180910404222810239e+00,6.186973559245070309e-01,1.163087140349637061e-01,7.769709549350873878e-01,3.336130926659138822e+02
-6.599661324127160000e+00,-7.791535220816077079e+00,-3.186795714159531112e+00,5.592075881606153320e-01,1.051251093629229361e-01,8.223342293290636373e-01,3.352019485444662905e+02
-6.983078652043217538e+00,-6.891263845583748271e+00,-3.176818450153855888e+00,4.965180660803309443e-01,9.333998473734979318e-02,8.629921536759548317e-01,3.367908044230186988e+02
-7.325617395357919115e+00,-5.961759005389161814e+00,-3.152861214479182994e+00,4.309874929720216574e-01,8.102077348389054301e-02,8.987120869148741420e-01,3.383796603015711071e+02
-7.612269666605763874e+00,-5.048650940843871560e+00,-3.118823926998882889e+00,3.629908281509633405e-01,6.823796488407166128e-02,9.292896420534266788e-01,3.398989494162532310e+02
-7.857434764396921345e+00,-4.115149061328897240e+00,-3.075550722215020016e+00,2.929171416719922871e-01,5.506470087884173664e-02,9.545498556035350024e-01,3.414182385309353549e+02
-8.061207465689575358e+00,-3.164795339341898828e+00,-3.023859469461857685e+00,2.211673883085369108e-01,4.157635759510554252e-02,9.743481887080390758e-01,3.429375276456174788e+02
-8.225500070792934437e+00,-2.201443151588062808e+00,-2.964219197756868596e+00,1.481521135237690023e-01,2.785011408758456680e-02,9.885713542300768042e-01,3.444568167602996027e+02
-8.352674581802462583e+00,-1.228888065017907261e+00,-2.897040903214465946e+00,7.428910454896031634e-02,1.396451076152913084e-02,9.971379650704446096e-01,3.459761058749817266e+02
-8.445122717684805380e+00,-2.509104523824660093e-01,-2.822738017023712853e+00,9.999989999985432422e-07,-9.999989999985432422e-07,9.999989999985432476e-01,3.474953949896638505e+02
-8.505265874872275589e+00,7.287246598986364399e-01,-2.741728789660351051e+00,4.007305300104290202e-01,-5.132176219660787853e-01,7.589602854049946057e-01,3.490146841043459744e+02
-8.535555087543627906e+00,1.706267743706883389e+00,-2.654433901352926117e+00,6.082774653435700785e-01,-7.790243152625521139e-01,1.520448663574272274e-01,3.505339732190280984e+02
-8.538470987593079542e+00,2.677984921030192478e+00,-2.561274072533466839e+00,8.086152182767397667e-01,-5.701875086871813769e-01,1.450021851876020784e-01,3.520532623337102223e+02
-8.513099641308057741e+00,3.711462808538177782e+00,-2.454827420099084723e+00,9.411927937870143701e-01,-3.135702639555560389e-01,1.258086423386865771e-01,3.536867832669289555e+02
-8.460515098035495285e+00,4.728136111755740778e+00,-2.342176968333183229e+00,9.949004988875450595e-01,-3.067653653300366975e-02,9.607261535181164935e-02,3.553203042001476888e+02
-8.384155249987500724e+00,5.723082405284682039e+00,-2.223885084232594345e+00,9.652377531612574835e-01,2.547878172082398418e-01,5.828591661224116760e-02,3.569538251333664221e+02
-8.287514708753979775e+00,6.691468942459207980e+00,-2.100637431826687607e+00,8.546902225259083163e-01,5.189015279781100665e-01,1.561498579573443457e-02,3.585873460665851553e+02
-8.174158398701251826e+00,7.628619307386010462e+00,-1.973366222428136529e+00,9.025323494255671486e-01,4.304917364537743096e-01,1.049871811541440957e-02,3.602208669998038886e+02
-8.047705889438804050e+00,8.529947549314604416e+00,-1.843126952414477104e+00,9.412305863045108412e-01,3.377205150959005087e-01,5.276086150934267832e-03,3.618543879330226218e+02
-7.911816505084245499e+00,9.390892180332178540e+00,-1.710975140097509506e+00,9.703928888871868885e-01,2.415277234475320944e-01,0.000000000000000000e+00,3.634879088662413551e+02
-7.722974371259934578e+00,1.045193565632454202e+01,-1.534005357591992524e+00,9.969795307158221265e-01,-7.765188556165565636e-02,0.000000000000000000e+00,3.656618007839354050e+02
-7.533631032964380303e+00,1.139493610442673166e+01,-1.358818786111263055e+00,9.706551006259609427e-01,-0.000000000000000000e+00,-2.404717771875165555e-01,3.678356927016294549e+02
-7.403524504278259144e+00,1.199482613261214503e+01,-1.237873840779862622e+00,9.955207353996179398e-01,9.453287991579502336e-02,0.000000000000000000e+00,3.693721637586841666e+02
-7.278203198532283480e+00,1.254822396026064979e+01,-1.120733713974413348e+00,9.546769266703760692e-01,0.000000000000000000e+00,-2.976406653668539071e-01,3.709086348157388784e+02
-7.158909465683496620e+00,1.305448797285262863e+01,-1.009239133064756544e+00,9.988611377177328832e-01,-0.000000000000000000e+00,4.769095883004498271e-02,3.724451058727935902e+02
-7.042588893879017320e+00,1.352880452897619179e+01,-9.018566696255417847e-01,9.983100963216351431e-01,-2.758923851493134266e-02,5.112519437251322046e-02,3.740395342029160020e+02
-6.934908156882859664e+00,1.395024716583673197e+01,-8.055246715367975208e-01,9.969870965401125273e-01,-5.515714128533760058e-02,5.451989634056388784e-02,3.756339625330384138e+02
-6.827350632401210540e+00,1.435243937977192452e+01,-7.162559980944619431e-01,9.948931615483178614e-01,-8.268239122989771983e-02,5.787243976365603892e-02,3.773981333598889591e+02
-6.733398032548783441e+00,1.468544454007580313e+01,-6.501411387622275662e-01,9.920299106329890648e-01,-1.101437042599735655e-01,6.118023227110015033e-02,3.791623041867395045e+02
-6.653822614645227063e+00,1.495102924053743543e+01,-6.116134479421986292e-01,9.883995579406286147e-01,-1.375198457356202886e-01,6.444071609638293840e-02,3.809264750135900499e+02
-6.589311092751974464e+00,1.515153429287666320e+01,-6.051608810331656763e-01,9.840049107647934612e-01,-1.647896468833022210e-01,6.765137005468367659e-02,3.826906458404405953e+02
-6.544634911737091443e+00,1.527926795893943890e+01,-6.278720469037802898e-01,9.788493673749220081e-01,-1.919320211626353301e-01,7.080971149210725513e-02,3.842474504765693837e+02
-6.510695833651046982e+00,1.536588216604908830e+01,-6.782705893788212315e-01,9.729369143883831450e-01,-2.189259805695168704e-01,7.391329820512941573e-02,3.858042551126981721e+02
-6.486209955641542457e+00,1.541397284412770397e+01,-7.594188746838129722e-01,9.662721236877785946e-01,-2.457506518630534487e-01,7.695973032877176379e-02,3.873785761281259283e+02
-6.469346661343599258e+00,1.542535225054294301e+01,-8.720665911700904438e-01,9.588601488858827793e-01,-2.723852927037548333e-01,7.994665219204846740e-02,3.889528971435536846e+02
-6.457347782116070078e+00,1.540347875336068917e+01,-1.016853953135975042e+00,9.507067213409524653e-01,-2.988093076905342649e-01,8.287175413925272627e-02,3.905272181589814409e+02
-6.447426077379724951e+00,1.535179210539136463e+01,-1.194420953986117473e+00,9.418181457254837241e-01,-3.250022642841271514e-01,8.573277431567542795e-02,3.921015391744091971e+02
-6.436740255596835603e+00,1.527352658545428987e+01,-1.405192730001626922e+00,9.322012951518388046e-01,-3.509439086046356460e-01,8.852750041637819090e-02,3.936758601898369534e+02
-6.422372107031394606e+00,1.517152392350342360e+01,-1.649164925586442898e+00,9.218636058585059079e-01,-3.766141810909962584e-01,9.125377139666929205e-02,3.952501812052647097e+02
-6.399013997875784732e+00,1.503763504148157359e+01,-1.949548874921071429e+00,9.108130714610934708e-01,-4.019932320102783119e-01,9.390947914296204901e-02,3.969421508560849929e+02
-6.363369784484386393e+00,1.488104445477495297e+01,-2.290582170149074059e+00,8.990582367724985202e-01,-4.270614368048358256e-01,9.649257010272493940e-02,3.986341205069052762e+02
-6.311614372997901512e+00,1.470500566991722202e+01,-2.671342317388466725e+00,8.866081911970128404e-01,-4.517994112654575845e-01,9.900104687226404798e-02,4.003260901577255595e+02
-6.247219046559725264e+00,1.452796938671011340e+01,-3.055445457863214198e+00,8.734725617034707623e-01,-4.761880265187982131e-01,1.014329697411118225e-01,4.018894274981638546e+02
-6.173112804490161309e+00,1.435529167148627039e+01,-3.432120647403988922e+00,8.596615053828554620e-01,-5.002084238175110720e-01,1.037864581918284124e-01,4.033279978224805404e+02
-6.095363533333989281e+00,1.419529270534073184e+01,-3.782178259400510001e+00,8.451857015961086184e-01,-5.238420291216590030e-01,1.060596923540566977e-01,4.046076431591168330e+02
-5.902100662879196769e+00,1.387447238535937188e+01,-4.475211528175441877e+00,8.300563437181998072e-01,-5.470705674601373802e-01,1.082509144117076855e-01,4.070017554401334792e+02
-5.797559239899291228e+00,1.372487688573662723e+01,-4.792484039343077207e+00,7.669240327213734387e-01,-6.083619976893147596e-01,2.042576994898911147e-01,4.080531984137069799e+02
-5.591299656056224698e+00,1.345133579563993464e+01,-5.352296138663985126e+00,6.907849783365456187e-01,-6.593357951168591358e-01,2.968003082571101237e-01,4.099016829047124020e+02
-5.351969816203359542e+00,1.316111639368926589e+01,-5.904090688958949507e+00,6.029304651332196840e-01,-6.991274818158479398e-01,3.843092743916288190e-01,4.117501673957178241e+02
-5.081322673231507103e+00,1.285286602962213642e+01,-6.431667766822789289e+00,5.048504550707269001e-01,-7.270622152181295261e-01,4.653004977604566772e-01,4.135986518867232462e+02
-4.781513788855422220e+00,1.252558393143567983e+01,-6.918818647615423423e+00,4.436676085589408847e-01,-6.619261072840308957e-01,6.041613042990341409e-01,4.154471363777286683e+02
-4.434075590327680061e+00,1.215669176587670819e+01,-7.370858963613603265e+00,3.703866502330014354e-01,-5.787403219276727739e-01,7.265475683705776566e-01,4.174078258605113092e+02
-4.059467732407994411e+00,1.176488699937631388e+01,-7.734743135004626069e+00,2.870058323433269387e-01,-4.797732006331239529e-01,8.291220224768505176e-01,4.193685153432939501e+02
-3.715525786245143181e+00,1.140612519116434953e+01,-7.970212061843750639e+00,1.957988106946531026e-01,-3.677234113814306093e-01,9.090876296889043306e-01,4.210780970384075204e+02
-3.361073594839869116e+00,1.103401476455082708e+01,-8.125199711198765939e+00,9.925264828604696277e-02,-2.456463634500808957e-01,9.642638518230368661e-01,4.227876787335210906e+02
-3.000656580030042875e+00,1.065052623684667843e+01,-8.197395781547944793e+00,0.000000000000000000e+00,-1.168708951520591871e-01,9.931461090226156863e-01,4.244972604286346609e+02
-2.638617600730967183e+00,1.025786770117487023e+01,-8.187869467812335600e+00,-0.000000000000000000e+00,-0.000000000000000000e+00,9.999989999924441264e-01,4.262068421237482312e+02
-2.283025010652651510e+00,9.863404313702332615e+00,-8.100291309259283423e+00,4.301035175183419712e-01,3.026596604823516765e-02,9.022709878501699032e-01,4.278964229234440495e+02
-1.984087725895684828e+00,9.524592948012218230e+00,-7.970401190234342792e+00,-1.161848472911879843e-01,1.341998236130088201e-03,9.932256945430543160e-01,4.293354488072124582e+02
-1.612631810032192359e+00,9.093951733685619487e+00,-7.732542932850316575e+00,-8.722603518090864261e-02,4.682136933138279257e-03,9.961765387554982754e-01,4.311642364071363431e+02
-1.253589367677072630e+00,8.667301404362548922e+00,-7.411533636835163641e+00,-5.819233776242925538e-02,8.018256532587940411e-03,9.982721870182488244e-01,4.329930240070602281e+02
-9.093624907064981056e-01,8.248712559698624602e+00,-7.016180598338299212e+00,-2.910867255269037820e-02,1.134749387540628235e-02,9.995108401366866735e-01,4.348218116069841130e+02
-5.823918566083938764e-01,7.841888573827081821e+00,-6.555296418193060859e+00,-0.000000000000000000e+00,1.466699169430323718e-02,9.998914337765223426e-01,4.366505992069079980e+02
-2.296379395238548060e-01,7.391240922772542632e+00,-5.944043141289347965e+00,-7.217103253061220025e-01,5.166585169996518179e-01,4.606475693617175238e-01,4.387747795449688510e+02
8.939025009692609658e-02,6.971599049734958697e+00,-5.260431994202714456e+00,-5.024135394077114958e-01,7.294793312430333243e-01,4.641535744828904630e-01,4.408989598830297041e+02
3.598475767977292183e-01,6.607298173844800893e+00,-4.563866838814230498e+00,-0.000000000000000000e+00,-9.999989999993710052e-07,9.999989999993709189e-01,4.429084787836207511e+02
6.011873909067912969e-01,6.277897761491287199e+00,-3.835221193886553248e+00,-1.921712000435251214e-02,-4.299103186914547403e-01,9.026659516022706997e-01,4.449179976842117981e+02
7.688794354729895364e-01,6.048669297779716736e+00,-3.265847780882793039e+00,-3.469333578705281057e-02,-7.761310656433338950e-01,6.296149151628781526e-01,4.464545876710864150e+02
9.252074007519517362e-01,5.837051302726619539e+00,-2.693441839027110429e+00,-4.341595511447512296e-02,-9.712658505551232668e-01,2.339993640737204617e-01,4.479911776579610319e+02
1.071397208962457936e+00,5.643596240636948203e+00,-2.122648068068036853e+00,-4.368697578789501601e-02,-9.773284583470518427e-01,-2.071678851838449631e-01,4.495277676448356488e+02
1.210689333754040087e+00,5.466460225650854099e+00,-1.549881592471125780e+00,-1.571261495725260748e-01,-9.643530046557341473e-01,-2.129146672417542852e-01,4.510868644251565343e+02
1.342135013613585226e+00,5.309093530734439348e+00,-9.881432213197058889e-01,-2.685116056345077662e-01,-9.387736212144522918e-01,-2.158786829369707672e-01,4.526459612054774198e+02
1.493965041403093386e+00,5.146234995863808059e+00,-3.212020785316077598e-01,-8.331036627168645348e-01,1.863803856925007052e-01,-5.207673559048091594e-01,4.545652864476153354e+02
1.636231736859350416e+00,5.020383410624671860e+00,3.089321368629177056e-01,-0.000000000000000000e+00,9.988447030609834965e-01,4.803393763085728879e-02,4.564846116897532511e+02
