-4.988960987483697984e+00,5.488973314608773357e+00,5.093009269561530772e+00,5.361949999999999772e-01,3.538499999999999979e-02,-8.433519999999999905e-01,0.000000000000000000e+00
-4.771135979391533333e+00,5.639031070890641040e+00,5.157723029960417094e+00,6.823161597191765848e-01,3.411818660386624347e-02,-7.302592741818877409e-01,7.018510348650269570e+00
-4.551851435940262647e+00,5.784789295042678248e+00,5.221892483057430034e+00,8.051414123530388212e-01,3.168650895174227045e-02,-5.922341355111861994e-01,1.403702069730053914e+01
-4.331157417831351886e+00,5.925537303261127597e+00,5.285321202112736927e+00,9.004767399909766601e-01,2.817296057845476015e-02,-4.339883927335748126e-01,2.105553104595080782e+01
-4.283829077895807913e+00,5.954720801402091368e+00,5.298713122940741371e+00,8.518081218062285576e-01,2.693244602425753920e-02,-5.231592176159148844e-01,2.255518117952281187e+01
-4.061559406088400159e+00,6.086551085718350684e+00,5.360540584752170545e+00,7.943474578742182324e-01,2.541394479495644523e-02,-6.069301834470847146e-01,2.957369152817308233e+01
-3.838035797498924317e+00,6.211262690300418221e+00,5.421273068835068543e+00,7.286878293144315455e-01,2.363313012217410983e-02,-6.844366461330906315e-01,3.659220187682335279e+01
-3.613342505687498374e+00,6.327703554399355390e+00,5.480780618537568927e+00,6.555069408184883706e-01,2.160838263840835979e-02,-7.548786182814934964e-01,4.361071222547361970e+01
-3.486080756520646418e+00,6.388625395096904747e+00,5.513651431197922115e+00,5.755601268160183137e-01,1.936060069237232825e-02,-8.175290255153501162e-01,4.757140132920569187e+01
-3.259878398007627798e+00,6.487201182194072935e+00,5.570539874233271682e+00,4.896725565854673778e-01,1.691298468473861200e-02,-8.717412106097915947e-01,5.458991167785595877e+01
-3.032936688210574605e+00,6.574554141115127592e+00,5.625889637810108646e+00,4.819185392894427267e-01,1.678396616534519672e-02,-8.760541192743348526e-01,6.160842202650622568e+01
-2.805472686860292164e+00,6.649513522719430192e+00,5.679627707690350746e+00,4.741265793927953998e-01,1.665362611414406696e-02,-8.802980423581512337e-01,6.862693237515649969e+01
-2.577741569683505762e+00,6.710903626911386866e+00,5.731700039799982882e+00,4.662972870224132982e-01,1.652197473758049845e-02,-8.844726476241844271e-01,7.564544272380676659e+01
-2.521968358381585507e+00,6.722736837316134917e+00,5.744076788668791345e+00,3.392281251070337622e-01,7.371153956181446532e-01,-5.844511721951167749e-01,7.736520942755934982e+01
-2.294711012854282917e+00,6.757209015583088174e+00,5.792992654225826321e+00,0.000000000000000000e+00,9.967052964985322339e-01,8.109594276029738480e-02,8.438371977620961673e+01
-2.068050992217449036e+00,6.775622480221480615e+00,5.840114932513510659e+00,-0.000000000000000000e+00,9.967052957948920877e-01,8.109594270304640307e-02,9.140223012485988363e+01
-1.842399516996910291e+00,6.777183604106405745e+00,5.885368310552577142e+00,-0.000000000000000000e+00,9.967052957949752434e-01,8.109594270305317543e-02,9.842074047351015054e+01
-1.765955978855552555e+00,6.772207219256942246e+00,5.900164895742112670e+00,-0.000000000000000000e+00,9.967052957950029990e-01,8.109594270305543751e-02,1.008117364049098370e+02
-1.543330445437857357e+00,6.741060209817103299e+00,5.941653888295856056e+00,-0.000000000000000000e+00,9.967052957949752434e-01,8.109594270305318930e-02,1.078302467535601039e+02
-1.323418206049178814e+00,6.691755288138879543e+00,5.980856660553759419e+00,-0.000000000000000000e+00,9.967052957948920877e-01,8.109594270304641694e-02,1.148487571022103708e+02
-1.212906079317621622e+00,6.657607158542777626e+00,5.999622853677935908e+00,-0.000000000000000000e+00,9.967052957947536429e-01,8.109594270303513430e-02,1.184275233763773514e+02
-1.000127417718548406e+00,6.572700155035625436e+00,6.033861486143925035e+00,-0.000000000000000000e+00,9.988447030339986377e-01,4.803393762955960461e-02,1.254460337250276183e+02
-7.925897392548816311e-01,6.468720434453041790e+00,6.065255598473549448e+00,-0.000000000000000000e+00,9.996686752750445493e-01,-2.570096594200478590e-02,1.324645440736778994e+02
-6.651140928856869028e-01,6.391223832030192398e+00,6.083237270281172115e+00,-0.000000000000000000e+00,9.978126695438591653e-01,-6.608991187751790675e-02,1.368998017739878037e+02
-4.700653363250936745e-01,6.249912513710244255e+00,6.108638148260578937e+00,-0.000000000000000000e+00,6.862745753004032556e-01,-7.273411904313366039e-01,1.439183121226380706e+02
-2.830285749513714033e-01,6.089398805979965523e+00,6.130806386070279501e+00,-0.000000000000000000e+00,8.052988517103456048e-03,-9.999665741302505850e-01,1.509368224712883375e+02
-1.215547195171594458e-01,5.926921157309759991e+00,6.147858769954223312e+00,-7.274413948522015505e-02,1.024801758111869299e-02,-9.972969809980580802e-01,1.572944390548497609e+02
4.720897828613696001e-02,5.729132806321912241e+00,6.163169841183140818e+00,-1.451024668532271411e-01,1.238869454439962131e-02,-9.893380586848137259e-01,1.643129494035000278e+02
6.614483596841541635e-02,5.703740850376157745e+00,6.164566517630046150e+00,-2.166912190141228878e-01,1.446366601176832245e-02,-9.761320187194513220e-01,1.651430091368838191e+02
2.172254228939111409e-01,5.472628445002123421e+00,6.172745608122816918e+00,-2.871307144102156483e-01,1.646192706397651279e-02,-9.577489012268490809e-01,1.721615194855340860e+02
3.573156066748675586e-01,5.224875199051123076e+00,6.176903855987839975e+00,-3.560473666366635315e-01,1.837287962172471159e-02,-9.342862034767943635e-01,1.791800298341843529e+02
4.352043610902724402e-01,5.066874689477609550e+00,6.176900778218736399e+00,-4.230756657415967736e-01,2.018638865227169107e-02,-9.058683628276296140e-01,1.833994686236469818e+02
5.538749706406638218e-01,4.790214144834406440e+00,6.172563607904550942e+00,-4.878601167013627005e-01,2.189283592063359304e-02,-8.726460968049665201e-01,1.904179789722972487e+02
6.604249832293019873e-01,4.500793537185565185e+00,6.163642953009577319e+00,-5.500571247931973495e-01,2.348317100037511720e-02,-8.347956038129240586e-01,1.974364893209475156e+02
7.491433900181059258e-01,4.217804283731084070e+00,6.150781866465680814e+00,-6.093368178686270342e-01,2.494895927350468043e-02,-7.925176287138279152e-01,2.040470072003405733e+02
8.306063611486352860e-01,3.908048845527258841e+00,6.132273688088871744e+00,-6.653847958647980398e-01,2.628242666492680221e-02,-7.460363982284948792e-01,2.110655175489908402e+02
8.988407061677436971e-01,3.590756566510657777e+00,6.108800907189390728e+00,-7.179037982759902681e-01,2.747650087419539408e-02,-6.955984317993311183e-01,2.180840278976411071e+02
9.535383283117914166e-01,3.267768752203506377e+00,6.080263637410052269e+00,-7.666152807417655479e-01,2.852484888585958556e-02,-6.414712342188231275e-01,2.251025382462913740e+02
9.747770055127021882e-01,3.103326696345745983e+00,6.063366984285627481e+00,-8.112608923893102064e-01,2.942191055940384520e-02,-5.839418769531560249e-01,2.286335005360879222e+02
1.004343043532040847e+00,2.773996899786308923e+00,6.024658725462677111e+00,-8.516038460930122067e-01,3.016292812055167485e-02,-5.233154756812629094e-01,2.356520108847381891e+02
1.019811484885340125e+00,2.443684211947286133e+00,5.980639093518075988e+00,-8.874301743814458909e-01,3.074397139741926258e-02,-4.599135721205009908e-01,2.426705212333884560e+02
1.021033733558332601e+00,2.114223873541580812e+00,5.931234922654447850e+00,-7.304490770242196840e-01,2.775217671192760360e-02,-6.824016138340062154e-01,2.496890315820387229e+02
1.009006594886062036e+00,1.811336535039140383e+00,5.880456073407078321e+00,-5.193030175173517504e-01,2.270247474744874205e-02,-8.542874069299659645e-01,2.561927709839462750e+02
9.817051013635779144e-01,1.488771088290066880e+00,5.820264903102691179e+00,-2.696491416043934608e-01,1.596931761429262048e-02,-9.628251769291031881e-01,2.632112813325965703e+02
9.397878510934813967e-01,1.172111313191589677e+00,5.754694093582149783e+00,-0.000000000000000000e+00,8.051988583366892493e-03,-9.999665821823429113e-01,2.702297916812468657e+02
9.138446474256745056e-01,1.026812465536322438e+00,5.721494242830146959e+00,-8.828463393920396030e-01,3.196697608005161229e-02,-4.685706493823588170e-01,2.735219638801244173e+02
8.450783779968803477e-01,7.248810320809511154e-01,5.645589228759844147e+00,-6.317551465780841813e-01,-1.218051366276367148e-01,-7.655370294532570785e-01,2.805404742287747126e+02
7.614867134404279536e-01,4.321321004557145962e-01,5.564549616373383856e+00,-2.701816156425378979e-01,-2.542756382702103246e-01,-9.286246789485139708e-01,2.875589845774250080e+02
6.630575920353426467e-01,1.496874537683577366e-01,5.478492001168469017e+00,-3.564110183988956071e-01,-1.831611496803284278e-01,-9.161993119462934487e-01,2.945774949260753033e+02
5.499453493606635268e-01,-1.215657101081079050e-01,5.387486646791556311e+00,-4.381328337210875778e-01,-1.097301746246084897e-01,-8.921865885515872785e-01,3.015960052747255986e+02
4.759228788604516480e-01,-2.734040223482290810e-01,5.331428130169755697e+00,-5.143135252976858141e-01,-3.491138976129445903e-02,-8.568901869896838885e-01,3.056984539786553228e+02
3.360593851268332544e-01,-5.210407736550991542e-01,5.230546137689938924e+00,-5.839896277199080332e-01,4.034897427844752471e-02,-8.107564831612004141e-01,3.127169643273056181e+02
1.824540198218483067e-01,-7.553839254429265404e-01,5.124526930881553533e+00,-4.966558144890791393e-01,3.574597287773851467e-02,-8.672100249400703786e-01,3.197354746759559134e+02
9.082097982941605974e-02,-8.772448473917507927e-01,5.063196800245713725e+00,-4.039405768070932767e-01,3.075565167609045983e-02,-9.142669743015405803e-01,3.236072408917680150e+02
-8.721896358718086995e-02,-1.083921257917960901e+00,4.946738142791943460e+00,-3.068485198461965990e-01,2.543208283976713599e-02,-9.514174662211755118e-01,3.306257512404183103e+02
-1.463513261352122896e-01,-1.144016287077262994e+00,4.908616055739863704e+00,-2.064316683742356551e-01,1.983294910128610353e-02,-9.782589741078254741e-01,3.328217155200702564e+02
-3.455568969686688696e-01,-1.320706128462588058e+00,4.781242382224326626e+00,-1.037780685808506326e-01,1.401891878637301705e-02,-9.945006698831951875e-01,3.398402258687205517e+02
-5.549258693122941510e-01,-1.479900414258466190e+00,4.648000600812930649e+00,-0.000000000000000000e+00,8.052988517097762686e-03,-9.999665741295437060e-01,3.468587362173708470e+02
-7.730609890042088317e-01,-1.620398000706241737e+00,4.508616435328115735e+00,-0.000000000000000000e+00,8.053488478277595619e-03,-9.999665693979375991e-01,3.538772465660211424e+02
-8.139746170621585675e-01,-1.642670886206365033e+00,4.482113111664063787e+00,-0.000000000000000000e+00,8.053988445127913468e-03,-9.999665653709546298e-01,3.551547044580041756e+02
-1.044357542425250918e+00,-1.746261225141269025e+00,4.330149548969529860e+00,1.129618292546648028e-01,1.402555277746316519e-02,-9.934993251134860426e-01,3.621732148066544710e+02
-1.279697376192668656e+00,-1.828739025657759587e+00,4.171587443361058689e+00,2.244734671475771826e-01,1.981705864779814003e-02,-9.742776538202263525e-01,3.691917251553047663e+02
-1.518135686356961278e+00,-1.889156246098818492e+00,4.006273214315914544e+00,3.331033568793516086e-01,2.535415622350571663e-02,-9.425483119701716372e-01,3.762102355039550616e+02
-1.652751024953555525e+00,-1.910776457718693200e+00,3.909573159569741385e+00,4.374569335181507368e-01,3.056576147674651064e-02,-8.987186242321829610e-01,3.801537196123343278e+02
-1.891885050026943071e+00,-1.926869503631656988e+00,3.730703622319760715e+00,5.361945248893688065e-01,3.538496864612746678e-02,-8.433512527242869039e-01,3.871722299609846232e+02
-2.128912128434654605e+00,-1.919357754611934697e+00,3.545118424891972708e+00,6.827382631588897466e-01,2.016997823167390042e-02,-7.303832117383695088e-01,3.941907403096349185e+02
-2.361777060388404070e+00,-1.887900829358394539e+00,3.352939858270362006e+00,6.818411546675964274e-01,5.506893172669015402e-02,-7.294230956765010987e-01,4.012092506582852138e+02
-2.369705869327087377e+00,-1.886024342220468331e+00,3.346011019127633102e+00,7.525789214826126283e-01,9.257286733425003356e-02,-6.519610656775984836e-01,4.014541580934391050e+02
-2.573177805210970170e+00,-1.815981239088608978e+00,3.156990076738179329e+00,8.667161273801765597e-01,4.591995376725934580e-02,-4.966814999353202364e-01,4.079308790662713591e+02
-2.785269524621142079e+00,-1.716604760272925301e+00,2.946057693754668083e+00,2.657138043092627244e-01,3.526207403047507127e-01,-8.972473392025914762e-01,4.149493894149216544e+02
-2.987153871686587969e+00,-1.594507626287035906e+00,2.729461023973601463e+00,3.362006792772688768e-01,2.790382650422770228e-01,-8.995025013270064873e-01,4.219678997635719497e+02
-3.010814613489509739e+00,-1.576853290902981986e+00,2.701984801928191349e+00,4.031951204477571826e-01,2.025571948470765438e-01,-8.924137368176386920e-01,4.228373710671287995e+02
-3.189930599392201582e+00,-1.414757053866352532e+00,2.475302254865832996e+00,4.660012154196198630e-01,1.239719891930245038e-01,-8.760546861474556302e-01,4.298558814157790948e+02
-3.355166293097200825e+00,-1.233005582840712711e+00,2.244114231735802711e+00,5.239665561712417707e-01,4.409896264573073127e-02,-8.505952794985822685e-01,4.368743917644293902e+02
-3.445141216029292686e+00,-1.113886939784279884e+00,2.103638671958490303e+00,8.948031780341442198e-01,-4.464585898833107191e-01,-9.999990814012277637e-06,4.410677709640517037e+02
-3.557648559408908451e+00,-9.346892080593508512e-01,1.905193666122880325e+00,5.208093106632659675e-01,1.199998411697008806e-05,-8.536718700905171486e-01,4.469065079916737773e+02
-3.676207400751744903e+00,-7.043464584548549956e-01,1.663763156721263181e+00,8.194300530584448516e-01,3.603895835301970663e-02,5.720433389410028990e-01,4.539250183403240726e+02
-3.777142250712512528e+00,-4.607945961640037558e-01,1.420138316588989369e+00,9.852177632734953061e-01,0.000000000000000000e+00,-1.713007849691419171e-01,4.609435286889743679e+02
-3.859861076087862219e+00,-2.060593729233952398e-01,1.175071730371750167e+00,9.938664413475424286e-01,3.800630092766447022e-03,-1.105126778902473655e-01,4.679620390376246633e+02
-3.876083075071730111e+00,-1.406311563618979077e-01,1.114080757468319582e+00,9.987538853757199631e-01,7.586876636336261671e-03,-4.930634594317927222e-02,4.697030094220715455e+02
-3.924001272740432089e+00,1.306933618813368170e-01,8.677909667713283870e-01,9.998615998776513303e-01,1.134441090547163092e-02,1.208658064951084223e-02,4.767215197707218408e+02
-3.947416509823328035e+00,3.509062590995246089e-01,6.722105966151166179e-01,9.971853930941033672e-01,1.505901283672159141e-02,7.343376561652240064e-02,4.822949598108953637e+02
-3.958683704472437004e+00,6.319152252711733864e-01,4.263398891548927372e-01,9.907353928387169217e-01,1.871662483768025617e-02,1.345030458087952685e-01,4.893134701595456590e+02
-3.956550106193833294e+00,7.374910630537144796e-01,3.347211835701353055e-01,9.805360081759966207e-01,2.230340498153939380e-02,1.950633097147906891e-01,4.919358046918497962e+02
-3.934472124207717414e+00,1.019536949617155575e+00,9.018646919476241974e-02,9.666258370702000002e-01,2.580577938582138270e-02,2.548853719986815536e-01,4.989543150405000915e+02
-3.895823140874750123e+00,1.298288605686404695e+00,-1.538680794346961034e-01,9.490575203538048621e-01,2.921049357725393619e-02,3.137428407549989196e-01,5.059728253891503869e+02
-3.841923071212766772e+00,1.570537213059973958e+00,-3.977211417622067424e-01,9.278975425668197774e-01,3.250466264856641946e-02,3.714129742006400114e-01,5.129913357378006822e+02
-3.795871540271773537e+00,1.750581788190128218e+00,-5.647115758775665961e-01,9.032259804187294794e-01,3.567582001753525495e-02,4.276775235648146434e-01,5.177964010943760513e+02
-3.716557492237154037e+00,2.001652510460750101e+00,-8.087967377996296836e-01,8.751361998226349082e-01,3.871196460386641669e-02,4.823235589893382080e-01,5.248149114430262898e+02
-3.626193727760034236e+00,2.238249372927596070e+00,-1.052808483212509971e+00,8.462792008377618691e-01,-3.778746269688784687e-01,3.755266708546577403e-01,5.318334217916765283e+02
-3.560615559181688372e+00,2.384156044558632725e+00,-1.213639242341988833e+00,6.601978282954255040e-01,-7.242585503500577060e-01,1.989632623360338137e-01,5.364701734136885989e+02
-3.454010148991415008e+00,2.588338234144095029e+00,-1.455961583800662984e+00,3.514628392645426369e-01,-9.360874732954755917e-01,-1.456416684841551137e-02,5.434886837623388374e+02
-3.341310835416890335e+00,2.774587925083887185e+00,-1.696534198975178986e+00,-2.256798027912827048e-02,-9.740071488706649738e-01,-2.253858030481923347e-01,5.505071941109890759e+02
-3.224390703254190083e+00,2.941872903667196670e+00,-1.934763329983579139e+00,2.534877802810129310e-01,-9.007700298166736452e-01,-3.526404665244991521e-01,5.575257044596393143e+02
-3.136127564571418169e+00,3.051217093361699995e+00,-2.109199593170119513e+00,5.047617508834497668e-01,-7.394694120107754287e-01,-4.454195365522445327e-01,5.627246685012754597e+02
-3.016376037126247578e+00,3.178287987681516213e+00,-2.341626758498663641e+00,7.066881087224781144e-01,-5.058744522651111852e-01,-4.946523582591173529e-01,5.697431788499256982e+02
-2.979707615595724501e+00,3.211118460453314505e+00,-2.412430258556871543e+00,8.395252534904166231e-01,-2.228224031250437553e-01,-4.955255043005575288e-01,5.719118072143065774e+02
-2.863334829827426375e+00,3.296094146407589687e+00,-2.638164460142630841e+00,8.902861067535903228e-01,8.201398618623401138e-02,-4.479535178860205025e-01,5.789303175629568159e+02
-2.750337176285289953e+00,3.358668910820306497e+00,-2.860337590210312975e+00,8.540080296525174308e-01,3.788320879197329405e-01,-3.565873447663149842e-01,5.859488279116070544e+02
-2.642362691026267640e+00,3.398450624370162210e+00,-3.078892204075027728e+00,7.342380085565145542e-01,6.386133549107434471e-01,-2.303595661528659300e-01,5.929673382602572929e+02
-2.607949593297374413e+00,3.404358872477438513e+00,-3.151692759506602659e+00,5.426856626011300477e-01,8.359604802661266820e-01,-8.161094926078951706e-02,5.953434600765066307e+02
-2.513714491639036375e+00,3.399531623827676707e+00,-3.363278506269288037e+00,5.127354533483398091e-01,7.956863181056585965e-01,3.224649408219574798e-01,6.023619704251568692e+02
-2.428204000085003589e+00,3.372156595025528780e+00,-3.571429976981843168e+00,3.977753990617169388e-01,6.234899922394703253e-01,6.730772329225231942e-01,6.093804807738071077e+02
-2.352795482542791472e+00,3.323065256335661299e+00,-3.775697948469721954e+00,2.168654899118022394e-01,3.479210734506664737e-01,9.120955464940970758e-01,6.163797405699006049e+02
-2.288114656820789072e+00,3.252907686766957074e+00,-3.977322745974092744e+00,0.000000000000000000e+00,1.466799147870494202e-02,9.998914191181649258e-01,6.233982509185508434e+02
-2.235277048951810119e+00,3.162870940175450674e+00,-4.175872733325772579e+00,0.000000000000000000e+00,9.999732665426436240e-01,7.173994738040113776e-03,6.304167612672010819e+02
-2.206461611806769252e+00,3.086192589367358519e+00,-4.314047921396640284e+00,0.000000000000000000e+00,9.993857527182747891e-01,3.501595629839402563e-02,6.353740428898266828e+02
-2.177762921721857481e+00,2.960500247548253139e+00,-4.506785100527989307e+00,-0.000000000000000000e+00,9.993857520474467293e-01,3.501595627488989643e-02,6.423925532384769213e+02
-2.161329154693195420e+00,2.819172773294194911e+00,-4.696568286029407346e+00,-6.626994512456120534e-02,8.736838171073177950e-01,4.819573446779198411e-01,6.494110635871271597e+02
-2.156909565813147189e+00,2.663901530583914656e+00,-4.883376397696364890e+00,-1.179641769282319536e-01,5.558120072864588535e-01,8.228945652383590215e-01,6.564295739357773982e+02
-2.156973949685543790e+00,2.662054448169231424e+00,-4.885399850148751000e+00,-1.437118752910876152e-01,1.156833770837628755e-01,9.828337871389118963e-01,6.565067645609104829e+02
-2.172894590210726395e+00,2.482354076033735701e+00,-5.066535147059407329e+00,-1.378490843814493272e-01,-3.498913460573949141e-01,9.265914287685695916e-01,6.635252749095607214e+02
-2.199940831392934282e+00,2.292345484867046146e+00,-5.244611910163627044e+00,-1.016656414354553117e-01,-7.385025541575797048e-01,6.665403775029850042e-01,6.705437852582109599e+02
-2.237279174457941444e+00,2.093797979321461611e+00,-5.419568455270148633e+00,-4.312096940893522107e-02,-9.646753156358617298e-01,2.598848156313890989e-01,6.775622956068611984e+02
-2.284024291040315457e+00,1.888438873001218044e+00,-5.591263198937992840e+00,-4.030799919293858585e-02,-9.692046254801777172e-01,2.429313877288755696e-01,6.845808059555114369e+02
-2.297590230065936989e+00,1.835345288896049309e+00,-5.633600903341830168e+00,-3.748229825287668210e-02,-9.734278145312074138e-01,2.259012333074106593e-01,6.863459153387550487e+02
-2.358146967504345159e+00,1.619513417270223687e+00,-5.798359417086328627e+00,-3.464475903467791745e-02,-9.773435491108806161e-01,2.087997310295974240e-01,6.933644256874052871e+02
-2.426003582269193437e+00,1.400631627933970558e+00,-5.959077051346062248e+00,-3.179627772148545251e-02,-9.809505926307161561e-01,1.916322820817756289e-01,7.003829360360555256e+02
-2.449459483824168338e+00,1.329538109365069554e+00,-6.009410210322021051e+00,-2.893775395076859588e-02,-9.842478059813800639e-01,1.744043084690869161e-01,7.026406468746947667e+02
-2.526846603078659381e+00,1.107424072177551899e+00,-6.161237719642321586e+00,-2.607009053036662277e-02,-9.872341478919277602e-01,1.571212513041054248e-01,7.096591572233450051e+02
-2.597960958711128754e+00,9.159098491625895511e-01,-6.287790545173040258e+00,-2.319419315353568253e-02,-9.899086752582101356e-01,1.397885690894603572e-01,7.157224089935780285e+02
-2.684392024959712408e+00,6.960343314869216202e-01,-6.428263546024905573e+00,-2.031097011308830719e-02,-9.922705434403382707e-01,1.224117359949898065e-01,7.227409193422282669e+02
-2.774389238521898449e+00,4.794647706994987213e-01,-6.561941043089427161e+00,-1.742133201471516776e-02,-9.943190065291175328e-01,1.049962401299656956e-01,7.297594296908785054e+02
-2.850872529954467716e+00,3.040465995302842339e-01,-6.666259017372974327e+00,-1.452619148957906732e-02,-9.960534175813652302e-01,8.754758181093330593e-02,7.355654455436230137e+02
-2.945084348135902808e+00,9.775956188283009551e-02,-6.783968238941875839e+00,-1.162646290627135717e-02,-9.974732288240396594e-01,7.007127182570746515e-02,7.425839558922732522e+02
-3.040628186442549286e+00,-1.013431096303548384e-01,-6.892386614441006643e+00,-8.723062082221046121e-03,-9.985779918271154854e-01,5.257282969407055945e-02,7.496024662409234907e+02
-3.136704393394738055e+00,-2.919131299253507339e-01,-6.990655272616909777e+00,-5.816905994647292300e-03,-9.993673576451534979e-01,3.505778192571858826e-02,7.566209765895737291e+02
-3.232568161824432185e+00,-4.725730440166625024e-01,-7.077989383012522673e+00,-2.908912491145794650e-03,-9.998410769275173360e-01,1.753166027600066776e-02,7.636394869382239676e+02
-3.313888637750519894e+00,-6.181733555141022407e-01,-7.143015774478539193e+00,-0.000000000000000000e+00,-9.999989999972040966e-01,0.000000000000000000e+00,7.696673601813268988e+02
-3.406657623554810055e+00,-7.753121866492206360e-01,-7.206414991182380270e+00,-2.158584391722619122e-02,-9.749269274858587409e-01,2.214713015412711761e-01,7.766858705299771373e+02
-3.464864173362883548e+00,-8.685048829926210745e-01,-7.239190501650281107e+00,-4.208928230422049471e-02,-9.009679326133153143e-01,4.318370951165266813e-01,7.812348674731907749e+02
-3.550988633358576507e+00,-9.980352817614295269e-01,-7.276610649987254043e+00,-6.048218647933941566e-02,-7.818306391378995190e-01,6.205487545914980529e-01,7.882533778218410134e+02
-3.633159452890562413e+00,-1.112150143542313563e+00,-7.300587430793837207e+00,-7.584225956532476831e-02,-6.234891012520717979e-01,7.781434908069058132e-01,7.952718881704912519e+02
-3.710519163378072083e+00,-1.209978766307987952e+00,-7.311020105871076424e+00,-8.739928424474779911e-02,-4.338832339671287452e-01,8.967188547125907183e-01,8.022903985191414904e+02
-3.780273428213368980e+00,-1.288689281421823374e+00,-7.308147288349302606e+00,-9.457374428621451168e-02,-2.225206686387563582e-01,9.703289951978303352e-01,8.091169046551120800e+02
-3.845565258347822812e+00,-1.352204951423290558e+00,-7.292084129238523005e+00,-9.700588336526914934e-02,-0.000000000000000000e+00,9.952828033247277384e-01,8.161354150037623185e+02
-3.903654101480353855e+00,-1.397809045693702901e+00,-7.263185022002163649e+00,-0.000000000000000000e+00,9.741290686743671323e-02,9.952430484881401584e-01,8.231539253524125570e+02
-3.953811652186704606e+00,-1.425181710082319642e+00,-7.221765895388482903e+00,-4.499992964593064570e-04,3.515004504549837372e-01,9.361865363414337837e-01,8.301724357010627955e+02
-3.995501643076155851e+00,-1.434319439636821958e+00,-7.168208094536742792e+00,-8.091991514972224353e-03,3.419286414635365201e-01,9.396900146682852784e-01,8.371909460497130340e+02
-3.996133445925982297e+00,-1.434150804811213931e+00,-7.166940407820279191e+00,5.293393743997168999e-01,8.484089973069552926e-01,0.000000000000000000e+00,8.373275260892681899e+02
-4.019059868196652729e+00,-1.407996359697127886e+00,-7.090381497628457375e+00,6.638314590202600840e-01,6.627547871192588369e-01,-3.465283338585661288e-01,8.443460364379184284e+02
-4.025832495655196297e+00,-1.385950649127548173e+00,-7.045529060284949630e+00,6.837211088461330188e-01,3.626839649538629029e-01,-6.332328062288762327e-01,8.479258966730147904e+02
-4.029128755047945099e+00,-1.326496376272086275e+00,-6.946355483561238664e+00,5.855745249377145578e-01,0.000000000000000000e+00,-8.106173423659827071e-01,8.549444070216650289e+02
-4.022161632468571391e+00,-1.251983920699506925e+00,-6.835895387384490540e+00,8.732309005866644158e-01,-0.000000000000000000e+00,-4.873046216296325617e-01,8.619629173703152674e+02
-4.010645544869229973e+00,-1.193503825910670058e+00,-6.755318088400659171e+00,9.973505985890397385e-01,-0.000000000000000000e+00,-7.273089780336276788e-02,8.666128459480917172e+02
-3.982642769944351180e+00,-1.092708704661927266e+00,-6.622576964871604410e+00,9.511693672076203532e-01,-1.461583557622511131e-01,-2.718686630130855431e-01,8.736313562967419557e+02
-3.943745588186593931e+00,-9.808070359793212845e-01,-6.479209365919544439e+00,8.449208829637190332e-01,-2.830866793469287157e-01,-4.538376730835032014e-01,8.806498666453921942e+02
-3.894231153098999698e+00,-8.599149070216255408e-01,-6.327782915892503190e+00,6.853148199529405238e-01,-4.021378208640870588e-01,-6.071464161016959515e-01,8.876247268566925186e+02
-3.833579850284777102e+00,-7.296080442339765160e-01,-6.168543650007273449e+00,4.824304330093968640e-01,-4.957935812179136703e-01,-7.221132889865135018e-01,8.946432372053427571e+02
-3.762264357617361998e+00,-5.917134209085235241e-01,-6.004402161504346580e+00,2.490800563984666427e-01,-5.581394951516281955e-01,-7.914780031420570738e-01,9.016617475539929956e+02
-3.714140297126785395e+00,-5.063380022500909572e-01,-5.905484690904283518e+00,0.000000000000000000e+00,-5.852383420621840582e-01,-8.108600884132545206e-01,9.058064787510287488e+02
-3.622635947455735916e+00,-3.562452440243955021e-01,-5.735749126497939443e+00,-0.000000000000000000e+00,-8.770008304621568218e-01,-4.804867775175772349e-01,9.128249890996789873e+02
-3.521006137509767875e+00,-2.022044031874957459e-01,-5.564972994936637107e+00,-0.000000000000000000e+00,-9.983863971765800649e-01,-5.676796572363231042e-02,9.198434994483292257e+02
-3.409549040943804510e+00,-4.562822055257845233e-02,-5.394576815914993162e+00,-2.458808131063415156e-02,-9.995040129817908126e-01,-1.962534817403098139e-02,9.268620097969794642e+02
-3.288603011993783465e+00,1.120821378887044001e-01,-5.225981031278941202e+00,-4.912734559236071885e-02,-9.986372126901521540e-01,1.755623381253549123e-02,9.338805201456297027e+02
-3.158546428681953788e+00,2.695380565832673492e-01,-5.060605811800824583e+00,-7.356907254146906328e-02,-9.957877172113565045e-01,5.470295985196906713e-02,9.408990304942799412e+02
-3.019797526831568657e+00,4.253644429137947158e-01,-4.899870863983156077e+00,-9.786473550285736123e-02,-9.909611839084162543e-01,9.174107875954025382e-02,9.479175408429301797e+02
-2.872839674047673153e+00,5.780313696237906473e-01,-4.744960211280585760e+00,-1.219660978156345416e-01,-9.841671953662856076e-01,1.285970549766290716e-01,9.549360511915804182e+02
-2.718254100153385533e+00,7.256868868925310245e-01,-4.596587007492536792e+00,-1.458253085829901152e-01,-9.754192403668737743e-01,1.651977145694231153e-01,9.619545615402306566e+02
-2.556705434323610859e+00,8.663292918827325551e-01,-4.455228465705933338e+00,-1.693949976761770504e-01,-9.647346871085036302e-01,2.014703905096699443e-01,9.689730718888808951e+02
-2.388919744264641931e+00,9.979784882030779958e-01,-4.321360819434852729e+00,-1.926283697839712983e-01,-9.521347487229820938e-01,2.373430669490206035e-01,9.759915822375311336e+02
-2.215684272573370084e+00,1.118677493991067751e+00,-4.195459258230894051e+00,-2.154792973208696782e-01,-9.376444411587472327e-01,2.727445222005029368e-01,9.830100925861813721e+02
-2.037847158703773864e+00,1.226493944794822877e+00,-4.077997863401145118e+00,-2.379024120095506456e-01,-9.212925335137165384e-01,3.076044701432255057e-01,9.900286029348316106e+02
-1.879579097184516767e+00,1.307841253668565962e+00,-3.983335226977203547e+00,-2.598531949557582599e-01,-9.031114909164537075e-01,3.418536997695479362e-01,9.961494440131456258e+02
-1.695369468084566789e+00,1.384819088360733419e+00,-3.884146567276344442e+00,-2.812880650367610702e-01,-8.831374100690698725e-01,3.754242125976415267e-01,1.003167954361795864e+03
-1.509356752903500132e+00,1.443510929760331685e+00,-3.794752824092160637e+00,-3.021644654278902165e-01,-8.614099475798462358e-01,4.082493576766032528e-01,1.010186464710446103e+03
-1.322622017721158283e+00,1.482094247374988516e+00,-3.715623101301150033e+00,-3.224409480953540075e-01,-8.379722412278847177e-01,4.402639639160668139e-01,1.017204975059096341e+03
-1.136305664341508148e+00,1.498778367278289725e+00,-3.647225083116623967e+00,-3.420772560875703361e-01,-8.128708243161275604e-01,4.714044694775700872e-01,1.024223485407746693e+03
-9.514923405177021509e-01,1.491978875107000890e+00,-3.589756786684165757e+00,-3.610344034616289055e-01,-7.861555332828102927e-01,5.016090479707744354e-01,1.031241995756397046e+03
-7.690737386926516095e-01,1.460779659755016224e+00,-3.542814139625641623e+00,-3.792747526861899865e-01,-7.578794087548008651e-01,5.308177312039735751e-01,1.038260506105047398e+03
-5.898241954127426689e-01,1.405045570728842730e+00,-3.505595007557687826e+00,-3.967620893671423010e-01,-7.280985902392980158e-01,5.589725282451801780e-01,1.045279016453697750e+03
-4.332402114544421368e-01,1.333682152781458186e+00,-3.480306871934153445e+00,-4.134616941476574881e-01,-6.968722046629926004e-01,5.860175405573989638e-01,1.051544555969296880e+03
-2.624170826199108686e-01,1.229722832500597551e+00,-3.460049306416054904e+00,-4.293404116398909509e-01,-6.642622489800137364e-01,6.118990729794983041e-01,1.058563066317947232e+03
-9.699699151898115435e-02,1.101798962245707170e+00,-3.447001919723422958e+00,-4.443667162514732261e-01,-6.303334670817527519e-01,6.365657403323384811e-01,1.065581576666597584e+03
6.226863277144063791e-02,9.501432146455806027e-01,-3.440293736192039376e+00,-4.585107747761072439e-01,-5.951532212529775379e-01,6.599685694385075685e-01,1.072600087015247937e+03
2.146326386289732491e-01,7.750070988251153148e-01,-3.439052898214496334e+00,-4.717445056240043844e-01,-5.587913584294681435e-01,6.820610963531189563e-01,1.079618597363898289e+03
3.594292467577966388e-01,5.768987807362305764e-01,-3.442517502858648992e+00,-4.840416345745771620e-01,-5.213200715227301885e-01,7.027994586126441456e-01,1.086637107712548641e+03
4.961616383865088964e-01,3.568174378052929030e-01,-3.450146423441655230e+00,-4.953777469407005807e-01,-4.828137560871334499e-01,7.221424823186359809e-01,1.093655618061198993e+03
5.477008481941869622e-01,2.611198201431547128e-01,-3.454724819666491253e+00,-5.057303360409889370e-01,-4.433488626140651978e-01,7.400517638834658296e-01,1.096450310686425610e+03
6.695230730404204689e-01,1.419658763791501474e-03,-3.469790486676192831e+00,-5.150788478838613793e-01,-4.030037447463716838e-01,7.564917462757902999e-01,1.103468821035075962e+03
7.822273927692033890e-01,-2.772012481403470785e-01,-3.487985803539095375e+00,-5.234047219746940094e-01,-3.618585037144538274e-01,7.714297896143902378e-01,1.110487331383726314e+03
8.855122859486564968e-01,-5.734778332796330869e-01,-3.508878453887181781e+00,-5.306914281650526588e-01,-3.199948293028848645e-01,7.848362359702434343e-01,1.117505841732376666e+03
9.791126431367426219e-01,-8.861401212820618767e-01,-3.532035736663946768e+00,-5.369244994708594065e-01,-2.774958376633009927e-01,7.966844682481940554e-01,1.124524352081027018e+03
1.062799786673620739e+00,-1.213914118129272968e+00,-3.557024625129768136e+00,-5.420915607943509462e-01,-2.344459062955752682e-01,8.069509630313358439e-01,1.131542862429677371e+03
1.136381482047145619e+00,-1.555522700845653583e+00,-3.583411825901208658e+00,-5.461823534928180734e-01,-1.909305065249038424e-01,8.156153372832136705e-01,1.138561372778327723e+03
1.199701940831392255e+00,-1.909686507281820100e+00,-3.610763838018228977e+00,-5.491887557453610791e-01,-1.470360338073966044e-01,8.226603888151434729e-01,1.145579883126978075e+03
1.252641815198830111e+00,-2.275124825833724440e+00,-3.638647012033240813e+00,-5.511047986772376062e-01,-1.028496362010835052e-01,8.280721304383251713e-01,1.152598393475628427e+03
1.295118184007374662e+00,-2.650556484938430657e+00,-3.666627609115815645e+00,-5.519266782098050106e-01,-5.845904134287511350e-02,8.318398177329643373e-01,1.159616903824278779e+03
1.327084530464576417e+00,-3.034700742187586897e+00,-3.694271860167035459e+00,-5.516527626125400374e-01,-1.395238227498550414e-02,8.339559703792890355e-01,1.166635414172929131e+03
1.342357830070659563e+00,-3.301476701784795686e+00,-3.712630359926759382e+00,-5.502835957421532420e-01,3.058197753339463032e-02,8.344163870081271472e-01,1.171416650261072618e+03
1.355267333193323598e+00,-3.699473395234713191e+00,-3.738528294174561228e+00,-6.231041458537330824e-01,8.519242533667741035e-02,7.774840667727070942e-01,1.178435160609722971e+03
1.357806576454457570e+00,-4.102726925753045428e+00,-3.762961794276078908e+00,-6.887425048884183720e-01,1.388208944332359751e-01,7.115901357026430674e-01,1.185453670958373323e+03
1.353422038826570750e+00,-4.374340562398682408e+00,-3.778062110371480209e+00,-7.464421022397070837e-01,1.908492409142249768e-01,6.374941217353913281e-01,1.190133528200938372e+03
1.337922920734446741e+00,-4.784725449742982306e+00,-3.798589339616883720e+00,-7.955378739437835023e-01,2.406777657517830959e-01,5.560500914438205600e-01,1.197152038549588724e+03
1.325497833680039150e+00,-5.000782601870207955e+00,-3.808074622080102944e+00,-8.354639277547001308e-01,2.877321269044702534e-01,4.681968053808469588e-01,1.200828234387649445e+03
1.293838901072516423e+00,-5.414531751084050271e+00,-3.823462020787951499e+00,-8.657600651021802873e-01,3.314699590579142652e-01,3.749468974636901430e-01,1.207846744736299797e+03
1.274508212395786044e+00,-5.619166085571671410e+00,-3.829568374317913193e+00,-8.860770848359966756e-01,3.713871247378303098e-01,2.773752031253304273e-01,1.211313378967863855e+03
1.228323842783571429e+00,-6.033416020561787718e+00,-3.838584013145939000e+00,-8.961808076965946945e-01,4.070235247866573758e-01,1.766063707453864040e-01,1.218331889316514207e+03
1.193151738836104370e+00,-6.306793827366516503e+00,-3.842063060013969356e+00,-8.959547751835484908e-01,4.379684012745754806e-01,7.380189910899223604e-02,1.222970356361650374e+03
1.144911549948845364e+00,-6.644578290001927456e+00,-3.842945410052671651e+00,-8.962736280256597965e-01,4.381243293394797012e-01,-6.883789462612520393e-02,1.228714490883405915e+03
1.080080490239390345e+00,-7.055874778682538206e+00,-3.839245457426355035e+00,-6.207212649954739758e-01,4.428994755566831310e-02,7.827780731017945914e-01,1.235733001232056267e+03
1.009982638104269137e+00,-7.465287991566112780e+00,-3.830114219681773680e+00,-6.336801248708724410e-01,6.526283240108290973e-02,7.708360798742232012e-01,1.242751511580706619e+03
9.359397954141289722e-01,-7.872478523681616380e+00,-3.814901000204364845e+00,-6.461634666023021722e-01,8.618674295445422073e-02,7.583156465170289851e-01,1.249770021929356972e+03
8.592184706404030203e-01,-8.277110219390921841e+00,-3.793065267172465393e+00,-6.581619255800772450e-01,1.070459829777678229e-01,7.452261651538043541e-01,1.256788532278007324e+03
8.083340723236348557e-01,-8.541917514303138503e+00,-3.774146384406670052e+00,-6.696665005572921547e-01,1.278249046671492695e-01,7.315774543836005561e-01,1.261412351612740167e+03
7.830859330105126581e-01,-8.676597136205396410e+00,-3.762125674018207189e+00,-2.272997664908205442e-03,5.869383970275219298e-01,-8.096271682553016769e-01,1.263778699238164108e+03
7.100319094250553409e-01,-9.073115736198380077e+00,-3.719478219823528775e+00,6.263253748259728360e-01,6.389893621852650585e-02,7.769372244909866776e-01,1.270797209586814461e+03
6.374029545138473196e-01,-9.465859165109742790e+00,-3.669901969560604105e+00,4.592720200842875800e-01,7.693003955238773006e-01,4.441217322039162085e-01,1.277815719935464813e+03
5.660500115171979152e-01,-9.854299033082041248e+00,-3.613622164336262266e+00,0.000000000000000000e+00,9.852226351184447672e-01,-1.712727627266910080e-01,1.284834230284115165e+03
5.215803121780171470e-01,-1.010441485920953220e+01,-3.572746876324060405e+00,2.335007349130278076e-01,9.332469405103762661e-01,2.729936900777603093e-01,1.289407388658835544e+03
4.569725292433319264e-01,-1.048322319931657098e+01,-3.503756529195865443e+00,3.143997210390869160e-03,3.833196598877314232e-02,9.992591133763293332e-01,1.296425899007485896e+03
4.247935963055444186e-01,-1.068284790678093188e+01,-3.463628149915607413e+00,2.578976637997122401e-01,9.378747773686454403e-01,-2.321156974095727743e-01,1.300178890579697281e+03
3.693944496905058328e-01,-1.105020538622162185e+01,-3.382679995367670500e+00,-2.031297923572760594e-02,9.495260293783649441e-01,-3.130266800188108989e-01,1.307197400928347633e+03
3.595284341617532853e-01,-1.112223012092514729e+01,-3.365379762973455868e+00,1.625553209108271391e-01,9.359194576767465579e-01,-3.124556550722981663e-01,1.308597515293951574e+03
3.160369522931689712e-01,-1.147650875566719186e+01,-3.272892920909296510e+00,3.399574803415281177e-01,8.908413328940427700e-01,-3.013778876567279608e-01,1.315616025642601926e+03
2.759865089495709412e-01,-1.182293056124831132e+01,-3.174477608235437565e+00,5.059281072030982207e-01,8.158074700475824725e-01,-2.801658832861723680e-01,1.322634535991252278e+03
2.656554686304481994e-01,-1.192310116669047382e+01,-3.143541065011199009e+00,6.548862129758126205e-01,7.133409892494310123e-01,-2.495329259075360073e-01,1.324714947361491113e+03
2.358091647012004188e-01,-1.225183391934332455e+01,-3.033070586232491817e+00,7.818228821716883825e-01,5.868874704974899048e-01,-2.105090921718788810e-01,1.331733457710141465e+03
2.087384208791201179e-01,-1.257011935878810327e+01,-2.916168611901312158e+00,8.824697040269576798e-01,4.406990890564201346e-01,-1.644066129470465043e-01,1.338751968058791817e+03
1.976971054439220221e-01,-1.271575669922168750e+01,-2.857524927833865469e+00,9.534423023782173656e-01,2.796916282438902113e-01,-1.127757470708638798e-01,1.342083702606275665e+03
1.780159234088982412e-01,-1.301000640896248584e+01,-2.727173448226399177e+00,9.923541376704969608e-01,1.092791783960619795e-01,-5.735265136657738405e-02,1.349102212954926017e+03
1.603304365797943720e-01,-1.329026732920852005e+01,-2.589774017447764809e+00,9.978967549886104127e-01,-6.480791914334117776e-02,-9.999987523660839145e-07,1.356120723303576369e+03
1.443463534864206366e-01,-1.355496281315770624e+01,-2.445118091504508762e+00,5.194795790153169252e-02,6.051975095497645896e-01,7.943773562389878640e-01,1.363139233652226721e+03
1.305503564051005150e-01,-1.379247590979695559e+01,-2.299225361081871810e+00,-1.198419460289039534e-01,6.128829668741133663e-01,7.810316106832276839e-01,1.369872217111204918e+03
1.177543023369244379e-01,-1.402145721013608792e+01,-2.139625663970112335e+00,-2.880666621599969890e-01,6.023357663590663824e-01,7.444509538682351213e-01,1.376890727459855270e+03
1.105318868997421655e-01,-1.416348306201857810e+01,-2.026056298971664393e+00,-4.477217380013277515e-01,5.738696641818404887e-01,6.857235987269387767e-01,1.381659299153875736e+03
1.022115288313708431e-01,-1.435132484253082374e+01,-1.851296493498077789e+00,-3.058933325420953864e-01,6.678145052501219814e-01,6.785654394988800409e-01,1.388677809502526088e+03
9.590994843635081146e-02,-1.451658494432794555e+01,-1.668946500231718755e+00,-1.551964278773875217e-01,7.423979041934457568e-01,6.517341640743908870e-01,1.395696319851176440e+03
9.223810107929505953e-02,-1.465833715113953595e+01,-1.479346118406238642e+00,-0.000000000000000000e+00,7.954575522242580687e-01,6.060076588686243992e-01,1.402714830199826793e+03
9.244461889672780930e-02,-1.470444011712505805e+01,-1.402862858895449483e+00,6.133067690737312172e-02,8.517639821613368634e-01,5.203216954510808678e-01,1.405450117634733260e+03
9.812618987407638327e-02,-1.479979009304473259e+01,-1.200582250971973908e+00,1.217859109102952253e-01,8.959123446157630788e-01,4.272086874852307758e-01,1.412468627983383612e+03
1.094643931095844458e-01,-1.487284646103843322e+01,-9.930393365845431308e-01,2.069205421358654706e-01,9.098781318307068711e-01,3.595882012231517155e-01,1.419487138332033965e+03
1.276430435942048358e-01,-1.492438240054088361e+01,-7.811763427234524881e-01,2.895689208910262602e-01,9.129112757085584562e-01,2.876470801843641900e-01,1.426505648680684317e+03
1.454759519231797471e-01,-1.494536919268354325e+01,-6.341395436356904725e-01,3.687379858368023955e-01,9.049753306071606218e-01,2.122497321408254589e-01,1.431299089696804913e+03
1.801948078136403619e-01,-1.495609830542511709e+01,-4.162735313152854943e-01,4.434764809343014758e-01,8.861656496339043176e-01,1.343020933097391068e-01,1.438317600045455265e+03
2.240099481888620236e-01,-1.494783642204278173e+01,-1.967839506483614886e-01,5.128863852148123348e-01,8.567082390727061014e-01,5.474074320381459857e-02,1.445336110394105617e+03
2.775789191755774210e-01,-1.492161509423859300e+01,2.327420043923566356e-02,5.761337029544011390e-01,8.169570429745108830e-01,-2.547834874203021294e-02,1.452354620742755969e+03
3.417485754321262781e-01,-1.487851250469775088e+01,2.428206018049508530e-01,6.324584846043670439e-01,7.673896905228986265e-01,-1.053913095624721408e-01,1.459373131091406322e+03
4.171985522126976931e-01,-1.481955641915308419e+01,4.607651268365894337e-01,6.811839580658413107e-01,7.086017572526979169e-01,-1.840379441644248715e-01,1.466391641440056674e+03
4.531765074571897367e-01,-1.478861977617189538e+01,5.502920511738291776e-01,7.217246605814831018e-01,6.412996090571032592e-01,-2.604732725863243004e-01,1.469308409524450553e+03
5.508525947702344050e-01,-1.469927232778393211e+01,7.624347652993653801e-01,7.535934735214089297e-01,5.662919149501082217e-01,-3.337788844851014014e-01,1.476326919873100906e+03
6.231709073364890550e-01,-1.463051517680793090e+01,9.006453111960134317e-01,7.764074755203806966e-01,4.844799305511815479e-01,-4.030739744131390800e-01,1.480989963168976146e+03
7.428740102279638435e-01,-1.451340351712227772e+01,1.103651248759227599e+00,7.898925436207460127e-01,3.968466690352743242e-01,-4.675259252789603637e-01,1.488008473517626499e+03
8.729678562973631761e-01,-1.438342296719219782e+01,1.300645154522589886e+00,7.938866471201696529e-01,3.044450896653099758e-01,-5.263603128114441310e-01,1.495026983866276851e+03
1.012594285661535531e+00,-1.424122972501351292e+01,1.490641949492503615e+00,7.883417945339142863e-01,2.083854458348667893e-01,-5.788702108031118510e-01,1.502045494214927203e+03
1.161132547141840110e+00,-1.408764710052984803e+01,1.672778391038475476e+00,7.733246102692358237e-01,1.098219446532674171e-01,-6.244246853100152705e-01,1.509064004563577555e+03
1.317922390209993466e+00,-1.392346351869382026e+01,1.846313701543679908e+00,7.119714397105709747e-01,1.802306850592097498e-01,-6.786837033547180598e-01,1.516082514912227907e+03
1.432479756120521142e+00,-1.380135501996232605e+01,1.961327390141429206e+00,6.423126572535942103e-01,2.485369056599903426e-01,-7.250254180762427669e-01,1.520992770319711099e+03
1.602298913025048677e+00,-1.361700094449529175e+01,2.116138699602935436e+00,5.651608795568375809e-01,3.139437718891964213e-01,-7.629092267828837537e-01,1.528011280668361451e+03
1.777696313473954515e+00,-1.342379256404207943e+01,2.260861762881828163e+00,4.814161323273309367e-01,3.756882724092114878e-01,-7.918931932458800338e-01,1.535029791017011803e+03
1.957583779493419218e+00,-1.322228727451415864e+01,2.394974693885301154e+00,3.920553511290532089e-01,4.330501197274133629e-01,-8.116392027589228730e-01,1.542048301365662155e+03
1.987111074161135971e+00,-1.318809987542870488e+01,2.414963587331040884e+00,2.981209851529772470e-01,4.853601524237978748e-01,-8.219169061715005942e-01,1.543187414487395245e+03
2.170486563013371839e+00,-1.296859781226396890e+01,2.526868636694967751e+00,2.007088368530877964e-01,5.320081410154979817e-01,-8.226064069178015137e-01,1.550205924836045597e+03
2.356095730490078033e+00,-1.274186549337033370e+01,2.627040771501594651e+00,1.009552792538542521e-01,5.724499064347090549e-01,-8.136996597108000495e-01,1.557224435184695949e+03
2.542803278694316660e+00,-1.250833786921841373e+01,2.714963525805040856e+00,2.399998686030460401e-05,6.062136681055290133e-01,-7.953005645827964099e-01,1.564242945533346301e+03
2.729393696439248451e+00,-1.226838920517352705e+01,2.790218541599185809e+00,0.000000000000000000e+00,3.025597526115033492e-02,-9.995411827234507163e-01,1.571261455881996653e+03
2.914506303442835566e+00,-1.202230938119781278e+01,2.852582072570970073e+00,-3.469998025792959094e-03,8.438305199143799618e-01,5.365966947107850826e-01,1.578279966230647005e+03
3.014949613075707635e+00,-1.188232360460423109e+01,2.879950674976116787e+00,-9.154860191004214956e-03,9.554649240683662503e-01,2.949592639826594254e-01,1.582168065685727697e+03
3.094237381550720922e+00,-1.176470215032035860e+01,2.896425692963948251e+00,-1.419079707088457230e-02,9.993727794100584205e-01,3.241402553970971351e-02,1.585342279374474174e+03
3.263877970992642208e+00,-1.149775741048567212e+01,2.919797817835239062e+00,-1.822084249739887307e-02,9.724416798078868718e-01,-2.324288714210478723e-01,1.592360789723124526e+03
3.428155052359561861e+00,-1.122445430679668554e+01,2.930025900463544719e+00,-2.095933190845156516e-02,8.765805972035113358e-01,-4.807963841497893687e-01,1.599379300071774878e+03
3.585839098384712376e+00,-1.094445673028299204e+01,2.927072041702813987e+00,-2.221215223272808223e-02,7.185845630298444142e-01,-6.950833374985299074e-01,1.606397810420425230e+03
3.735758739828630048e+00,-1.065729727111957459e+01,2.910913245078998290e+00,-2.189050123319474447e-02,5.096529634393237584e-01,-8.601003794985342399e-01,1.613416320769075583e+03
3.876857138395274571e+00,-1.036229128658596466e+01,2.881554535732390843e+00,-2.001718101892075233e-02,2.645956239560736112e-01,-9.641506460341529028e-01,1.620434831117725935e+03
3.913448947854094584e+00,-1.027624234264000869e+01,2.869545771358630315e+00,-1.672498027860289116e-02,7.829990767202429404e-04,-9.998588210083041439e-01,1.622419288190083535e+03
4.030601474305868237e+00,-9.961972645455359654e+00,2.813973983533121892e+00,-1.780111446133851860e-01,-1.280782879834219401e-01,-9.756566939972873831e-01,1.629437798538733887e+03
4.136837567183785147e+00,-9.637772721388742525e+00,2.745251120430132641e+00,-3.316064755854354340e-01,-2.514060529704449931e-01,-9.093020080702106656e-01,1.636456308887384239e+03
4.231401746188353741e+00,-9.302740863556309137e+00,2.663491439372912772e+00,-4.708750129484571278e-01,-3.638720212854977265e-01,-8.036615421351135380e-01,1.643474819236034591e+03
4.261741549162989529e+00,-9.172054254548955399e+00,2.627932485695456233e+00,-5.897997554588662039e-01,-4.606171788308887627e-01,-6.632993766217042397e-01,1.646117232088457740e+03
