1.085586008231566701e+00,5.121848668134130200e+00,6.344344581968288210e+00,-3.981841509497069942e-01,1.951836433564951845e-02,-9.170967317506203420e-01,4.360904174763685148e+01
1.227523285389432450e+00,4.650435977404222321e+00,6.338117520187850573e+00,-5.193030106183442740e-01,2.270305962149158849e-02,-8.542873955806475905e-01,4.536058816663412330e+01
1.352357051259441612e+00,4.159378962734918694e+00,6.321812365262791999e+00,-6.307498831262833283e-01,2.546491147737811253e-02,-7.755669688820405749e-01,4.711213458563139511e+01
1.459097715036086651e+00,3.654499651060247878e+00,6.295459213204197546e+00,-7.304490717495094598e-01,2.775248035095833829e-02,-6.824016071315289755e-01,4.886368100462866693e+01
1.555670864923287988e+00,3.079297985555736972e+00,6.253892570655116501e+00,-8.165436754586355983e-01,2.952316006581512040e-02,-5.765265033708825149e-01,5.082700862536504616e+01
1.625863836964001052e+00,2.501864182588859897e+00,6.199793685422896772e+00,-8.874301743814458909e-01,3.074397139741926258e-02,-4.599135721205009908e-01,5.279033624610142539e+01
1.667179854297947239e+00,1.930075848470927058e+00,6.133968686723763497e+00,-5.193030175173517504e-01,2.270247474744874205e-02,-8.542874069299659645e-01,5.475366386683780462e+01
1.677375821354105456e+00,1.402450142180327264e+00,6.062118131909718599e+00,-0.000000000000000000e+00,8.051988583366892493e-03,-9.999665821823429113e-01,5.660546631871179812e+01
1.657097260681174244e+00,8.916233113521433440e-01,5.981990922969164792e+00,-8.828463393920396030e-01,3.196697608005161229e-02,-4.685706493823588170e-01,5.845726877058579163e+01
1.608406063505519956e+00,4.354016021034850525e-01,5.901635117395017893e+00,-8.361649699119596546e-01,3.424965872904472963e-02,-5.474057946051634760e-01,6.017646318472090883e+01
1.528215527739544388e+00,-1.312227541367975200e-03,5.817131227337664079e+00,-7.824603621200829640e-01,3.624466590091710017e-02,-6.216430695366771397e-01,6.189565759885602603e+01
1.413838737714283811e+00,-4.165612844661685243e-01,5.729962204425875782e+00,-7.221835941469633147e-01,3.793524121881587663e-02,-6.906589417483430804e-01,6.361485201299114323e+01
1.263282671133466151e+00,-8.092630737321152568e-01,5.641011974793562089e+00,-6.558409418971787863e-01,3.930718515611323488e-02,-7.538737322155635301e-01,6.533404642712625332e+01
1.050551994782119802e+00,-1.217887211615480636e+00,5.539459519502373475e+00,-5.839896277199306818e-01,4.034897427844909290e-02,-8.107564831612319445e-01,6.724778445950195760e+01
7.878124824574960217e-01,-1.594260879081345061e+00,5.434031392455234588e+00,-6.138060457858341978e-01,3.006661847693706605e-02,-7.888828408499286571e-01,6.916152249187766188e+01
4.642825333639158947e-01,-1.945379820989700193e+00,5.319700321677454546e+00,-6.427181838472063591e-01,1.973997493328165723e-02,-7.658470274925982535e-01,7.113084521932955795e+01
1.660885305419685931e-01,-2.201041395856679461e+00,5.221161044481235081e+00,-4.487565928617009980e-01,1.667204947318398633e-02,-8.934973772375796042e-01,7.272185156031392239e+01
-1.603275213924503506e-01,-2.430283052072951477e+00,5.114731109670410447e+00,-2.305957678224224427e-01,1.270508122018313563e-02,-9.729656585792740842e-01,7.431285790129828683e+01
-5.108290297202582320e-01,-2.630133399125762939e+00,4.998034397632605597e+00,-0.000000000000000000e+00,8.052988517099001278e-03,-9.999665741296976940e-01,7.590386424228265128e+01
-9.258089834194157541e-01,-2.813760134032035953e+00,4.852278624511147775e+00,-0.000000000000000000e+00,8.053988445127913468e-03,-9.999665653709546298e-01,7.768479879338278238e+01
-1.357599322774427630e+00,-2.949619235083682955e+00,4.687552727090551485e+00,1.495837032920364906e-01,1.875447246469574489e-02,-9.885701722554389725e-01,7.946573334448291348e+01
-1.797812318563026368e+00,-3.033807865755417499e+00,4.501457813646943862e+00,2.957838486901565589e-01,2.903073452274345517e-02,-9.548126158091457816e-01,8.124666789558304458e+01
-2.173163435237178476e+00,-3.064462121270640882e+00,4.325418242217344833e+00,4.352934534785561915e-01,3.865033014754769292e-02,-8.994574816739850931e-01,8.276411514742054010e+01
-2.542916869574738392e+00,-3.057740125153841415e+00,4.133196936396715593e+00,5.649568688681683160e-01,4.739566806883901973e-02,-8.237568736999243413e-01,8.428156239925803561e+01
-2.901900695277847220e+00,-3.012499028673418344e+00,3.924553836102114612e+00,6.818411546861097294e-01,5.506893172818538851e-02,-7.294230956963064783e-01,8.579900965109553113e+01
-3.216208815420536382e+00,-2.938247505812926264e+00,3.720282852323854250e+00,4.919371010784338583e-01,2.116580304896668319e-01,-8.445097789317551618e-01,8.718321811936638710e+01
-3.557193213351587779e+00,-2.813422885139555074e+00,3.469192771892684046e+00,2.657138043091185065e-01,3.526207403045592548e-01,-8.972473392021041994e-01,8.877613006866529588e+01
-3.870532687421265106e+00,-2.645761385859997095e+00,3.201519174284920943e+00,8.667161273833684509e-01,4.591995376742844664e-02,-4.966814999371493289e-01,9.036904201796420466e+01
-4.206928817434912204e+00,-2.381780631647242519e+00,2.853184108137163832e+00,9.128866244245119610e-01,4.745047126147175498e-02,-4.054435395029225009e-01,9.231714770471033660e+01
-4.482387313372754534e+00,-2.054288297613493963e+00,2.484018092426584445e+00,9.495097452762530921e-01,4.848473060560268277e-02,-3.099652795465648314e-01,9.426525339145646853e+01
-4.626002412283983567e+00,-1.816736045932913601e+00,2.238474384869254319e+00,9.762024723753575106e-01,4.901191520277927566e-02,-2.112452723667440357e-01,9.551311157023900478e+01
-4.772745613268218889e+00,-1.480948113727310833e+00,1.910608757237286293e+00,9.926856437327243876e-01,4.902651161808618124e-02,-1.103159729433426106e-01,9.713713862854359604e+01
-4.869094427626997401e+00,-1.115629457831144755e+00,1.574963356381268387e+00,9.987868722859055692e-01,4.852836723129536761e-02,-8.232941401679495785e-03,9.876116568684818731e+01
-4.913692253562986778e+00,-7.247317855926289631e-01,1.233762739292582733e+00,9.944423486672872015e-01,4.752269182969935668e-02,9.393619610795929387e-02,1.003851927451527786e+02
-4.867784292465337614e+00,-2.725077619898985670e-02,6.601875918903122864e-01,9.796975085464766364e-01,4.602000312488033901e-02,1.951229127012802100e-01,1.030763515017781202e+02
-4.732593194534288727e+00,5.385006437922781330e-01,2.179185349851840980e-01,9.547065575679921645e-01,4.403601676293650985e-02,2.942689554897977566e-01,1.051367983206978494e+02
-4.546769266061651216e+00,1.052747511336845632e+00,-1.754027105631535688e-01,9.197308588410301189e-01,4.159148197762554261e-02,3.903374129174162488e-01,1.069791120822996504e+02
-4.309406713223240537e+00,1.562337007750951745e+00,-5.647066645961728026e-01,8.751361998230070549e-01,3.871196460388287575e-02,4.823235589895433217e-01,1.088214258439014515e+02
-4.029859174826929014e+00,2.055165383113064959e+00,-9.492894109329266250e-01,8.005752151961871288e-01,-5.047127726095346212e-01,3.230206525579839560e-01,1.106637396055032525e+02
-3.690533269358267532e+00,2.557521639760072407e+00,-1.357919150087237403e+00,4.648282270607606015e-01,-8.834760837639272779e-01,5.833291305318293041e-02,1.126592241946479902e+02
-3.325492326343292060e+00,3.018810560289052702e+00,-1.753428486605612013e+00,-2.256798027912827048e-02,-9.740071488706649738e-01,-2.253858030481923347e-01,1.146547087837927279e+02
-2.971948790338066360e+00,3.409653389687852254e+00,-2.107130765323680155e+00,4.088821302265442936e-01,-8.137265901429616699e-01,-4.131131080868879479e-01,1.165250839619554171e+02
-2.618715171104836870e+00,3.756190946578676026e+00,-2.440282652469023539e+00,7.393057394288627959e-01,-4.523886333925928316e-01,-4.987680302706942737e-01,1.183954591401181062e+02
-2.276291563394145179e+00,4.053358199432654629e+00,-2.750527614395125386e+00,8.870601591436263478e-01,2.072715322175497712e-02,-4.611861437363199423e-01,1.202658343182807954e+02
-1.939626723131346431e+00,4.305990367632885452e+00,-3.050545054625071639e+00,8.156373871880134852e-01,4.887213237383484787e-01,-3.096532259499162887e-01,1.222293147984651398e+02
-1.678794238780538794e+00,4.471183789007590725e+00,-3.285479274010030704e+00,5.426856626011300477e-01,8.359604802661266820e-01,-8.161094926078951706e-02,1.238985901644768290e+02
-1.447044300549790607e+00,4.590824415041763196e+00,-3.503407484279030815e+00,4.173794544511207349e-01,9.066899443326407182e-01,-6.087475541762203679e-02,1.255678655304885183e+02
-1.249886179390499397e+00,4.663617160562814945e+00,-3.706154092808268796e+00,2.832522484158317422e-01,9.582571076005647059e-01,-3.885202053365899300e-02,1.272371408965002075e+02
-1.052335839694517494e+00,4.678074870238325467e+00,-3.958845996817630386e+00,1.431387062648430408e-01,9.895721545564720723e-01,-1.600817586119262712e-02,1.294850837770118233e+02
-9.463189006586076868e-01,4.589799313266469838e+00,-4.192395673081032115e+00,0.000000000000000000e+00,9.999732665418247235e-01,7.173994738034240003e-03,1.317330266575234532e+02
-9.357193490507541567e-01,4.426982130762682210e+00,-4.391000422732395769e+00,0.000000000000000000e+00,1.466799147870497325e-02,9.998914191181670352e-01,1.337627631731480449e+02
-1.008548193645073088e+00,4.193123674707236681e+00,-4.582022082961550780e+00,-0.000000000000000000e+00,9.993857527531184726e-01,3.501595629961485462e-02,1.357924996887726365e+02
-1.114514611471649763e+00,3.980339540139487209e+00,-4.720741229329080468e+00,-0.000000000000000000e+00,9.993857520474467293e-01,3.501595627488989643e-02,1.372979987634550412e+02
-1.260719409767716792e+00,3.740644479217192231e+00,-4.857744234794348692e+00,-6.626994512456120534e-02,8.736838171073177950e-01,4.819573446779198411e-01,1.388034978381374458e+02
-1.444760489388613012e+00,3.476715269456667645e+00,-4.993108378350836318e+00,-1.179641769282319536e-01,5.558120072864588535e-01,8.228945652383590215e-01,1.403089969128198504e+02
-1.677717225724857597e+00,3.173365066636978149e+00,-5.134603691819454419e+00,-1.437118752910876152e-01,1.156833770837628755e-01,9.828337871389118963e-01,1.419033069566660572e+02
-1.945957806463863404e+00,2.848224640628756354e+00,-5.274055707011870098e+00,-1.378490843814493272e-01,-3.498913460573949141e-01,9.265914287685695916e-01,1.434976170005122640e+02
-2.244931477860059754e+00,2.504628510066485347e+00,-5.411342055663602046e+00,-1.016656414354553117e-01,-7.385025541575797048e-01,6.665403775029850042e-01,1.450919270443584708e+02
-2.570052420387544334e+00,2.145815356871306090e+00,-5.545757840405250327e+00,-4.312096940893522107e-02,-9.646753156358617298e-01,2.598848156313890989e-01,1.466862370882046775e+02
-2.949874088566596164e+00,1.739791132025483078e+00,-5.686930678718623788e+00,-3.250937472863366789e-02,-9.800778355020474120e-01,1.959300306428644611e-01,1.484274967066798467e+02
-3.349967913066852709e+00,1.322432011070318270e+00,-5.819041297282478098e+00,-2.175344047925175869e-02,-9.911287406835285196e-01,1.311053287018005831e-01,1.501687563251550159e+02
-4.019843708214788869e+00,6.376815167447387189e-01,-5.999919415850889948e+00,-1.090092117100183340e-02,-9.977789706790863855e-01,6.569852040828856599e-02,1.529645979216696503e+02
-4.540674499666566888e+00,1.139177229610677383e-01,-6.099458052990097023e+00,-0.000000000000000000e+00,-9.999989999972040966e-01,0.000000000000000000e+00,1.550850304170631944e+02
-5.061755187247460874e+00,-4.039678041258725760e-01,-6.151365243901534718e+00,-0.000000000000000000e+00,-9.983863971602844334e-01,-5.676796572270575297e-02,1.572054629124567384e+02
-5.503474053945671685e+00,-8.387387127117877927e-01,-6.148544118594928776e+00,-0.000000000000000000e+00,-5.852383420620165255e-01,-8.108600884130223729e-01,1.590275330318800684e+02
-5.934190869226089404e+00,-1.258811225899724162e+00,-6.094192726063749177e+00,-9.700588336520186983e-02,-0.000000000000000000e+00,9.952828033240374017e-01,1.608496031513033984e+02
-6.348773642002159434e+00,-1.658967094448396962e+00,-5.981559218823352175e+00,-0.000000000000000000e+00,9.741290686743671323e-02,9.952430484881401584e-01,1.626716732707267283e+02
-6.741480145028280191e+00,-2.034318990257428794e+00,-5.805644628487639736e+00,2.527921507571242454e-01,4.869959180850829128e-01,8.360197989791533502e-01,1.644937433901500583e+02
-7.224214024609661777e+00,-2.491468227222570775e+00,-5.462837165367613323e+00,4.446534444535836239e-01,7.591976195548758577e-01,4.752896893464857997e-01,1.669659575888699692e+02
-7.558636443122251691e+00,-2.809486841183750361e+00,-5.102926513569663314e+00,5.293393743997379941e-01,8.484089973069892654e-01,0.000000000000000000e+00,1.689522791725720765e+02
-7.834558452991485566e+00,-3.080648978842937424e+00,-4.675465634884918842e+00,6.888044421345352886e-01,5.241552734974067596e-01,-5.008070384506557726e-01,1.709386007562741838e+02
-8.043493730060230718e+00,-3.299854040018454615e+00,-4.191215142251009773e+00,5.855745249377145578e-01,0.000000000000000000e+00,-8.106173423659827071e-01,1.729249223399762911e+02
-8.155377099578700495e+00,-3.431532491209517755e+00,-3.794156305154217979e+00,-2.272997664907850258e-03,5.869383970274302254e-01,-8.096271682551752225e-01,1.744322198307954181e+02
-8.226134097829168823e+00,-3.534638619301610163e+00,-3.379494952168076161e+00,6.845150838934578319e-01,4.037554795401593899e-01,-6.069749687302692376e-01,1.759395173216145452e+02
-8.253002668723498303e+00,-3.607914879031787869e+00,-2.953179336468847893e+00,9.973505985893429404e-01,0.000000000000000000e+00,-7.273089780338486132e-02,1.774468148124336722e+02
-8.232728935722139596e+00,-3.650463411223431542e+00,-2.521490670882224006e+00,9.985864121505714230e-01,-2.163306697845154836e-02,-4.853027781654557782e-02,1.789541123032527992e+02
-8.105054286487769488e+00,-3.646748524275808201e+00,-1.873883503898027270e+00,9.987685284231495597e-01,-4.324330446463187094e-02,-2.427845204963264419e-02,1.812192020567611337e+02
-7.900572009629419412e+00,-3.572891635997363480e+00,-1.309483775038125852e+00,9.978967549793569258e-01,-6.480791914274021404e-02,-9.999987523568110213e-07,1.832160947391240029e+02
-7.624602884816397363e+00,-3.437428025623869399e+00,-7.564942769342019036e-01,9.852177632695038323e-01,-0.000000000000000000e+00,-1.713007849684479444e-01,1.852129874214868721e+02
-7.241998377665657571e+00,-3.213246039323607306e+00,-1.567270252302415401e-01,8.194300530581031250e-01,3.603895835300468392e-02,5.720433389407645342e-01,1.874583229554696970e+02
-6.795167414195417699e+00,-2.915878528545830406e+00,4.097230032429451940e-01,0.000000000000000000e+00,9.852226351184454334e-01,-1.712727627266911190e-01,1.897036584894525220e+02
-6.367082387889119843e+00,-2.605574084536854684e+00,8.647895049769269704e-01,8.948031780341495489e-01,-4.464585898833133837e-01,-9.999990814012338624e-06,1.916465656368893917e+02
-5.909529383520543355e+00,-2.252358875207481237e+00,1.280036556323790986e+00,5.239665561719764053e-01,4.409896264579255681e-02,-8.505952794997746480e-01,1.935894727843262615e+02
-5.513169137245209406e+00,-1.932218929546710040e+00,1.590102336362396063e+00,5.208093106521031190e-01,1.199998411671288481e-05,-8.536718700722197850e-01,1.951984852523261793e+02
-5.104774493858746709e+00,-1.592305494618924344e+00,1.867234694558739694e+00,4.704231093692800569e-01,-2.058992684231572209e-02,-8.821996106806480054e-01,1.968074977203260971e+02
-4.686827314604950168e+00,-1.236587896641879070e+00,2.110130799081942676e+00,4.182601029047069430e-01,-4.111408236360446222e-02,-9.073952383337500205e-01,1.984165101883260149e+02
-4.261650639318518508e+00,-8.694203944588816402e-01,2.318133747780522835e+00,3.645173132891623147e-01,-6.148294615362140392e-02,-9.291635892812571962e-01,2.000255226563259328e+02
-3.831612341452871107e+00,-4.951431514937933986e-01,2.490586888984736902e+00,3.093977292093413323e-01,-8.161958438714897457e-02,-9.474224446391121823e-01,2.016345351243258506e+02
-3.399125091087300543e+00,-1.180820040642844709e-01,2.626833826217441992e+00,2.531095393436448848e-01,-1.014479404073708457e-01,-9.621028409072428511e-01,2.032435475923257684e+02
-2.966646317437068969e+00,2.574517701446827900e-01,2.726218422904704397e+00,1.958653460542128522e-01,-1.208931219788928341e-01,-9.731493304086165086e-01,2.048525600603256862e+02
-2.536678170866647708e+00,6.271616834450783884e-01,2.788084807086726791e+00,1.378813624151131734e-01,-1.398816841419008861e-01,-9.805201906853733274e-01,2.064615725283256040e+02
-2.111767484406248396e+00,9.867662693456946688e-01,2.811777376129021011e+00,7.937659560824578131e-02,-1.583419065997060948e-01,-9.841875820622435489e-01,2.080705849963255218e+02
-1.694505734770102690e+00,1.331999313585491063e+00,2.796640801436218737e+00,2.057201976981475749e-02,-1.762040645925787297e-01,-9.841376527829557297e-01,2.096795974643254397e+02
-1.287529002877979556e+00,1.658610084998739298e+00,2.742020033172025695e+00,-3.831025859006361584e-02,-1.934006922353610214e-01,-9.803705913230565949e-01,2.112886099323253575e+02
-8.935179338777248237e-01,1.962363566209993637e+00,2.647260304993611424e+00,-9.704783944408325314e-02,-2.098668373247810637e-01,-9.729006256817598342e-01,2.128976224003252753e+02
-4.965604663222502602e-01,2.251827336796222045e+00,2.503342014672551130e+00,-1.554188692141388883e-01,-2.255403066545515756e-01,-9.617559696553694693e-01,2.145889187785864749e+02
-1.206199845154288103e-01,2.505375422031541621e+00,2.312949090327148571e+00,-2.132028786764961215e-01,-2.403619009121220063e-01,-9.469787162947552739e-01,2.162802151568476745e+02
2.315196834997917674e-01,2.717981215655150162e+00,2.076208836943661318e+00,-2.701816156425435600e-01,-2.542756382702157092e-01,-9.286246789485333997e-01,2.179715115351088741e+02
5.587210775538906660e-01,2.885237457733138999e+00,1.796251983199230517e+00,-3.643316506511736774e-01,-2.702385219929512306e-01,-8.911967176589211670e-01,2.196628079133700737e+02
8.615259357307462063e-01,3.003951138632974693e+00,1.479523647795760732e+00,-4.546489567743710047e-01,-2.833585204009818614e-01,-8.443934361547267287e-01,2.213541042916312733e+02
1.141025667636409890e+00,3.071529717161329831e+00,1.133677587355133909e+00,-5.401834061637749151e-01,-2.934976116811276459e-01,-7.887071951260732350e-01,2.230454006698924729e+02
1.398282360543026348e+00,3.085373406724575496e+00,7.663677895397401629e-01,-6.200351840248050639e-01,-3.005491321861505361e-01,-7.247238023648159277e-01,2.247366970481536725e+02
1.622007341060156982e+00,3.048482735647386921e+00,4.058950370360304705e-01,-6.933642543531250979e-01,-3.044388986220723514e-01,-6.531163508835919895e-01,2.263362442628188091e+02
1.827051150120177381e+00,2.964345270223751161e+00,3.858660489326074666e-02,-7.593991970455999940e-01,-3.051259886115086917e-01,-5.746381388321333272e-01,2.279357914774839458e+02
2.013270483967053881e+00,2.834302583947759580e+00,-3.302338225478542721e-01,-8.174453234217852193e-01,-3.026031714065686162e-01,-4.901147456161336624e-01,2.295353386921490824e+02
2.180535044526353161e+00,2.659696692100658844e+00,-6.952425502174633953e-01,-8.668919847599412254e-01,-2.968969842003350013e-01,-4.004353475047669475e-01,2.311348859068142190e+02
2.328727539417667192e+00,2.441869985152968603e+00,-1.051115910082644156e+00,-9.072189969198700688e-01,-2.880674532111539565e-01,-3.065433640244500380e-01,2.327344331214793556e+02
2.457743681830125038e+00,2.182165162165607519e+00,-1.392530298911205611e+00,-9.380021134064369104e-01,-2.762074624500230891e-01,-2.094265334932982059e-01,2.343339803361444922e+02
2.567788295366544293e+00,1.882077672519500089e+00,-1.715831482263368235e+00,-9.589174892264176187e-01,-2.614417767890617195e-01,-1.101065220771264286e-01,2.359361651841527987e+02
2.658970328279700368e+00,1.545434987945607741e+00,-2.018583724988708639e+00,-9.697450885032333767e-01,-2.439257295892374444e-01,-9.628175678412830354e-03,2.375383500321611052e+02
2.731809134047833876e+00,1.176393310789552782e+00,-2.300096028335802512e+00,-9.703709999279832576e-01,-2.238435886795933083e-01,9.095147224965278998e-02,2.391405348801694117e+02
2.786866231467865163e+00,7.791053717332694362e-01,-2.559677544707868790e+00,-9.607886356238706238e-01,-2.014066178704982668e-01,1.905743212830846856e-01,2.407427197281777183e+02
2.824745294742881274e+00,3.577202129585108081e-01,-2.796637582575406622e+00,-9.410988007627848484e-01,-1.768508543936486987e-01,2.881923359522431394e-01,2.423449045761860248e+02
2.846092143109753891e+00,-8.361702864618010544e-02,-3.010285611386271487e+00,-9.115086331722950241e-01,-1.504346256572247909e-01,3.827785718327685327e-01,2.439470894241943313e+02
2.851594729995855726e+00,-5.407653382328883040e-01,-3.199931266495961157e+00,-8.723294240815877565e-01,-1.224358314535633346e-01,4.733379797316791815e-01,2.455492742722026378e+02
2.841983131700292375e+00,-1.009588039694129247e+00,-3.364884354110773579e+00,-8.239733429484966676e-01,-9.314902022940615978e-02,5.589178742350762175e-01,2.471514591202109443e+02
2.818029535618542525e+00,-1.485953012313175448e+00,-3.504454856197079415e+00,-7.669491008605040516e-01,-6.288229019871817427e-02,6.386179564244301998e-01,2.487536439682192508e+02
2.780548228013142609e+00,-1.965732907362951920e+00,-3.617952935375007506e+00,-7.018565981868410963e-01,-3.195404792207608841e-02,7.115997852742236285e-01,2.503558288162275574e+02
2.715484533261701916e+00,-2.562607534509120821e+00,-3.720993316320887256e+00,-6.293806128572703162e-01,-6.896584751985506507e-04,7.770955980638393212e-01,2.523559196841706012e+02
2.631197715365974688e+00,-3.149195811558080926e+00,-3.779147501856489733e+00,-5.502835957419935919e-01,3.058197753338575894e-02,8.344163870078851186e-01,2.543560105521136450e+02
2.513739145179741730e+00,-3.795378807358047002e+00,-3.789214533995471701e+00,-4.263175022865959285e-01,1.177808767898500253e-01,8.968718148691283698e-01,2.566416892051559557e+02
2.379708403517919457e+00,-4.395268489657973454e+00,-3.739132384010173116e+00,-2.908955054870663859e-01,2.018147189441995282e-01,9.352265095180744003e-01,2.588825802331710975e+02
2.214947939652266662e+00,-5.017358347104165617e+00,-3.610345830433157932e+00,-1.476566465014347296e-01,2.804253748320166828e-01,9.484498531261736920e-01,2.613739160326605884e+02
2.130098766207054073e+00,-5.307933677757426416e+00,-3.518470597280513701e+00,-4.499992964603089646e-04,3.515004504557667775e-01,9.361865363435194487e-01,2.626015557104008167e+02
2.009254272774842143e+00,-5.706368081452097840e+00,-3.353124139920158342e+00,-8.959547751837177998e-01,4.379684012746583033e-01,7.380189910900618322e-02,2.643486070310358969e+02
1.891836629226965716e+00,-6.086106336019990515e+00,-3.142549757769367513e+00,-8.091991515595241616e-03,3.419286414898622395e-01,9.396900147406338499e-01,2.660956583516709770e+02
1.782348322626976289e+00,-6.448334979498540953e+00,-2.884242710159707457e+00,-6.207212649952538186e-01,4.428994755565259650e-02,7.827780731015169247e-01,2.678427096723060572e+02
1.684783105946695780e+00,-6.794342573651887207e+00,-2.577181273305105158e+00,-8.962736280309083758e-01,4.381243293420453710e-01,-6.883789462652831204e-02,2.695897609929411374e+02
1.658725877279662253e+00,-6.892024295569187053e+00,-2.480375040471505255e+00,-9.155354262114963060e-01,2.743214678425375253e-01,2.941778639418894392e-01,2.700954981453866708e+02
1.573568852206837843e+00,-7.235939962360141031e+00,-2.104515846396912693e+00,-7.892423660360413651e-01,6.690594625737242285e-02,6.104245096726237385e-01,2.719212908098941739e+02
1.504131210545782915e+00,-7.564631948456178812e+00,-1.687004175738688883e+00,2.335007349132722787e-01,9.332469405113534844e-01,2.729936900780461917e-01,2.737470834744016770e+02
1.448311765016463859e+00,-7.879344776336795420e+00,-1.237851295801465801e+00,-6.696665005627364664e-01,1.278249046681884937e-01,7.315774543895482429e-01,2.755728761389091801e+02
1.390781380442537074e+00,-8.257226299100439704e+00,-6.442066349610700016e-01,3.143997210389546867e-03,3.833196598875702327e-02,9.992591133759092248e-01,2.778749676196746918e+02
1.349023611235683262e+00,-8.539518959884011551e+00,-1.721150393533297795e-01,5.194795790149352166e-02,6.051975095493200563e-01,7.943773562384042197e-01,2.796742008535203468e+02
1.302125318710940727e+00,-8.801520714235151033e+00,2.736399428932663747e-01,2.578976637996942545e-01,9.378747773685799372e-01,-2.321156974095565928e-01,2.813965142006794622e+02
1.236822723327561491e+00,-9.056925195306675391e+00,7.017725273376130835e-01,-2.031297923572760594e-02,9.495260293783649441e-01,-3.130266800188108989e-01,2.831188275478385776e+02
1.134414617624660782e+00,-9.327322005954574280e+00,1.130359476661948248e+00,6.263253748261120579e-01,6.389893621854071670e-02,7.769372244911593173e-01,2.849748576434689653e+02
9.952324856707994716e-01,-9.597786962714859982e+00,1.513144182468847188e+00,0.000000000000000000e+00,7.954575522249510700e-01,6.060076588691523103e-01,2.868308877390993530e+02
8.085377156613074989e-01,-9.889863799386485965e+00,1.864787194597767428e+00,-5.195560781799028055e-02,7.802708982597027498e-01,6.232783809370298078e-01,2.888105467496665142e+02
5.854086619395133528e-01,-1.018121585894944126e+01,2.163661743167350160e+00,-1.037434786275844151e-01,7.625652958038516838e-01,6.385369686057347227e-01,2.907902057602336754e+02
3.295729192665490248e-01,-1.046395835343963299e+01,2.419395902989451841e+00,-1.551964278773874661e-01,7.423979041934457568e-01,6.517341640743909981e-01,2.927698647708008366e+02
-3.573601512715125772e-02,-1.079935494088866399e+01,2.691165126571576138e+00,-2.061483523647834049e-01,7.198338296584151363e-01,6.628273640210579076e-01,2.952890066094113877e+02
-3.009784364833715808e-01,-1.100607863566146172e+01,2.842334280714430950e+00,-2.564347663656488807e-01,6.949459151570305249e-01,6.717807570957036178e-01,2.969838690017872977e+02
-5.749443431314824604e-01,-1.119681645695507655e+01,2.967537938948553666e+00,-3.058933325420953309e-01,6.678145052501219814e-01,6.785654394988800409e-01,2.986787313941632078e+02
-8.514056171281472185e-01,-1.137039528177723646e+01,3.066212286587103097e+00,-3.543643859173606914e-01,6.385271867724109374e-01,6.831595082733730173e-01,3.003735937865391179e+02
-1.145644277642630326e+00,-1.153735083758601654e+01,3.148469826504796121e+00,-4.016914492292647521e-01,6.071785061367140912e-01,6.855481320082069674e-01,3.022150794279361321e+02
-1.422787738732068208e+00,-1.167974276903719044e+01,3.214293034664319038e+00,-4.477217380013170933e-01,5.738696641818268329e-01,6.857235987269224564e-01,3.040565650693331463e+02
-1.671332879245292391e+00,-1.179688301111778514e+01,3.272548026636517893e+00,-3.159963989996197875e-01,6.905856922983957258e-01,6.505656595698381395e-01,3.058980507107301605e+02
-1.858672849831090046e+00,-1.187988464268252997e+01,3.323284834353238182e+00,-1.740927504880892540e-01,7.850576956538563023e-01,5.944527977239723038e-01,3.075227253755593324e+02
-2.008674911979604349e+00,-1.194453666584615270e+01,3.378600247678984481e+00,-2.658153008043233345e-02,8.542427329973417693e-01,5.191924261576738031e-01,3.091474000403885043e+02
-2.114319903359989983e+00,-1.199123642539684731e+01,3.442392498045977689e+00,1.217859109106245313e-01,8.959123446181856965e-01,4.272086874863859074e-01,3.107720747052176762e+02
-2.169676127114677389e+00,-1.202120176859633460e+01,3.516701215393147173e+00,6.531418935686201799e-01,7.383882925526278340e-01,-1.678880468879486443e-01,3.123967493700468481e+02
-2.170548218684575925e+00,-1.203599839195438115e+01,3.602076700129720699e+00,7.525789214886212664e-01,9.257286733498915066e-02,-6.519610656828038753e-01,3.140214240348760200e+02
-2.054584414190458119e+00,-1.202873383605865243e+01,3.753565836536083999e+00,7.733246102499611307e-01,1.098219446505301483e-01,-6.244246852944518311e-01,3.165180122845688970e+02
-1.893025477051618388e+00,-1.200430366009594074e+01,3.869342719822326693e+00,6.827382631584496542e-01,2.016997823166090040e-02,-7.303832117378986633e-01,3.182278967969609198e+02
-1.671283465967440263e+00,-1.196695631617030742e+01,3.991060274983921907e+00,5.861132807163141889e-01,2.285147391920449439e-02,-8.099055699944655018e-01,3.199377813093529426e+02
-1.393959610261097604e+00,-1.191704999721875780e+01,4.114820321812140413e+00,4.803054299989529818e-01,2.517494587256909402e-02,-8.767387957734447124e-01,3.216476658217449653e+02
-1.066120215155146767e+00,-1.185498323650600128e+01,4.236864722839434272e+00,3.669724371136389718e-01,2.710399158960065391e-02,-9.298357941266708337e-01,3.233575503341369881e+02
-6.937618208394773500e-01,-1.178126075453825017e+01,4.353715473143244807e+00,2.478899246219767594e-01,2.860838805151681360e-02,-9.683646758346002859e-01,3.250674348465290109e+02
-3.158377861310753820e-01,-1.170344900389297038e+01,4.454382222970338923e+00,1.249235945148131494e-01,2.966456520888451076e-02,-9.917217901732719998e-01,3.266485854800072275e+02
8.862997767202125676e-02,-1.161705467654960522e+01,4.545331048660761653e+00,0.000000000000000000e+00,3.025597526115801628e-02,-9.995411827237045133e-01,3.282297361134854441e+02
5.146320478053665326e-01,-1.152242491071041819e+01,4.624365632781333169e+00,3.654495584903459724e-06,1.186987234458815460e-01,-9.929293091848513386e-01,3.298108867469636607e+02
9.813178446397832211e-01,-1.141396323660577572e+01,4.693065790796164372e+00,7.280245057391065425e-06,2.062077956053301464e-01,-9.785072023127895369e-01,3.314770801097402000e+02
1.460418655225822926e+00,-1.129668833059212396e+01,4.745486428067665408e+00,1.084872909490147077e-05,2.920948652868565198e-01,-9.563883047981955876e-01,3.331432734725167393e+02
1.945720472641130794e+00,-1.117091652515303046e+01,4.780391360176471593e+00,1.433187880706052457e-05,3.756843641725760019e-01,-9.267465987583500819e-01,3.348094668352932786e+02
2.431006414472435040e+00,-1.103692555087215155e+01,4.796544537485253556e+00,1.770229649376487053e-05,4.563187953344823855e-01,-8.898152374005994236e-01,3.364756601980698179e+02
2.910056826600773583e+00,-1.089495452133242104e+01,4.792710054652547846e+00,2.093347112657586304e-05,5.333639044156845976e-01,-8.458847114277399104e-01,3.381418535608463571e+02
3.102624342214237885e+00,-1.083531310264979908e+01,4.785903565533755177e+00,2.399998686029240335e-05,6.062136681052208154e-01,-7.953005645823920666e-01,3.388202483051150011e+02
3.543768296158339215e+00,-1.069163223636010329e+01,4.757290320730180433e+00,-2.968061003945336816e-03,5.166046780579997000e-01,-8.562177276964639816e-01,3.404050721626194331e+02
3.968178643376329973e+00,-1.053985138393341003e+01,4.707301288903527059e+00,-5.925247148145470523e-03,4.209258044687061995e-01,-9.070746157721527592e-01,3.419898960201238651e+02
4.372109593513536119e+00,-1.037872889036042778e+01,4.634020553296399392e+00,-8.812812869505144697e-03,3.203012378510876057e-01,-9.472736940083662516e-01,3.435747198776282971e+02
4.752311676979645405e+00,-1.020648170949930211e+01,4.535137057640770131e+00,-1.159683067996164496e-02,2.159132737842148209e-01,-9.763426507748212968e-01,3.451595437351327291e+02
5.105795373841024443e+00,-1.002104823702754111e+01,4.408142273095177366e+00,-1.424458976620153819e-02,1.089884224470114293e-01,-9.939399455877652168e-01,3.467443675926371611e+02
5.449086490008252959e+00,-9.806215952466645902e+00,4.238756265471271156e+00,-1.672498027859508837e-02,7.829990767198775643e-04,-9.998588210078376282e-01,3.484326135822531114e+02
5.755192987023971085e+00,-9.570525238940083668e+00,4.031386619734528942e+00,-3.469998025792885802e-03,8.438305199143620872e-01,5.365966947107738694e-01,3.501208595718690617e+02
6.024022245604350623e+00,-9.310975658308706215e+00,3.785503838876281613e+00,-7.004658684010709457e-01,6.622940462421057495e-01,2.659175878248260516e-01,3.518091055614850120e+02
6.238661922353005984e+00,-9.051262921046145493e+00,3.529618153628182320e+00,-9.827669508574263801e-01,8.866065104605445890e-02,-1.621925067802038323e-01,3.533499825097700864e+02
6.425941157474703402e+00,-8.767942013483841279e+00,3.246673912384234750e+00,-6.832426184446384054e-01,-5.374616998556768221e-01,-4.942797239705578050e-01,3.548908594580551608e+02
6.587140468400455973e+00,-8.458612349765937566e+00,2.939081280318641909e+00,-0.000000000000000000e+00,-7.954151309473627141e-01,-6.060633378288624584e-01,3.564317364063402351e+02
6.723277353065700623e+00,-8.121295288087512887e+00,2.609587720681524559e+00,7.999993674332641892e-06,-7.954073710641973438e-01,-6.060735207721852369e-01,3.579726133546253095e+02
6.834814845890805124e+00,-7.754846853753510239e+00,2.261615112538869710e+00,-1.247656050597522118e-02,-9.436133756866501576e-01,-3.308113248725151889e-01,3.595134903029103839e+02
6.930010725212922829e+00,-7.307081296261233483e+00,1.854128903082183921e+00,-2.373978329487459391e-02,-9.994487282120604332e-01,-2.316597430514168859e-02,3.612404565026685077e+02
6.993205253243190533e+00,-6.817694348943855509e+00,1.433002832132167059e+00,-3.267910823270656767e-02,-9.574477798498085557e-01,2.867469699009054795e-01,3.629674227024266315e+02
7.024698344084082891e+00,-6.285586963912292546e+00,1.003706720009498010e+00,-3.841946637327307151e-02,-8.217221354017798518e-01,5.685900779966802654e-01,3.646943889021847554e+02
7.025028030835790638e+00,-5.710631787419173655e+00,5.715737060343545339e-01,-4.039893773900122415e-02,-6.055580667415491058e-01,7.947737751309364995e-01,3.664213551019428792e+02
6.994350093201845198e+00,-5.083994891669066263e+00,1.346696609316050119e-01,-7.311114477979659132e-02,-5.712273215280887495e-01,8.175280470113035491e-01,3.681766932720964860e+02
6.933552113447237986e+00,-4.417492287413677943e+00,-2.947405640343371824e-01,-1.056210931177254536e-01,-5.353163042778050773e-01,8.380206674445757065e-01,3.699320314422500928e+02
6.843859117269178505e+00,-3.714095626851177556e+00,-7.114681961736329940e-01,-1.378388461971431223e-01,-4.979243603704511800e-01,8.561949449920742694e-01,3.716873696124036996e+02
6.726777474097203502e+00,-2.977338807679855037e+00,-1.111083031972377677e+00,-1.696752757761389729e-01,-4.591549319928361350e-01,8.720006016157161310e-01,3.734427077825573065e+02
6.584402834927456816e+00,-2.211875217098986823e+00,-1.490671935757426514e+00,-2.010423084739199617e-01,-4.191152719984198027e-01,8.853939117603736308e-01,3.751980459527109133e+02
6.432193546926177952e+00,-1.481611641049861650e+00,-1.822982015082611262e+00,-2.318531694013533373e-01,-3.779161472273271372e-01,8.963378233146779284e-01,3.768251420794489377e+02
6.262725081847014152e+00,-7.360834185171791777e-01,-2.134918856313274826e+00,-2.620226222011780015e-01,-3.356715321065214530e-01,9.048020601154054265e-01,3.784522382061869621e+02
6.077729922434999210e+00,2.073020374026074419e-02,-2.424799866996117270e+00,-2.914672048342999977e-01,-2.924982933769788018e-01,9.107632057118522084e-01,3.800793343329249865e+02
5.878898000325010642e+00,7.848397375273635790e-01,-2.690942616564583112e+00,-3.201054604602911469e-01,-2.485158668192347098e-01,9.142047681582947671e-01,3.817064304596630109e+02
5.667876669755511188e+00,1.552245676136944308e+00,-2.931664848685926472e+00,-3.478581627737170612e-01,-2.038459268708150973e-01,9.151172256550021977e-01,3.833335265864010353e+02
5.446270681767400035e+00,2.318938717387072579e+00,-3.145284493607113596e+00,-3.746485351731793645e-01,-1.586120500487505358e-01,9.134980529111221825e-01,3.849606227131390597e+02
5.215642158888297963e+00,3.080899986769413790e+00,-3.330119680499752821e+00,-4.004024631569320647e-01,-1.129393731075565149e-01,9.093517281559776455e-01,3.865877188398770841e+02
4.977510570302625226e+00,3.834101260706575864e+00,-3.484488749804047103e+00,-4.250486993575842698e-01,-6.695424687768804228e-02,9.026897207787568655e-01,3.882148149666151085e+02
4.733352707507571644e+00,4.574505189916444614e+00,-3.606710265571673180e+00,-4.485190606486723075e-01,-2.078388674150393953e-02,8.935304596300774893e-01,3.898419110933531329e+02
4.484602660454586776e+00,5.298065522881235445e+00,-3.695103027807377760e+00,-4.707486167777243935e-01,2.544397928682253299e-02,8.818992820723468018e-01,3.914690072200911573e+02
4.232651794175338544e+00,6.000727329419620837e+00,-3.747986084809441287e+00,-9.005292864708680511e-01,3.287197395408299888e-02,4.335486564802486509e-01,3.930961033468291816e+02
3.978848725892596416e+00,6.678427224359934300e+00,-3.763678745508920009e+00,-9.150846102212297772e-01,2.187635938107019007e-01,3.387634073494665277e-01,3.947231994735672060e+02
3.672008921726618969e+00,7.453874069856992080e+00,-3.729521290938383249e+00,-8.896032759461425243e-01,3.950838328632862995e-01,2.291566635205039837e-01,3.966860397963534410e+02
3.366542762452291893e+00,8.173901721423167288e+00,-3.634235550452524777e+00,-8.252001487477048647e-01,5.541184283876650074e-01,1.095238870183671970e-01,3.986488801191396760e+02
3.065111994780592042e+00,8.831128215415894545e+00,-3.476863876698367051e+00,-4.391066664125947705e-01,2.292398258475114581e-02,8.981413176859870395e-01,4.006117204419259110e+02
2.624682877497135358e+00,9.676846872894936169e+00,-3.124338929643327045e+00,-5.502835957384100141e-01,3.058197753318660228e-02,8.344163870024511320e-01,4.035806221692376994e+02
2.385354311302900321e+00,1.007648146863048844e+01,-2.863656981406238700e+00,-0.000000000000000000e+00,1.466999104714299465e-02,9.998913897825427721e-01,4.052715465607382157e+02
2.157431189003176097e+00,1.042336843372677180e+01,-2.560821843933932307e+00,-3.436875621632172195e-01,-5.946482424547698820e-01,7.268220740734503416e-01,4.069624709522387320e+02
1.937931755554062718e+00,1.072361653319693353e+01,-2.208201387781963287e+00,-5.762862695641384203e-01,-6.456930095038887485e-01,5.009717287340024194e-01,4.086979669712122245e+02
1.735256693457049249e+00,1.096769013596083298e+01,-1.815959120111373837e+00,-7.468095821663789380e-01,-6.271860843509724504e-01,2.211584580831907065e-01,4.104334629901857170e+02
1.570247863771080166e+00,1.114050988084566640e+01,-1.437821978006730950e+00,-8.368892760825618060e-01,-5.411209080742862554e-01,-8.247728428740498663e-02,4.119735915148182244e+02
1.418993262622409768e+00,1.127621255138830136e+01,-1.035012640525720062e+00,-8.368222271819490965e-01,-3.967680931608277839e-01,-3.772288964863628191e-01,4.135137200394507317e+02
1.259997691171502288e+00,1.138858505162752621e+01,-5.421453712948361980e-01,-7.466156567827186841e-01,-2.096768406473069335e-01,-6.313467221296268361e-01,4.152978382196043867e+02
1.115230860247099054e+00,1.145591513400712635e+01,-2.745686656062892167e-02,-5.759863546498654729e-01,0.000000000000000000e+00,-8.174580840986418462e-01,4.170819563997580417e+02
9.783944793502044046e-01,1.148466410248753000e+01,5.004043308661457745e-01,-9.796745246596755274e-01,0.000000000000000000e+00,2.005886979235580458e-01,4.188660745799116967e+02
8.422871912989672305e-01,1.148106092446164439e+01,1.039874205424968778e+00,-9.853093004657418330e-01,-0.000000000000000000e+00,1.707734827287889778e-01,4.206755683381917947e+02
7.101291232852007251e-01,1.145033043422300345e+01,1.575641829754769629e+00,-9.900369024462618572e-01,-0.000000000000000000e+00,1.408010361541612576e-01,4.224850620964718928e+02
5.898650560118227082e-01,1.139776348301906772e+01,2.102529575057381805e+00,-9.938529787037632124e-01,-0.000000000000000000e+00,1.106989462856242806e-01,4.242945558547519909e+02
4.921222983289181840e-01,1.133008766380553212e+01,2.608799645343391926e+00,-9.967540156722589639e-01,-0.000000000000000000e+00,8.049492050858886305e-02,4.260724097457448352e+02
4.284269289174613693e-01,1.126319113488568746e+01,3.036737224453798678e+00,-9.804105061798145115e-01,7.271012714674379707e-02,-1.830477445463894737e-01,4.276089649632309602e+02
3.866063587997271567e-01,1.119250523462456215e+01,3.456173559748447754e+00,-8.905276303262781301e-01,1.399663532287232226e-01,-4.328602079083144205e-01,4.291455201807170852e+02
3.692099172201857016e-01,1.109421087020868590e+01,4.030646521879243771e+00,-7.338474265489453030e-01,1.967238690237132492e-01,-6.502043324257162915e-01,4.313033663303774006e+02
4.009377142654870219e-01,1.100659026424333753e+01,4.586716357374564623e+00,-5.221223237030431230e-01,2.387253709546625913e-01,-8.187774278490362878e-01,4.334612124800377160e+02
4.837784554810656834e-01,1.093866166152229980e+01,5.144208840090892743e+00,-2.712335734844367185e-01,2.628203936832496646e-01,-9.259350891292724706e-01,4.357130778755564506e+02
5.690205038180735642e-01,1.090896964705918570e+01,5.518557720682698786e+00,-0.000000000000000000e+00,2.672016144699128071e-01,-9.636396096189445704e-01,4.372915600321941270e+02
6.506760103834609010e-01,1.089553165182617533e+01,5.808528645879557750e+00,-0.000000000000000000e+00,9.222620535802453223e-02,-9.957370772667407666e-01,4.385627805294868153e+02
8.195372286974170750e-01,1.089993482841890682e+01,6.285842663600050173e+00,-0.000000000000000000e+00,-8.566789209248037995e-02,-9.963227450290472742e-01,4.408040293173821169e+02
1.015138844161448839e+00,1.094425616957192382e+01,6.708412212108163963e+00,-4.789543995523736220e-01,-2.295067122758225886e-01,-8.473059377635123735e-01,4.430452781052774185e+02
1.157883413186990840e+00,1.099472505098040465e+01,6.959274061629393771e+00,-0.000000000000000000e+00,-8.566789209255594451e-02,-9.963227450299261267e-01,4.445667459702877977e+02
1.304456160489547489e+00,1.105910930447861773e+01,7.177661429800232362e+00,6.947935909134375393e-05,-3.917982466375899975e-01,-9.200500688037093200e-01,4.460882138352981769e+02
1.451781646912027490e+00,1.113695221489160225e+01,7.360390336373978215e+00,1.320432075780096409e-04,-6.589316036563900303e-01,-7.522015183901425983e-01,4.476096817003085562e+02
1.596371392864008865e+00,1.122733837352843800e+01,7.505069458801651550e+00,1.814643410758532121e-04,-8.604792121158419960e-01,-5.094835547765851347e-01,4.491311495653189354e+02
1.734523124029478058e+00,1.132913423145066645e+01,7.609703933140670173e+00,2.128236749010832399e-04,-9.763802115632792544e-01,-2.160547087521522691e-01,4.506526174303293146e+02
1.863684407563276135e+00,1.144241250133074139e+01,7.672621635551240438e+00,2.229998744318024766e-04,-9.950984396735972348e-01,9.887894432261074007e-02,4.521890650941783178e+02
1.978322663114610247e+00,1.156514397297175556e+01,7.691645519235372319e+00,0.000000000000000000e+00,-0.000000000000000000e+00,-9.999989999999950863e-01,4.537255127580273211e+02
2.073775433661370737e+00,1.169624517460058044e+01,7.668268093553712639e+00,-9.978449368366325567e-01,-0.000000000000000000e+00,-6.560093010486582610e-02,4.552619604218763243e+02
2.145292669050353762e+00,1.183465626007481752e+01,7.605753021734924957e+00,-9.968817776000661324e-01,-0.000000000000000000e+00,-7.889690325475749721e-02,4.567984080857253275e+02
2.160555502927612892e+00,1.187262967256732793e+01,7.583598206450024470e+00,-9.968817769695289543e-01,-0.000000000000000000e+00,-7.889690320485444330e-02,4.572091555775042480e+02
2.199338156987444393e+00,1.200608226369808129e+01,7.493112561433732388e+00,-9.978448058421117706e-01,-0.000000000000000000e+00,-6.560292149055070576e-02,4.586268359789040687e+02
2.182462181377342603e+00,1.229009809671387643e+01,7.250994711936658454e+00,-9.996734394078147234e-01,-0.000000000000000000e+00,-2.551498569182592685e-02,4.615014991610228208e+02
2.137829389158076854e+00,1.240959371918977894e+01,7.137285710018526075e+00,-9.996734387258396914e-01,-0.000000000000000000e+00,-2.551498567441966292e-02,4.626683082032648713e+02
2.109592962907982816e+00,1.246930790125791511e+01,7.079747927732585211e+00,-9.999375492545149458e-01,-0.000000000000000000e+00,1.108591748805865841e-02,4.632483871042961709e+02
2.032717487713011639e+00,1.260010652783427609e+01,6.954361295148260957e+00,-9.988620448979329547e-01,-0.000000000000000000e+00,4.767195441654587668e-02,4.645172656691527777e+02
1.991092381049926141e+00,1.265934469834493648e+01,6.898127793690130183e+00,-9.988620442052849047e-01,-0.000000000000000000e+00,4.767195438348836856e-02,4.650917242176387845e+02
1.897570452358069870e+00,1.277570806577158002e+01,6.789756993189641321e+00,-3.571165318404009859e-01,-5.924852232853429213e-01,-7.220990533689337632e-01,4.662250317618977533e+02
1.687679856696887137e+00,1.297159041175047633e+01,6.616021645975084908e+00,-3.172323247859069606e-01,-6.885515794432593983e-01,-6.521183746516439061e-01,4.681879903090210178e+02
1.558633806330959271e+00,1.306784152354088668e+01,6.534929320829360400e+00,-2.723622399123573068e-01,-7.737960831197404632e-01,-5.718884786562400402e-01,4.691884462794557749e+02
1.340720523131996522e+00,1.320657696509459278e+01,6.421567112100937003e+00,-2.232114906904697493e-01,-8.468789706305596132e-01,-4.826703217816177838e-01,4.707001319349711821e+02
1.095236692391328814e+00,1.333374982135678621e+01,6.318591589170884149e+00,-1.705525674739069575e-01,-9.066516177340149252e-01,-3.858661241799071218e-01,4.722118175904865893e+02
8.261010534566910479e-01,1.344606380519738309e+01,6.222626721818967255e+00,-1.152130970243081809e-01,-9.521745911958940933e-01,-2.829973324188191364e-01,4.737235032460019966e+02
5.373948762933649093e-01,1.354011464395377651e+01,6.129492059388598868e+00,-5.806283561057172526e-02,-9.827324130960285453e-01,-1.756807085946620051e-01,4.752351889015174038e+02
4.300789344710855278e-01,1.356977156519131889e+01,6.096082837581023206e+00,0.000000000000000000e+00,-9.978448059152624783e-01,-6.560292149535996986e-02,4.757783274329988785e+02
2.022358468215434135e-01,1.362525745449817016e+01,6.024634019078626501e+00,0.000000000000000000e+00,-9.978448052109765154e-01,-6.560292144905695289e-02,4.769114016584073283e+02
8.493833917313285686e-02,1.364997348934523735e+01,5.987236873536661896e+00,0.000000000000000000e+00,-9.978448052109765154e-01,-6.560292144905695289e-02,4.774851045838298091e+02
-1.783571255237681452e-01,1.369520087597651603e+01,5.898112282812874696e+00,0.000000000000000000e+00,-9.978444081185932069e-01,-6.560896108338747090e-02,4.787539974464423835e+02
-5.196498001639121567e-01,1.372707864103768749e+01,5.763316920001754440e+00,0.000000000000000000e+00,-9.978444081185868786e-01,-6.560896108338705457e-02,4.803608277545353076e+02
-6.394430694138907301e-01,1.373205046306986254e+01,5.710300188849023684e+00,-0.000000000000000000e+00,-9.996734394078184982e-01,-2.551498569182602399e-02,4.809174196804343069e+02
-9.507103941569322592e-01,1.373167502018543651e+01,5.553566655371227512e+00,-0.000000000000000000e+00,-9.988619020403455284e-01,4.767494759518920572e-02,4.823547204743875341e+02
-1.163396785424516633e+00,1.372000795470772516e+01,5.428361594719429029e+00,-0.000000000000000000e+00,-9.988619013476969233e-01,4.767494756212959511e-02,4.833312064052931873e+02
-1.273331646682462681e+00,1.371159295664544153e+01,5.358762454557642663e+00,7.506141027920847364e-01,1.873007761196621990e-01,-6.336362426155461858e-01,4.838355120241269560e+02
-1.625637481285250097e+00,1.366868944422443910e+01,5.103054129594603694e+00,9.978431604530615395e-01,0.000000000000000000e+00,-6.562794478316603952e-02,4.854597312741164501e+02
-1.972084985643051125e+00,1.359874334060166845e+01,4.791675641822342513e+00,8.091997403666189026e-01,-3.531530041993178881e-01,-4.695495030524597935e-01,4.870839505241059442e+02
-2.307986028008409463e+00,1.350501518195765982e+01,4.424186937368825845e+00,3.588155418937190033e-01,-5.920762440855688036e-01,-7.215920787303642392e-01,4.887081697740954382e+02
-2.629156170440243301e+00,1.339148274888277612e+01,4.001387727169714914e+00,9.978431604535994426e-01,-0.000000000000000000e+00,-6.562794478320141400e-02,4.903323890240849323e+02
-3.146564817878320763e+00,1.314914975261787866e+01,3.127520360310324321e+00,9.996731842912910393e-01,-0.000000000000000000e+00,-2.552497917224535659e-02,4.932070624433658281e+02
-3.583052804525674873e+00,1.286842222296305494e+01,2.113669475782131268e+00,7.506141027916850561e-01,1.873007761195624732e-01,-6.336362426152086780e-01,4.960817464272052462e+02
-3.793230468746091599e+00,1.269909208520512323e+01,1.480279479597965464e+00,9.988611377192080365e-01,0.000000000000000000e+00,4.769095883011541942e-02,4.977329149815841447e+02
-3.972748277574222886e+00,1.252962948220467787e+01,8.211213928679235163e-01,9.988611370143450907e-01,-0.000000000000000000e+00,4.769095879646149949e-02,4.993840835359630432e+02
-4.189153355061635331e+00,1.226968141671448187e+01,-2.504574211454871913e-01,9.796526068630516670e-01,-0.000000000000000000e+00,2.006957145961605071e-01,5.019986693732570302e+02
