-3.841156889606931024e+00,-1.201204087715904423e-01,7.998763253843212961e-01,4.825259350032183314e-01,-2.154640483935416628e-01,-8.489652324452082732e-01,1.088214258439014515e+02
-3.878906810489148427e+00,-2.453024248397002102e-02,6.608703165815534852e-01,4.645030361044745759e-01,-2.854953557055665558e-01,-8.382883342393991910e-01,1.106637396055032525e+02
-3.910531556999218505e+00,8.026092483879611328e-02,5.168653783997704254e-01,4.439981966975548588e-01,-3.540012015451527438e-01,-8.231322801563943914e-01,1.126592241946479902e+02
-3.934126258936796461e+00,1.845960759041047894e-01,3.801636295385883990e-01,4.211209781471422220e-01,-4.206155448642448502e-01,-8.035780517065317374e-01,1.146547087837927279e+02
-3.949942972187755696e+00,2.804490906259395344e-01,2.595532581145977846e-01,3.959936179041184667e-01,-4.849824511363635682e-01,-7.797301306672969057e-01,1.165250839619554171e+02
-3.960653472357676286e+00,3.729707814954119627e-01,1.469842474254254294e-01,3.687503763915828126e-01,-5.467579941638641694e-01,-7.517159408515864394e-01,1.183954591401181062e+02
-3.967385670670507292e+00,4.608404599118196554e-01,4.283855640718399471e-02,3.395368196509885861e-01,-6.056120937327502673e-01,-7.196851672969762914e-01,1.202658343182807954e+02
-3.971408994963939509e+00,5.469093977368879589e-01,-5.738050893845297179e-02,3.085090415799792152e-01,-6.612302792969462217e-01,-6.838089565116621804e-01,1.222293147984651398e+02
-3.973146285921762555e+00,6.138892826592042828e-01,-1.347219300800002184e-01,2.758328299162718933e-01,-7.133153702686207964e-01,-6.442790020481299340e-01,1.238985901644768290e+02
-3.973990392925034421e+00,6.739422579375082822e-01,-2.041956117832851025e-01,2.416827804225782084e-01,-7.615890639361687642e-01,-6.013065202882664773e-01,1.255678655304885183e+02
-3.974615652383599151e+00,7.265279900674239677e-01,-2.658940961135599634e-01,2.062413640044496455e-01,-8.057934225244626214e-01,-5.551211219103143746e-01,1.272371408965002075e+02
-3.976071704123917971e+00,7.866171984568283149e-01,-3.387165079068208962e-01,1.696979517446117747e-01,-8.456922514503735222e-01,-5.059695850656241722e-01,1.294850837770118233e+02
-3.979100354552793206e+00,8.354094311870947642e-01,-4.015701164872815809e-01,1.322478030624442691e-01,-8.810723614074573717e-01,-4.541145368186027542e-01,1.317330266575234532e+02
-3.984014505392805106e+00,8.690631580287559999e-01,-4.496949134411606930e-01,9.409102240456787558e-02,-9.117447075340616713e-01,-3.998330498937751054e-01,1.337627631731480449e+02
-3.991642651780992868e+00,8.923974581336788781e-01,-4.896545212450575391e-01,5.543149004094263810e-02,-9.375453995756024561e-01,-3.434151622268206694e-01,1.357924996887726365e+02
-3.999545824848429909e+00,9.022425466615747736e-01,-5.136299814866823743e-01,1.647577267955047803e-02,-9.583365776409081827e-01,-2.851623272293882794e-01,1.372979987634550412e+02
-4.009760038930641812e+00,9.048995812004657635e-01,-5.323307658585518798e-01,-2.256798027912821150e-02,-9.740071488706624203e-01,-2.253858030481917241e-01,1.388034978381374458e+02
-4.022141536306051535e+00,9.007441306347627741e-01,-5.461706483386410405e-01,-3.385847225866992632e-02,-9.992674333956559352e-01,1.778202491211393690e-02,1.403089969128198504e+02
-4.037203495019655364e+00,8.896364628675448305e-01,-5.562037531248452682e-01,-4.312096940898908076e-02,-9.646753156370665439e-01,2.598848156317137281e-01,1.419033069566660572e+02
-4.053800312801352668e+00,8.723689300262452706e-01,-5.621868964857504869e-01,-2.893775395076859588e-02,-9.842478059813800639e-01,1.744043084690869161e-01,1.434976170005122640e+02
-4.071504739352020508e+00,8.494917140096712727e-01,-5.647014985244415142e-01,-1.452619148957906732e-02,-9.960534175813652302e-01,8.754758181093330593e-02,1.450919270443584708e+02
-4.089869075998650239e+00,8.215583792664685747e-01,-5.639695306705696520e-01,-0.000000000000000000e+00,-9.999989999972040966e-01,0.000000000000000000e+00,1.466862370882046775e+02
-4.110112603780232909e+00,7.861613760086856306e-01,-5.590598746973117761e-01,8.751361998231563799e-01,3.871196460388948157e-02,4.823235589896255893e-01,1.484274967066798467e+02
-4.129960469731721595e+00,7.465399330301273340e-01,-5.490398898666382088e-01,0.000000000000000000e+00,-9.983863971768655032e-01,-5.676796572364854049e-02,1.501687563251550159e+02
-4.160209659009215244e+00,6.774249284495635903e-01,-5.228990141012073156e-01,-0.000000000000000000e+00,-5.852383420620165255e-01,-8.108600884130223729e-01,1.529645979216696503e+02
-4.181025561901765109e+00,6.219575606787918209e-01,-4.939137229427446041e-01,1.645510858972568935e-01,-4.638669931548593528e-01,-8.704874225353572692e-01,1.550850304170631944e+02
-4.198806032825851631e+00,5.644785375166826435e-01,-4.544317120656417019e-01,3.216375400365929504e-01,-3.214529860282211438e-01,-8.906263361328518036e-01,1.572054629124567384e+02
-4.210820410489602317e+00,5.141549838583669985e-01,-4.106158146197723680e-01,4.641333903026779173e-01,-1.644566955776241568e-01,-8.703632524907247703e-01,1.590275330318800684e+02
-4.218978315652688771e+00,4.636434163818510812e-01,-3.562969517117148821e-01,5.855745249375534645e-01,-0.000000000000000000e+00,-8.106173423657596633e-01,1.608496031513033984e+02
-4.222738937126997882e+00,4.136646525535302987e-01,-2.909893511337800498e-01,9.973505985890397385e-01,-0.000000000000000000e+00,-7.273089780336276788e-02,1.626716732707267283e+02
-4.221549563242183112e+00,3.648835092648520240e-01,-2.143519858570754610e-01,9.943954127286876998e-01,-0.000000000000000000e+00,-1.057154819699346188e-01,1.644937433901500583e+02
-4.212440766549118365e+00,3.011352792195468031e-01,-9.493776149610534676e-02,9.903496559785027742e-01,-0.000000000000000000e+00,-1.385841220600468326e-01,1.669659575888699692e+02
-4.198369756991878532e+00,2.524503928105750750e-01,1.310855304563745931e-02,9.852177632649615768e-01,-0.000000000000000000e+00,-1.713007849676581318e-01,1.689522791725720765e+02
-4.176819912113986177e+00,2.066847377710875622e-01,1.326153192484842702e-01,8.194300530581031250e-01,3.603895835300468392e-02,5.720433389407645342e-01,1.709386007562741838e+02
-4.147214154762771443e+00,1.639804890883689859e-01,2.626523555610022487e-01,8.620026418828926618e-01,5.392309248758606760e-02,5.040255405042147752e-01,1.729249223399762911e+02
-4.118277730010634130e+00,1.338552483784400948e-01,3.684902182727852193e-01,8.987492265097964950e-01,7.144278408310987538e-02,4.326011516940636015e-01,1.744322198307954181e+02
-4.082595072926420876e+00,1.058997563773467765e-01,4.806854209914468989e-01,9.294214453874203308e-01,8.847962556411960444e-02,3.582528893251009650e-01,1.759395173216145452e+02
-4.039933244447194483e+00,7.999574499487197010e-02,5.984935439207269559e-01,9.538119857589133499e-01,1.049184717473173878e-01,2.814832323668968739e-01,1.774468148124336722e+02
-3.990058785016442844e+00,5.607524548287010080e-02,7.211232567862770892e-01,9.717559851524316672e-01,1.206482178673300848e-01,2.028110274113829048e-01,1.789541123032527992e+02
-3.903917778938278627e+00,2.310673671055026718e-02,9.111435285344581247e-01,9.831321463465875210e-01,1.355625503740013893e-01,1.227679834022113309e-01,1.812192020567611337e+02
-3.817732729093695543e+00,-3.327955053193188632e-03,1.081997949179864582e+00,9.878635582319460484e-01,1.495606654350672138e-01,4.189507922470243201e-02,1.832160947391240029e+02
-3.720910307844474740e+00,-2.726934494736283146e-02,1.254256475131352966e+00,9.859182169577612731e-01,1.625479502910500418e-01,-3.926109164253923506e-02,1.852129874214868721e+02
-3.599715952491332693e+00,-5.182648285909692565e-02,1.447202608165696569e+00,9.773092437617507677e-01,1.744366228547556130e-01,-1.201520147706612862e-01,1.874583229554696970e+02
-3.465864484721240757e+00,-7.466199476938549517e-02,1.636832504560924217e+00,9.620947979184919507e-01,1.851463252245832414e-01,-2.002309617947271858e-01,1.897036584894525220e+02
-3.338808799772420954e+00,-9.348176285276182940e-02,1.795797086967757528e+00,9.403776852959558896e-01,1.946046670874470863e-01,-2.789566857616693207e-01,1.916465656368893917e+02
-3.200269057402668871e+00,-1.119515442485341378e-01,1.947541201518783627e+00,9.123046650663155788e-01,2.027477153216530881e-01,-3.557970798289440406e-01,1.935894727843262615e+02
-3.076062817290916573e+00,-1.275226411006405713e-01,2.065794672365450335e+00,8.780654591625928207e-01,2.095204264705912423e-01,-4.302327745544140547e-01,1.951984852523261793e+02
-2.942871257269428664e+00,-1.439367496241479305e-01,2.175677361750873118e+00,8.378914710928183629e-01,2.148770191423251541e-01,-5.017606494107526016e-01,1.968074977203260971e+02
-2.801420245914093776e+00,-1.617736919755720093e-01,2.276468418452203490e+00,7.920542227038450678e-01,2.187812837956200351e-01,-5.698972347183812737e-01,1.984165101883260149e+02
-2.652439728404868635e+00,-1.816077888108294236e-01,2.367447057632584340e+00,7.408635194134066682e-01,2.212068277969263808e-01,-6.341819809169436661e-01,2.000255226563259328e+02
-2.496692072727277001e+00,-2.040077581458902556e-01,2.447961481802493733e+00,6.846653562872192511e-01,2.221372540724348144e-01,-6.941803729825770652e-01,2.016345351243258506e+02
-2.335000415052399081e+00,-2.295363277081859665e-01,2.517497801261268098e+00,6.238395791139638158e-01,2.215662721314189954e-01,-7.494868688412991142e-01,2.032435475923257684e+02
-2.168235890684275358e+00,-2.588106307896382852e-01,2.575636640357072960e+00,5.587973163112965880e-01,2.194977406984559010e-01,-7.997276418209438020e-01,2.048525600603256862e+02
-1.997305478831191916e+00,-2.925627300538991005e-01,2.622009743355637745e+00,4.899781990678723220e-01,2.159456416593514561e-01,-8.445631085169212904e-01,2.064615725283256040e+02
-1.823137294429721056e+00,-3.315785824473762577e-01,2.656274459768006579e+00,4.178473885776687879e-01,2.109339854952763382e-01,-8.836902249112260632e-01,2.080705849963255218e+02
-1.646665264822811947e+00,-3.766371578587526803e-01,2.678088228929070613e+00,3.428924305426140906e-01,2.044966488481948508e-01,-9.168445351688101486e-01,2.096795974643254397e+02
-1.468829109706367264e+00,-4.285104062178742290e-01,2.687108581562863030e+00,2.656199582978819862e-01,1.966771453246737023e-01,-9.438019592288137138e-01,2.112886099323253575e+02
-1.290585628442246779e+00,-4.879631886182906331e-01,2.683077542090587020e+00,1.865522669424272695e-01,1.875283311011162191e-01,-9.643803070975215386e-01,2.128976224003252753e+02
-1.103854464233451571e+00,-5.592480407641770013e-01,2.665027570464697515e+00,1.062237817283137181e-01,1.771120473380154714e-01,-9.784405096216625131e-01,2.145889187785864749e+02
-9.188030218649475556e-01,-6.400649945511459604e-01,2.633213184593084399e+00,2.517744467016869159e-02,1.654987018407223509e-01,-9.858875574607007808e-01,2.162802151568476745e+02
-7.363975344370163878e-01,-7.309461152032020737e-01,2.587790320127668853e+00,-5.603895612361536188e-02,1.527667928163996547e-01,-9.866711419705259667e-01,2.179715115351088741e+02
-5.575375012734141711e-01,-8.323199811590790143e-01,2.529021670382945342e+00,-1.368764895264297232e-01,1.390023779684030070e-01,-9.807859937436276265e-01,2.196628079133700737e+02
-3.830809484194057091e-01,-9.444578253877049523e-01,2.457242973244531115e+00,-2.167887918062469665e-01,1.242984925376396099e-01,-9.682719166076438899e-01,2.213541042916312733e+02
-2.138632751260413078e-01,-1.067323338409672751e+00,2.372776885140864600e+00,-2.952357592800717856e-01,1.087545202430755115e-01,-9.492135169503796988e-01,2.230454006698924729e+02
-5.062228201252315374e-02,-1.200723466976580722e+00,2.276145673207118580e+00,-3.716871982590547741e-01,9.247552138833800561e-02,-9.237396303005542819e-01,2.247366970481536725e+02
9.761509616035236869e-02,-1.336648902602218802e+00,2.174169894977674211e+00,-4.456264076460966783e-01,7.557152268636631309e-02,-8.920224491356268937e-01,2.263362442628188091e+02
2.393122462723520083e-01,-1.482137254510244029e+00,2.062714863579430791e+00,-5.165536700252223445e-01,5.815677360765655890e-02,-8.542763578974926775e-01,2.279357914774839458e+02
3.740696524092430031e-01,-1.637005380990589787e+00,1.942872110411253850e+00,-5.839896277195265606e-01,4.034897427842116385e-02,-8.107564831606708378e-01,2.295353386921490824e+02
5.014889497636458859e-01,-1.801067262350935616e+00,1.815733227150898355e+00,-0.000000000000000000e+00,8.053988450809172750e-03,-9.999665660763280561e-01,2.311348859068142190e+02
6.211995447945110049e-01,-1.974018273994518458e+00,1.682299944693788962e+00,-1.692776988402742155e-01,1.941145754687655101e-02,-9.853762002358109617e-01,2.327344331214793556e+02
7.328863978140252033e-01,-2.155319728675671342e+00,1.543394212619719097e+00,-3.336469518239824072e-01,3.020606018293395603e-02,-9.422129830702171693e-01,2.343339803361444922e+02
8.364349502895517263e-01,-2.344626744865770274e+00,1.399511533632517013e+00,-4.883415907956005220e-01,4.012478791370395481e-02,-8.717284508908292873e-01,2.359361651841527987e+02
9.313799759296789160e-01,-2.540980162600142478e+00,1.251615181302815127e+00,-6.288759423319691955e-01,4.888002719456337880e-02,-7.759663601567790003e-01,2.375383500321611052e+02
1.017445570514263320e+00,-2.743717180148600665e+00,1.100439710982539010e+00,-7.511748958507808993e-01,5.621789928704488265e-02,-6.577034465773501370e-01,2.391405348801694117e+02
1.094360531060633246e+00,-2.952173018703011298e+00,9.467197014610383432e-01,-8.516920777445942115e-01,6.192562269911519590e-02,-5.203689286995405450e-01,2.407427197281777183e+02
1.161858361197791289e+00,-3.165680948770850378e+00,7.911897497235856891e-01,-9.275127027892048348e-01,6.583768448956872632e-02,-3.679450848434916432e-01,2.423449045761860248e+02
1.219677276501290653e+00,-3.383572316587508677e+00,6.345844657094638075e-01,-9.764381160652179092e-01,6.784064116134777556e-02,-2.048517827507563560e-01,2.439470894241943313e+02
1.267560209779975189e+00,-3.605176570547109272e+00,4.776384670648934350e-01,-9.970495683487090588e-01,6.787640954587260966e-02,-3.581830924342037370e-02,2.455492742722026378e+02
1.305254816327258149e+00,-3.829821287640906569e+00,3.210863739063697375e-01,-9.887493703189634831e-01,6.594395190452852218e-02,1.342537816806748940e-01,2.471514591202109443e+02
1.332578123189684272e+00,-4.056787559595167458e+00,1.656665832480018474e-01,-9.517782284734521703e-01,6.209930616374743917e-02,3.004328210648501418e-01,2.487536439682192508e+02
1.349603458824576885e+00,-4.285267071392953042e+00,1.211787354271162687e-02,-8.872082588574663475e-01,5.645396037016422314e-02,4.579000499776287869e-01,2.503558288162275574e+02
1.358393698330064181e+00,-4.571260439082721838e+00,-1.762642624367723732e-01,-7.969118828522796516e-01,4.917161865827690548e-02,6.020893645333951216e-01,2.523559196841706012e+02
1.355371739446235013e+00,-4.856759188849306241e+00,-3.603323410326915166e-01,-6.835075110540519416e-01,4.046345281760162227e-02,7.288197248405569040e-01,2.543560105521136450e+02
1.339368752512744454e+00,-5.180874128910296861e+00,-5.646811637964688213e-01,-5.502835957417073764e-01,3.058197753336985500e-02,8.344163870074511324e-01,2.566416892051559557e+02
1.312505498450441399e+00,-5.495003806218996978e+00,-7.581338819577850829e-01,-6.450713205583654686e-01,9.568969872477579852e-02,7.581058454803958346e-01,2.588825802331710975e+02
1.271741465295488149e+00,-5.838740556794907555e+00,-9.642643042851329893e-01,-7.275723088551576678e-01,1.589747947094557190e-01,6.673556398465866346e-01,2.613739160326605884e+02
1.247287642591442980e+00,-6.004926845941477964e+00,-1.060830310046818159e+00,-7.962151701159683181e-01,2.192318722581367840e-01,5.638943066430660567e-01,2.626015557104008167e+02
1.207461686183080030e+00,-6.236418861050563756e+00,-1.190491731677883136e+00,-8.496924738767206442e-01,2.753132159513272947e-01,4.496924871077265795e-01,2.643486070310358969e+02
1.163446898627084058e+00,-6.462429482736005149e+00,-1.311807694984180817e+00,-8.869856501337493038e-01,3.261506480764744254e-01,3.269253909038948858e-01,2.660956583516709770e+02
1.116321769509350581e+00,-6.682482131608468379e+00,-1.424179301781056672e+00,-9.073843875856915098e-01,3.707758731774671856e-01,1.979313644598728605e-01,2.678427096723060572e+02
1.067207059224366761e+00,-6.896114057538206055e+00,-1.527070178181681781e+00,-9.105001606550405802e-01,4.083389199363490762e-01,6.516735313155247455e-02,2.695897609929411374e+02
1.052770887204445893e+00,-6.956010205069637742e+00,-1.553997297726829485e+00,-8.962736280309558934e-01,4.381243293420685747e-01,-6.883789462653196189e-02,2.700954981453866708e+02
1.000585101306866731e+00,-7.164896325188470527e+00,-1.640672597662018450e+00,-8.959547751783399905e-01,4.379684012720294062e-01,7.380189910856320423e-02,2.719212908098941739e+02
9.488848102233973236e-01,-7.365923502802291800e+00,-1.716705753402952617e+00,-6.207212649953995909e-01,4.428994755566299790e-02,7.827780731017006666e-01,2.737470834744016770e+02
8.986774396429022538e-01,-7.558559167472706619e+00,-1.782111958887804049e+00,-4.608602364906466686e-01,3.045905538315736572e-02,8.869487518267652471e-01,2.755728761389091801e+02
8.383537947628078024e-01,-7.790126293406651747e+00,-1.851343916095721909e+00,-2.841324794787953301e-01,1.551341245918127706e-02,9.586584731484000255e-01,2.778749676196746918e+02
7.944035347592650620e-01,-7.961714556106296747e+00,-1.895293737514141652e+00,-9.700588336518772836e-02,0.000000000000000000e+00,9.952828033238922956e-01,2.796742008535203468e+02
7.561260694798918047e-01,-8.116556847019536391e+00,-1.927829223355359556e+00,-4.499992964598064369e-04,3.515004504553742581e-01,9.361865363424739517e-01,2.813965142006794622e+02
7.221067003495038605e-01,-8.261609785272669981e+00,-1.950994542707471746e+00,-8.091991514972224353e-03,3.419286414635365201e-01,9.396900146682852784e-01,2.831188275478385776e+02
6.903680607747871845e-01,-8.406962365822206351e+00,-1.966019415581355956e+00,-0.000000000000000000e+00,9.741290686775556928e-02,9.952430484913976638e-01,2.849748576434689653e+02
6.638022490763902939e-01,-8.540937650411766668e+00,-1.971247514877373153e+00,-6.696665005624187206e-01,1.278249046681278200e-01,7.315774543892009651e-01,2.868308877390993530e+02
6.412015548277403276e-01,-8.671263452579358599e+00,-1.966504750284983727e+00,-2.272997664908205442e-03,5.869383970275219298e-01,-8.096271682553016769e-01,2.888105467496665142e+02
6.245130882472555989e-01,-8.788591588184946346e+00,-1.951591083312862240e+00,6.263253748259728360e-01,6.389893621852650585e-02,7.769372244909866776e-01,2.907902057602336754e+02
6.139073037022585444e-01,-8.892532419789610287e+00,-1.926711632538517627e+00,5.293393743996953615e-01,8.484089973069208757e-01,0.000000000000000000e+00,2.927698647708008366e+02
6.083300415020388430e-01,-9.007378786234498946e+00,-1.882731378182521453e+00,2.335007349129260557e-01,9.332469405099697024e-01,2.729936900776413489e-01,2.952890066094113877e+02
6.101524812455054736e-01,-9.072804092753935734e+00,-1.845155825825590235e+00,0.000000000000000000e+00,9.852226351174145913e-01,-1.712727627265119290e-01,2.969838690017872977e+02
6.178655440078082428e-01,-9.126411753127007032e+00,-1.799889557202478674e+00,3.143997210391002734e-03,3.833196598877477296e-02,9.992591133763718547e-01,2.986787313941632078e+02
6.317561641034502573e-01,-9.168374533290913675e+00,-1.747210191935172574e+00,2.578976637997122401e-01,9.378747773686454403e-01,-2.321156974095727743e-01,3.003735937865391179e+02
6.539042834804638105e-01,-9.201590732543012408e+00,-1.682235423120653550e+00,-2.031297923572760594e-02,9.495260293783649441e-01,-3.130266800188108989e-01,3.022150794279361321e+02
6.834459028458061969e-01,-9.222790578531544270e+00,-1.609867505304261703e+00,9.978967549886104127e-01,-6.480791914334117776e-02,-9.999987523660839145e-07,3.040565650693331463e+02
7.206130583924167388e-01,-9.232568274462384039e+00,-1.530491646297436281e+00,5.194795790153169252e-02,6.051975095497645896e-01,7.943773562389878640e-01,3.058980507107301605e+02
7.601807880880744328e-01,-9.231827460118040563e+00,-1.454626547636384659e+00,-4.477217380013277515e-01,5.738696641818404887e-01,6.857235987269387767e-01,3.075227253755593324e+02
8.065010328857274979e-01,-9.222458301181340801e+00,-1.373256199402056676e+00,1.217859109106245313e-01,8.959123446181856965e-01,4.272086874863859074e-01,3.091474000403885043e+02
8.595450358853393702e-01,-9.205184787594326679e+00,-1.286699107486317883e+00,0.000000000000000000e+00,7.954575522225245665e-01,6.060076588673035669e-01,3.107720747052176762e+02
9.191745817633037996e-01,-9.180747909802072115e+00,-1.195258644683524052e+00,3.635728494595065197e-01,8.709283753300421926e-01,3.306002846045540400e-01,3.123967493700468481e+02
9.851179044157197806e-01,-9.149688425016330839e+00,-1.099336140498227365e+00,6.494390720997936794e-01,7.602550068735669520e-01,-1.546661415428427985e-02,3.140214240348760200e+02
1.095845839122880028e+00,-9.091852376548818171e+00,-9.462394044589137465e-01,7.965001543054226474e-01,4.870916961799050537e-01,-3.582278377006258285e-01,3.165180122845688970e+02
1.177819868907920453e+00,-9.044855652550532810e+00,-8.385936588847102691e-01,7.733246102692029611e-01,1.098219446532627402e-01,-6.244246853099887362e-01,3.182278967969609198e+02
1.265387289328698595e+00,-8.989905114790532892e+00,-7.291572948382474273e-01,7.665355871202030880e-01,1.040891218188933348e-01,-6.337086462629925032e-01,3.199377813093529426e+02
1.357957290030837649e+00,-8.926549643882472296e+00,-6.188052178544294346e-01,7.596199777729247815e-01,9.833911368641418127e-02,-6.428879436102908906e-01,3.216476658217449653e+02
1.454886934235186002e+00,-8.854370848975699815e+00,-5.083572932865353389e-01,7.525789214698657137e-01,9.257286733268206558e-02,-6.519610656665558723e-01,3.233575503341369881e+02
1.555424790155796266e+00,-8.773020102140401733e+00,-3.985232917301909095e-01,7.361527985142154451e-01,5.979702750120596821e-01,-3.170309250574913640e-01,3.250674348465290109e+02
1.650987405946899411e+00,-8.689010603849858683e+00,-2.981202647485063362e-01,4.489138630133709396e-01,8.833893217006311138e-01,1.345275061085675627e-01,3.266485854800072275e+02
1.748431411259808721e+00,-8.595920820561170572e+00,-1.994502851067997407e-01,-3.469998025793387137e-03,8.438305199144841007e-01,5.365966947108513629e-01,3.282297361134854441e+02
1.847073237469276652e+00,-8.493468603440547326e+00,-1.030731481506640124e-01,-2.339526622941756531e-03,9.844512135703946676e-01,-1.756369400642844580e-01,3.298108867469636607e+02
1.951566793904897734e+00,-8.375343442976452835e+00,-4.526308361937831856e-03,2.399998686030956085e-05,6.062136681056542464e-01,-7.953005645829606118e-01,3.314770801097402000e+02
2.055851615815492472e+00,-8.246776949518515920e+00,9.045989460706078955e-02,0.000000000000000000e+00,3.025597526115033492e-02,-9.995411827234507163e-01,3.331432734725167393e+02
2.159108352033698441e+00,-8.107532742955621430e+00,1.814648936146097402e-01,-6.714767322751631351e-01,9.488909760260594295e-02,-7.349238444682872906e-01,3.348094668352932786e+02
2.260496951212461969e+00,-7.957399418933529311e+00,2.681351578677169112e-01,-9.903732871678914140e-01,1.096976665130843520e-01,-8.441074590738033290e-02,3.364756601980698179e+02
2.359178968859764414e+00,-7.796158814665393955e+00,3.501171899428981993e-01,-7.892423660361443938e-01,6.690594625738115198e-02,6.104245096727034525e-01,3.381418535608463571e+02
2.397888584042814575e+00,-7.725862189552789694e+00,3.814706105744838371e-01,-4.827870750536488731e-01,-3.134541239942928437e-01,8.177170368247840271e-01,3.388202483051150011e+02
2.484377546798460124e+00,-7.550611841742986385e+00,4.498072586539237916e-01,-4.039893773899567303e-02,-6.055580667414658391e-01,7.947737751308271426e-01,3.404050721626194331e+02
2.566555414217714493e+00,-7.364229989144790878e+00,5.130628314571790138e-01,-8.909566568651833274e-02,-9.432623820325924946e-01,-3.198687871528534954e-01,3.419898960201238651e+02
2.643799178325264343e+00,-7.166479477487712302e+00,5.710634825139208059e-01,-1.672498027859515776e-02,7.829990767198809253e-04,-9.998588210078418470e-01,3.435747198776282971e+02
2.715544193257626304e+00,-6.957113354411992745e+00,6.236876858156333858e-01,-1.337999154439654947e-02,-2.273351424220599049e-01,-9.737236306299466015e-01,3.451595437351327291e+02
2.781255852995516697e+00,-6.735877833487706745e+00,6.708400947330093178e-01,-9.329446004479626658e-03,-4.434653963815051725e-01,-8.962418220827889082e-01,3.467443675926371611e+02
2.844281933891677383e+00,-6.487289956639184396e+00,7.151374287939227248e-01,-4.786936933319873959e-03,-6.362107704401868125e-01,-7.714991515298103009e-01,3.484326135822531114e+02
2.899864977759338380e+00,-6.225526524961101593e+00,7.534550650589548759e-01,7.999993679979117679e-06,-7.954073716256038207e-01,-6.060735211999580541e-01,3.501208595718690617e+02
2.947749596319194421e+00,-5.950414530789675638e+00,7.859459356543537778e-01,0.000000000000000000e+00,-7.954151303861101141e-01,-6.060633374012183161e-01,3.518091055614850120e+02
2.984353430850850142e+00,-5.687089973166813195e+00,8.106202711992207544e-01,-6.832426184446225292e-01,-5.374616998556643876e-01,-4.942797239705463697e-01,3.533499825097700864e+02
3.013839198780999151e+00,-5.411543636818066716e+00,8.307102829459130922e-01,-7.004686452260120433e-01,-3.650760439524502465e-01,-6.132382564606098097e-01,3.548908594580551608e+02
3.036235071808584873e+00,-5.123787624876638525e+00,8.466026773291936980e-01,-6.867586546581898599e-01,-1.765670217805472009e-01,-7.051132086918450170e-01,3.564317364063402351e+02
3.051578281141646087e+00,-4.823912571673403704e+00,8.587202428092257644e-01,-6.427181838544967496e-01,1.973997493350556839e-02,-7.658470275012851936e-01,3.579726133546253095e+02
3.059923749457146513e+00,-4.512166220120257698e+00,8.675579014718001192e-01,-6.634951817048365674e-01,2.073332110481582516e-02,-7.478918860695681348e-01,3.595134903029103839e+02
3.061585382755851015e+00,-4.149844347082477292e+00,8.743997551242786992e-01,-6.837712006560972000e-01,2.171101235216704728e-02,-7.293720429892165402e-01,3.612404565026685077e+02
3.055708212266330825e+00,-3.774996962033501990e+00,8.788273511339401711e-01,-7.035309315812442454e-01,2.267231048246123870e-02,-7.103014815162136397e-01,3.629674227024266315e+02
3.042363066142084183e+00,-3.388035593833751413e+00,8.815077278038541131e-01,-7.227594551432729997e-01,2.361648967922305026e-02,-6.906946006843682762e-01,3.646943889021847554e+02
3.021671834040525084e+00,-2.989500566245748114e+00,8.831026477276582298e-01,-7.414422530554751756e-01,2.454283705041852837e-02,-6.705662044360870544e-01,3.664213551019428792e+02
2.993419025127201483e+00,-2.573468632215813567e+00,8.842850362549536936e-01,-7.595652190398362036e-01,2.545065316654469140e-02,-6.499314904484919664e-01,3.681766932720964860e+02
2.958240367405546856e+00,-2.147441715426923636e+00,8.856932656337689336e-01,-7.771146694746883243e-01,2.633925258856563076e-02,-6.288060386625523579e-01,3.699320314422500928e+02
2.916410483963222777e+00,-1.712381176426509333e+00,8.879946357013644986e-01,-7.940773537236069934e-01,2.720796438529788155e-02,-6.072057995238563377e-01,3.716873696124036996e+02
2.868256123023214865e+00,-1.269326736531640298e+00,8.918035923814111587e-01,-8.104404641377682683e-01,2.805613263985543004e-02,-5.851470819438744364e-01,3.734427077825573065e+02
2.814215700674403742e+00,-8.194733673497769377e-01,8.976288761523710802e-01,-8.261916457242413081e-01,2.888311694477305874e-02,-5.626465409907686066e-01,3.751980459527109133e+02
2.759047530113519997e+00,-3.973511486550455052e-01,9.053125757716855571e-01,-8.413190054729235978e-01,2.968829288543515035e-02,-5.397211653190079339e-01,3.768251420794489377e+02
2.699157764546196603e+00,2.877756087265550752e-02,9.156798079753747377e-01,-8.558111213350945157e-01,3.047105251144569676e-02,-5.163882643472436085e-01,3.784522382061869621e+02
2.634948486055485262e+00,4.578115589189989953e-01,9.291222366158382595e-01,-8.696570508468177696e-01,3.123080479558435624e-02,-4.926654551940908844e-01,3.800793343329249865e+02
2.566813149227546109e+00,8.886466349180276447e-01,9.460315029715421487e-01,-8.828463393906865742e-01,3.196697608000262369e-02,-4.685706493816407248e-01,3.817064304596630109e+02
2.495136572639495842e+00,1.320175619814426771e+00,9.667992228717824377e-01,-2.701816156425378979e-01,-2.542756382702103246e-01,-9.286246789485139708e-01,3.833335265864010353e+02
2.420294930456837523e+00,1.751288435862763837e+00,9.918169838238597436e-01,-5.234283751071379109e-01,-1.702858749797201143e-01,-8.348793067960902370e-01,3.849606227131390597e+02
2.342655744139056750e+00,2.180872146464257977e+00,1.021476342142410454e+00,-7.348131664663457574e-01,-7.267721682243039050e-02,-6.743631310677572488e-01,3.865877188398770841e+02
2.262577874260028210e+00,2.607811006040558155e+00,1.056168820076720305e+00,-8.874301743812654797e-01,3.074397139741301063e-02,-4.599135721204074545e-01,3.882148149666151085e+02
2.180411512444555555e+00,3.030986509943369711e+00,1.096285902936117163e+00,-9.542228315009525508e-01,3.947626415966626334e-02,2.964766641930826618e-01,3.898419110933531329e+02
2.096498173418781086e+00,3.449277444400218329e+00,1.142219036215724071e+00,-4.707486167779169617e-01,2.544397928683294133e-02,8.818992820727076243e-01,3.914690072200911573e+02
2.011170687173727156e+00,3.861559936499851631e+00,1.194359622722831249e+00,-6.035336916554963071e-01,2.841276339742321994e-02,7.968298425086579595e-01,3.930961033468291816e+02
1.924753191238964822e+00,4.266707504216840086e+00,1.253099019703852957e+00,-7.213043040848722276e-01,3.067470718724155110e-02,6.919372538368494530e-01,3.947231994735672060e+02
1.819783092369376520e+00,4.745456927037842831e+00,1.332415304297681846e+00,-8.211306419884918384e-01,3.217353978212154214e-02,5.698309680291123724e-01,3.966860397963534410e+02
1.714742802652026832e+00,5.212725848484687674e+00,1.420635290108187565e+00,-9.005292864708680511e-01,3.287197395408299888e-02,4.335486564802486509e-01,3.986488801191396760e+02
1.610158281374389766e+00,5.667025498081962986e+00,1.518037314422401751e+00,-8.667943371900777016e-01,2.444734635198032302e-01,4.346243235835322571e-01,4.006117204419259110e+02
1.454483206191433453e+00,6.332552733666042322e+00,1.679364060902758471e+00,-7.932609721081761434e-01,4.448500781413330385e-01,4.157444384573735219e-01,4.035806221692376994e+02
1.367820851409016214e+00,6.698117038578260463e+00,1.779129080784334738e+00,-6.833054362179132868e-01,6.248016323651106596e-01,3.777758608348529834e-01,4.052715465607382157e+02
1.283194531598393029e+00,7.049285133250394964e+00,1.886574864165545762e+00,-5.419762775323037074e-01,7.760657444928447113e-01,3.224618966909595930e-01,4.069624709522387320e+02
1.198982275074608417e+00,7.394468131698442193e+00,2.004413018617644315e+00,-3.757625475262418857e-01,8.916971984239993043e-01,2.523422560727215380e-01,4.086979669712122245e+02
1.117967833377056630e+00,7.724132877781611839e+00,2.129360061857023201e+00,-1.922958618269965669e-01,9.663868300388787080e-01,1.706364446771708732e-01,4.104334629901857170e+02
1.049279567085825038e+00,8.002823368859344200e+00,2.246063827948341807e+00,-0.000000000000000000e+00,9.967052964985315677e-01,8.109594276029734317e-02,4.119735915148182244e+02
9.841655852083752709e-01,8.267703995778624915e+00,2.368096175578590756e+00,-0.000000000000000000e+00,9.967052957949406045e-01,8.109594270305035824e-02,4.135137200394507317e+02
9.135646213147156081e-01,8.558795023832571403e+00,2.515085166515504955e+00,-0.000000000000000000e+00,9.967052957950029990e-01,8.109594270305543751e-02,4.152978382196043867e+02
8.485065097742567897e-01,8.834526810158562782e+00,2.667059460972398544e+00,-0.000000000000000000e+00,9.967052957949406045e-01,8.109594270305035824e-02,4.170819563997580417e+02
7.895145263523477563e-01,9.095404502595663132e+00,2.823235240227778498e+00,-0.000000000000000000e+00,9.967052957947536429e-01,8.109594270303513430e-02,4.188660745799116967e+02
7.363133161197539245e-01,9.345503360231996126e+00,2.985031846560853630e+00,1.558759266463837223e-01,9.838928686099651655e-01,8.749582042020992434e-02,4.206755683381917947e+02
6.901767151746899254e-01,9.581713615773193027e+00,3.149335401011360336e+00,3.079325055935417943e-01,9.469726357733493360e-01,9.175183429121669398e-02,4.224850620964718928e+02
6.514370437736463071e-01,9.804682508325745616e+00,3.315200869531479189e+00,4.524439735668821516e-01,8.868492369820852872e-01,9.375970161953105231e-02,4.242945558547519909e+02
6.208542693437618665e-01,1.001141440451444709e+01,3.478779175040502825e+00,5.858694424450410221e-01,8.049958468610018958e-01,9.347022491788076204e-02,4.260724097457448352e+02
6.009160472186699797e-01,1.018000149112157260e+01,3.619968332838538583e+00,7.049396600135470203e-01,7.034180785468486796e-01,9.089049738018331603e-02,4.276089649632309602e+02
5.874122919075949190e-01,1.033906529798814056e+01,3.760332224316353056e+00,8.067371146167665596e-01,5.846048404685399991e-01,8.608372901534928900e-02,4.291455201807170852e+02
5.774081926506758888e-01,1.054999129833758076e+01,3.955311820692565039e+00,8.887675209639220864e-01,4.514673513216469480e-01,7.916769777456855728e-02,4.313033663303774006e+02
5.760245863617639017e-01,1.074960608154401420e+01,4.146926634654156452e+00,9.490209356008181274e-01,3.072678076591772167e-01,7.031186363885699731e-02,4.334612124800377160e+02
5.829337707513380096e-01,1.094738553015630700e+01,4.341928341173641570e+00,9.860210047110157250e-01,1.555394520011468829e-01,5.973321639240482955e-02,4.357130778755564506e+02
5.930408748193850554e-01,1.107941240254745452e+01,4.474137573422234837e+00,9.988611377196474628e-01,0.000000000000000000e+00,4.769095883013640264e-02,4.372915600321941270e+02
6.049324944019585093e-01,1.118083942966785216e+01,4.576321935889907877e+00,7.231127441751948881e-01,1.934373031200510296e-01,-6.630897141219403990e-01,4.385627805294868153e+02
6.319759891833930388e-01,1.135146178793712757e+01,4.747765370887202074e+00,0.000000000000000000e+00,2.672016144699133067e-01,-9.636396096189463467e-01,4.408040293173821169e+02
6.644009634386943697e-01,1.151425182487595222e+01,4.909083382177188426e+00,-2.556342124272164562e-01,2.011907514786133097e-02,-9.665631755105236200e-01,4.430452781052774185e+02
6.893383432082292872e-01,1.161971895211730477e+01,5.010749394831317538e+00,-4.789543995525937792e-01,-2.295067122759280598e-01,-8.473059377639018397e-01,4.445667459702877977e+02
7.165785522528406171e-01,1.172034481472201328e+01,5.103810401259738505e+00,3.588155418936727625e-01,-5.920762440854925313e-01,-7.215920787302713135e-01,4.460882138352981769e+02
7.456283608788423223e-01,1.181622278536813830e+01,5.187667012088770235e+00,0.000000000000000000e+00,-8.566789209259183246e-02,-9.963227450303434596e-01,4.476096817003085562e+02
7.759856638470775669e-01,1.190741536998869776e+01,5.261759780644994500e+00,-0.000000000000000000e+00,-8.566789203214966730e-02,-9.963227443273975359e-01,4.491311495653189354e+02
8.071488552419152640e-01,1.199398861170628550e+01,5.325529322904586138e+00,2.229998744318024766e-04,-9.950984396735972348e-01,9.887894432261074007e-02,4.506526174303293146e+02
8.389269686395492975e-01,1.207681928253569303e+01,5.378935551304402374e+00,4.425570003148812659e-01,-8.526527926545568459e-01,-2.777130113097266428e-01,4.521890650941783178e+02
8.705054725186889275e-01,1.215512884698416940e+01,5.420781604463174475e+00,7.265562765034619952e-01,-4.051517831852324836e-01,-5.549468530012882095e-01,4.537255127580273211e+02
9.013640202110809740e-01,1.222899060783180936e+01,5.450581844982147928e+00,7.506141027920787412e-01,1.873007761196607279e-01,-6.336362426155410787e-01,4.552619604218763243e+02
9.309619569124878424e-01,1.229847181172626769e+01,5.468019920140005041e+00,0.000000000000000000e+00,0.000000000000000000e+00,-9.999989999997073165e-01,4.567984080857253275e+02
9.383939056216542562e-01,1.231589970874588857e+01,5.469331685003264276e+00,-9.968817776734306690e-01,-0.000000000000000000e+00,-7.889690326056383873e-02,4.572091555775042480e+02
9.621120210138250917e-01,1.237212365051318841e+01,5.462274946871274572e+00,-9.978448058421117706e-01,-0.000000000000000000e+00,-6.560292149055070576e-02,4.586268359789040687e+02
1.006013619129628722e+00,1.247804779814767606e+01,5.424858161647229338e+00,-9.968817776000551412e-01,-0.000000000000000000e+00,-7.889690325475662291e-02,4.615014991610228208e+02
1.021836788924880501e+00,1.251776069690604665e+01,5.400595493904821076e+00,-9.978449367631960776e-01,-0.000000000000000000e+00,-6.560093010003791025e-02,4.626683082032648713e+02
1.028577267844466014e+00,1.253588713745669736e+01,5.384148761460648025e+00,-0.000000000000000000e+00,-9.978448059155613503e-01,-6.560292149537960693e-02,4.632483871042961709e+02
1.040825305117771382e+00,1.257196973470935930e+01,5.338771745632706178e+00,-3.571165318403142219e-01,-5.924852232851989253e-01,-7.220990533687582369e-01,4.645172656691527777e+02
1.045245514489236083e+00,1.258666838020275058e+01,5.314063061090639195e+00,-9.996734394316367789e-01,-0.000000000000000000e+00,-2.551498569243394396e-02,4.650917242176387845e+02
1.051788841488085602e+00,1.261238491690538766e+01,5.257263392779992550e+00,0.000000000000000000e+00,-9.978448059155614613e-01,-6.560292149537962081e-02,4.662250317618977533e+02
1.059671364549780614e+00,1.265105343395212678e+01,5.145245551246789617e+00,0.000000000000000000e+00,-9.978444081185932069e-01,-6.560896108338747090e-02,4.681879903090210178e+02
1.062124810678118925e+00,1.266763936975127081e+01,5.081375987968121954e+00,0.000000000000000000e+00,-9.978444081185868786e-01,-6.560896108338705457e-02,4.691884462794557749e+02
1.063769507993862051e+00,1.268778792625812990e+01,4.974801198701143790e+00,-9.996734394317157157e-01,-0.000000000000000000e+00,-2.551498569243595971e-02,4.707001319349711821e+02
1.063714604935828811e+00,1.270280707313403390e+01,4.858287741347584898e+00,0.000000000000000000e+00,-9.978448059155614613e-01,-6.560292149537962081e-02,4.722118175904865893e+02
1.062354944913908028e+00,1.271245226338856504e+01,4.731946609538950632e+00,0.000000000000000000e+00,-9.996734394078147234e-01,-2.551498569182592685e-02,4.737235032460019966e+02
1.060116113901424129e+00,1.271646237847133065e+01,4.595822026407044625e+00,-9.988620449105880539e-01,-0.000000000000000000e+00,4.767195441714985188e-02,4.752351889015174038e+02
1.059125289665838077e+00,1.271579918910448903e+01,4.543401208750255549e+00,-0.000000000000000000e+00,-9.988619020529999615e-01,4.767494759579319480e-02,4.757783274329988785e+02
1.056850456157085061e+00,1.270994195611291033e+01,4.426698936958631592e+00,7.506141027920847364e-01,1.873007761196621990e-01,-6.336362426155461858e-01,4.769114016584073283e+02
1.055667863033138643e+00,1.270469665889285338e+01,4.363871892454999291e+00,0.000000000000000000e+00,-9.988619020529754255e-01,4.767494759579202906e-02,4.774851045838298091e+02
1.053127014424063868e+00,1.268807280898090006e+01,4.216596186652115108e+00,-7.055008120444624664e-01,-7.055008120444624664e-01,6.734395600397989623e-02,4.787539974464423835e+02
1.050182756005180629e+00,1.266080043492419627e+01,4.019490827521468468e+00,-9.988620449105880539e-01,-0.000000000000000000e+00,4.767195441714985188e-02,4.803608277545353076e+02
1.049329815917751541e+00,1.264926836740058391e+01,3.947526792256882189e+00,-9.986270141112966181e-01,-0.000000000000000000e+00,5.236493702433724778e-02,4.809174196804343069e+02
1.047662513774777704e+00,1.261432946431066071e+01,3.752204272483948611e+00,-9.983699343436864826e-01,-0.000000000000000000e+00,5.705676244900104166e-02,4.823547204743875341e+02
1.046935255096257400e+00,1.258730678521515145e+01,3.613149486247900555e+00,-9.980908112449785596e-01,-0.000000000000000000e+00,6.174732748071006666e-02,4.833312064052931873e+02
1.046800746199524346e+00,1.257176832836819180e+01,3.538119824221548360e+00,-9.977896509612395048e-01,-0.000000000000000000e+00,6.643652893797341585e-02,4.838355120241269560e+02
1.047117385522746691e+00,1.251706194564805052e+01,3.286492112688821798e+00,-9.974664601179064061e-01,-0.000000000000000000e+00,7.112426366900834185e-02,4.854597312741164501e+02
1.048108103246572664e+00,1.245841434193580888e+01,3.025590724174463286e+00,-9.971212458196465622e-01,-0.000000000000000000e+00,7.581042855390789093e-02,4.870839505241059442e+02
1.049762191800656552e+00,1.239670724602088470e+01,2.756297412906606681e+00,-9.967540156502094906e-01,-0.000000000000000000e+00,8.049492050680820410e-02,4.887081697740954382e+02
1.052023279881544537e+00,1.233281454122431953e+01,2.479560162690849445e+00,-5.117633777500565362e-01,-0.000000000000000000e+00,8.591252790890363533e-01,4.903323890240849323e+02
1.056598235387294693e+00,1.221766802681953656e+01,1.978890352755196647e+00,4.038784962733666939e-01,-0.000000000000000000e+00,9.148115435577242049e-01,4.932070624433658281e+02
1.060866757059981458e+00,1.210281259899828932e+01,1.470690125941669590e+00,9.796526068659107134e-01,-0.000000000000000000e+00,2.006957145967462053e-01,4.960817464272052462e+02
1.062623688431588942e+00,1.203835230385828226e+01,1.176566180845618259e+00,9.796526061767043547e-01,-0.000000000000000000e+00,2.006957144555525374e-01,4.977329149815841447e+02
1.063121554796814472e+00,1.197640838598822732e+01,8.819533779557272579e-01,-5.759863546496520881e-01,0.000000000000000000e+00,-8.174580840983390884e-01,4.993840835359630432e+02
1.060542575507508412e+00,1.188382891465865221e+01,4.174098578053905273e-01,-9.796745246596755274e-01,0.000000000000000000e+00,2.005886979235580458e-01,5.019986693732570302e+02
1.055538740252809138e+00,1.182269495855066843e+01,8.873380927517221517e-02,5.764363129602912972e-01,-1.163998612659803387e-03,-8.171400260716876751e-01,5.038695295057734711e+02
1.047771949621820298e+00,1.176754728280640450e+01,-2.339901461889783429e-01,7.531303562496105553e-01,-1.490944227059942586e-03,-6.578681050039748568e-01,5.057403896382899120e+02
1.040678461730396132e+00,1.173115300077348699e+01,-4.697902453659072441e-01,8.872058045010841054e-01,-1.733519398122065468e-03,-4.613684594455219612e-01,5.071412111895777457e+02
1.024454005482954733e+00,1.166573203999071140e+01,-9.510789253495129936e-01,9.710756007107187449e-01,-1.877997293865192553e-03,-2.387606559534330430e-01,5.100900955038622442e+02
1.009355365620601352e+00,1.161661811603851469e+01,-1.378770701142275623e+00,9.635781665291306419e-01,1.394820274084784262e-01,-2.281663450639895008e-01,5.128141038016035509e+02
1.000403992238470874e+00,1.159348117984589344e+01,-1.634135572382873658e+00,9.366635238465714774e-01,2.780313382029832581e-01,-2.129742192701885584e-01,5.145186184581364159e+02
9.923062132207175479e-01,1.157829786215984669e+01,-1.876001495597058977e+00,8.908740246983849476e-01,4.109780184203544739e-01,-1.934904144761207812e-01,5.162231331146692810e+02
9.853059746274823727e-01,1.157135152177330717e+01,-2.103345722232164317e+00,8.271323657409692665e-01,5.356430450409213062e-01,-1.701075478746343350e-01,5.179276477712021460e+02
9.795572447411972083e-01,1.157285345998184845e+01,-2.315261634892201936e+00,7.467229977790476037e-01,6.495142721010273013e-01,-1.432968071015616740e-01,5.196321624277350111e+02
9.784581730464112503e-01,1.157536008431589991e+01,-2.363914774034219235e+00,6.512662461170469763e-01,7.502970527911544396e-01,-1.135984561590646508e-01,5.200556607367054767e+02
9.761831780834924199e-01,1.158930903820353286e+01,-2.497016485375930017e+00,5.426856626014041618e-01,8.359604802665490109e-01,-8.161094926083074796e-02,5.213202370226293851e+02
9.746898791486320324e-01,1.161387021054760105e+01,-2.641327495190621377e+00,2.832522484158317422e-01,9.582571076005647059e-01,-3.885202053365899300e-02,5.228309713535104493e+02
9.744241456783336863e-01,1.164655487785950072e+01,-2.770766892268011095e+00,0.000000000000000000e+00,9.999732665418247235e-01,7.173994738034240003e-03,5.243417056843915134e+02
9.753740727161998025e-01,1.168760008811910645e+01,-2.885214458188818831e+00,-4.391066664126540009e-01,2.292398258475423709e-02,8.981413176861081649e-01,5.258524400152725775e+02
9.775108866260657781e-01,1.173724581216685081e+01,-2.984666294287248611e+00,-0.000000000000000000e+00,9.993857527531181395e-01,3.501595629961484768e-02,5.273631743461536416e+02
9.807877220408237617e-01,1.179568922826975097e+01,-3.069199565804556329e+00,-0.000000000000000000e+00,1.466999104715495036e-02,9.998913897833575648e-01,5.288739086770347058e+02
9.817626713220258816e-01,1.181103967767426965e+01,-3.085090459108057015e+00,-0.000000000000000000e+00,9.993857527531182505e-01,3.501595629961484768e-02,5.292182752804186521e+02
9.848711907146379119e-01,1.185666293350577583e+01,-3.117985763520881637e+00,-0.000000000000000000e+00,1.466799147870495937e-02,9.998914191181660360e-01,5.301221923484401941e+02
9.919160178761657898e-01,1.195171549013785750e+01,-3.163112403157000596e+00,8.506807646963445713e-01,5.164672500196214600e-01,9.798885770691058428e-02,5.318104717877934036e+02
1.000575123854798187e+00,1.205636106824171350e+01,-3.192200407011927865e+00,9.999732450158237418e-01,0.000000000000000000e+00,7.176994581337682762e-03,5.334987512271466130e+02
1.010237661371270246e+00,1.216014275126994981e+01,-3.204379734746075403e+00,9.994709311163816334e-01,-0.000000000000000000e+00,3.249396524934736186e-02,5.350370386946366352e+02
1.021887418258157876e+00,1.227197572985894958e+01,-3.202509660619848653e+00,9.999732449782979815e-01,-0.000000000000000000e+00,7.176994581068352197e-03,5.365753261621266574e+02
1.035712127925499271e+00,1.239143898607067307e+01,-3.186857569392100409e+00,5.179124917785978832e-01,7.186022948440680125e-01,4.640855445983445016e-01,5.381136136296166796e+02
1.051839406002623933e+00,1.251810483679065911e+01,-3.157703782705118645e+00,-8.252001487482827358e-01,5.541184283880530304e-01,1.095238870184438995e-01,5.396519010971067019e+02
1.075333480409197406e+00,1.268749366353575248e+01,-3.103951230456767352e+00,-3.436875621633670996e-01,-5.946482424550292301e-01,7.268220740737674213e-01,5.416053229345931186e+02
1.101848086480299527e+00,1.286473233934959914e+01,-3.033953013247225439e+00,-0.000000000000000000e+00,-0.000000000000000000e+00,9.999989999995440026e-01,5.435587447720795353e+02
1.131295530240449043e+00,1.304910444838619199e+01,-2.948223838594872692e+00,-5.502835957417067103e-01,3.058197753336981684e-02,8.344163870074501332e-01,5.455121666095659521e+02
1.159044582221801845e+00,1.321340518637068229e+01,-2.861295155542359137e+00,-0.000000000000000000e+00,-1.168708951519919492e-01,9.931461090220442545e-01,5.471940693189524154e+02
1.189058270491632374e+00,1.338271958051050525e+01,-2.761648986268026018e+00,8.412095147433192865e-01,-5.350406913586147617e-01,-7.807695496084704478e-02,5.488759720283388788e+02
1.221208158268165311e+00,1.355655191260374970e+01,-2.649675406492860485e+00,-9.359985444648434962e-04,-1.157798199552773355e-01,9.932734553988433746e-01,5.505578747377253421e+02
1.255261821139624034e+00,1.373447336969007004e+01,-2.525781040204770456e+00,-8.507560328282185447e-01,-5.253194027969441127e-01,1.586498196408573508e-02,5.522397774471118055e+02
1.293477420449901549e+00,1.392891768123644525e+01,-2.380815521675796909e+00,5.239554337637222226e-01,-8.514760798136350450e-01,2.138197689259386386e-02,5.540405906444339053e+02
1.333149130635310042e+00,1.412685897136697832e+01,-2.224005787387166144e+00,-1.846574052556390275e-02,-9.996460970682213842e-01,1.909704281799861833e-02,5.558414038417560050e+02
1.373920382641303339e+00,1.432793760968951524e+01,-2.055862662453515455e+00,-5.550483875087693919e-01,-8.317470821740855502e-01,1.077398811099467349e-02,5.576422170390781048e+02
1.415388699002508854e+00,1.453197019500519538e+01,-1.876966834192896449e+00,6.355972790765442859e-01,2.092487626604989381e-01,7.431211571180521558e-01,5.594430302364002046e+02
1.459728252081319733e+00,1.475163136980101974e+01,-1.676271364413935983e+00,2.229998744318004438e-04,-9.950984396735882420e-01,9.887894432260983801e-02,5.613550402536317279e+02
1.503978978039171910e+00,1.497427584499560460e+01,-1.465514915554855246e+00,0.000000000000000000e+00,-9.997079019077104167e-01,-2.412697349861542967e-02,5.632670502708632512e+02
1.539337513584288164e+00,1.515672512666607652e+01,-1.287613767829959732e+00,-6.138617165755105853e-01,2.304878935820367791e-01,7.550146514041576884e-01,5.648124146502947269e+02
