-8.868524607439928431e+00,6.086151567020100295e+00,5.970794956626273020e+00,6.842212737549727697e-01,-3.120370811430489000e-01,-6.591449829391323734e-01,5.108602568360068403e+02
-8.484724828085431270e+00,7.233192139561926304e+00,6.277531838511530182e+00,6.444078761470068972e-01,-3.570400787916310215e-01,-6.762091919644390714e-01,5.155997807746485933e+02
-8.006823937730173313e+00,8.413389665511941118e+00,6.617247937619994858e+00,6.020802769350003247e-01,-4.006500573128046194e-01,-6.906351219726528656e-01,5.203393047132902893e+02
-7.436921277325795998e+00,9.611592729007293556e+00,6.977010900552414796e+00,5.574036197300480389e-01,-4.426968701963346353e-01,-7.023664896841853578e-01,5.250788286519319854e+02
-6.777954265806904743e+00,1.081268512498127876e+01,7.343887121126502215e+00,5.105522129546844479e-01,-4.830164696542571523e-01,-7.113575246603375257e-01,5.298183525905736815e+02
-6.033698122767623850e+00,1.200159695021267758e+01,7.704942545840994583e+00,4.617088498044175093e-01,-5.214515466236417929e-01,-7.175731478651778961e-01,5.345578765292153776e+02
-5.208765524469180619e+00,1.316331569068896812e+01,8.047243479436637870e+00,4.110640951117814912e-01,-5.578521444824623421e-01,-7.209891085219359841e-01,5.392974004678570736e+02
-4.308606193361585568e+00,1.428289730445475314e+01,8.357857390315185597e+00,3.588155418936438967e-01,-5.920762440854447917e-01,-7.215920787302132489e-01,5.440369244064987697e+02
-3.340847222861103916e+00,1.534926455555278579e+01,8.627723293970797513e+00,3.337887414672749964e-01,-5.969764248423912179e-01,-7.295219148544472842e-01,5.487764483451404658e+02
-2.316332121942854538e+00,1.635902849477938759e+01,8.855521895238089414e+00,3.085238718216742893e-01,-6.014508202106073620e-01,-7.369314292286622825e-01,5.535159722837821619e+02
-1.247327410512372170e+00,1.731274193798916983e+01,9.043806092005198138e+00,2.830389527178454601e-01,-6.054962389530291755e-01,-7.438153372033975419e-01,5.582554962224238579e+02
-1.460301852491318331e-01,1.821112425078446861e+01,9.195131237630745247e+00,2.573521608551559425e-01,-6.091097957894664461e-01,-7.501687290052887480e-01,5.629950201610655540e+02
9.754329586101747607e-01,1.905506041793361049e+01,9.312054981245783125e+00,2.314818169076976462e-01,-6.122889134540184797e-01,-7.559870732382598657e-01,5.677345440997072501e+02
2.105006999628286746e+00,1.984560009985275286e+01,9.397137107980652715e+00,2.054463724580465334e-01,-6.150313245328966616e-01,-7.612662201149514862e-01,5.724740680383489462e+02
3.011905013446129153e+00,2.044547336904464530e+01,9.445823629507763997e+00,1.792643968377037877e-01,-6.173350730812869891e-01,-7.660024044160186341e-01,5.762830677374723791e+02
4.128555386543941275e+00,2.114897580693985901e+01,9.484214235458903630e+00,1.529545638835986543e-01,-6.191985160181062708e-01,-7.701922481751912741e-01,5.810225916761140752e+02
5.219977337668042949e+00,2.180286406422638734e+01,9.497949850862301702e+00,1.265356386200931493e-01,-6.206203242976542356e-01,-7.738327630881846053e-01,5.857621156147557713e+02
6.274397696228270149e+00,2.240880456550223698e+01,9.489596792508750767e+00,1.000264638759830460e-01,-6.215994838573334347e-01,-7.769213526437450668e-01,5.905016395533974674e+02
7.280119932956599982e+00,2.296862370153246857e+01,9.461722744991766021e+00,7.344594684603288071e-02,-6.221352963407570380e-01,-7.794558139753121617e-01,5.952411634920391634e+02
8.225525197813420064e+00,2.348430681209088178e+01,9.416896600684482976e+00,4.681304560662421371e-02,-6.222273795957306008e-01,-7.814343394319780423e-01,5.999806874306808595e+02
9.099073351843943058e+00,2.395799715635633476e+01,9.357688299682687116e+00,2.014675559512980885e-02,-6.218756679467586368e-01,-7.828555178676261939e-01,6.047202113693225556e+02
9.889303992940970289e+00,2.439199487093832275e+01,9.286668669679562171e+00,-6.533903937352418534e-03,-6.210804122418736029e-01,-7.837183356473298446e-01,6.094597353079642517e+02
1.058483747543676223e+01,2.478875591560885994e+01,9.206409265777237394e+00,-3.320990349024550287e-02,-6.198421796737618727e-01,-7.840221773702942265e-01,6.141992592466059477e+02
1.117437592346506392e+01,2.515089100680879497e+01,9.119482210309012515e+00,-5.986221688505513616e-02,-6.181618533753070466e-01,-7.837668263088237719e-01,6.189387831852476438e+02
1.164670423808328970e+01,2.548116453898891720e+01,9.028460032690750481e+00,-8.647183483457157593e-02,-6.160406317898452500e-01,-7.829524645630066004e-01,6.236783071238893399e+02
1.199069109810622535e+01,2.578249349386405598e+01,8.935915509268806289e+00,-1.130197785000407601e-01,-6.134800278165759568e-01,-7.815796729309995028e-01,6.284178310625310360e+02
1.219528995454127518e+01,2.605794633767288815e+01,8.844421503135400542e+00,-1.394871130266411574e-01,-6.104818677317362940e-01,-7.796494304950085663e-01,6.331573550011727320e+02
1.224954001853940611e+01,2.631074190652472211e+01,8.756550803920656989e+00,-1.658549610476182379e-01,-6.070482898863129861e-01,-7.771631139232572094e-01,6.378968789398144281e+02
1.214256724284124367e+01,2.654424827990410662e+01,8.674875967586732628e+00,-1.921045161474518037e-01,-6.031817431812098729e-01,-7.741224964884403370e-01,6.426364028784561242e+02
1.186358529672722106e+01,2.676198164239923827e+01,8.601969156253170823e+00,-2.182170562744576991e-01,-5.988849853209646801e-01,-7.705297468033578401e-01,6.473759268170978203e+02
1.140189653442061868e+01,2.696760513373205725e+01,8.540401978060669919e+00,-2.441739570932647818e-01,-5.941610808472523875e-01,-7.663874272746322713e-01,6.521154507557395164e+02
1.074689295686692425e+01,2.716492768717492368e+01,8.492745327064135097e+00,-2.699567052676475343e-01,-5.890133989535802916e-01,-7.616984922756067089e-01,6.568549746943812124e+02
1.066005101846225855e+01,2.718731055805424290e+01,8.488152292798405441e+00,-2.955469116642454597e-01,-5.834456110827244135e-01,-7.564662860397233235e-01,6.573997440653656668e+02
9.798187074589479906e+00,2.738120379761884848e+01,8.457321856638031932e+00,-3.209263244677571514e-01,-5.774616883086243213e-01,-7.506945402758831154e-01,6.621392680040073628e+02
8.720886317867019955e+00,2.757509144278601099e+01,8.445836221356634255e+00,-3.460768421982581278e-01,-5.710658985045954372e-01,-7.443873715074829089e-01,6.668787919426490589e+02
7.417825428448511005e+00,2.777322884629155553e+01,8.456263084902028382e+00,-3.709805266213611619e-01,-5.642628032998786569e-01,-7.375492781370230899e-01,6.716183158812907550e+02
5.878774619698204695e+00,2.798001226140005215e+01,8.491168772795134601e+00,-3.956196155420152460e-01,-5.570572548266911062e-01,-7.301851372383758587e-01,6.763578398199324511e+02
4.093598565233452113e+00,2.819997762219966120e+01,8.553118078328729723e+00,-4.199765354728211553e-01,-5.494543922600975128e-01,-7.223002010789976168e-01,6.810973637585741471e+02
2.093718191631729120e+00,2.841502445251760278e+01,8.631789139853838222e+00,-2.485924457744723148e-01,-5.857675069561850689e-01,-7.714118379303657180e-01,6.858368876972158432e+02
-8.229659169305856073e-03,2.856088923496689702e+01,8.691089120712659266e+00,-6.897918907131329880e-02,-6.026898605379259477e-01,-7.949872976852214723e-01,6.905764116358575393e+02
-2.062561236585826574e+00,2.854882350982756023e+01,8.682041420378700636e+00,1.129174884084330061e-01,-5.996612779033404506e-01,-7.922461691897638714e-01,6.953159355744992354e+02
-3.924919695151287691e+00,2.828805568703280926e+01,8.555673688118993425e+00,2.910762554624261034e-01,-5.767820131696964614e-01,-7.632791905919688036e-01,7.000554595131409314e+02
-5.030446002513365045e+00,2.795853428890184489e+01,8.395064538016871580e+00,4.595995113955018141e-01,-5.348094314391391713e-01,-7.090452462074303686e-01,7.032395558749495876e+02
-6.395227694026607068e+00,2.719997674607899540e+01,8.023108226912338381e+00,5.582607870846341136e-01,-4.919929928629243054e-01,-6.680462473350829988e-01,7.079790798135912837e+02
-7.402224518032375578e+00,2.610078411513235253e+01,7.485962462309071697e+00,6.495260798598008201e-01,-4.426585197768713731e-01,-6.181968185392782145e-01,7.127186037522329798e+02
-8.113515454234539348e+00,2.472459489208467431e+01,6.817623577681964697e+00,7.321862891902926052e-01,-3.874596086238085713e-01,-5.601573793213080465e-01,7.174581276908746759e+02
-8.587136928119747381e+00,2.313586383351328735e+01,6.052096072013877226e+00,8.051463174343032048e-01,-3.271275483302743536e-01,-4.946968512602165635e-01,7.221976516295163719e+02
-8.877077701822374323e+00,2.139980833977961083e+01,5.223390492368380045e+00,8.674395774011461890e-01,-2.624616319590003521e-01,-4.226824710216552927e-01,7.269371755681580680e+02
-9.033274088429582349e+00,1.958235477877398267e+01,4.365521316187898293e+00,9.182407973619854946e-01,-1.943185675512290322e-01,-3.450683010163866915e-01,7.316766995067997641e+02
-9.101605489937792726e+00,1.775008475404939290e+01,3.512504833390087011e+00,9.568769539325311380e-01,-1.236011284385033077e-01,-2.628825899199344063e-01,7.364162234454414602e+02
-9.123890259133768055e+00,1.597018132121088918e+01,2.698357028311940020e+00,9.828361880471829792e-01,-5.124619336534271680e-02,-1.772141504844070847e-01,7.411557473840831562e+02
-9.137881885767994206e+00,1.431037515641473234e+01,1.957091461712952452e+00,9.957745859511081266e-01,2.178766516305875173e-02,-8.919793507734753713e-02,7.458952713227248523e+02
-9.177265507181767035e+00,1.283889068086031493e+01,1.322717152958609033e+00,9.955207354023959399e-01,9.453287991605881235e-02,-0.000000000000000000e+00,7.506347952613665484e+02
-9.261368416732114639e+00,1.160150236844487637e+01,8.176948463422678559e-01,9.958299747488675857e-01,9.121765931120583148e-02,-0.000000000000000000e+00,7.553743192000082445e+02
-9.386690794476585609e+00,1.059841113290031167e+01,4.413939965617734162e-01,9.961281739830017967e-01,8.790142761004784977e-02,-0.000000000000000000e+00,7.601138431386499406e+02
-9.539920718909158381e+00,9.806840861602863058e+00,1.816344244140678521e-01,9.964153297911566565e-01,8.458422155352764149e-02,-0.000000000000000000e+00,7.648533670772916366e+02
-9.709131055184869297e+00,9.203848240402935588e+00,2.622869172323071332e-02,9.966914389931955665e-01,8.126607789442859275e-02,-0.000000000000000000e+00,7.695928910159333327e+02
-9.883780406826428333e+00,8.766341106600352262e+00,-3.701713946501764690e-02,9.969564985311434313e-01,7.794703339589008351e-02,-0.000000000000000000e+00,7.743324149545750288e+02
-1.005471395682355507e+01,8.471096812648323038e+00,-2.030274728558412872e-02,9.972105054692196324e-01,7.462712483100311656e-02,-0.000000000000000000e+00,7.790719388932167249e+02
-1.021416419815093946e+01,8.294780599280962008e+00,6.416720991186164458e-02,9.974534569938702244e-01,7.130638898240608536e-02,-0.000000000000000000e+00,7.838114628318584209e+02
-1.035575155369274825e+01,8.213963976736344819e+00,2.041838537628621331e-01,9.976853504137986883e-01,6.798486264188015327e-02,-0.000000000000000000e+00,7.885509867705001170e+02
-1.038939952181891435e+01,8.204549688159769261e+00,2.470243862611307684e-01,9.979061831599960186e-01,6.466258260994481311e-02,-0.000000000000000000e+00,7.897730006978659958e+02
-1.050642266263425206e+01,8.197603787962956190e+00,4.316369070974238609e-01,9.981159527857687008e-01,6.133958569545311379e-02,-0.000000000000000000e+00,7.945125246365076919e+02
-1.059642978270723646e+01,8.233065713614442060e+00,6.442192059970981433e-01,9.983146569667650239e-01,5.801590871518701870e-02,-0.000000000000000000e+00,7.992520485751493879e+02
-1.065756575327884015e+01,8.287330781084195408e+00,8.725541791626562071e-01,9.985022935010018363e-01,5.469158849345248652e-02,-0.000000000000000000e+00,8.039915725137910840e+02
-1.068936477176122324e+01,8.336778897837913149e+00,1.104423741591888053e+00,9.986788603088875282e-01,5.136666186167455211e-02,-0.000000000000000000e+00,8.087310964524327801e+02
-1.069275039969729413e+01,8.357792964700513139e+00,1.327609587927005785e+00,9.988443554332460117e-01,4.804116565799238653e-02,-0.000000000000000000e+00,8.134706203910744762e+02
-1.067003549000506624e+01,8.326777277511236974e+00,1.529893953294067410e+00,9.989987770393378153e-01,4.471513672685414192e-02,-0.000000000000000000e+00,8.182101443297161723e+02
-1.062492200351037930e+01,8.220175927246275549e+00,1.699060374105513027e+00,9.991421234148802899e-01,4.138861191861191446e-02,-0.000000000000000000e+00,8.229496682683578683e+02
-1.056250071477131947e+01,8.014491197285989799e+00,1.822894448847991677e+00,9.992743929700668160e-01,3.806162808911640882e-02,-0.000000000000000000e+00,8.276891922069995644e+02
-1.048925080720924718e+01,7.686301956502912702e+00,1.889184598807475357e+00,9.993955842375845666e-01,3.473422209931178312e-02,-0.000000000000000000e+00,8.324287161456412605e+02
-1.041303935757530930e+01,7.212282046846463679e+00,1.885722828626931413e+00,9.995056958726304952e-01,3.140643081483029952e-02,-0.000000000000000000e+00,8.371682400842829566e+02
-1.037731738629796929e+01,6.933572580670485763e+00,1.860646934400693508e+00,9.996047266529263231e-01,2.807829110558691249e-02,-0.000000000000000000e+00,8.394713424112674147e+02
-1.031361844238412573e+01,6.243296263295339266e+00,1.751837351111888541e+00,9.996926754787327507e-01,2.474983984537383955e-02,-0.000000000000000000e+00,8.442108663499091108e+02
-1.027204125803841173e+01,5.349723207793926072e+00,1.542947195627812906e+00,9.997695413728610037e-01,2.142111391145515992e-02,-0.000000000000000000e+00,8.489503902885508069e+02
-1.026528543927334880e+01,4.229996595387797598e+00,1.221786260422867532e+00,9.998353234806844902e-01,1.809215018416122575e-02,-0.000000000000000000e+00,8.536899142271925029e+02
-1.030743482769865338e+01,2.861436963155556068e+00,7.761713310205582417e-01,9.998900210701483493e-01,1.476298554648316531e-02,-0.000000000000000000e+00,8.584294381658341990e+02
-1.040634527580135327e+01,1.257569551657288898e+00,2.150636695878418436e-01,9.821034339830420068e-01,1.249605859100398966e-02,-1.879220409613274467e-01,8.631689621044758951e+02
-1.055316276064058556e+01,-4.960008716263027417e-01,-4.102948183351148859e-01,9.293183552154924421e-01,9.783819092554352226e-03,-3.691472220459631193e-01,8.679084860431175912e+02
-1.072563012283508144e+01,-2.277857673083231838e+00,-1.027521499424481677e+00,8.434158461260568007e-01,6.722920846808234929e-03,-5.372173795023695853e-01,8.726480099817592873e+02
-1.089426514225099751e+01,-3.966940173724480712e+00,-1.564234245213185215e+00,7.274571333130616102e-01,3.422442382401314105e-03,-6.861431381865763512e-01,8.773875339204009833e+02
-1.093425221390134716e+01,-4.371640264042602197e+00,-1.683520243517789616e+00,5.855745249376080874e-01,0.000000000000000000e+00,-8.106173423658352695e-01,8.785825676994058995e+02
-1.105092260277204197e+01,-5.860781444652824135e+00,-2.084284386794524213e+00,7.680787893568695734e-01,1.578413131129958458e-01,-6.205957566848402385e-01,8.833220916380475956e+02
-1.104799156562075879e+01,-7.160619603062222893e+00,-2.387959552557411325e+00,8.781301151644511638e-01,3.007934310890415519e-01,-3.720333488482469031e-01,8.880616155766892916e+02
-1.085777135325149878e+01,-8.326572338863012845e+00,-2.668602018864316250e+00,9.053473691451656702e-01,4.153717105649604169e-01,-8.837693841809150797e-02,8.928011395153309877e+02
-1.044608730310735467e+01,-9.397647965362438072e+00,-2.978074562174533924e+00,8.652921562943725053e-01,4.931317357575678573e-01,-8.993650785090279154e-02,8.975406634539726838e+02
-1.035647587453212282e+01,-9.573193571483832542e+00,-3.034713842711258547e+00,8.186144420750821604e-01,5.671175785652023960e-01,-9.080774916681967623e-02,8.983496677306200127e+02
-9.752836341139076382e+00,-1.055096701677609872e+01,-3.380262156839421994e+00,7.656714741121103396e-01,6.367629908266292382e-01,-9.098399444324607732e-02,9.030891916692617087e+02
-9.024430352278065115e+00,-1.142277074305738793e+01,-3.744871928130336869e+00,7.068684505664944995e-01,7.015349437629149199e-01,-9.046389486220628162e-02,9.078287156079034048e+02
-8.228575314590722556e+00,-1.217452286958596552e+01,-4.113815739084934364e+00,6.426554189943858297e-01,7.609377073695864357e-01,-8.925143102842970910e-02,9.125682395465451009e+02
-7.421673987091968350e+00,-1.279135739232481406e+01,-4.472365903167619727e+00,5.735238319863290579e-01,8.145166443580736937e-01,-8.735588250209778971e-02,9.173077634851867970e+02
-6.659209261850482342e+00,-1.325763633993667945e+01,-4.805795382479154831e+00,5.000027859432425448e-01,8.618616896182011988e-01,-8.479175677956424240e-02,9.220472874238284930e+02
-5.995739019633434808e+00,-1.355696199215907072e+01,-5.099378704101013682e+00,4.226549717683421581e-01,9.026104885786694343e-01,-8.157867826547220147e-02,9.267868113624701891e+02
-5.484891059308918848e+00,-1.367218915966703641e+01,-5.338392876710809531e+00,3.420723684575420198e-01,9.364511704509530521e-01,-7.774123808566464622e-02,9.315263353011118852e+02
-5.179358101133940018e+00,-1.358543752459319798e+01,-5.508118307327807273e+00,2.588717125376465145e-01,9.631247351340186391e-01,-7.330880588978283541e-02,9.362658592397535813e+02
-5.163077955170520816e+00,-1.356879817957671541e+01,-5.519402230233654727e+00,1.736897780169139593e-01,9.824270355114816944e-01,-6.831530508318919837e-02,9.366738776834386044e+02
-5.118730286545764230e+00,-1.325926913387251460e+01,-5.603834878412237153e+00,8.717850296322578185e-02,9.942103399668912322e-01,-6.279895320762697575e-02,9.414134016220803005e+02
-5.386784510472067744e+00,-1.270837608730130519e+01,-5.588287154237777443e+00,0.000000000000000000e+00,9.983844631532042824e-01,-5.680196945670087927e-02,9.461529255607219966e+02
-5.954946054953764722e+00,-1.191016268231976305e+01,-5.470862322751314011e+00,2.718475813968589949e-01,9.443205849998940193e-01,1.853524351994536579e-01,9.508924494993636927e+02
-6.686929598754487003e+00,-1.088735218737940436e+01,-5.275283582614910927e+00,5.068698197220069535e-01,7.623362237635495919e-01,4.023983943722789780e-01,9.556319734380053887e+02
-6.904836595722983361e+00,-1.056244784594692021e+01,-5.210225334625871341e+00,6.732299333349860415e-01,4.770836016566368243e-01,5.649342385559369406e-01,9.569899367144379312e+02
-7.568988047886480608e+00,-9.343332872307803072e+00,-4.975176899842370659e+00,7.483923528965686911e-01,1.272038900121394978e-01,6.509424371574175083e-01,9.617294606530796273e+02
-8.018623949211159285e+00,-8.023907925058418655e+00,-4.709531467432787721e+00,7.843785636195371724e-01,1.014329603648742861e-01,6.119310610452609600e-01,9.664689845917213233e+02
-8.259469600843070580e+00,-6.805091081662237862e+00,-4.371376005325601888e+00,8.176343202094412677e-01,7.530893738728505760e-02,5.707895254390370487e-01,9.709448363749478403e+02
-8.406344893914649674e+00,-5.673028221077386135e+00,-4.080948866518325779e+00,8.279180956333258568e-01,6.570470540706878360e-02,5.569852049766326196e-01,9.756843603135895364e+02
-8.532498439316317018e+00,-4.768516537596814153e+00,-4.537634915162072957e+00,8.378801759189939968e-01,5.607494484856153510e-02,5.429644659776944327e-01,9.804238842522312325e+02
-8.549281840091213169e+00,-4.675472802351115398e+00,-4.666184486390258179e+00,7.759546851501885056e-01,4.763462436425527219e-02,6.289859053708034553e-01,9.809881345987362238e+02
-8.638878907606420299e+00,-4.019838934409837528e+00,-6.318949209964316083e+00,7.052564958801330608e-01,3.865576340313642278e-02,7.078961837549831992e-01,9.857276585373779199e+02
-8.479162162573009809e+00,-3.606630757465005388e+00,-8.629070429701336309e+00,6.265849024297791559e-01,2.923987400335185255e-02,7.788031778413609940e-01,9.904671824760196159e+02
-7.878287487495487795e+00,-3.421134932896728209e+00,-1.065420204972771145e+01,5.408293392902194796e-01,1.949340872907790595e-02,8.409052460174047949e-01,9.952067064146613120e+02
-6.909860660156985190e+00,-3.436482949183270463e+00,-1.183078579714991285e+01,4.489593261275549585e-01,9.526557261368766641e-03,8.935002899777892971e-01,9.999462303533030081e+02
-5.871187909649284720e+00,-3.610719798238755107e+00,-1.239101719578421346e+01,3.520135077921496269e-01,-5.479992337523450314e-04,9.359936912336245252e-01,1.004685754291944704e+03
-5.023163909098008695e+00,-3.899136306198196511e+00,-1.281059953077929059e+01,3.238822149253043903e-01,7.802819467286920864e-03,9.460641769255474509e-01,1.009425278230586400e+03
-4.433592704761432302e+00,-4.265307323816251994e+00,-1.324376237949068624e+01,2.954391799244786565e-01,1.614612726689128655e-02,9.552240541036717270e-01,1.014164802169228096e+03
-4.073096184852550650e+00,-4.678032582314433974e+00,-1.368399323558857184e+01,2.667117791109648306e-01,2.447389377469652225e-02,9.634645065623386184e-01,1.018904326107869792e+03
-3.910867623660962522e+00,-5.087057542059674198e+00,-1.410459398816746024e+01,2.377276624752589496e-01,3.277810355994040942e-02,9.707776029655289518e-01,1.023424978356343786e+03
-3.899247793759768932e+00,-5.502419345789411054e+00,-1.453992979839685340e+01,2.085147270726678270e-01,4.105076386362538354e-02,9.771563044766298223e-01,1.028164502294985596e+03
-4.020098993428772083e+00,-5.874773464509714493e+00,-1.496309576970519828e+01,1.791010901817740864e-01,4.928391228887925996e-02,9.825944715311299982e-01,1.032904026233627292e+03
-4.237399527087583273e+00,-6.174694540008712096e+00,-1.536757999039791400e+01,1.495150622511267902e-01,5.746962446213798453e-02,9.870868697447414686e-01,1.037643550172268988e+03
-4.513455037889048782e+00,-6.373261121669192342e+00,-1.574687170289126570e+01,1.197851196601070617e-01,6.560002165780126626e-02,9.906291749512750044e-01,1.042383074110910684e+03
-4.808901878083801762e+00,-6.442077794056133122e+00,-1.609446170865962600e+01,8.993987732009491032e-02,7.366727837904697707e-02,9.932179773654231658e-01,1.047122598049552380e+03
-4.915742475652218779e+00,-6.436860012813000687e+00,-1.621382370516624150e+01,6.000806114221550469e-02,8.166362988753084196e-02,9.948507848664386310e-01,1.048850609055448558e+03
-5.178092959155824460e+00,-6.320593678210578048e+00,-1.651655948881495917e+01,3.001848039807517021e-02,8.958137967474705254e-02,9.955260253995324993e-01,1.053590132994090254e+03
-5.360546875322879323e+00,-6.009574015388233548e+00,-1.677221015674532723e+01,0.000000000000000000e+00,9.741290686787916486e-02,9.952430484926604315e-01,1.058329656932731950e+03
-5.434383842306274914e+00,-5.496227417524035985e+00,-1.696917400290081090e+01,-0.000000000000000000e+00,5.859982350367876069e-02,9.982805520885316142e-01,1.063069180871373646e+03
-5.416227311267721056e+00,-4.914028826038235209e+00,-1.708086358522625403e+01,-0.000000000000000000e+00,1.969792880090950882e-02,9.998049767799289667e-01,1.067196175604796281e+03
-5.321241102469901563e+00,-4.136165262181698665e+00,-1.711527598367169745e+01,-0.000000000000000000e+00,-1.923382039023228268e-02,9.998140127774323149e-01,1.071935699543437977e+03
-5.164846310389885176e+00,-3.278337981819398284e+00,-1.701889448106235747e+01,-0.000000000000000000e+00,-5.813642200670532389e-02,9.983076461837654403e-01,1.076675223482079673e+03
-4.974375678358221364e+00,-2.389193258201111281e+00,-1.676483820688179804e+01,-0.000000000000000000e+00,-9.695091807975529663e-02,9.952881590151888558e-01,1.081414747420721369e+03
-4.761397257198292543e+00,-1.522605285582231183e+00,-1.633957387221307300e+01,-1.229265437548816625e-03,-1.338621674663557637e-01,9.909981882036992262e-01,1.086154271359363065e+03
-4.503519688753145012e+00,-7.436009434546483332e-01,-1.575625438571779569e+01,-2.456831143309622881e-03,-1.705883580657971688e-01,9.853383053899790189e-01,1.090893795298004761e+03
-4.163690527106709283e+00,-1.231991674761797328e-01,-1.504138026224068447e+01,-3.681000281174575620e-03,-2.070787242326664890e-01,9.783163354472801387e-01,1.095633319236646457e+03
-4.080498161303022897e+00,-1.352550387904377822e-02,-1.487681984878670782e+01,-4.900080713599280595e-03,-2.432828263710322403e-01,9.699419856867642631e-01,1.096637862826583387e+03
-3.616293784726066107e+00,3.578013163326768664e-01,-1.405493555108588488e+01,-6.112387338955363285e-03,-2.791506206056331707e-01,9.602268324373439690e-01,1.101377386765225083e+03
-3.002660312823321132e+00,4.119997656749623260e-01,-1.316014057745579535e+01,-7.316244419140346955e-03,-3.146325279060197544e-01,9.491843050468217191e-01,1.106116910703866779e+03
-2.216037534332354841e+00,7.668821883408713513e-02,-1.221895534276146300e+01,-8.509987894250357898e-03,-3.496795025689147796e-01,9.368296673276681474e-01,1.110856434642508475e+03
-1.288195590233380594e+00,-6.786025630043094337e-01,-1.126554150552917832e+01,-6.509497914867861529e-03,-2.267319778936881802e-01,9.739344108497848262e-01,1.115595958581150171e+03
-3.540132938866070722e-01,-1.799235539613596391e+00,-1.034933820333767329e+01,-4.401621693856015705e-03,-1.000440944872977578e-01,9.949722633745504696e-01,1.120335482519791867e+03
4.046728999490128431e-01,-3.186305400076653083e+00,-9.527420612239458464e+00,-2.221132131458964602e-03,2.829422165749335971e-02,9.995961702570690388e-01,1.125075006458433563e+03
8.052245820456420677e-01,-4.501128217634017048e+00,-8.933084268204122935e+00,-3.999995304131439757e-06,1.561658166662475977e-01,9.877298404362626627e-01,1.129121868167976345e+03
9.063088298068943116e-01,-6.105211868913091422e+00,-8.397120920405477307e+00,-3.203404179448053877e-06,1.298139538555048711e-01,9.915373605481422326e-01,1.133861392106618041e+03
6.627174998238790637e-01,-7.709622765267501343e+00,-8.043704713566011577e+00,-2.404542321044970368e-06,1.033700707563052351e-01,9.946419599307528836e-01,1.138600916045259737e+03
2.312916460986508826e-01,-9.238870252523517124e+00,-7.855294567433971586e+00,-1.603975931324311184e-06,7.685290978053439803e-02,9.970414385794429402e-01,1.143340439983901433e+03
-2.268188867348998328e-01,-1.061964409642986951e+01,-7.814339122046917829e+00,-8.022724193993834827e-07,5.028126522247964442e-02,9.987340959212988034e-01,1.148079963922543129e+03
-5.461700431579854520e-01,-1.178087145513692846e+01,-7.903277830474215726e+00,-0.000000000000000000e+00,2.367396997322678345e-02,9.997187320112477238e-01,1.152819487861184825e+03
-6.092275667945278306e-01,-1.268118840473719011e+01,-8.101700198648403628e+00,-1.210898693270597110e-06,6.545724989853747566e-02,9.978543723582201652e-01,1.157559011799826521e+03
-4.007688597107553763e-01,-1.333544599167541378e+01,-8.383505202667404177e+00,-2.419679105121034875e-06,1.071260229975434380e-01,9.942444443853103442e-01,1.162298535738468217e+03
3.448914317408120159e-03,-1.376843659310914703e+01,-8.697806870561620940e+00,-3.624226711587903945e-06,1.486073979362688424e-01,9.888952630413665457e-01,1.166753985703076978e+03
6.155962593392503290e-01,-1.407568381856223283e+01,-9.056600627323600605e+00,-4.822434393069631526e-06,1.898288111911938802e-01,9.818161856572944490e-01,1.171493509641718674e+03
1.380163825807549705e+00,-1.425928897261929684e+01,-9.413659889424668137e+00,-6.012206119863658164e-06,2.307181539693704542e-01,9.730195955852778411e-01,1.176233033580360370e+03
2.252093595105335577e+00,-1.435977927754036010e+01,-9.740031814104488816e+00,-7.191460618315129887e-06,2.712038983333718289e-01,9.625208805408472790e-01,1.180972557519002066e+03
3.184004204047326869e+00,-1.441704493417321054e+01,-1.000676546459853355e+01,-8.358135011171666175e-06,3.112152223108503590e-01,9.503384056914353506e-01,1.185712081457643762e+03
4.126195299797234206e+00,-1.447030838194842950e+01,-1.018491361295549424e+01,-9.510188425783643395e-06,3.506821337701050978e-01,9.364934815383939570e-01,1.190451605396285458e+03
5.026652079520721905e+00,-1.455809361242681632e+01,-1.024553454272874298e+01,-1.064560556384510864e-05,3.895355928452017280e-01,9.210103266485138995e-01,1.195191129334927155e+03
5.831050014613194499e+00,-1.471819553861640273e+01,-1.015969385142159176e+01,-1.176240022643735615e-05,4.277076326967084730e-01,9.039160253000807499e-01,1.199930653273568851e+03
6.482759759266235378e+00,-1.498764942228779873e+01,-9.898466252625194528e+00,-1.285861878821463389e-05,4.651314783969987543e-01,8.852404801173605620e-01,1.204670177212210547e+03
6.922852243023245755e+00,-1.540270036148930544e+01,-9.432937377746460683e+00,-1.393234361465973069e-05,5.017416637323274253e-01,8.650163597761567624e-01,1.209409701150852243e+03
7.083366057588821540e+00,-1.572662870735932650e+01,-9.055638809983411974e+00,-1.498169641643593036e-05,5.374741457174994075e-01,8.432790418716801240e-01,1.212292251195785866e+03
7.120923709415254876e+00,-1.640552110014056453e+01,-8.257216583041097735e+00,-1.600484153497105610e-05,5.722664166229280980e-01,8.200665510484200782e-01,1.217031775134427562e+03
6.782881062958276530e+00,-1.732135921824786351e+01,-7.179140873641678411e+00,-1.699998915352857377e-05,6.060576133181894143e-01,7.954194924999823391e-01,1.221771299073069258e+03
6.221562659638629533e+00,-1.836051859647893281e+01,-5.891156454860870362e+00,-4.540889644353970971e-06,7.071098581352692758e-01,7.071022899858621091e-01,1.226510823011710954e+03
5.951154585864613544e+00,-1.908028799464882752e+01,-4.814636513531570294e+00,7.999989140413108610e-06,7.954259202489223357e-01,6.060491773184206732e-01,1.230512537557586711e+03
6.328780670301392242e+00,-1.945001594273125178e+01,-3.751847310342066422e+00,5.337226716009543779e-06,8.130197862525434527e-01,5.822343403772590742e-01,1.235252061496228407e+03
7.369287692721746552e+00,-1.936305897281737742e+01,-2.868789403335966881e+00,2.669784555868305996e-06,8.299008879425801011e-01,5.579090572536804515e-01,1.239991585434870103e+03
8.637247752566901582e+00,-1.909938198923328301e+01,-1.979454560897795146e+00,0.000000000000000000e+00,8.460544322668346329e-01,5.330946422741880131e-01,1.244731109373511799e+03
9.800305822834545211e+00,-1.886131053997853613e+01,-9.534711606546275586e-01,-7.485117199941290766e-02,8.994901084321766938e-01,4.304797868465048416e-01,1.249470633312153495e+03
1.005829820926959961e+01,-1.881457266850478049e+01,-6.786313614948689121e-01,-1.482810603468766031e-01,9.358463359363484724e-01,3.196910425044504622e-01,1.250636107496832665e+03
1.100188427144708747e+01,-1.866228696673509546e+01,5.079509022934162177e-01,-2.188953843816090761e-01,9.544327972627357770e-01,2.028320640495047678e-01,1.255375631435474361e+03
1.175347585649998905e+01,-1.856964455101449829e+01,1.804727743655054173e+00,-2.853533283690548039e-01,9.548965881330802041e-01,8.212176302108813164e-02,1.260115155374116057e+03
1.232757620543306132e+01,-1.851958033948353233e+01,3.175135880113402198e+00,-3.463930005229988729e-01,9.372289161557754156e-01,-4.014782573907275248e-02,1.264854679312757753e+03
1.273957216877097132e+01,-1.849523545822017923e+01,4.582607441795871317e+00,-4.008553929132623317e-01,9.017652654092868092e-01,-1.616550651087414747e-01,1.269594203251399449e+03
1.300573278795368104e+01,-1.847996891851542856e+01,5.990572248106360576e+00,-4.477063874386528197e-01,8.491790242433989722e-01,-2.800927978964362075e-01,1.274333727190041145e+03
1.314320780679073231e+01,-1.845736927663469373e+01,7.362460084519231174e+00,-4.860563902112744472e-01,7.804686976410527555e-01,-3.932121533461937490e-01,1.279073251128682841e+03
1.317002611302283022e+01,-1.841126627524440451e+01,8.661702979279525039e+00,-5.151772217625080197e-01,6.969389471894419374e-01,-4.988652464037193202e-01,1.283812775067324537e+03
1.310304202119227668e+01,-1.832978081172527851e+01,9.860174595094207461e+00,-4.954878618772834975e-01,6.719773744625566758e-01,-5.503963907443590875e-01,1.288552299005966233e+03
1.295555933934676851e+01,-1.820933584568556185e+01,1.094662909520060268e+01,-4.739819367168020547e-01,6.445521878104434332e-01,-5.999096605795928294e-01,1.293291822944607929e+03
1.273889878995751523e+01,-1.805056566415874642e+01,1.191826472778129187e+01,-4.507382915967116377e-01,6.147639338397842268e-01,-6.472235302738101881e-01,1.298031346883249626e+03
1.246428793084913167e+01,-1.785425825816564682e+01,1.277228688433558190e+01,-4.258421425928350379e-01,5.827218225427455156e-01,-6.921645376109611947e-01,1.302770870821891322e+03
1.214286015842688116e+01,-1.762135407480682048e+01,1.350590827277874340e+01,-3.993847641298516882e-01,5.485433269211001939e-01,-7.345679197140736472e-01,1.307510394760533018e+03
1.206806941375127629e+01,-1.756629852029699634e+01,1.365212625053418094e+01,-3.714631543620084408e-01,5.123537523207660760e-01,-7.742782170744767489e-01,1.308545226280693896e+03
1.171101341859688638e+01,-1.729571532514608023e+01,1.425617284630790316e+01,-3.421796795721620543e-01,4.742857770550499841e-01,-8.111498434771016175e-01,1.313284750219335592e+03
1.133143687557329393e+01,-1.699123171795802989e+01,1.473366177342915151e+01,-3.116416988923428888e-01,4.344789660000995535e-01,-8.450476197331648898e-01,1.318024274157977288e+03
1.094016326273783868e+01,-1.665426951726481875e+01,1.508182980920292415e+01,-2.799611707211016043e-01,3.930792589450510244e-01,-8.758472692640767443e-01,1.322763798096618984e+03
1.054791777879902703e+01,-1.628639760102274181e+01,1.529792177394563346e+01,-2.472542422799486883e-01,3.502384355718389242e-01,-9.034358737200784972e-01,1.327503322035260680e+03
1.016532638687247392e+01,-1.588933059739699694e+01,1.537919070237220964e+01,-2.136408238129764992e-01,3.061135590252614946e-01,-9.277122869634399915e-01,1.332242845973902376e+03
9.802914866200298505e+00,-1.546492756408633440e+01,1.532289801462605361e+01,-1.792441489900481466e-01,2.608664001123748855e-01,-9.485875058984825081e-01,1.336982369912544073e+03
9.471107871881503826e+00,-1.501519065631021022e+01,1.512631368685912392e+01,-1.441903231245255934e-01,2.146628442413103521e-01,-9.659849967886940947e-01,1.341721893851185769e+03
9.180228002623952221e+00,-1.454226378354304217e+01,1.478671642139332576e+01,-1.086078608612216917e-01,1.676722832729350132e-01,-9.798409758641857259e-01,1.346461417789827465e+03
8.999510888068245507e+00,-1.419285444351680248e+01,1.446566712577496716e+01,-7.262721502891758552e-02,1.200669945141567135e-01,-9.901046431901417977e-01,1.349845436408356136e+03
8.792821566353365981e+00,-1.368898641661475146e+01,1.390364683555058534e+01,-3.638029838425983070e-02,7.202150912891383538e-02,-9.967383689380918677e-01,1.354584960346997832e+03
8.654514474218263587e+00,-1.316834250105683068e+01,1.319127210154669960e+01,-0.000000000000000000e+00,2.371197228180339442e-02,-9.997178313761895252e-01,1.359324484285639528e+03
8.582562459194518212e+00,-1.265085063852622049e+01,1.235274918079306161e+01,-1.973440555886360730e-03,1.778478861608025902e-02,-9.998388903968752350e-01,1.364064008224281224e+03
8.561903277485455988e+00,-1.237576645260182140e+01,1.185672836204688174e+01,-3.946803592501856202e-03,1.185691204680147139e-02,-9.999209150237998722e-01,1.366700001627259780e+03
8.527102276912039258e+00,-1.195948269356651039e+01,1.099317640948659403e+01,-5.920012561684618625e-03,5.928572519935175651e-03,-9.999639020499327957e-01,1.371439525565901477e+03
8.462756081876971592e+00,-1.171120259590026791e+01,1.024472205497464827e+01,-7.892990921127130202e-03,0.000000000000000000e+00,-9.999678497920404530e-01,1.376179049504543173e+03
8.313556621527201429e+00,-1.166421923058526922e+01,9.662683691526163798e+00,-1.770645768345641691e-01,1.827938452461687346e-02,-9.840284547372053492e-01,1.380918573443184869e+03
8.208150990382483414e+00,-1.169573958346883735e+01,9.434478502379777254e+00,-3.410645933353481096e-01,3.602487852059406415e-02,-9.393482587949726348e-01,1.383125740893989814e+03
7.852347234575032253e+00,-1.182075098992319973e+01,8.956261805631454465e+00,-4.951030670306298398e-01,5.271818665811766474e-02,-8.672322329184128931e-01,1.387865264832631510e+03
7.241807259755150383e+00,-1.198976244132282254e+01,8.428244396707896158e+00,-6.346809607582443169e-01,6.787174366462971065e-02,-7.697866616555831820e-01,1.392604788771273206e+03
6.312501004754749623e+00,-1.212221554827666026e+01,7.741008514666517293e+00,-7.557215732820177223e-01,8.104295423911778151e-02,-6.498576330580629890e-01,1.397344312709914902e+03
5.058990002392786955e+00,-1.216439811432493201e+01,6.864391390116812985e+00,-4.432229302732431653e-01,1.079915881966053010e-01,-8.898815937847283086e-01,1.402083836648556598e+03
3.586229049946112912e+00,-1.211817750128289184e+01,5.926732203242599084e+00,-6.158395249877657296e-02,1.180942434069155444e-01,-9.910898881866269106e-01,1.406823360587198295e+03
2.052291419911687509e+00,-1.201479749392012408e+01,5.135619013795593268e+00,3.296620231152499469e-01,1.097749153141582001e-01,-9.376942030747426049e-01,1.411562884525839991e+03
6.132750641295978689e-01,-1.188765687626008294e+01,4.698630753951602124e+00,6.694826561777903473e-01,8.433135883447590020e-02,-7.380238444599726000e-01,1.416302408464481687e+03
-5.767115595943165252e-01,-1.177228317189831763e+01,4.823324299654903946e+00,9.048678568021243374e-01,4.573265567638402918e-02,-4.232265184620244147e-01,1.421041932403123383e+03
-1.023529331798318287e+00,-1.172884185139395541e+01,5.070900015471233147e+00,9.990993339585199084e-01,0.000000000000000000e+00,-4.240897172840243229e-02,1.423200303365853415e+03
-1.289043753567777228e+00,-1.170329075300285737e+01,5.262050091132303820e+00,9.990993332535061944e-01,-0.000000000000000000e+00,-4.240897169847657883e-02,1.424565034103077778e+03
-2.133146758335614734e+00,-1.165404568935660201e+01,6.241973136846328707e+00,9.112920298020296128e-01,-0.000000000000000000e+00,-4.117582256856600620e-01,1.429304558041719474e+03
-2.857004774872197839e+00,-1.167389514903475245e+01,7.609579773462854746e+00,6.921409340576635261e-01,-0.000000000000000000e+00,-7.217609904965988088e-01,1.434044081980361170e+03
-3.479433320955028552e+00,-1.175047396379087061e+01,9.011755126703919316e+00,3.732322378479120961e-01,-0.000000000000000000e+00,-9.277368682078998008e-01,1.438783605919002866e+03
-4.018427811049593679e+00,-1.187116610443627174e+01,1.009538216718986625e+01,5.299993955616641179e-04,-0.000000000000000000e+00,-9.999988595503095379e-01,1.443523129857644562e+03
-4.492159477425611946e+00,-1.202010780111374366e+01,1.063113763377977428e+01,1.229941160459442490e-01,1.331923900591184921e-02,-9.923170084661955270e-01,1.448262653796286259e+03
-4.906644384617091958e+00,-1.217037934404286581e+01,1.065008592648382368e+01,2.435845226287534360e-01,2.643557079344314650e-02,-9.695183035578514019e-01,1.452845841268543381e+03
-5.308555386451453195e+00,-1.230725178165198841e+01,1.029324168358741431e+01,3.604641649203297882e-01,3.914918334218162738e-02,-9.319500669312976715e-01,1.457585365207185077e+03
-5.699579847733183158e+00,-1.240005739670658080e+01,9.686252140783624398e+00,4.718525205328992778e-01,5.126639988015880417e-02,-8.801846142210779655e-01,1.462324889145826774e+03
-6.095357176248119124e+00,-1.242294096717369278e+01,8.971221548293145887e+00,5.760527215320714323e-01,6.260262915347582224e-02,-8.150105354165888549e-01,1.467064413084468470e+03
-6.501607112397974397e+00,-1.235330114948981617e+01,8.300632391620169415e+00,6.714774025829297610e-01,7.298517727846555447e-02,-7.374206816462007819e-01,1.471714136304197154e+03
-6.946482567392628482e+00,-1.216245663079765293e+01,7.789344872418308974e+00,7.566728811008494038e-01,8.225587836747591530e-02,-6.485970409135887182e-01,1.476453660242838851e+03
-7.392037913403833649e+00,-1.183572282767369899e+01,7.531199677505417966e+00,7.565508081958706166e-01,7.093024154360394462e-02,-6.500752075122054885e-01,1.481193184181480547e+03
-7.542235502852561169e+00,-1.169069044793192091e+01,7.489909535615621117e+00,7.563300280536072728e-01,5.959535368059277333e-02,-6.514685583001045277e-01,1.482896858624605102e+03
-7.827187820207176294e+00,-1.122654079684645367e+01,7.445116404146294720e+00,7.560105694927065079e-01,4.825269183501382231e-02,-6.527769117512787211e-01,1.487636382563246798e+03
-7.788818254130516650e+00,-1.067149978588339998e+01,7.461807909143852058e+00,7.555924741555178903e-01,3.690373407239449371e-02,-6.540000973856894273e-01,1.492375906501888494e+03
-7.274152120801177901e+00,-1.005336556276066773e+01,7.432279170222927611e+00,7.550757964904738495e-01,2.554995927611568990e-02,-6.551379557806323861e-01,1.497115430440530190e+03
-6.236281964460495431e+00,-9.378511623424358845e+00,7.287142569662359293e+00,6.049639977889966769e-01,1.481783273090158393e-01,-7.823424727679112456e-01,1.501854954379171886e+03
-4.837228959717792875e+00,-8.606447780970258421e+00,7.033646461487470525e+00,4.223338967758962226e-01,2.628417910506486432e-01,-8.674942492676822603e-01,1.506594478317813582e+03
-4.643750248683837789e+00,-8.499496099996852294e+00,6.995732540676145916e+00,2.170022226365545259e-01,3.633769277550212840e-01,-9.060161387892701201e-01,1.507199925270739413e+03
-3.161351786436262579e+00,-7.558147024132100711e+00,6.681333056709255480e+00,5.999996079955432846e-06,4.443797096684325432e-01,-8.958374147125192088e-01,1.511939449209381110e+03
-1.796990550598833059e+00,-6.432885492046734655e+00,6.369664937420878914e+00,-6.892361564629416459e-02,3.032589350963585395e-01,-9.504112549255870901e-01,1.516678973148022806e+03
-5.800217308443766928e-01,-5.229607077260401304e+00,6.148680428187492275e+00,-1.359478282856954878e-01,1.537547175801981247e-01,-9.787112315720272182e-01,1.521418497086664502e+03
5.292485305934720996e-01,-4.113701045663817446e+00,6.120452433862623387e+00,-1.992138028046138709e-01,0.000000000000000000e+00,-9.799550299737879167e-01,1.526158021025306198e+03
1.552389137320626000e+00,-3.203986297540083239e+00,6.318879794148898554e+00,-2.153716596713729781e-01,-2.002182468751991197e-06,-9.765311301671198985e-01,1.530897544963947894e+03
2.025157209256205793e+00,-2.834187130938786936e+00,6.471127380158789855e+00,-2.314707588939864946e-01,-4.003818211357638265e-06,-9.728408337134496486e-01,1.533202039012903697e+03
2.939830425695876492e+00,-2.206649299064875169e+00,6.772157561829802219e+00,-2.475067112427223326e-01,-6.004361501903186632e-06,-9.688851468740005135e-01,1.537941562951545393e+03
3.753990289075309850e+00,-1.777527484515099676e+00,6.943840381340101509e+00,-2.634751446801240626e-01,-8.003266912316206219e-06,-9.646651481477370726e-01,1.542681086890187089e+03
4.459769021376476239e+00,-1.524490868149536604e+00,6.815575413701752794e+00,-2.793717055426080398e-01,-9.999989460024915751e-06,-9.601819879695102644e-01,1.547420610828828785e+03
5.053707863852925364e+00,-1.416055160652629707e+00,6.283890832278803629e+00,-4.174208601670152397e-01,-4.870812129515212502e-02,-9.074058322593331338e-01,1.552160134767470481e+03
5.536838941808681192e+00,-1.402270223072234367e+00,5.391132022849323135e+00,-5.453623943448625555e-01,-9.622680042936179734e-02,-8.326573495229006028e-01,1.556853654352434432e+03
5.929609369400723473e+00,-1.424585464867995643e+00,4.217228796270910074e+00,-6.600982835175851493e-01,-1.414154021128204430e-01,-7.377465283844331090e-01,1.561593178291076129e+03
6.240717215051478028e+00,-1.425485898393958228e+00,2.865558030868113892e+00,-7.588502663756157007e-01,-1.831797117357061577e-01,-6.249715724981701470e-01,1.566332702229717825e+03
6.488014712160476982e+00,-1.346791923268052305e+00,1.434053940687642248e+00,-8.392271171940380858e-01,-2.205084303710583560e-01,-4.970632534215943532e-01,1.571072226168359521e+03
6.692774721330846610e+00,-1.130590123117015233e+00,2.065571168706580724e-02,-8.992825476681939323e-01,-2.524976624067060693e-01,-3.571187896749914437e-01,1.575811750107001217e+03
6.879688870396105216e+00,-7.192785614313569331e-01,-1.276698597989137651e+00,-9.375623362859477616e-01,-2.783728029358326639e-01,-2.085268523807997931e-01,1.580551274045642913e+03
7.070878565579459263e+00,-8.702595812499833161e-02,-2.387320739233010247e+00,-9.533075181718119184e-01,-2.586170086512374344e-01,-1.559487692578395424e-01,1.585290797984284609e+03
7.277402543253002953e+00,7.288902574309527038e-01,-3.295019255889697352e+00,-9.658089136333342095e-01,-2.379812304478395590e-01,-1.028400520259776102e-01,1.590030321922926305e+03
7.501487311765919763e+00,1.659676315819213599e+00,-4.010857911247434515e+00,-9.750239860590714791e-01,-2.165356849269287620e-01,-4.938141110367481185e-02,1.594769845861568001e+03
7.736677414024462074e+00,2.618389029280484337e+00,-4.538990180014281783e+00,-9.809213809141542617e-01,-1.943533439267937368e-01,4.245252633167945731e-03,1.599420980298763425e+03
7.986034451814695956e+00,3.573370462343317566e+00,-4.910472708206193637e+00,-9.834810323887861472e-01,-1.715096862322882110e-01,5.785746676134625316e-02,1.604160504237405121e+03
8.235271184632523500e+00,4.438341914550494316e+00,-5.123148394966506203e+00,-9.826942316425283375e-01,-1.480824407580162705e-01,1.112728081597392782e-01,1.608900028176046817e+03
8.470303823794695930e+00,5.144835331427351832e+00,-5.188124377753257299e+00,-9.785636564128589177e-01,-1.241513220785216004e-01,1.643095236868188647e-01,1.613639552114688513e+03
8.672954083377332424e+00,5.624599605856900553e+00,-5.116516989740458321e+00,-9.711033618880168250e-01,-9.979775920489436514e-02,2.167871485757934535e-01,1.618379076053330209e+03
8.820950705600417052e+00,5.809654811964789722e+00,-4.919451067292028412e+00,-9.603387328756661789e-01,-7.510461853009703370e-02,2.685271204447495785e-01,1.623118599991971905e+03
8.887931312794830063e+00,5.632346418749949457e+00,-4.608059257071788650e+00,-9.463063974303227432e-01,-5.015592188508088967e-02,3.193533868341028037e-01,1.627858123930613601e+03
8.888220383271313807e+00,5.626616098863434168e+00,-4.602474380723924341e+00,-9.290541022333324017e-01,-2.503656066434778796e-02,3.690930042056836391e-01,1.627930488279329211e+03
8.843429875590507194e+00,5.019045252583055117e+00,-4.187954766276093643e+00,-9.086405501490385506e-01,1.679930070447539022e-04,4.175767263667728435e-01,1.632670012217970907e+03
8.652147395233154015e+00,3.913958874246034281e+00,-3.681565396810270840e+00,-8.851352005091986941e-01,2.537197708297864521e-02,4.646395803182720718e-01,1.637409536156612603e+03
8.310962870076544107e+00,2.324932468089671911e+00,-3.099875026014609958e+00,-9.518135430477938641e-01,1.393123669631197645e-02,3.063574707996932212e-01,1.642149060095254299e+03
7.889307191529915997e+00,4.252529360687813953e-01,-2.470290699511848764e+00,-9.902894792570465787e-01,2.077712412221741772e-03,1.389979510057136325e-01,1.646888584033895995e+03
7.503737539283461544e+00,-1.533068553785907229e+00,-1.825639246138953231e+00,-9.994229672672039211e-01,-9.837376436836997237e-03,-3.248012504993700450e-02,1.651628107972537691e+03
7.285841563508224539e+00,-3.299725719978999994e+00,-1.198748431604979015e+00,-9.789433609085624877e-01,-2.146098598945257035e-02,-2.029958674765814375e-01,1.656367631911179387e+03
7.324813225636697567e+00,-4.704530614072935712e+00,-6.174432271546643758e-01,-9.833795879937744511e-01,-1.746814247639237941e-02,-1.807137236307707340e-01,1.661107155849821083e+03
7.603783243708626571e+00,-5.734747400613875001e+00,-9.954238992066501146e-02,-9.872925402694202601e-01,-1.346600486478845456e-02,-1.583354244458429760e-01,1.665846679788462779e+03
7.800830459920429227e+00,-6.142523713690702714e+00,1.346160453170651417e-01,-9.906801361290058505e-01,-9.456702576199505633e-03,-1.358728767969856754e-01,1.668192500195069670e+03
8.259129974029411514e+00,-6.807583807950503108e+00,5.533349755883885113e-01,-9.935405734228647257e-01,-5.442368839396119831e-03,-1.133380323519088545e-01,1.672932024133711366e+03
8.762797586558990659e+00,-7.257736140414505321e+00,8.766897892605949316e-01,-9.958723304114034391e-01,-1.425139556489052285e-03,-9.074288121780837990e-02,1.677671548072353062e+03
9.227654389696223092e+00,-7.555204971533487246e+00,1.091880088448575981e+00,-9.976741665728813269e-01,2.592847832275127409e-03,-6.809944556869554355e-02,1.682411072010994758e+03
9.565812125544651323e+00,-7.761029111887277843e+00,1.186112211925878679e+00,-9.989451232620912835e-01,6.609455484523900359e-03,-4.541977325578194086e-02,1.687150595949636454e+03
9.685681260955211869e+00,-7.935012827690149706e+00,1.146600032768294586e+00,-9.996845242196008563e-01,1.062254629197648473e-02,-2.271593140428154398e-02,1.691890119888278150e+03
9.604966734440319343e+00,-8.072466036290975921e+00,1.034654609647513546e+00,-9.998919759312849820e-01,1.462998501627144066e-02,-0.000000000000000000e+00,1.695395039387796714e+03
9.488208092871252219e+00,-8.163038424137690541e+00,9.287002882774624268e-01,-9.998919752291055563e-01,1.462998500599745587e-02,-0.000000000000000000e+00,1.697554481633690330e+03
