1.278193765487362743e+00,1.403031061900808396e+01,-1.205415953761633752e+01,0.000000000000000000e+00,1.173078338390019654e-01,9.930945933284813787e-01,2.552519230788333289e+02
1.551703964490803278e+00,1.388666695460367606e+01,-1.188163903688146306e+01,-1.177648228227758248e-01,0.000000000000000000e+00,9.930405059701521431e-01,2.599914470174750249e+02
1.826708532274406549e+00,1.375505720500086859e+01,-1.167688892410125590e+01,-1.591565235671441314e-01,1.456243034460646089e-02,9.871449420574720524e-01,2.647309709561167210e+02
2.102173012096042015e+00,1.363419335435408719e+01,-1.144075304933814152e+01,-2.002362584365175724e-01,2.909631569617460861e-02,9.793144771836571616e-01,2.694704948947584171e+02
2.155752591084609815e+00,1.361281583206547907e+01,-1.138889873227859617e+01,-2.409235076010651233e-01,4.357316836455043391e-02,9.695644602011709301e-01,2.703921655938089543e+02
2.430668318679331641e+00,1.351280622591907310e+01,-1.109260258549532985e+01,-2.811385205763447526e-01,5.796461246521666943e-02,9.579140023777035218e-01,2.751316895324506504e+02
2.703573265040855489e+00,1.341989024059684432e+01,-1.076803923913070093e+01,-3.208024725300157032e-01,7.224243953461723100e-02,9.443859399367026120e-01,2.798712134710923465e+02
2.973148890355465035e+00,1.333210267565532625e+01,-1.041711343282852198e+01,-3.598376187732819642e-01,8.637866381712015762e-02,9.290067892939153360e-01,2.846107374097340426e+02
3.238032161708916945e+00,1.324750918322110671e+01,-1.004173153785263750e+01,-3.981674471350210576e-01,1.003455771153301118e-01,9.118066950822624195e-01,2.893502613483757386e+02
3.496815818935912201e+00,1.316420701309209562e+01,-9.643801438683192728e+00,-4.357168279201696914e-01,1.141158030963217024e-01,8.928193710669261041e-01,2.940897852870174347e+02
3.748048645331219397e+00,1.308032575434192779e+01,-9.225232414542062997e+00,-4.724121611586653557e-01,1.276623509474294205e-01,8.720820340664316994e-01,2.988293092256591308e+02
3.990235743206607566e+00,1.299402807336531929e+01,-8.787935020853527845e+00,-5.081815208565522157e-01,1.409586682765058274e-01,8.496353310091864230e-01,3.035688331643008269e+02
4.221838814277878882e+00,1.290351044830257443e+01,-8.333820970645748005e+00,-5.429547959667245793e-01,1.539786931530384428e-01,8.255232592683507953e-01,3.083083571029425229e+02
4.441276444866160134e+00,1.280700389978183829e+01,-7.864803015898310434e+00,-5.766638278031935849e-01,1.666969051881943553e-01,7.997930804310777742e-01,3.130478810415842190e+02
4.646924395897132243e+00,1.270277471791780677e+01,-7.382794828841376500e+00,-6.092425436297207453e-01,1.790883755537426847e-01,7.724952276709827759e-01,3.177874049802259151e+02
4.837115897681677268e+00,1.258912518550573445e+01,-6.889710883211972003e+00,-6.406270861611361722e-01,1.911288158418765204e-01,7.436832069052288219e-01,3.225269289188676112e+02
4.949987912740753337e+00,1.250822626486054112e+01,-6.562563110460000182e+00,-6.707559387236486925e-01,2.027946256702224115e-01,7.134134919297705490e-01,3.256133222141516512e+02
5.105001720854130731e+00,1.237209107609420933e+01,-6.052478526512762080e+00,-6.995700458289362267e-01,2.140629389387753434e-01,6.817454137380816181e-01,3.303528461527933473e+02
5.240116605270856986e+00,1.222263749355899876e+01,-5.536310459955398500e+00,-7.270129289257662997e-01,2.249116686481305305e-01,6.487410442400828314e-01,3.350923700914350434e+02
5.308375486288206879e+00,1.212540407285148270e+01,-5.225625585919002170e+00,-8.877117058308335862e-01,-4.113255839432064520e-02,4.585564741362617713e-01,3.379201917663621089e+02
5.401290786950798228e+00,1.194885915362005235e+01,-4.701609363856389834e+00,-9.305453817935082084e-01,-3.017155779250095260e-01,2.074873549420498398e-01,3.426597157050038049e+02
5.471567673541962940e+00,1.175841976548573875e+01,-4.175674812407054404e+00,-8.498265231567917466e-01,-5.222387069684532035e-01,-7.113096008795406766e-02,3.473992396436455010e+02
5.518474806158208068e+00,1.155447729132749402e+01,-3.649257035910185465e+00,-8.941079885489863210e-01,-4.435235167498022824e-01,-6.209504732172116404e-02,3.521387635822871971e+02
5.541758974978140628e+00,1.133838255778715798e+01,-3.123519244538658590e+00,-9.310232505799866942e-01,-3.611543445821806531e-01,-5.254756196351747372e-02,3.568782875209288932e+02
5.541429913814170050e+00,1.111196179984641752e+01,-2.599488642463496202e+00,-9.602681886303738867e-01,-2.758097943338574387e-01,-4.256716168265127498e-02,3.616178114595705892e+02
5.521212221577325607e+00,1.091191408515168604e+01,-2.155694009812463730e+00,-9.816018734269598145e-01,-1.881929803328760975e-01,-3.223607044823216528e-02,3.656524552456843367e+02
5.474105995397759550e+00,1.067003750102814763e+01,-1.638017189585545319e+00,-9.948485513330306285e-01,-9.902573517747415011e-02,-2.163940117134026744e-02,3.703919791843260327e+02
5.403585464732179489e+00,1.042306570478243621e+01,-1.124975565102003250e+00,-9.998990918407817396e-01,-9.042663484708748228e-03,-1.086445456601446875e-02,3.751315031229677288e+02
5.309789627627934827e+00,1.017281488876089490e+01,-6.175955558606577300e-01,-9.967118863751273095e-01,8.101490948214877530e-02,-0.000000000000000000e+00,3.798710270616094249e+02
5.193224280868713016e+00,9.921301464662933611e+00,-1.167634554065177799e-01,-9.938786151399388036e-01,8.138616644815961643e-02,-7.469665507656873815e-02,3.846105510002511210e+02
5.055101411285408908e+00,9.670935758769847013e+00,3.769143955949576519e-01,-9.854917821397713995e-01,8.130265650452821180e-02,-1.489759221536578471e-01,3.893500749388928170e+02
4.897014853923909783e+00,9.424302231424688259e+00,8.629718744274407216e-01,-9.715982512682185268e-01,8.076484630003151477e-02,-2.224227455453637037e-01,3.940895988775345131e+02
4.720609736469797646e+00,9.183949501279252914e+00,1.340943332666373777e+00,-9.522756566966336100e-01,7.977574101885170910e-02,-2.946267211390999341e-01,3.988291228161762092e+02
4.527582178243038769e+00,8.952389501178895870e+00,1.810363624711874841e+00,-9.276319690529114537e-01,7.834086758696734432e-02,-3.651843896691878144e-01,4.035686467548179053e+02
4.319678983795584237e+00,8.732096637998957078e+00,2.270768136298207729e+00,-8.978048920799472921e-01,7.646824378700474434e-02,-4.337014911788947824e-01,4.083081706934596014e+02
4.098697331129317334e+00,8.525506956501418543e+00,2.721692812978452114e+00,-8.629610931471517477e-01,7.416833345428397450e-02,-4.997951680721581247e-01,4.130476946321012974e+02
3.866484454552079786e+00,8.335017307280150334e+00,3.162674188583048718e+00,-8.232952719163704192e-01,7.145398800453733879e-02,-5.630961044438403951e-01,4.177872185707429935e+02
3.624937322189742517e+00,8.162984518862982597e+00,3.593249413650929647e+00,-7.790290723681012608e-01,6.834037462017285292e-02,-6.232505897338126433e-01,4.225267425093846896e+02
3.376002308172629807e+00,8.011724574038540325e+00,4.012956283831849547e+00,-7.304098442692613657e-01,6.484489149651384565e-02,-6.799224951734420541e-01,4.272662664480263857e+02
3.121674859514918410e+00,7.883511790475718151e+00,4.421333268258606175e+00,-6.777092610050395871e-01,6.098707062175647703e-02,-7.327951519807884839e-01,4.320057903866680817e+02
2.863999157705882315e+00,7.780578005703279842e+00,4.817919537887870973e+00,-6.212218014998746041e-01,5.678846863403960027e-02,-7.815731208102436600e-01,4.367453143253097778e+02
2.605067775032111399e+00,7.705111766516869132e+00,5.202254993808247185e+00,-5.612631047118560312e-01,5.227254636563311713e-02,-8.259838425703722731e-01,4.414848382639514739e+02
2.347021325650133772e+00,7.659257522880491109e+00,5.573880295514273442e+00,-4.981682058965949400e-01,4.746453774744382320e-02,-8.657791613869482150e-01,4.462243622025931700e+02
2.309738024527869804e+00,7.656949343485814907e+00,5.626238097888959899e+00,-4.322896644969278501e-01,4.239130880646608396e-02,-9.007367112028601408e-01,4.469163079477719407e+02
2.058396360692316129e+00,7.672360328496182547e+00,5.971608054568177337e+00,-3.639955941199917167e-01,3.708120754413164050e-02,-9.306611582687187578e-01,4.516558318864136368e+02
1.812970252743247190e+00,7.721797706442372622e+00,6.303285178133300803e+00,-2.936676056099062349e-01,3.156390553443598479e-02,-9.553852925833411502e-01,4.563953558250553328e+02
1.575749018401739976e+00,7.807258909203932618e+00,6.620813044499244349e+00,-2.216986747094622234e-01,2.587023212695041541e-02,-9.747709621873168473e-01,4.611348797636970289e+02
1.349068506438207748e+00,7.930693980336110727e+00,6.923736104796493152e+00,-1.484909462251836343e-01,2.003200218111740247e-02,-9.887098450908657910e-01,4.658744037023387250e+02
1.135310721051708605e+00,8.094004793247393081e+00,7.211599713438339165e+00,-7.445348696453935045e-02,1.408183829433862395e-02,-9.971240545242712194e-01,4.706139276409804211e+02
9.369034411255222627e-01,8.299044274278243094e+00,7.483950156145943389e+00,-0.000000000000000000e+00,8.052988517103476865e-03,-9.999665741302532496e-01,4.753534515796221172e+02
7.562081259222971363e-01,8.547060695456519142e+00,7.740707643817089867e+00,2.645883429299849404e-02,-3.604264902265709447e-02,-9.989989276972984777e-01,4.800929755182638132e+02
5.943484721720095898e-01,8.837299522359355564e+00,7.982314146980809433e+00,5.284767139284701765e-02,-8.004293464461913199e-02,-9.953884931236486322e-01,4.848324994569055093e+02
4.502289325374947970e-01,9.166748324546940552e+00,8.209135265993635855e+00,7.909670170042037984e-02,-1.238314690392284950e-01,-9.891448220846599249e-01,4.895720233955472054e+02
3.216431539157178499e-01,9.531586472953698319e+00,8.421312378283854372e+00,1.051364854977059060e-01,-1.672924131244902524e-01,-9.802844321570185482e-01,4.943115473341889015e+02
2.063045709627822633e-01,9.928047753566858091e+00,8.618987765463561601e+00,1.308981366322461148e-01,-2.103107944677680974e-01,-9.688307631149003507e-01,4.990510712728305975e+02
1.545319094408336147e-01,1.013676115001399047e+01,8.709138131903372937e+00,1.563135047367802954e-01,-2.527728114142484550e-01,-9.548141149186625265e-01,5.013812089587234482e+02
5.749764512651094756e-02,1.058660995657224291e+01,8.878304366418893423e+00,1.813153555023845898e-01,-2.945661341181041171e-01,-9.382715675597443905e-01,5.061207328973651443e+02
-3.218614548190362051e-02,1.105890928499556480e+01,9.033327541658518811e+00,2.058375485285607598e-01,-3.355802016805821686e-01,-9.192468829737804326e-01,5.108602568360068403e+02
-1.170823485608479542e-01,1.155009168188971280e+01,9.174353247428239655e+00,2.298152122801234154e-01,-3.757065146095285302e-01,-8.977903892812639786e-01,5.155997807746485933e+02
-1.998261719625136212e-01,1.205664934993707860e+01,9.301528680943990324e+00,2.531849156883770879e-01,-4.148389218272125478e-01,-8.739588476617502488e-01,5.203393047132902893e+02
-2.820736520216205467e-01,1.257556056918150489e+01,9.415151234614295817e+00,2.758848359429245667e-01,-4.528739014676980146e-01,-8.478153022134322647e-01,5.250788286519319854e+02
-3.634487459865902714e-01,1.310468623093779428e+01,9.515815585888672601e+00,2.978549220304967937e-01,-4.897108347213858237e-01,-8.194289131948488958e-01,5.298183525905736815e+02
-4.425750348369328901e-01,1.364229874215548932e+01,9.604265063018011972e+00,3.190370535884070602e-01,-5.252522720026856495e-01,-7.888747740893683469e-01,5.345578765292153776e+02
-5.181148462986849834e-01,1.418664118963497245e+01,9.681243745864229311e+00,3.393751946525839780e-01,-5.594041907370083111e-01,-7.562337129758202048e-01,5.392974004678570736e+02
-5.887694927302019599e-01,1.473592799180236312e+01,9.747496419466918027e+00,3.588155418935968788e-01,-5.920762440853672981e-01,-7.215920787301187689e-01,5.440369244064987697e+02
-6.536690604467393362e-01,1.528830184259594915e+01,9.803623318907476403e+00,3.261238091665379923e-01,-5.983834238621090762e-01,-7.318323162737410126e-01,5.487764483451404658e+02
-7.127635146226993790e-01,1.584180225919992147e+01,9.849934883187376755e+00,2.930363611846212857e-01,-6.039645280424834617e-01,-7.411845518431734448e-01,5.535159722837821619e+02
-7.664352256717466005e-01,1.639442738108938258e+01,9.886596944507079598e+00,2.595933459443491298e-01,-6.088127846805938548e-01,-7.496374376668961670e-01,5.582554962224238579e+02
-8.151100363577618024e-01,1.694418420089559874e+01,9.913775926561719132e+00,2.258353428610545555e-01,-6.129223110491396342e-01,-7.571807172227503768e-01,5.629950201610655540e+02
-8.592571862564138963e-01,1.748908929115275157e+01,9.931638834139333127e+00,1.918033135327638639e-01,-6.162881207760494418e-01,-7.638052376811473865e-01,5.677345440997072501e+02
-8.993892314905206353e-01,1.802716953003244171e+01,9.940353242692102853e+00,1.575385520405528095e-01,-6.189061298936551214e-01,-7.695029610092630756e-01,5.724740680383489462e+02
-9.293032017689673019e-01,1.845258925085892088e+01,9.940157275506949830e+00,1.230826348456841302e-01,-6.207731617931020462e-01,-7.742669737227949600e-01,5.762830677374723791e+02
-9.641585139875392674e-01,1.897145119284921577e+01,9.931107286025483205e+00,8.847737034428532210e-02,-6.218869510779986287e-01,-7.780914952734651058e-01,5.810225916761140752e+02
-9.966878430390690990e-01,1.947802348517270232e+01,9.913381650653207089e+00,5.376474814073870651e-02,-6.222461463126371939e-01,-7.809718850621093500e-01,5.857621156147557713e+02
-1.027567672897281792e+00,1.997037905955447457e+01,9.887150072322556937e+00,1.898688810129652016e-02,-6.218503116614556570e-01,-7.829046480688471865e-01,5.905016395533974674e+02
-1.057517352108626962e+00,2.044660462333486706e+01,9.852582774168761048e+00,-1.581401075030107808e-02,-6.206999274177608106e-01,-7.838874390935167691e-01,5.952411634920391634e+02
-1.087298986196498785e+00,2.090480137813376516e+01,9.809850488952394088e+00,-5.059572143323603360e-02,-6.187963894210655180e-01,-7.839190656012282599e-01,5.999806874306808595e+02
-1.117717325375166659e+00,2.134308573709386891e+01,9.759124448458306844e+00,-8.531604024396619024e-02,-6.161420073637511319e-01,-7.829994891695866155e-01,6.047202113693225556e+02
-1.149619647579654069e+00,2.175959004064311131e+01,9.700576372871402953e+00,-1.199328379623955249e-01,-6.127400019891026117e-01,-7.811298255358239961e-01,6.094597353079642517e+02
-1.183895636818079744e+00,2.215246327071652388e+01,9.634378460129738642e+00,-1.544041109677668500e-01,-6.085945011841122909e-01,-7.783123432437816236e-01,6.141992592466059477e+02
-1.221477256853210847e+00,2.251987176337790686e+01,9.560703375255453551e+00,-1.886880322022950474e-01,-6.037105349717799552e-01,-7.745504608923696743e-01,6.189387831852476438e+02
-1.263338620220234798e+00,2.285999991978170343e+01,9.479724239664037100e+00,-2.227430019207359002e-01,-5.980940294089788223e-01,-7.698487429888369871e-01,6.236783071238893399e+02
-1.310495852588003052e+00,2.317105091541561634e+01,9.391614620452413575e+00,-2.565276981643504484e-01,-5.917517993972735146e-01,-7.642128944118629086e-01,6.284178310625310360e+02
-1.364006952471252809e+00,2.345124740756458692e+01,9.296548519666350430e+00,-2.900011268980501322e-01,-5.846915404154006124e-01,-7.576497534911739162e-01,6.331573550011727320e+02
-1.424971646301557815e+00,2.369883224093679885e+01,9.194700363547708477e+00,-3.231226717499197654e-01,-5.769218191834223353e-01,-7.501672837120598736e-01,6.378968789398144281e+02
-1.494531238865008049e+00,2.391206915139252942e+01,9.086244991761983414e+00,-3.558521432927905237e-01,-5.684520632698635279e-01,-7.417745640548345509e-01,6.426364028784561242e+02
-1.573868459114885487e+00,2.408924346771676284e+01,8.971357646606698211e+00,-3.881498278080903752e-01,-5.592925496544206565e-01,-7.324817779809349449e-01,6.473759268170978203e+02
-1.664207301367835123e+00,2.422866281137651967e+01,8.850213962201110007e+00,-4.199765354728211553e-01,-5.494543922600975128e-01,-7.223002010789976168e-01,6.521154507557395164e+02
-1.766205467581467348e+00,2.432906405183608101e+01,8.722958317469313272e+00,-2.778855552342718860e-01,-5.810372231349691940e-01,-7.649662499251962400e-01,6.568549746943812124e+02
-1.779278611225048046e+00,2.433600965625772261e+01,8.707650741381650406e+00,-1.294010743361807547e-01,-5.992516874889408651e-01,-7.900321366902033349e-01,6.573997440653656668e+02
-1.904260701120001897e+00,2.435647765171437484e+01,8.568580115456361668e+00,2.206062339442155240e-02,-6.036787175315465603e-01,-7.969211597742492659e-01,6.621392680040073628e+02
-2.039521237476446203e+00,2.433753470602353275e+01,8.423535179887549518e+00,1.730147582869359657e-01,-5.942164588185467888e-01,-7.854748204016575031e-01,6.668787919426490589e+02
-2.183940249770140341e+00,2.427909172938388949e+01,8.272566708810847658e+00,3.199882278708007233e-01,-5.710826133410989991e-01,-7.559564688290038026e-01,6.716183158812907550e+02
-2.336402885625296300e+00,2.418102962088998353e+01,8.115725837156910316e+00,4.595995113955018141e-01,-5.348094314391391713e-01,-7.090452462074303686e-01,6.763578398199324511e+02
-2.495799689991281323e+00,2.404319936209492425e+01,7.953064057612722060e+00,4.983400953837074376e-01,-5.191510791235036670e-01,-6.943610778109925441e-01,6.810973637585741471e+02
-2.661026883660822850e+00,2.386542211423058646e+01,7.784633217566326202e+00,5.361031109622083068e-01,-5.024743372091617921e-01,-6.783148198763516712e-01,6.858368876972158432e+02
-2.831233660955848830e+00,2.364792752674648213e+01,7.610550270044201149e+00,5.728144806482066143e-01,-4.848119196838138745e-01,-6.609379496543519306e-01,6.905764116358575393e+02
-3.006056456226592122e+00,2.339179934116396353e+01,7.431062020598949047e+00,6.084021899430422931e-01,-4.661984740641073044e-01,-6.422645545676111123e-01,6.953159355744992354e+02
-3.185352577824719145e+00,2.309854796825414525e+01,7.246480358096105689e+00,6.427964285956847545e-01,-4.466705134275954503e-01,-6.223312653403564321e-01,7.000554595131409314e+02
-3.308297732561560789e+00,2.287729985704268287e+01,7.119270633637868606e+00,6.759297275417693873e-01,-4.262663447853726195e-01,-6.011771841394496496e-01,7.032395558749495876e+02
-3.494885793607164448e+00,2.251314247429869297e+01,6.925409880617736214e+00,7.077370912496978583e-01,-4.050259939360162931e-01,-5.788438078677269338e-01,7.079790798135912837e+02
-3.685542670110362184e+00,2.211585819080749715e+01,6.727290554033043435e+00,7.381561252142634366e-01,-3.829911269482659808e-01,-5.553749467601599710e-01,7.127186037522329798e+02
-3.880006654589831960e+00,2.168692558787472180e+01,6.525225632161605560e+00,7.671271583477862199e-01,-3.602049684264804208e-01,-5.308166384425536677e-01,7.174581276908746759e+02
-4.077983869914047155e+00,2.122781290197721304e+01,6.319528332519836589e+00,7.945933600287503618e-01,-3.367122167192127535e-01,-5.052170576213860231e-01,7.221976516295163719e+02
-4.279148380773691862e+00,2.073997748697079047e+01,6.110512092549109653e+00,8.205008515784252277e-01,-3.125589562372391716e-01,-4.786264215819601708e-01,7.269371755681580680e+02
-4.483142308653191854e+00,2.022486527779295784e+01,5.898490550291935364e+00,8.447988119468780033e-01,-2.877925670530318558e-01,-4.510968916802474138e-01,7.316766995067997641e+02
-4.689575950294534223e+00,1.968391025570509356e+01,5.683777525058875568e+00,8.674395774011461890e-01,-2.624616319590003521e-01,-4.226824710216552927e-01,7.364162234454414602e+02
-4.898027899646341332e+00,1.911853391511870015e+01,5.466686998087035398e+00,8.883787350200977873e-01,-2.366158411667970696e-01,-3.934388985274222539e-01,7.411557473840831562e+02
-5.108045173291004382e+00,1.853014473205010049e+01,5.247533093191030673e+00,9.075752098126572687e-01,-2.103058948346090140e-01,-3.634235395964207638e-01,7.458952713227248523e+02
-5.319143339342343069e+00,1.792013763424793282e+01,5.026630057407405872e+00,9.249913452885746290e-01,-1.835834036136049230e-01,-3.326952735768164970e-01,7.506347952613665484e+02
-5.530806649806239150e+00,1.728989347303765456e+01,4.804292241633449478e+00,9.405929773237544644e-01,-1.565007874085979078e-01,-3.013143782682889960e-01,7.553743192000082445e+02
-5.742488176396572719e+00,1.664077849692719369e+01,4.580834081261221158e+00,9.543495011753044821e-01,-1.291111725514704489e-01,-2.693424116813299962e-01,7.601138431386499406e+02
-5.953609949798419620e+00,1.597414382701787083e+01,4.356570076807648739e+00,9.662339315148977814e-01,-1.014682875890262209e-01,-2.368420912855137006e-01,7.648533670772916366e+02
-6.163563102370407165e+00,1.529132493426443595e+01,4.131814774541597401e+00,9.762229553627195244e-01,-7.362635788964452810e-02,-2.038771709835549839e-01,7.695928910159333327e+02
-6.371708014277865040e+00,1.459364111862817914e+01,3.906882747108915588e+00,9.842969778181990259e-01,-4.563999927542812529e-02,-1.705123160524250059e-01,7.743324149545750288e+02
-6.577374463048210274e+00,1.388239499016686196e+01,3.682088574156342720e+00,9.904401604978280149e-01,-1.756411088844541529e-02,-1.368129762967809915e-01,7.790719388932167249e+02
-6.779861776539992668e+00,1.315887195210497929e+01,3.457746822955190868e+00,9.946404526046807026e-01,1.054623249882779244e-02,-1.028452576634733967e-01,7.838114628318584209e+02
-6.978438989316773089e+00,1.242433968592783522e+01,3.234172029025727202e+00,9.968896145686789723e-01,3.863588851767613130e-02,-6.867579256890642136e-02,7.885509867705001170e+02
-7.027622171803585616e+00,1.223216496732877623e+01,3.176800161947424872e+00,9.971832342112150194e-01,6.664975537004752537e-02,-3.437160919355938815e-02,7.897730006978659958e+02
-7.210097324660994289e+00,1.147674130318841179e+01,2.955543414941921299e+00,9.955207354023959399e-01,9.453287991605881235e-02,-0.000000000000000000e+00,7.945125246365076919e+02
-7.387203613607212560e+00,1.071312988022237711e+01,2.735592230605489394e+00,9.913008634114531814e-01,1.316077436555698199e-01,0.000000000000000000e+00,7.992520485751493879e+02
-7.558721442880025343e+00,9.942962099390992847e+00,2.516746946379110561e+00,9.857007492619630495e-01,1.684993557698928335e-01,0.000000000000000000e+00,8.039915725137910840e+02
-7.724595473961012537e+00,9.168003823605435088e+00,2.298636513929351199e+00,9.787281891584446170e-01,2.051563592407236736e-01,0.000000000000000000e+00,8.087310964524327801e+02
-7.884728345336436739e+00,8.390018438661643430e+00,2.080889836710003493e+00,9.703928888839234990e-01,2.415277234467198553e-01,0.000000000000000000e+00,8.134706203910744762e+02
-8.038980699896955073e+00,7.610766141073825430e+00,1.863135793288462461e+00,9.769128538952149832e-01,2.136335083477470254e-01,0.000000000000000000e+00,8.182101443297161723e+02
-8.187171217038988758e+00,6.832003226298249743e+00,1.645003260673281620e+00,9.826311646046371751e-01,1.855639898862600778e-01,0.000000000000000000e+00,8.229496682683578683e+02
-8.329076649465912752e+00,6.055481377407363475e+00,1.426121137641819248e+00,9.875431292009232420e-01,1.573422001971287454e-01,0.000000000000000000e+00,8.276891922069995644e+02
-8.464431864686940088e+00,5.282946954274226670e+00,1.206118368066941615e+00,9.916447173610906107e-01,1.289912963135745883e-01,0.000000000000000000e+00,8.324287161456412605e+02
-8.592929891211433358e+00,4.516140283327238159e+00,9.846239642416434457e-01,9.949325635558181613e-01,1.005345411835595754e-01,0.000000000000000000e+00,8.371682400842829566e+02
-8.650728300284015404e+00,4.146861694701954981e+00,8.761139203099104211e-01,9.974039698086810679e-01,7.199528459899393051e-02,0.000000000000000000e+00,8.394713424112674147e+02
-8.759821407206091592e+00,3.395040159088204224e+00,6.507291669699315495e-01,9.990569079092538329e-01,4.339694405382944764e-02,0.000000000000000000e+00,8.442108663499091108e+02
-8.861076265014890652e+00,2.653146240090109131e+00,4.229310133811359229e-01,9.998900210782709630e-01,1.476298554660309542e-02,0.000000000000000000e+00,8.489503902885508069e+02
-8.954191510596956505e+00,1.922923671316508321e+00,1.923867890942990710e-01,9.968016981998342185e-01,1.387812921658219956e-02,-7.868781351614180519e-02,8.536899142271925029e+02
-9.039124831483610123e+00,1.206172250810078950e+00,-4.116027442937846004e-02,9.875311073553978414e-01,1.290719934764120516e-02,-1.568875910040850585e-01,8.584294381658341990e+02
-9.115940883862922561e+00,5.047234468208988689e-01,-2.779288932375179044e-01,9.721357467560072241e-01,1.185621774515885699e-02,-2.341143310022020529e-01,8.631689621044758951e+02
-9.184660060650255531e+00,-1.795885010425256334e-01,-5.181375826730738599e-01,9.507111005220438837e-01,1.073170269384904688e-02,-3.098890670904148603e-01,8.679084860431175912e+02
-9.245258460605027651e+00,-8.449273332955252735e-01,-7.620046435337960444e-01,9.233900464643145511e-01,9.540628531951769742e-03,-3.837418383478146677e-01,8.726480099817592873e+02
-9.297667862416776785e+00,-1.489455522440007673e+00,-1.009748148241693899e+00,8.903420319769225211e-01,8.290382397399443867e-03,-4.552146039568612523e-01,8.773875339204009833e+02
-9.308043911261741243e+00,-1.646397187930066952e+00,-1.073239713664604800e+00,8.517720231553975729e-01,6.988718414170007852e-03,-5.238640838856366555e-01,8.785825676994058995e+02
-9.337787942889919535e+00,-2.245644181567596487e+00,-1.329250900488661902e+00,8.079192336549781972e-01,5.643709602844542740e-03,-5.892645080376519573e-01,8.833220916380475956e+02
-9.358840770597490533e+00,-2.820079159351884801e+00,-1.589628644378226152e+00,7.590556411682902738e-01,4.263697813485547473e-03,-6.510102568255368150e-01,8.880616155766892916e+02
-9.371156027013483936e+00,-3.368037875261576275e+00,-1.854601484184118076e+00,7.054843007173862146e-01,2.857241991209182388e-03,-7.087183767970912651e-01,8.928011395153309877e+02
-9.374979489110797815e+00,-3.888193309929640851e+00,-2.124420473767421047e+00,6.475374652141415721e-01,1.433065095165468030e-03,-7.620309557155540148e-01,8.975406634539726838e+02
-9.373769422926551798e+00,-3.972078073909635521e+00,-2.171344027968896917e+00,5.855745249376080874e-01,0.000000000000000000e+00,-8.106173423658352695e-01,8.983496677306200127e+02
-9.355890311254139391e+00,-4.434164997350641180e+00,-2.451479807569154623e+00,8.440386982824727991e-01,2.082944361868602906e-02,-5.358757412692539690e-01,9.030891916692617087e+02
-9.330037733503038666e+00,-4.866039313905719865e+00,-2.737030233920375810e+00,9.820409621608355843e-01,3.868609001835592726e-02,-1.846535541985379614e-01,9.078287156079034048e+02
-9.296528057973425518e+00,-5.266512427756755876e+00,-3.028256608158816032e+00,9.798855686277202492e-01,5.102142579087403512e-02,1.929224883375209032e-01,9.125682395465451009e+02
-9.255648099238834803e+00,-5.634385067627420973e+00,-3.325419875222355603e+00,8.378801759393996740e-01,5.607494484992718575e-02,5.429644659909178550e-01,9.173077634851867970e+02
-9.207826142210178588e+00,-5.968724599625636174e+00,-3.628710937591675290e+00,9.361156365056282347e-01,2.531674888862386341e-01,2.441141897982539999e-01,9.220472874238284930e+02
-9.153811216557063091e+00,-6.269137209552487988e+00,-3.938180973389537876e+00,9.053473691449666072e-01,4.153717105648690455e-01,-8.837693841807206518e-02,9.267868113624701891e+02
-9.094514175996623706e+00,-6.535483737615198407e+00,-4.253811102623246576e+00,9.360722153546453539e-01,3.202522752089287938e-01,1.456203552547300495e-01,9.315263353011118852e+02
-9.030840472718567824e+00,-6.767600447974724709e+00,-4.575582057783708301e+00,9.061895982315796294e-01,2.043976334009164064e-01,3.701891672065157901e-01,9.362658592397535813e+02
-9.024911846586940456e+00,-6.784595621180726788e+00,-4.603815738180318640e+00,8.176343202152047684e-01,7.530893738781591074e-02,5.707895254430604970e-01,9.366738776834386044e+02
-8.951219340110137423e+00,-6.947229209063758404e+00,-4.937957967326393138e+00,7.957731143247932515e-01,9.275971804356768213e-02,5.984469777786836087e-01,9.414134016220803005e+02
-8.874662219509014349e+00,-7.075284879508014768e+00,-5.278199399279617232e+00,7.726805509466726507e-01,1.100669599842965807e-01,6.251783989348375092e-01,9.461529255607219966e+02
-8.795764587142024027e+00,-7.169122572123478143e+00,-5.624552390020317816e+00,7.483923528909645073e-01,1.272038900111869819e-01,6.509424371525430741e-01,9.508924494993636927e+02
-8.714211601708930388e+00,-7.230513531578304232e+00,-5.977025407659498413e+00,6.270281476763863715e-01,5.814938989485127774e-01,5.183614062676717982e-01,9.556319734380053887e+02
-8.689739069122378368e+00,-7.239368941232295462e+00,-6.079768566261571472e+00,3.560004710560493724e-01,8.969889863980563538e-01,2.620542365403942808e-01,9.569899367144379312e+02
-8.599765180346585325e+00,-7.241793510544955126e+00,-6.444371751114824853e+00,0.000000000000000000e+00,9.983844631533018710e-01,-5.680196945670642344e-02,9.617294606530796273e+02
-8.504819649071743370e+00,-7.218638587038673116e+00,-6.814781004920099861e+00,3.010464189919414418e-02,9.992766598770446151e-01,2.319197191199074901e-02,9.664689845917213233e+02
-8.409631507321146060e+00,-7.175445006177471718e+00,-7.169697518413235215e+00,5.998933510879184833e-02,9.928680107525990062e-01,1.030164690594212035e-01,9.709448363749478403e+02
-8.302140196560463536e+00,-7.110026088723557791e+00,-7.550068255240448778e+00,8.943573743809075938e-02,9.792053388136467973e-01,1.820883118376628307e-01,9.756843603135895364e+02
-8.187139980112910109e+00,-7.027866480476878230e+00,-7.933849052119753331e+00,1.182287090132253804e-01,9.583884666146059716e-01,2.598297893340418829e-01,9.804238842522312325e+02
-8.172493924908403429e+00,-7.016294787830981150e+00,-7.979846110311261675e+00,1.461578841785743932e-01,9.305694868197940117e-01,3.356729108711031251e-01,9.809881345987362238e+02
-8.041028090550227603e+00,-6.905450822549738632e+00,-8.367682384796617967e+00,1.730192085056518336e-01,8.959516508566585102e-01,4.090635559613030048e-01,9.857276585373779199e+02
-7.900483552645910734e+00,-6.783174479883611774e+00,-8.754818872994931667e+00,1.986164296764753034e-01,8.547878837618578807e-01,4.794655228867016339e-01,9.904671824760196159e+02
-7.750321528754004596e+00,-6.651502003034518218e+00,-9.138607108028061532e+00,2.227625313463803269e-01,8.073789360823481198e-01,5.463644463170602705e-01,9.952067064146613120e+02
-7.590045875740335291e+00,-6.512479864531941942e+00,-9.516398823083667580e+00,2.452810995089884927e-01,7.540711863469123921e-01,6.092715553395093853e-01,9.999462303533030081e+02
-7.419203165750098528e+00,-6.368164058197848476e+00,-9.885546115998543826e+00,2.660076113804102915e-01,6.952541101772352627e-01,6.677272444421445963e-01,1.004685754291944704e+03
-7.237382757616917850e+00,-6.220619390159749074e+00,-1.024340161382552949e+01,2.847906373870793262e-01,6.313574345430104096e-01,7.213044313637800853e-01,1.009425278230586400e+03
-7.044261784280357652e+00,-6.072030989449251237e+00,-1.058734078449311511e+01,3.014929474776468776e-01,5.628479979648587372e-01,7.696116772824005414e-01,1.014164802169228096e+03
-6.839663562279421072e+00,-5.924852656250278571e+00,-1.091497222797648270e+01,3.159925136793941269e-01,4.902263396153231922e-01,8.122960465540325359e-01,1.018904326107869792e+03
-6.633531716497532038e+00,-5.788258274280889459e+00,-1.121004607864120040e+01,3.281834015784591552e-01,4.140230422463344051e-01,8.490456851188710186e-01,1.023424978356343786e+03
-6.405911876652943704e+00,-5.651645242483312792e+00,-1.149937349073551651e+01,3.379765442152359300e-01,3.347948556670010123e-01,8.795920987485241760e-01,1.028164502294985596e+03
-6.166823017237029525e+00,-5.524337781033873185e+00,-1.176687900484605187e+01,3.453003927456143596e-01,2.531206290954910454e-01,9.037121145020166058e-01,1.032904026233627292e+03
-5.916382181469171719e+00,-5.409019091553341596e+00,-1.201076200230447988e+01,3.501014391189942732e-01,1.695970821016425378e-01,9.212295110726528291e-01,1.037643550172268988e+03
-5.654752156510618022e+00,-5.308183412451124461e+00,-1.222925617048256797e+01,3.523446069586662066e-01,8.483444503284100213e-02,9.320163061260745563e-01,1.042383074110910684e+03
-5.382125225028263849e+00,-5.223948466413816938e+00,-1.242066245862734952e+01,3.520135077923879363e-01,-5.479992337527160454e-04,9.359936912342581294e-01,1.047122598049552380e+03
-5.278826325265475461e+00,-5.199523478501919094e+00,-1.248010649323718901e+01,2.667117791109648306e-01,2.447389377469652225e-02,9.634645065623386184e-01,1.048850609055448558e+03
-4.985011946110827985e+00,-5.151112228175461105e+00,-1.261364798940980236e+01,1.791010901817740864e-01,4.928391228887925996e-02,9.825944715311299982e-01,1.053590132994090254e+03
-4.680906513074043929e+00,-5.123927140305382544e+00,-1.271616922598475696e+01,8.993987732009491032e-02,7.366727837904697707e-02,9.932179773654231658e-01,1.058329656932731950e+03
-4.366900670041544252e+00,-5.119981708157389733e+00,-1.278643471244287433e+01,0.000000000000000000e+00,9.741290686787916486e-02,9.952430484926604315e-01,1.063069180871373646e+03
-4.085359555653124808e+00,-5.138217270386245872e+00,-1.281953390325558217e+01,-0.000000000000000000e+00,-9.695091807975529663e-02,9.952881590151888558e-01,1.067196175604796281e+03
-3.753529654090749457e+00,-5.185405478402887347e+00,-1.282647271221522445e+01,-4.291282096655081070e-03,-2.252196961352708748e-01,9.742975281538440724e-01,1.071935699543437977e+03
-3.414174136216927558e+00,-5.260166815765910719e+00,-1.280396726182665468e+01,-8.509987894250357898e-03,-3.496795025689147796e-01,9.368296673276681474e-01,1.076675223482079673e+03
-3.068270719171687144e+00,-5.363609222138753019e+00,-1.275372905650578836e+01,-7.724836525159890083e-03,-3.010809200916479966e-01,9.535662569833954771e-01,1.081414747420721369e+03
-2.716819481115654078e+00,-5.496821777498952066e+00,-1.267747131566755492e+01,-6.919271913869541948e-03,-2.516867189893979839e-01,9.677829917706305407e-01,1.086154271359363065e+03
-2.360788407633972241e+00,-5.660282940887420011e+00,-1.257686122940425655e+01,-6.095422785334104684e-03,-2.016274245818407418e-01,9.794423043128085427e-01,1.090893795298004761e+03
-2.001041331403714540e+00,-5.853270489414884814e+00,-1.245347221705604923e+01,-5.255466178392348073e-03,-1.510353195602877618e-01,9.885133849981988519e-01,1.095633319236646457e+03
-1.923935292798133911e+00,-5.899870480918147031e+00,-1.242278417362680898e+01,-4.401621693856015705e-03,-1.000440944872977578e-01,9.949722633745504696e-01,1.096637862826583387e+03
-1.556630873093454159e+00,-6.145817702283367545e+00,-1.225752084476916792e+01,-3.536145630187140405e-03,-4.878849457810986029e-02,9.988018714794280051e-01,1.101377386765225083e+03
-1.187522168848546888e+00,-6.418377484767606056e+00,-1.207285896641508494e+01,-2.661325022249291794e-03,2.596036303682337440e-03,9.999920889409333880e-01,1.106116910703866779e+03
-8.173281211450436068e-01,-6.716188010195372371e+00,-1.187032900885743913e+01,-1.779471598857533358e-03,5.397371349711298227e-02,9.985397697296948261e-01,1.110856434642508475e+03
-4.467364795476804207e-01,-7.037874519648029015e+00,-1.165146254364669609e+01,-8.929156750659369458e-04,1.052087702974856265e-01,9.944487504912361553e-01,1.115595958581150171e+03
-7.640371089791263282e-02,-7.382049838738242720e+00,-1.141779214838899215e+01,-3.999995304131439757e-06,1.561658166662475977e-01,9.877298404362626627e-01,1.120335482519791867e+03
2.931433478231977863e-01,-7.747015586622731931e+00,-1.117059057215400841e+01,-3.431258075468773590e-06,1.373532654656963448e-01,9.905211155965775172e-01,1.125075006458433563e+03
6.080259911537690964e-01,-8.074251628838526429e+00,-1.094861133269947118e+01,-2.861279878233495316e-06,1.184910373819077628e-01,9.929541147710270188e-01,1.129121868167976345e+03
9.758965916744780644e-01,-8.473363998659673157e+00,-1.067632213949702269e+01,-2.290266830177746974e-06,9.958595345257659215e-02,9.950279583300892794e-01,1.133861392106618041e+03
1.342460340221675708e+00,-8.886130563995930487e+00,-1.039216691613133570e+01,-1.718425422772605465e-06,8.064485019431115453e-02,9.967418964421337346e-01,1.138600916045259737e+03
1.707687311812533082e+00,-9.309942342013357575e+00,-1.009663924128834189e+01,-1.145962446714471925e-06,6.167457713616028570e-02,9.980953093380336982e-01,1.143340439983901433e+03
2.071605821694884053e+00,-9.742191326350820191e+00,-9.790233391942702923e+00,-5.730849173465950719e-07,4.268199434934798892e-02,9.990877075345891978e-01,1.148079963922543129e+03
2.434302408439786625e+00,-1.018027146351866996e+01,-9.473444312856784677e+00,-0.000000000000000000e+00,2.367396997322678345e-02,9.997187320112477238e-01,1.152819487861184825e+03
2.795606263786294399e+00,-1.062175047091576907e+01,-9.146603202180498826e+00,-1.650811621594222253e-06,8.062661886136229805e-02,9.967433713491306024e-01,1.157559011799826521e+03
3.154768556032472748e+00,-1.106453223887564441e+01,-8.809713107260746412e+00,-3.296253997837497036e-06,1.373170312095850498e-01,9.905261394476675418e-01,1.162298535738468217e+03
3.489577546345839831e+00,-1.148008758626825099e+01,-8.483427452738110830e+00,-4.930975442929054909e-06,1.935608254340309420e-01,9.810872575021736264e-01,1.166753985703076978e+03
3.841780889339811988e+00,-1.191950118256695212e+01,-8.125983586551463134e+00,-6.549659138655733894e-06,2.491750724857892396e-01,9.684574245721383479e-01,1.171493509641718674e+03
4.188973849020409368e+00,-1.235443855821902304e+01,-7.758020036778205508e+00,-8.147040424878093841e-06,3.039788907431306697e-01,9.526777177598968471e-01,1.176233033580360370e+03
4.530264788754099214e+00,-1.278289100163239667e+01,-7.379377976615404400e+00,-9.717923920501568132e-06,3.577940342491268688e-01,9.337994586425816257e-01,1.180972557519002066e+03
4.864805719582617094e+00,-1.320282921721309322e+01,-6.989899236879240085e+00,-1.125720041931224548e-05,4.104454723837964170e-01,9.118840463966059184e-01,1.185712081457643762e+03
5.191792476677127510e+00,-1.361220405548190193e+01,-6.589426316224204605e+00,-1.275986350578334758e-05,4.617619590874265101e-01,8.870027581560712138e-01,1.190451605396285458e+03
5.510464891049456249e+00,-1.400894724546532188e+01,-6.177802391331056242e+00,-1.422102583686205169e-05,5.115765897854466226e-01,8.592365172527295369e-01,1.195191129334927155e+03
5.820106956510511687e+00,-1.439097212930005476e+01,-5.754871327063334263e+00,-1.563593503682367953e-05,5.597273442049124359e-01,8.286756300893310945e-01,1.199930653273568851e+03
6.120046991866247232e+00,-1.475617439899041194e+01,-5.320477686591930322e+00,-1.699998915352857377e-05,6.060576133181894143e-01,7.954194924999823391e-01,1.204670177212210547e+03
6.409735702660643852e+00,-1.510267109982876299e+01,-4.874665437153522518e+00,-1.079476870995449121e-05,6.580670211098091915e-01,7.529580304416703118e-01,1.209409701150852243e+03
6.579867907759835433e+00,-1.530085914688329574e+01,-4.596829050237995595e+00,-4.540889644353970971e-06,7.071098581352692758e-01,7.071022899858621091e-01,1.212292251195785866e+03
6.849475943904664632e+00,-1.560512469836331384e+01,-4.129511583330638835e+00,1.733457279194359904e-06,7.529650576593011069e-01,6.580589805916416957e-01,1.217031775134427562e+03
7.108188030695817616e+00,-1.588731172166017025e+01,-3.652249616039214164e+00,7.999989140413108610e-06,7.954259202489223357e-01,6.060491773184206732e-01,1.221771299073069258e+03
7.355791238321559788e+00,-1.614621634424677410e+01,-3.165685726469519956e+00,6.403024029217899400e-06,8.060669220623603026e-01,5.918227074869062410e-01,1.226510823011710954e+03
7.555337945671110056e+00,-1.634424622886789535e+01,-2.747659133296764367e+00,4.804037914103918422e-06,8.164535101763906733e-01,5.774094437040970806e-01,1.230512537557586711e+03
7.779821599513867092e+00,-1.655423004661069797e+01,-2.245064569971172652e+00,3.203535217060066142e-06,8.265824079014316705e-01,5.628139327685812709e-01,1.235252061496228407e+03
7.991513841997959666e+00,-1.674000362866611269e+01,-1.736227537692842215e+00,1.602020838721043431e-06,8.364504197167073052e-01,5.480407788965814264e-01,1.239991585434870103e+03
8.189572199144857123e+00,-1.690170016918888507e+01,-1.222458751540472344e+00,0.000000000000000000e+00,8.460544322668346329e-01,5.330946422741880131e-01,1.244731109373511799e+03
8.373198198574792528e+00,-1.703964609320841816e+01,-7.051508243947319787e-01,-3.971767051553314054e-02,8.764168748345417814e-01,4.799103751268586349e-01,1.249470633312153495e+03
8.414723083445959873e+00,-1.706768015789593917e+01,-5.773806280263209523e-01,-7.922372316773730605e-02,9.021098112119426693e-01,4.241691763943188920e-01,1.250636107496832665e+03
8.568479885297898946e+00,-1.715828719259558000e+01,-5.652423663498035850e-02,-1.183076714308601146e-01,9.229963520861865778e-01,3.661680337178047084e-01,1.255375631435474361e+03
8.706451068989396802e+00,-1.722691898539295252e+01,4.642747655372728710e-01,-1.567612779684424140e-01,9.389652166924589149e-01,3.062159753704558063e-01,1.260115155374116057e+03
8.827923770974864581e+00,-1.727448778161137000e+01,9.833785942123439705e-01,-1.943796641270225667e-01,9.499313256486349166e-01,2.446324237016122005e-01,1.264854679312757753e+03
8.932159820312817189e+00,-1.730188687129956548e+01,1.499149570250489338e+00,-2.309624015225779925e-01,9.558362541678426805e-01,1.817454932103748921e-01,1.269594203251399449e+03
9.018395914198682917e+00,-1.730999015512328043e+01,2.009950221154790384e+00,-2.663145799035552264e-01,9.566485432469647998e-01,1.178902423246473014e-01,1.274333727190041145e+03
9.085843796407212736e+00,-1.729965171257512324e+01,2.514143382565817042e+00,-3.002478456013365493e-01,9.523638671776405440e-01,5.340688820229056583e-02,1.279073251128682841e+03
9.133690438634108233e+00,-1.727170537253984861e+01,3.010092299741784494e+00,-3.325814050362945751e-01,9.430050564920919864e-01,-1.136100593287420017e-02,1.283812775067324537e+03
9.161098224726400119e+00,-1.722696428625219411e+01,3.496160729019616387e+00,-3.631429879342957801e-01,9.286219762263576705e-01,-7.606836126210715643e-02,1.288552299005966233e+03
9.167205137790872982e+00,-1.716622050268408728e+01,3.970713039252175669e+00,-3.917697651236612955e-01,9.092912601541801587e-01,-1.403704218978463758e-01,1.293291822944607929e+03
9.151124950169666761e+00,-1.709024454639808965e+01,4.432114313216940715e+00,-4.183092160249460845e-01,8.851159024117427609e-01,-2.039245916708957995e-01,1.298031346883249626e+03
9.111947416272037970e+00,-1.699978499790368502e+01,4.878730448991377422e+00,-4.426199412142075573e-01,8.562247086926388917e-01,-2.663922593948936379e-01,1.302770870821891322e+03
9.048738468251174893e+00,-1.689556807655289461e+01,5.308928261290281725e+00,-4.645724157332154491e-01,8.227716099398679761e-01,-3.274406028863904305e-01,1.307510394760533018e+03
9.029347156536617902e+00,-1.687000170667701227e+01,5.399000449796846013e+00,-4.840496791357605799e-01,7.849348421933164399e-01,-3.867443621326666636e-01,1.308545226280693896e+03
8.914374696043250168e+00,-1.674036834221519499e+01,5.792871420314068764e+00,-5.009479585961678083e-01,7.429159969632928018e-01,-4.439875721642148609e-01,1.313284750219335592e+03
8.773321016407495065e+00,-1.659827080703200508e+01,6.166705373078843699e+00,-5.151772217625080197e-01,6.969389471894419374e-01,-4.988652464037193202e-01,1.318024274157977288e+03
8.605635838496992207e+00,-1.644455566524619883e+01,6.519134575330787662e+00,-4.806198881839435777e-01,6.530326116820757143e-01,-5.852785073479930267e-01,1.322763798096618984e+03
8.411657041823142222e+00,-1.628044685658175439e+01,6.849315372478788078e+00,-4.409731533033981465e-01,6.022111543105989062e-01,-6.654941049260625352e-01,1.327503322035260680e+03
8.192143668015647862e+00,-1.610737168394279450e+01,7.156666864862730293e+00,-3.966568453858644872e-01,5.450127350492265377e-01,-7.386626196339456385e-01,1.332242845973902376e+03
7.947814519311426906e+00,-1.592677304399686378e+01,7.440609568170238219e+00,-3.481402392685768454e-01,4.820430401596220715e-01,-8.040092544476338254e-01,1.336982369912544073e+03
7.679348035376124315e+00,-1.574010873353474871e+01,7.700565449233422122e+00,-2.959370872987276413e-01,4.139688686939323459e-01,-8.608420390031479297e-01,1.341721893851185769e+03
7.387382174785947164e+00,-1.554885075426024876e+01,7.935957961757978296e+00,-2.406001793398416799e-01,3.415110719314042309e-01,-9.085591568255139139e-01,1.346461417789827465e+03
7.162247579187219770e+00,-1.541033766736141075e+01,8.086133906113081693e+00,-1.827154894271423025e-01,2.654369204817569883e-01,-9.466553180382125676e-01,1.349845436408356136e+03
6.824064435681345131e+00,-1.521485640879826384e+01,8.270911461909589590e+00,-1.228959710267722022e-01,1.865519798453561806e-01,-9.747271100787595621e-01,1.354584960346997832e+03
6.463905857525109155e+00,-1.501876100024904126e+01,8.429568981347509649e+00,-6.177506657478180896e-02,1.056915804250045943e-01,-9.924772697538796207e-01,1.359324484285639528e+03
6.082488748911571541e+00,-1.482338178612910440e+01,8.562035276088307612e+00,-0.000000000000000000e+00,2.371197228180339442e-02,-9.997178313761895252e-01,1.364064008224281224e+03
5.858821086263295008e+00,-1.471603750095335528e+01,8.621657689605035202e+00,-7.892990921127130202e-03,0.000000000000000000e+00,-9.999678497920404530e-01,1.366700001627259780e+03
5.437501380061739553e+00,-1.452529416987731992e+01,8.705073747092813008e+00,-7.557215732820177223e-01,8.104295423911778151e-02,-6.498576330580629890e-01,1.371439525565901477e+03
4.999706148915025850e+00,-1.433535997547018503e+01,8.766535197313492844e+00,-6.567034176496289177e-01,9.226426792033526336e-02,-7.484824153654326961e-01,1.376179049504543173e+03
4.547797461338311642e+00,-1.414580650127395600e+01,8.808169326740351579e+00,-5.447761341190815454e-01,1.016719092854419942e-01,-8.323940092017463321e-01,1.380918573443184869e+03
4.331451986877878468e+00,-1.405814395858984511e+01,8.819194051247059463e+00,-4.221399054398882744e-01,1.090809464119785605e-01,-8.999429133912164591e-01,1.383125740893989814e+03
3.856320139653855339e+00,-1.387054547688112294e+01,8.826259099153460852e+00,-2.912054325350394990e-01,1.143457340159885066e-01,-9.498012682514208604e-01,1.387865264832631510e+03
3.374008090641972935e+00,-1.368123121312992296e+01,8.818112917388084782e+00,-1.545465485004513251e-01,1.173627769239002361e-01,-9.809889616792428768e-01,1.392604788771273206e+03
2.887675943980059667e+00,-1.348916687004462922e+01,8.796453929314152376e+00,-1.484962410020790151e-02,1.180727650393105926e-01,-9.928928999730888272e-01,1.397344312709914902e+03
2.400504621234893055e+00,-1.329338908917598872e+01,8.762981391428040112e+00,1.251392407625456227e-01,1.164617397121087555e-01,-9.852790638196489148e-01,1.402083836648556598e+03
1.915695265559868465e+00,-1.309300579149851984e+01,8.719395287537178518e+00,2.626682012788152387e-01,1.125613684974554746e-01,-9.582971117328764610e-01,1.406823360587198295e+03
1.436468643674278178e+00,-1.288719651021865786e+01,8.667396222904118375e+00,3.950337659631768528e-01,1.064483228393501707e-01,-9.124774398911582596e-01,1.411562884525839991e+03
9.660645456983322221e-01,-1.267521271578204356e+01,8.608685318361702699e+00,5.196339447444832116e-01,9.824277087937850761e-02,-8.487207558650088357e-01,1.416302408464481687e+03
5.077411828781908110e-01,-1.245637813305280872e+01,8.544964104404300542e+00,6.340194013967420661e-01,8.810601502294669596e-02,-7.682803711968703153e-01,1.421041932403123383e+03
3.054976547646203189e-01,-1.235398733518698400e+01,8.514366375053276315e+00,7.359416040888981936e-01,7.623732074368984313e-02,-6.727375612334582922e-01,1.423200303365853415e+03
1.819603790734247162e-01,-1.228793184775665637e+01,8.494287086325220670e+00,8.233970270333020869e-01,6.286999903421867930e-02,-5.639704771457656474e-01,1.424565034103077778e+03
-2.298557493491600323e-01,-1.205231740796189577e+01,8.422224156493003377e+00,8.946665341176981423e-01,4.826681959973579822e-02,-4.441172219739409899e-01,1.429304558041719474e+03
-6.213152227010950712e-01,-1.180822455993189202e+01,8.347929118860193398e+00,9.483491704343351980e-01,3.271484504860716624e-02,-3.155338172822007570e-01,1.434044081980361170e+03
-9.897044020049787783e-01,-1.155496847076572919e+01,8.271636046071037640e+00,9.833896978485703322e-01,1.651978770178422207e-02,-1.807478873422650734e-01,1.438783605919002866e+03
-1.332306038897743017e+00,-1.129193633298100075e+01,8.193265078631906562e+00,9.990993339585199084e-01,0.000000000000000000e+00,-4.240897172840243229e-02,1.443523129857644562e+03
-1.646418072050050752e+00,-1.101859915386771327e+01,8.112108381463112750e+00,9.990993332535061944e-01,-0.000000000000000000e+00,-4.240897169847657883e-02,1.448262653796286259e+03
