2.397466235797362089e+01,4.006206455748361606e+01,1.258385995208378816e+01,-5.986221688505513616e-02,-6.181618533753070466e-01,-7.837668263088237719e-01,6.189387831852476438e+02
2.367264683048222906e+01,3.916149672733430265e+01,1.217324039595103358e+01,-8.647183483457157593e-02,-6.160406317898452500e-01,-7.829524645630066004e-01,6.236783071238893399e+02
2.308453459754268522e+01,3.814313483185090092e+01,1.174210844649998720e+01,-1.130197785000407601e-01,-6.134800278165759568e-01,-7.815796729309995028e-01,6.284178310625310360e+02
2.222320691530506309e+01,3.704007396985415568e+01,1.130067941072837634e+01,-1.394871130266411574e-01,-6.104818677317362940e-01,-7.796494304950085663e-01,6.331573550011727320e+02
2.110556379511099578e+01,3.588522699779489500e+01,1.085916923132002943e+01,-1.658549610476182379e-01,-6.070482898863129861e-01,-7.771631139232572094e-01,6.378968789398144281e+02
1.975252272515298557e+01,3.471127597432295175e+01,1.042779385096484823e+01,-1.921045161474518037e-01,-6.031817431812098729e-01,-7.741224964884403370e-01,6.426364028784561242e+02
1.818901711090298789e+01,3.355062362133121212e+01,1.001676857666474874e+01,-2.182170562744576991e-01,-5.988849853209646801e-01,-7.705297468033578401e-01,6.473759268170978203e+02
1.644399443435247576e+01,3.243534480473249459e+01,9.636307444042696346e+00,-2.441739570932647818e-01,-5.941610808472523875e-01,-7.663874272746322713e-01,6.521154507557395164e+02
1.455041413276426354e+01,3.139713803818412075e+01,9.296622581823386966e+00,-2.699567052676475343e-01,-5.890133989535802916e-01,-7.616984922756067089e-01,6.568549746943812124e+02
1.432508543627253772e+01,3.128336370653821064e+01,9.260281921783311887e+00,-2.955469116642454597e-01,-5.834456110827244135e-01,-7.564662860397233235e-01,6.573997440653656668e+02
1.231955190505368769e+01,3.035891789140832486e+01,8.973324311583946056e+00,-3.209263244677571514e-01,-5.774616883086243213e-01,-7.506945402758831154e-01,6.621392680040073628e+02
1.024827170239304586e+01,2.957701592257514989e+01,8.748732045765752474e+00,-3.460768421982581278e-01,-5.710658985045954372e-01,-7.443873715074829089e-01,6.668787919426490589e+02
8.156684313049861856e+00,2.896787461815314302e+01,8.596707398950186985e+00,-3.709805266213611619e-01,-5.642628032998786569e-01,-7.375492781370230899e-01,6.716183158812907550e+02
6.094229500640501840e+00,2.856113519916384647e+01,8.527448127476301210e+00,-3.956196155420152460e-01,-5.570572548266911062e-01,-7.301851372383758587e-01,6.763578398199324511e+02
4.114343752029106405e+00,2.838581496141462068e+01,8.551146836091739090e+00,-4.199765354728211553e-01,-5.494543922600975128e-01,-7.223002010789976168e-01,6.810973637585741471e+02
2.270303010827772194e+00,2.843655395016113019e+01,8.662995389287967640e+00,-3.141385007942008034e-01,-5.743715676271480275e-01,-7.559181864601064449e-01,6.858368876972158432e+02
6.050106892886784049e-01,2.863995423458277401e+01,8.828190256451163620e+00,-2.042315232335925046e-01,-5.918490498460435845e-01,-7.797449500413348167e-01,6.905764116358575393e+02
-8.539340885830923877e-01,2.888847082044461345e+01,8.996929636659080742e+00,-9.167919634133196716e-02,-6.016604607407545213e-01,-7.934718740701748319e-01,6.953159355744992354e+02
-2.093112427972254608e+00,2.907430947807048582e+01,9.119411517409270473e+00,2.206062339442155240e-02,-6.036787175315465603e-01,-7.969211597742492659e-01,7.000554595131409314e+02
-2.814665253403073386e+00,2.912920653114329639e+01,9.155425108198267381e+00,1.355146989267453084e-01,-5.978776786596280424e-01,-7.900481300125633544e-01,7.032395558749495876e+02
-3.733549999336191583e+00,2.901715922757959021e+01,9.098531970690288517e+00,2.472134941618859549e-01,-5.843324823401598866e-01,-7.729418078919988444e-01,7.079790798135912837e+02
-4.465846052738879024e+00,2.855493885830129486e+01,8.862341667333355488e+00,3.557102075596545454e-01,-5.632185734645729358e-01,-7.458237638632615463e-01,7.127186037522329798e+02
-5.050201532180098596e+00,2.763530012251300505e+01,8.397077731969281089e+00,4.595995113955018141e-01,-5.348094314391391713e-01,-7.090452462074303686e-01,7.174581276908746759e+02
-5.541899431521263963e+00,2.621022312026241252e+01,7.682306479301390212e+00,5.983530455168354356e-01,-4.716115502745361066e-01,-6.477300198149593680e-01,7.221976516295163719e+02
-6.004779202320769116e+00,2.434975478900619450e+01,6.756266782886505062e+00,7.209473627297795506e-01,-3.956772815903600304e-01,-5.689221291244574985e-01,7.269371755681580680e+02
-6.492974159794231426e+00,2.218333468344472692e+01,5.686539192983329549e+00,8.240716778276627741e-01,-3.090573185919011090e-01,-4.747498748061704243e-01,7.316766995067997641e+02
-7.043182636242763195e+00,1.984095158773175527e+01,4.540713226650081147e+00,9.049410158421082873e-01,-2.140909294304653987e-01,-3.677564843530515826e-01,7.364162234454414602e+02
-7.674665400908946999e+00,1.745293277294807055e+01,3.386383159696499945e+00,9.613714201561674999e-01,-1.133427830730024677e-01,-2.508314295172404673e-01,7.411557473840831562e+02
-8.389244301660948366e+00,1.514973323182129405e+01,2.291143816064412864e+00,9.918389300263429353e-01,-9.533688889144572437e-03,-1.271323942266783247e-01,7.458952713227248523e+02
-9.171302128373138629e+00,1.306172490475765180e+01,1.322586356415923259e+00,9.955207354023959399e-01,9.453287991605881235e-02,-0.000000000000000000e+00,7.506347952613665484e+02
-9.991266218334430960e+00,1.127979439511095450e+01,5.275264414709491811e-01,9.958299747488675857e-01,9.121765931120583148e-02,-0.000000000000000000e+00,7.553743192000082445e+02
-1.081613237501150948e+01,9.816026462505881511e+00,-8.876631240070755047e-02,9.961281739830017967e-01,8.790142761004784977e-02,-0.000000000000000000e+00,7.601138431386499406e+02
-1.161654365107928477e+01,8.642924181783076421e+00,-5.418010395164127857e-01,9.964153297911566565e-01,8.458422155352764149e-02,-0.000000000000000000e+00,7.648533670772916366e+02
-1.236682952896768661e+01,7.732658979353699280e+00,-8.470970365582282113e-01,9.966914389931955665e-01,8.126607789442859275e-02,-0.000000000000000000e+00,7.695928910159333327e+02
-1.304500768023463486e+01,7.057115198453558946e+00,-1.020182797278604392e+00,9.969564985311434313e-01,7.794703339589008351e-02,-0.000000000000000000e+00,7.743324149545750288e+02
-1.363278547004972019e+01,6.587934683009043724e+00,-1.076595044300324711e+00,9.972105054692196324e-01,7.462712483100311656e-02,-0.000000000000000000e+00,7.790719388932167249e+02
-1.411556120479016130e+01,6.296561377289291883e+00,-1.031877760187846604e+00,9.974534569938702244e-01,7.130638898240608536e-02,-0.000000000000000000e+00,7.838114628318584209e+02
-1.448242511831930734e+01,6.154285938715393200e+00,-9.015812199039722197e-01,9.976853504137986883e-01,6.798486264188015327e-02,-0.000000000000000000e+00,7.885509867705001170e+02
-1.456026546905025221e+01,6.136035800856921796e+00,-8.569835069867020039e-01,9.979061831599960186e-01,6.466258260994481311e-02,-0.000000000000000000e+00,7.897730006978659958e+02
-1.479445249749578295e+01,6.118946171427463554e+00,-6.511238646495624005e-01,9.981159527857687008e-01,6.133958569545311379e-02,-0.000000000000000000e+00,7.945125246365076919e+02
-1.490191703121064215e+01,6.186059775897682300e+00,-3.948126614356721187e-01,9.983146569667650239e-01,5.801590871518701870e-02,-0.000000000000000000e+00,7.992520485751493879e+02
-1.488377997966852995e+01,6.308480085766468903e+00,-1.036136407629578288e-01,9.985022935010018363e-01,5.469158849345248652e-02,-0.000000000000000000e+00,8.039915725137910840e+02
-1.474485547177121880e+01,6.457347306932084585e+00,2.069072865702486497e-01,9.986788603088875282e-01,5.136666186167455211e-02,-0.000000000000000000e+00,8.087310964524327801e+02
-1.449365048222593799e+01,6.603883011118104385e+00,5.211830133839054913e-01,9.988443554332460117e-01,4.804116565799238653e-02,-0.000000000000000000e+00,8.134706203910744762e+02
-1.414236419974191428e+01,6.719434761468995987e+00,8.236462083270696954e-01,9.989987770393378153e-01,4.471513672685414192e-02,-0.000000000000000000e+00,8.182101443297161723e+02
-1.370688713707096973e+01,6.775520729330431813e+00,1.098730286658146982e+00,9.991421234148802899e-01,4.138861191861191446e-02,-0.000000000000000000e+00,8.229496682683578683e+02
-1.320679998272503219e+01,6.743874299243690196e+00,1.330870379995912067e+00,9.992743929700668160e-01,3.806162808911640882e-02,-0.000000000000000000e+00,8.276891922069995644e+02
-1.266537219443759277e+01,6.596488659164961632e+00,1.504504306349808251e+00,9.993955842375845666e-01,3.473422209931178312e-02,-0.000000000000000000e+00,8.324287161456412605e+02
-1.210956033489645023e+01,6.305661372893233363e+00,1.604073539980921614e+00,9.995056958726304952e-01,3.140643081483029952e-02,-0.000000000000000000e+00,8.371682400842829566e+02
-1.184135802163096329e+01,6.115484832888486544e+00,1.624601285095752523e+00,9.996047266529263231e-01,2.807829110558691249e-02,-0.000000000000000000e+00,8.394713424112674147e+02
-1.131758882189203774e+01,5.603416964055069727e+00,1.597966543127018246e+00,9.996926754787327507e-01,2.474983984537383955e-02,-0.000000000000000000e+00,8.442108663499091108e+02
-1.086193810664840242e+01,4.880598003415880015e+00,1.458611253523871776e+00,9.997695413728610037e-01,2.142111391145515992e-02,-0.000000000000000000e+00,8.489503902885508069e+02
-1.051419891552001573e+01,3.920729457950149044e+00,1.190996837222612070e+00,9.998353234806844902e-01,1.809215018416122575e-02,-0.000000000000000000e+00,8.536899142271925029e+02
-1.031784076988466481e+01,2.698016863226478268e+00,7.795927260301976913e-01,9.998900210701483493e-01,1.476298554648316531e-02,-0.000000000000000000e+00,8.584294381658341990e+02
-1.029654484291171457e+01,1.221467859209733442e+00,2.326329591419480092e-01,9.821034339830420068e-01,1.249605859100398966e-02,-1.879220409613274467e-01,8.631689621044758951e+02
-1.042457325866872431e+01,-4.312160981672225613e-01,-3.941287018100539385e-01,9.293183552154924421e-01,9.783819092554352226e-03,-3.691472220459631193e-01,8.679084860431175912e+02
-1.064098189897305424e+01,-2.148555509857445145e+00,-1.021177869969475127e+00,8.434158461260568007e-01,6.722920846808234929e-03,-5.372173795023695853e-01,8.726480099817592873e+02
-1.087000303236160370e+01,-3.819903521868917906e+00,-1.569000116907202536e+00,7.274571333130616102e-01,3.422442382401314105e-03,-6.861431381865763512e-01,8.773875339204009833e+02
-1.092366392254450247e+01,-4.227160138953875546e+00,-1.689867002657809536e+00,5.855745249376080874e-01,0.000000000000000000e+00,-8.106173423658352695e-01,8.785825676994058995e+02
-1.107129364967530272e+01,-5.751426994864171860e+00,-2.090239725317923014e+00,7.680787893568695734e-01,1.578413131129958458e-01,-6.205957566848402385e-01,8.833220916380475956e+02
-1.106524418468026383e+01,-7.118860140434859929e+00,-2.389322512812525279e+00,8.781301151644511638e-01,3.007934310890415519e-01,-3.720333488482469031e-01,8.880616155766892916e+02
-1.085498577474077386e+01,-8.356655244460601040e+00,-2.664614647668071878e+00,9.053473691451656702e-01,4.153717105649604169e-01,-8.837693841809150797e-02,8.928011395153309877e+02
-1.042007293606239138e+01,-9.483112170792649565e+00,-2.970442912255607748e+00,8.652921562943725053e-01,4.931317357575678573e-01,-8.993650785090279154e-02,8.975406634539726838e+02
-1.032659467616378279e+01,-9.666095758782152103e+00,-3.026738704818312531e+00,8.186144420750821604e-01,5.671175785652023960e-01,-9.080774916681967623e-02,8.983496677306200127e+02
-9.702377748113468314e+00,-1.067714541319715060e+01,-3.371629591798265491e+00,7.656714741121103396e-01,6.367629908266292382e-01,-9.098399444324607732e-02,9.030891916692617087e+02
-8.959046724695779673e+00,-1.156355644715254272e+01,-3.737239575012472059e+00,7.068684505664944995e-01,7.015349437629149199e-01,-9.046389486220628162e-02,9.078287156079034048e+02
-8.155168641727671641e+00,-1.231390803347874119e+01,-4.108367751768861709e+00,6.426554189943858297e-01,7.609377073695864357e-01,-8.925143102842970910e-02,9.125682395465451009e+02
-7.347629033225051565e+00,-1.291607520529591291e+01,-4.469812957516858809e+00,5.735238319863290579e-01,8.145166443580736937e-01,-8.735588250209778971e-02,9.173077634851867970e+02
-6.591627663057695763e+00,-1.335724920689175121e+01,-4.806374723381006575e+00,5.000027859432425448e-01,8.618616896182011988e-01,-8.479175677956424240e-02,9.220472874238284930e+02
-5.940674387241558385e+00,-1.362395789316428107e+01,-5.102854210129964763e+00,4.226549717683421581e-01,9.026104885786694343e-01,-8.157867826547220147e-02,9.267868113624701891e+02
-5.446585135203273254e+00,-1.370208617611654667e+01,-5.344055150004845878e+00,3.420723684575420198e-01,9.364511704509530521e-01,-7.774123808566464622e-02,9.315263353011118852e+02
-5.159478009205598958e+00,-1.357689651726078672e+01,-5.514784792842962524e+00,2.588717125376465145e-01,9.631247351340186391e-01,-7.330880588978283541e-02,9.362658592397535813e+02
-5.144803693334101702e+00,-1.355695877169473995e+01,-5.526073809304776319e+00,1.736897780169139593e-01,9.824270355114816944e-01,-6.831530508318919837e-02,9.366738776834386044e+02
-5.117295417118910450e+00,-1.321104347775335519e+01,-5.609363784986525658e+00,8.717850296322578185e-02,9.942103399668912322e-01,-6.279895320762697575e-02,9.414134016220803005e+02
-5.396032954222238942e+00,-1.262937498735452202e+01,-5.590504383860928961e+00,0.000000000000000000e+00,9.983844631532042824e-01,-5.680196945670087927e-02,9.461529255607219966e+02
-5.965611291854977516e+00,-1.181122975023907529e+01,-5.468066126389413917e+00,2.718475813968589949e-01,9.443205849998940193e-01,1.853524351994536579e-01,9.508924494993636927e+02
-6.691189993375497025e+00,-1.078792699612011852e+01,-5.268119202824831149e+00,5.068698197220069535e-01,7.623362237635495919e-01,4.023983943722789780e-01,9.556319734380053887e+02
-6.906389393482015748e+00,-1.046675143362926619e+01,-5.201955314234928629e+00,6.732299333349860415e-01,4.770836016566368243e-01,5.649342385559369406e-01,9.569899367144379312e+02
-7.564065997776389771e+00,-9.280430998758223637e+00,-4.965671561087737551e+00,7.483923528965686911e-01,1.272038900121394978e-01,6.509424371574175083e-01,9.617294606530796273e+02
-8.011770553473148482e+00,-8.022307735378765514e+00,-4.719007838784390785e+00,7.843785636195371724e-01,1.014329603648742861e-01,6.119310610452609600e-01,9.664689845917213233e+02
-8.245044067180408831e+00,-6.861415716918513041e+00,-4.448920329194270273e+00,8.176343202094412677e-01,7.530893738728505760e-02,5.707895254390370487e-01,9.709448363749478403e+02
-8.387397329201021989e+00,-5.764517206755437329e+00,-4.210667107329483017e+00,8.279180956333258568e-01,6.570470540706878360e-02,5.569852049766326196e-01,9.756843603135895364e+02
-8.573949948635778640e+00,-4.872681282177520501e+00,-4.387048829342203859e+00,8.378801759189939968e-01,5.607494484856153510e-02,5.429644659776944327e-01,9.804238842522312325e+02
-8.604523531700497330e+00,-4.780377511295862192e+00,-4.449227591809934879e+00,7.759546851501885056e-01,4.763462436425527219e-02,6.289859053708034553e-01,9.809881345987362238e+02
-8.864963182697501054e+00,-4.126671357745092195e+00,-5.362513229751056265e+00,7.052564958801330608e-01,3.865576340313642278e-02,7.078961837549831992e-01,9.857276585373779199e+02
-8.945595101556094164e+00,-3.701960904751967707e+00,-6.902498393712300562e+00,6.265849024297791559e-01,2.923987400335185255e-02,7.788031778413609940e-01,9.904671824760196159e+02
-8.475224151276323781e+00,-3.487406561969485619e+00,-8.803152663016202695e+00,5.408293392902194796e-01,1.949340872907790595e-02,8.409052460174047949e-01,9.952067064146613120e+02
-7.338198656168803957e+00,-3.463057094561167837e+00,-1.071795302405780248e+01,4.489593261275549585e-01,9.526557261368766641e-03,8.935002899777892971e-01,9.999462303533030081e+02
-5.932333819161545563e+00,-3.598033460466477429e+00,-1.233337318658853832e+01,3.520135077921496269e-01,-5.479992337523450314e-04,9.359936912336245252e-01,1.004685754291944704e+03
-4.739964157955953716e+00,-3.853997243259691174e+00,-1.360455581383888379e+01,3.238822149253043903e-01,7.802819467286920864e-03,9.460641769255474509e-01,1.009425278230586400e+03
-3.900217007666681113e+00,-4.195587321589069774e+00,-1.460309219991435015e+01,2.954391799244786565e-01,1.614612726689128655e-02,9.552240541036717270e-01,1.014164802169228096e+03
-3.378952137366810327e+00,-4.590531345636305716e+00,-1.536183530716938250e+01,2.667117791109648306e-01,2.447389377469652225e-02,9.634645065623386184e-01,1.018904326107869792e+03
-3.140219686212275541e+00,-4.987881100451231120e+00,-1.589269507870394271e+01,2.377276624752589496e-01,3.277810355994040942e-02,9.707776029655289518e-01,1.023424978356343786e+03
-3.120175648924660816e+00,-5.395579836863812595e+00,-1.627919738805817929e+01,2.085147270726678270e-01,4.105076386362538354e-02,9.771563044766298223e-01,1.028164502294985596e+03
-3.295477021596564526e+00,-5.764135589585971609e+00,-1.652302797921799993e+01,1.791010901817740864e-01,4.928391228887925996e-02,9.825944715311299982e-01,1.032904026233627292e+03
-3.616900601386306313e+00,-6.063282074745328210e+00,-1.665708715710153953e+01,1.495150622511267902e-01,5.746962446213798453e-02,9.870868697447414686e-01,1.037643550172268988e+03
-4.031416592313418867e+00,-6.263374467728316297e+00,-1.671428212813494341e+01,1.197851196601070617e-01,6.560002165780126626e-02,9.906291749512750044e-01,1.042383074110910684e+03
-4.482192467115519108e+00,-6.335435384004397541e+00,-1.672752494930427147e+01,8.993987732009491032e-02,7.366727837904697707e-02,9.932179773654231658e-01,1.047122598049552380e+03
-4.646782781701057630e+00,-6.331592627576594801e+00,-1.672713206065106206e+01,6.000806114221550469e-02,8.166362988753084196e-02,9.948507848664386310e-01,1.048850609055448558e+03
-5.056215431665262550e+00,-6.219410697998537074e+00,-1.673419242145642016e+01,3.001848039807517021e-02,8.958137967474705254e-02,9.955260253995324993e-01,1.053590132994090254e+03
-5.352820771461973770e+00,-5.913509641097022929e+00,-1.677513183468449043e+01,0.000000000000000000e+00,9.741290686787916486e-02,9.952430484926604315e-01,1.058329656932731950e+03
-5.492077479489848812e+00,-5.406936288462222961e+00,-1.686031700889057561e+01,-0.000000000000000000e+00,5.859982350367876069e-02,9.982805520885316142e-01,1.063069180871373646e+03
-5.492488571867983893e+00,-4.833034187460179432e+00,-1.694541952819536235e+01,-0.000000000000000000e+00,1.969792880090950882e-02,9.998049767799289667e-01,1.067196175604796281e+03
-5.387076868101902782e+00,-4.069630657526863260e+00,-1.700212594343186367e+01,-0.000000000000000000e+00,-1.923382039023228268e-02,9.998140127774323149e-01,1.071935699543437977e+03
-5.201593431717864924e+00,-3.234030326259087484e+00,-1.696120061560491621e+01,-0.000000000000000000e+00,-5.813642200670532389e-02,9.983076461837654403e-01,1.076675223482079673e+03
-4.984063329475196369e+00,-2.376914821033013769e+00,-1.676537568899954422e+01,-0.000000000000000000e+00,-9.695091807975529663e-02,9.952881590151888558e-01,1.081414747420721369e+03
-4.759898132086101796e+00,-1.551860975802345388e+00,-1.637965911159409416e+01,-1.229265437548816625e-03,-1.338621674663557637e-01,9.909981882036992262e-01,1.086154271359363065e+03
-4.503155988313709557e+00,-8.192540629333213698e-01,-1.581360291007404228e+01,-2.456831143309622881e-03,-1.705883580657971688e-01,9.853383053899790189e-01,1.090893795298004761e+03
-4.166808626210258382e+00,-2.433864168027141672e-01,-1.509903650372394424e+01,-3.681000281174575620e-03,-2.070787242326664890e-01,9.783163354472801387e-01,1.095633319236646457e+03
-4.084089693536672172e+00,-1.425651136809664987e-01,-1.493261239793885586e+01,-4.900080713599280595e-03,-2.432828263710322403e-01,9.699419856867642631e-01,1.096637862826583387e+03
-3.619108437497384756e+00,1.938222785571164508e-01,-1.409606446607245900e+01,-6.112387338955363285e-03,-2.791506206056331707e-01,9.602268324373439690e-01,1.101377386765225083e+03
-3.000533548532455796e+00,2.297586535329441404e-01,-1.318144126170120245e+01,-7.316244419140346955e-03,-3.146325279060197544e-01,9.491843050468217191e-01,1.106116910703866779e+03
-2.208876349094285985e+00,-1.003612516291152446e-01,-1.222059470100363576e+01,-8.509987894250357898e-03,-3.496795025689147796e-01,9.368296673276681474e-01,1.110856434642508475e+03
-1.281437558786590269e+00,-8.240714256759259504e-01,-1.125215642562263163e+01,-6.509497914867861529e-03,-2.267319778936881802e-01,9.739344108497848262e-01,1.115595958581150171e+03
-3.536811297683498112e-01,-1.891716699192010021e+00,-1.032831217257746559e+01,-4.401621693856015705e-03,-1.000440944872977578e-01,9.949722633745504696e-01,1.120335482519791867e+03
3.992381910036302828e-01,-3.213586098083390574e+00,-9.508021755111025541e+00,-2.221132131458964602e-03,2.829422165749335971e-02,9.995961702570690388e-01,1.125075006458433563e+03
7.988937048287294562e-01,-4.470081740386031122e+00,-8.930501759070633483e+00,-3.999995304131439757e-06,1.561658166662475977e-01,9.877298404362626627e-01,1.129121868167976345e+03
9.099345158394517297e-01,-6.011776887442907835e+00,-8.429781670054058651e+00,-3.203404179448053877e-06,1.298139538555048711e-01,9.915373605481422326e-01,1.133861392106618041e+03
6.857410670367949379e-01,-7.569156087151197809e+00,-8.109193396352093686e+00,-2.404542321044970368e-06,1.033700707563052351e-01,9.946419599307528836e-01,1.138600916045259737e+03
2.679283161039939798e-01,-9.076028941746855594e+00,-7.936020403746197438e+00,-1.603975931324311184e-06,7.685290978053439803e-02,9.970414385794429402e-01,1.143340439983901433e+03
-1.933940119035571781e-01,-1.046797968236907295e+01,-7.877537080088445443e+00,-8.022724193993834827e-07,5.028126522247964442e-02,9.987340959212988034e-01,1.148079963922543129e+03
-5.396324299998438434e-01,-1.168246977106976914e+01,-7.901010763981688889e+00,-0.000000000000000000e+00,2.367396997322678345e-02,9.997187320112477238e-01,1.152819487861184825e+03
-6.534008464334811750e-01,-1.268114776309002600e+01,-7.978618147990879095e+00,-1.210898693270597110e-06,6.545724989853747566e-02,9.978543723582201652e-01,1.157559011799826521e+03
-5.122322303211963579e-01,-1.347133618990304349e+01,-8.092361378238381420e+00,-2.419679105121034875e-06,1.071260229975434380e-01,9.942444443853103442e-01,1.162298535738468217e+03
-1.765789771420530896e-01,-1.405460234757373605e+01,-8.220583740109631776e+00,-3.624226711587903945e-06,1.486073979362688424e-01,9.888952630413665457e-01,1.166753985703076978e+03
3.649170230615879085e-01,-1.453356760761479194e+01,-8.366941130298016560e+00,-4.822434393069631526e-06,1.898288111911938802e-01,9.818161856572944490e-01,1.171493509641718674e+03
1.066263179906774994e+00,-1.488984406647613490e+01,-8.510958588488415799e+00,-6.012206119863658164e-06,2.307181539693704542e-01,9.730195955852778411e-01,1.176233033580360370e+03
1.888055172338111598e+00,-1.515179886054620795e+01,-8.639548764193117236e+00,-7.191460618315129887e-06,2.712038983333718289e-01,9.625208805408472790e-01,1.180972557519002066e+03
2.787290388735307101e+00,-1.534729654260373977e+01,-8.739625313848685906e+00,-8.358135011171666175e-06,3.112152223108503590e-01,9.503384056914353506e-01,1.185712081457643762e+03
3.717371130708046589e+00,-1.550365561393715197e+01,-8.798103712218562578e+00,-9.510188425783643395e-06,3.506821337701050978e-01,9.364934815383939570e-01,1.190451605396285458e+03
4.628108068592952762e+00,-1.564760509501840424e+01,-8.801902064989947760e+00,-1.064560556384510864e-05,3.895355928452017280e-01,9.210103266485138995e-01,1.195191129334927155e+03
5.465723949231292345e+00,-1.580524113765110883e+01,-8.737941921902990572e+00,-1.176240022643735615e-05,4.277076326967084730e-01,9.039160253000807499e-01,1.199930653273568851e+03
6.172857555211068714e+00,-1.600198368158583406e+01,-8.593149088706669048e+00,-1.285861878821463389e-05,4.651314783969987543e-01,8.852404801173605620e-01,1.204670177212210547e+03
6.688567914561416750e+00,-1.626253315849240977e+01,-8.354454439136228316e+00,-1.393234361465973069e-05,5.017416637323274253e-01,8.650163597761567624e-01,1.209409701150852243e+03
6.899910235509745249e+00,-1.645508407412941310e+01,-8.161631820955165040e+00,-1.498169641643593036e-05,5.374741457174994075e-01,8.432790418716801240e-01,1.212292251195785866e+03
7.025248314465895483e+00,-1.684714257533730475e+01,-7.755742814730725243e+00,-1.600484153497105610e-05,5.722664166229280980e-01,8.200665510484200782e-01,1.217031775134427562e+03
6.783643384137372223e+00,-1.736434087702081541e+01,-7.221894452212769266e+00,-1.699998915352857377e-05,6.060576133181894143e-01,7.954194924999823391e-01,1.221771299073069258e+03
6.262025377393150904e+00,-1.797992477254131316e+01,-6.537648910348461406e+00,-8.714160024713584786e-06,6.747554542646525544e-01,7.380400238874712526e-01,1.226510823011710954e+03
5.874094708129515396e+00,-1.849619951844336541e+01,-5.816610246790547833e+00,-3.585205410199641569e-07,7.380472384462178903e-01,6.747475630322210538e-01,1.230512537557586711e+03
6.021785995189527618e+00,-1.895062350912004234e+01,-4.746237012253836873e+00,7.999989140413108610e-06,7.954259202489223357e-01,6.060491773184206732e-01,1.235252061496228407e+03
7.062350650814456010e+00,-1.916030037593750279e+01,-3.442730669187133330e+00,4.003944591395868871e-06,8.215503719717091036e-01,5.701341826957058156e-01,1.239991585434870103e+03
8.560752448780052148e+00,-1.920084253406342256e+01,-2.010876094713551776e+00,0.000000000000000000e+00,8.460544322668346329e-01,5.330946422741880131e-01,1.244731109373511799e+03
9.929862941560145373e+00,-1.918364091415807948e+01,-5.692005344796520205e-01,-7.485117199941290766e-02,8.994901084321766938e-01,4.304797868465048416e-01,1.249470633312153495e+03
1.022441902099107836e+01,-1.917678114289104130e+01,-2.188382160659861908e-01,-1.482810603468766031e-01,9.358463359363484724e-01,3.196910425044504622e-01,1.250636107496832665e+03
1.127179924444173054e+01,-1.913835082853316649e+01,1.186338447583733080e+00,-2.188953843816090761e-01,9.544327972627357770e-01,2.028320640495047678e-01,1.255375631435474361e+03
1.205595320339748255e+01,-1.907689279917941150e+01,2.553459561685187840e+00,-2.853533283690548039e-01,9.548965881330802041e-01,8.212176302108813164e-02,1.260115155374116057e+03
1.260990346515894878e+01,-1.899196424874792299e+01,3.878153643051885702e+00,-3.463930005229988729e-01,9.372289161557754156e-01,-4.014782573907275248e-02,1.264854679312757753e+03
1.296634472628198154e+01,-1.888352194036936638e+01,5.156051861659911140e+00,-4.008553929132623317e-01,9.017652654092868092e-01,-1.616550651087414747e-01,1.269594203251399449e+03
1.315764142078538690e+01,-1.875191822111634110e+01,6.382788315379488431e+00,-4.477063874386528197e-01,8.491790242433989722e-01,-2.800927978964362075e-01,1.274333727190041145e+03
1.321582535186876939e+01,-1.859789700914619459e+01,7.554000305964486905e+00,-4.860563902112744472e-01,7.804686976410527555e-01,-3.932121533461937490e-01,1.279073251128682841e+03
1.317259334697612161e+01,-1.842258975356868689e+01,8.665328613607597319e+00,-5.151772217625080197e-01,6.969389471894419374e-01,-4.988652464037193202e-01,1.283812775067324537e+03
1.305371891251568428e+01,-1.822700744392964722e+01,9.711759909825113724e+00,-4.954878618772834975e-01,6.719773744625566758e-01,-5.503963907443590875e-01,1.288552299005966233e+03
1.287355072657740251e+01,-1.801144231057551792e+01,1.068696921336172956e+01,-4.739819367168020547e-01,6.445521878104434332e-01,-5.999096605795928294e-01,1.293291822944607929e+03
1.264072723855436386e+01,-1.777583357185595858e+01,1.158397814817295846e+01,-4.507382915967116377e-01,6.147639338397842268e-01,-6.472235302738101881e-01,1.298031346883249626e+03
1.236380527125993822e+01,-1.752022487557587027e+01,1.239581323858980788e+01,-4.258421425928350379e-01,5.827218225427455156e-01,-6.921645376109611947e-01,1.302770870821891322e+03
1.205125939962953829e+01,-1.724476330681682867e+01,1.311550634249826786e+01,-3.993847641298516882e-01,5.485433269211001939e-01,-7.345679197140736472e-01,1.307510394760533018e+03
1.197950841133313027e+01,-1.718228555852548567e+01,1.326132016291724192e+01,-3.714631543620084408e-01,5.123537523207660760e-01,-7.742782170744767489e-01,1.308545226280693896e+03
1.163985093907329116e+01,-1.688571758063208961e+01,1.387304455393070945e+01,-3.421796795721620543e-01,4.742857770550499841e-01,-8.111498434771016175e-01,1.313284750219335592e+03
1.128304206590945213e+01,-1.657004240304063103e+01,1.437719001227442028e+01,-3.116416988923428888e-01,4.344789660000995535e-01,-8.450476197331648898e-01,1.318024274157977288e+03
1.091728737209079902e+01,-1.623573285000061617e+01,1.476680810364719321e+01,-2.799611707211016043e-01,3.930792589450510244e-01,-8.758472692640767443e-01,1.322763798096618984e+03
1.055070763439898407e+01,-1.588336091810856487e+01,1.503495755486554586e+01,-2.472542422799486883e-01,3.502384355718389242e-01,-9.034358737200784972e-01,1.327503322035260680e+03
1.019133823544449413e+01,-1.551359674743362227e+01,1.517470468777407433e+01,-2.136408238129764992e-01,3.061135590252614946e-01,-9.277122869634399915e-01,1.332242845973902376e+03
9.847128579300099105e+00,-1.512720758582723946e+01,1.517912385319085367e+01,-1.792441489900481466e-01,2.608664001123748855e-01,-9.485875058984825081e-01,1.336982369912544073e+03
9.525941513457839349e+00,-1.472505674657130115e+01,1.504129786337717256e+01,-1.441903231245255934e-01,2.146628442413103521e-01,-9.659849967886940947e-01,1.341721893851185769e+03
9.235552756774090710e+00,-1.430810255940577314e+01,1.475431842386147885e+01,-1.086078608612216917e-01,1.676722832729350132e-01,-9.798409758641857259e-01,1.346461417789827465e+03
9.049036924519750613e+00,-1.400264292338108518e+01,1.445839463095488142e+01,-7.262721502891758552e-02,1.200669945141567135e-01,-9.901046431901417977e-01,1.349845436408356136e+03
8.823471340411677133e+00,-1.356486002846333783e+01,1.391054903738106141e+01,-3.638029838425983070e-02,7.202150912891383538e-02,-9.967383689380918677e-01,1.354584960346997832e+03
8.649340566268335806e+00,-1.311528034259099229e+01,1.319484868192888349e+01,-0.000000000000000000e+00,2.371197228180339442e-02,-9.997178313761895252e-01,1.359324484285639528e+03
8.533316659346050770e+00,-1.266798614032382275e+01,1.233813432384966013e+01,-1.973440555886360730e-03,1.778478861608025902e-02,-9.998388903968752350e-01,1.364064008224281224e+03
8.492002486421991847e+00,-1.242847079727451209e+01,1.182948569517777138e+01,-3.946803592501856202e-03,1.185691204680147139e-02,-9.999209150237998722e-01,1.366700001627259780e+03
8.457822002428025954e+00,-1.205516162777603384e+01,1.095668124683357192e+01,-5.920012561684618625e-03,5.928572519935175651e-03,-9.999639020499327957e-01,1.371439525565901477e+03
8.475604649428516879e+00,-1.180537032931242614e+01,1.023631089465385990e+01,-7.892990921127130202e-03,0.000000000000000000e+00,-9.999678497920404530e-01,1.376179049504543173e+03
8.506148123945781236e+00,-1.170684325813706117e+01,9.734971388074178833e+00,-1.490961133046359854e-01,1.525558789797226006e-02,-9.887040083038182159e-01,1.380918573443184869e+03
8.509471602419536040e+00,-1.170257063336548597e+01,9.563399558343435913e+00,-2.872728885472881633e-01,3.020151847007489232e-02,-9.573714826484192031e-01,1.383125740893989814e+03
8.410848595510072911e+00,-1.174832473199408511e+01,9.241731500781712683e+00,-4.196186226802294250e-01,4.453442119114191938e-02,-9.066062523662512529e-01,1.387865264832631510e+03
8.073701996553875659e+00,-1.185317784755773296e+01,8.910585223088840934e+00,-5.434469747315679999e-01,5.796336819077416852e-02,-8.374387342386809818e-01,1.392604788771273206e+03
7.395951998719339393e+00,-1.196748589766675330e+01,8.452386145324634725e+00,-6.562444812485594969e-01,7.021577919938758183e-02,-7.512728699893883588e-01,1.397344312709914902e+03
6.281753713703502662e+00,-1.204040056862427122e+01,7.749567671291234916e+00,-7.557215732820177223e-01,8.104295423911778151e-02,-6.498576330580629890e-01,1.402083836648556598e+03
4.730583840345659041e+00,-1.204023017054855060e+01,6.792793965359765984e+00,-3.706208938537999820e-01,1.114509371363939377e-01,-9.220720371252236758e-01,1.406823360587198295e+03
2.922743095343009134e+00,-1.197623115357070489e+01,5.789175993654016139e+00,9.725055600197196615e-02,1.169687604535086106e-01,-9.883615929567619585e-01,1.411562884525839991e+03
1.124897205568326397e+00,-1.188048764649162869e+01,5.054043189563955707e+00,5.434033514150629074e-01,9.636406348286361001e-02,-8.339213181930510421e-01,1.416302408464481687e+03
-4.008109890695173427e-01,-1.178830143173861522e+01,4.902708372891025235e+00,8.681981808693076674e-01,5.423850268945788061e-02,-4.932424389277091925e-01,1.421041932403123383e+03
-9.723684323475000335e-01,-1.175313530832423758e+01,5.072072460075919942e+00,9.990993339585199084e-01,0.000000000000000000e+00,-4.240897172840243229e-02,1.423200303365853415e+03
-1.306771696268892224e+00,-1.173230483472224783e+01,5.241098182642192072e+00,9.990993332535061944e-01,-0.000000000000000000e+00,-4.240897169847657883e-02,1.424565034103077778e+03
-2.291913290813423654e+00,-1.169235351883589047e+01,6.193647922214799095e+00,9.112920298020296128e-01,-0.000000000000000000e+00,-4.117582256856600620e-01,1.429304558041719474e+03
-3.016741673795540812e+00,-1.171115547646883392e+01,7.568640837341874317e+00,6.921409340576635261e-01,-0.000000000000000000e+00,-7.217609904965988088e-01,1.434044081980361170e+03
-3.568002839183201491e+00,-1.178010606625924872e+01,8.999118881174654305e+00,3.732322378479120961e-01,-0.000000000000000000e+00,-9.277368682078998008e-01,1.438783605919002866e+03
-4.030941469372291586e+00,-1.188955469753430982e+01,1.011812064321311588e+01,5.299993955616641179e-04,-0.000000000000000000e+00,-9.999988595503095379e-01,1.443523129857644562e+03
-4.469671189720341609e+00,-1.202534293102072027e+01,1.068568457029472718e+01,1.229941160459442490e-01,1.331923900591184921e-02,-9.923170084661955270e-01,1.448262653796286259e+03
-4.892528788785687865e+00,-1.216140581298883028e+01,1.072237079926645009e+01,2.435845226287534360e-01,2.643557079344314650e-02,-9.695183035578514019e-01,1.452845841268543381e+03
-5.328399432003290137e+00,-1.228197947813947799e+01,1.036940296005619899e+01,3.604641649203297882e-01,3.914918334218162738e-02,-9.319500669312976715e-01,1.457585365207185077e+03
-5.759474489342123249e+00,-1.235701330507886020e+01,9.756497005037573444e+00,4.718525205328992778e-01,5.126639988015880417e-02,-8.801846142210779655e-01,1.462324889145826774e+03
-6.178984633067478249e+00,-1.236112230937676415e+01,9.024740749619688529e+00,5.760527215320714323e-01,6.260262915347582224e-02,-8.150105354165888549e-01,1.467064413084468470e+03
-6.569689215623507828e+00,-1.227281858802073344e+01,8.327039358986978002e+00,6.714774025829297610e-01,7.298517727846555447e-02,-7.374206816462007819e-01,1.471714136304197154e+03
-6.933232394227665907e+00,-1.206378461768244570e+01,7.776200477528480981e+00,7.566728811008494038e-01,8.225587836747591530e-02,-6.485970409135887182e-01,1.476453660242838851e+03
-7.236120683696347200e+00,-1.172687649112763886e+01,7.470559087811915688e+00,7.565508081958706166e-01,7.093024154360394462e-02,-6.500752075122054885e-01,1.481193184181480547e+03
-7.327654929616852719e+00,-1.158157630763906276e+01,7.414731946045036715e+00,7.563300280536072728e-01,5.959535368059277333e-02,-6.514685583001045277e-01,1.482896858624605102e+03
-7.501090038413867234e+00,-1.114206315142776127e+01,7.351877739306500459e+00,7.560105694927065079e-01,4.825269183501382231e-02,-6.527769117512787211e-01,1.487636382563246798e+03
-7.508934070105867775e+00,-1.066874605139517307e+01,7.389868552994613538e+00,7.555924741555178903e-01,3.690373407239449371e-02,-6.540000973856894273e-01,1.492375906501888494e+03
-7.312770658171552363e+00,-1.021008662517504995e+01,7.443541848692515117e+00,7.550757964904738495e-01,2.554995927611568990e-02,-6.551379557806323861e-01,1.497115430440530190e+03
-6.894194803341255451e+00,-9.785325073169127919e+00,7.448088079509192383e+00,6.590534516584888314e-01,1.078671533496725621e-01,-7.443193031803649884e-01,1.501854954379171886e+03
-6.263274091025003543e+00,-9.354552211407426654e+00,7.379408626742273825e+00,5.472469119253028369e-01,1.876009636281161796e-01,-8.156743810096410696e-01,1.506594478317813582e+03
-6.169527990816727758e+00,-9.296913025879520731e+00,7.365697993731980198e+00,4.223338967758962226e-01,2.628417910506486432e-01,-8.674942492676822603e-01,1.507199925270739413e+03
-5.339333407318859415e+00,-8.785434193974213102e+00,7.217611918304821295e+00,2.873060232881916587e-01,3.317876362785645017e-01,-8.985378196802467077e-01,1.511939449209381110e+03
-4.320995598172899577e+00,-8.119237993377778295e+00,6.988347930197965852e+00,1.453971637443779996e-01,3.927872558892319677e-01,-9.080615818249158089e-01,1.516678973148022806e+03
-3.110659975020606094e+00,-7.228451365289217279e+00,6.674176478053190920e+00,5.999996079955432846e-06,4.443797096684325432e-01,-8.958374147125192088e-01,1.521418497086664502e+03
-1.722280619499922727e+00,-6.108582268265471349e+00,6.329622028929146715e+00,-6.892361564629416459e-02,3.032589350963585395e-01,-9.504112549255870901e-01,1.526158021025306198e+03
-2.268731919441765998e-01,-4.885419432543637974e+00,6.125708297350788811e+00,-1.359478282856954878e-01,1.537547175801981247e-01,-9.787112315720272182e-01,1.530897544963947894e+03
5.115514873967176301e-01,-4.297492923862246350e+00,6.124993907611376187e+00,-1.992138028046138709e-01,0.000000000000000000e+00,-9.799550299737879167e-01,1.533202039012903697e+03
1.975699512031493965e+00,-3.202399925615190046e+00,6.349835755191959308e+00,-2.261111923961007242e-01,-3.336700736000211213e-06,-9.741004715332521879e-01,1.537941562951545393e+03
3.308528433309589012e+00,-2.312215615189877393e+00,6.699315350140092384e+00,-2.528372398749176297e-01,-6.670872215359156851e-06,-9.675077932849946993e-01,1.542681086890187089e+03
4.448903287014041474e+00,-1.652314238545165237e+00,6.816690434378846142e+00,-2.793717055426080398e-01,-9.999989460024915751e-06,-9.601819879695102644e-01,1.547420610828828785e+03
5.352747370214666844e+00,-1.226069950496270433e+00,6.464398172269054221e+00,-4.174208601670152397e-01,-4.870812129515212502e-02,-9.074058322593331338e-01,1.552160134767470481e+03
6.012952460804418031e+00,-9.948133992669533354e-01,5.653172541694718056e+00,-5.453623943448625555e-01,-9.622680042936179734e-02,-8.326573495229006028e-01,1.556853654352434432e+03
6.466493491572102847e+00,-8.936218639922601792e-01,4.486518667047955766e+00,-6.600982835175851493e-01,-1.414154021128204430e-01,-7.377465283844331090e-01,1.561593178291076129e+03
6.736870965375038267e+00,-8.660734817530117979e-01,3.089831300161682837e+00,-7.588502663756157007e-01,-1.831797117357061577e-01,-6.249715724981701470e-01,1.566332702229717825e+03
6.863811639555558841e+00,-8.522423840104872417e-01,1.583136805352908016e+00,-8.392271171940380858e-01,-2.205084303710583560e-01,-4.970632534215943532e-01,1.571072226168359521e+03
6.894853865760029343e+00,-7.927338518784236010e-01,8.646843121455798087e-02,-8.992825476681939323e-01,-2.524976624067060693e-01,-3.571187896749914437e-01,1.575811750107001217e+03
6.885344104186256864e+00,-6.287787056848619383e-01,-1.280141176161937455e+00,-9.375623362859477616e-01,-2.783728029358326639e-01,-2.085268523807997931e-01,1.580551274045642913e+03
6.884325731742487520e+00,-3.246229243843581913e-01,-2.431625207961993329e+00,-9.513945217022982126e-01,-2.613034568607279784e-01,-1.629937652400219872e-01,1.585290797984284609e+03
6.916414946238256256e+00,1.103283701813951578e-01,-3.352845748506648960e+00,-9.627949804715556503e-01,-2.435662319670202913e-01,-1.170440781240429245e-01,1.590030321922926305e+03
6.989886128119273678e+00,6.441434316327375731e-01,-4.063636979870761223e+00,-9.717345744423043774e-01,-2.252064638826337395e-01,-7.079523613038077312e-02,1.594769845861568001e+03
7.105890619077908532e+00,1.232834080599880755e+00,-4.575956120540320526e+00,-9.781904552401424757e-01,-2.062710793567109624e-01,-2.436544885756556852e-02,1.599420980298763425e+03
7.268658446028589459e+00,1.867052504521253153e+00,-4.928949248636846470e+00,-9.821461226461783989e-01,-1.868084763200783538e-01,2.212661171649782724e-02,1.604160504237405121e+03
7.472290653437427821e+00,2.504703833426622950e+00,-5.130718714838028660e+00,-9.835914667530744060e-01,-1.668684001871975631e-01,6.856211453539215461e-02,1.608900028176046817e+03
7.708172762315331994e+00,3.113867018735268832e+00,-5.201143583740003962e+00,-9.825227937909903897e-01,-1.465018167155567042e-01,1.148223731695863781e-01,1.613639552114688513e+03
7.963449126099753528e+00,3.662751359818392505e+00,-5.160111116969089196e+00,-9.789428355577551866e-01,-1.257607817473111456e-01,1.607891491506289461e-01,1.618379076053330209e+03
8.221023855770157596e+00,4.119747758509285873e+00,-5.027515532549626798e+00,-9.728607424294133388e-01,-1.046983081659189491e-01,2.063449541593736225e-01,1.623118599991971905e+03
8.459562042001349980e+00,4.453479961173530732e+00,-4.823256762931182884e+00,-9.642920599691754413e-01,-8.336823040760645009e-02,2.513733502964355382e-01,1.627858123930613601e+03
8.462967423860337846e+00,4.457515242109612252e+00,-4.819666798176895028e+00,-9.532586891946268626e-01,-6.182506687372768539e-02,2.957592476679769544e-01,1.627930488279329211e+03
8.656725976578449888e+00,4.636577788565593217e+00,-4.563777933025535916e+00,-9.397888306047268436e-01,-4.012388059542765922e-02,3.393891985267892819e-01,1.632670012217970907e+03
8.775605075734462801e+00,4.630052013842361092e+00,-4.276341895409614402e+00,-9.239169121095396342e-01,-1.832013850647670056e-02,3.821516872174178236e-01,1.637409536156612603e+03
8.785498434787095690e+00,4.407573487201605467e+00,-3.977268332879392077e+00,-9.056835010467008118e-01,3.530430316305735710e-03,4.239374151847770111e-01,1.642149060095254299e+03
8.648068640314077626e+00,3.939216178496245391e+00,-3.686467628214049608e+00,-8.851352005091986941e-01,2.537197708297864521e-02,4.646395803182720718e-01,1.646888584033895995e+03
8.353073037344008966e+00,3.214952103905142522e+00,-3.411875413600396811e+00,-9.265938726659593838e-01,1.890511658740671314e-02,3.755853986838720848e-01,1.651628107972537691e+03
7.954195904040031628e+00,2.263571870477439685e+00,-3.137477831838441311e+00,-9.590726347763669501e-01,1.225504150803632085e-02,2.828913133707590677e-01,1.656367631911179387e+03
7.541983671679458823e+00,1.132463479568060594e+00,-2.835286779340999264e+00,-9.822567295510813423e-01,5.486199306257567680e-03,1.874556450701408972e-01,1.661107155849821083e+03
7.213269164786257903e+00,-1.321273450796215110e-01,-2.477315895314662786e+00,-9.959214744958896359e-01,-1.335811603545165134e-03,9.020328289531399923e-02,1.665846679788462779e+03
7.097373874410497052e+00,-7.900524923264328203e-01,-2.274738702245306499e+00,-9.999344391677761346e-01,-8.144877524965895427e-03,-7.923278108103145104e-03,1.668192500195069670e+03
7.038594206564060762e+00,-2.150461264278647810e+00,-1.793215231742228744e+00,-9.942567286652214120e-01,-1.487501014482600636e-02,-1.059730700534724790e-01,1.672932024133711366e+03
7.332486855762306632e+00,-3.533900843664410818e+00,-1.186105902960479908e+00,-9.789433609085624877e-01,-2.146098598945257035e-02,-2.029958674765814375e-01,1.677671548072353062e+03
7.981648037654084149e+00,-4.886774334689367727e+00,-4.729170992745689306e-01,-9.881887665784910846e-01,-1.246426770820981828e-02,-1.527272196818133532e-01,1.682411072010994758e+03
8.764693755442836576e+00,-6.131208096181944178e+00,2.318915183700091531e-01,-9.947726210873992780e-01,-3.433982573930053142e-03,-1.020472444118730726e-01,1.687150595949636454e+03
9.355514930850086230e+00,-7.174287393451229455e+00,7.663874712148112112e-01,-9.986771958530878956e-01,5.605549818093264608e-03,-5.109242886946852025e-02,1.691890119888278150e+03
9.526882326305965876e+00,-7.785701738691931162e+00,9.703260303493970174e-01,-9.998919759312849820e-01,1.462998501627144066e-02,-0.000000000000000000e+00,1.695395039387796714e+03
9.508968813714306023e+00,-8.102443950226858149e+00,9.908709852124854001e-01,-9.998919752291055563e-01,1.462998500599745587e-02,-0.000000000000000000e+00,1.697554481633690330e+03
9.093486724714995972e+00,-8.587188775578075806e+00,6.055978911645926166e-01,-9.921057799752130979e-01,1.241326119936820016e-01,-1.775432280893648671e-02,1.702294005572332026e+03
8.264454072342356739e+00,-8.773999833784785096e+00,-3.212415492214762414e-01,-9.720505313854258533e-01,2.321000767534356080e-01,-3.528907484964937530e-02,1.707033529510973722e+03
7.339871968884822628e+00,-8.754142989056104440e+00,-1.541718435261607567e+00,-9.399742560891498622e-01,3.371972075189587637e-01,-5.238741385665832834e-02,1.711773053449615418e+03
6.625043183616967646e+00,-8.622674702859109530e+00,-2.807885625914868566e+00,-8.962736280298769787e-01,4.381243293415412188e-01,-6.883789462644911150e-02,1.716512577388257114e+03
6.308995955459072214e+00,-8.451864515809436540e+00,-3.936385845638582293e+00,-9.373342285660375417e-01,3.375672101772523859e-01,8.631872666740453282e-02,1.721252101326898810e+03
6.293729558393166279e+00,-8.421795115127677533e+00,-4.109041602686137828e+00,-9.447713779875700491e-01,2.249010814243981582e-01,2.383789984694224540e-01,1.722050196206074588e+03
6.351710434666557603e+00,-8.231451976145606864e+00,-5.037291933949101796e+00,-9.183182815387938014e-01,1.041674259868666103e-01,3.818883097928602033e-01,1.726789720144716284e+03
6.629650168351012063e+00,-8.015385498526704566e+00,-5.785911842712579300e+00,-8.589238348496222031e-01,-2.030287467497611520e-02,5.116987778064099324e-01,1.731529244083357980e+03
6.998292138032280896e+00,-7.765816764383854043e+00,-6.365355137499143723e+00,-7.687185899005269940e-01,-1.440448951611679740e-01,6.231539117430768826e-01,1.736268768021999676e+03
7.329674728277129958e+00,-7.473401256629570000e+00,-6.786086237106823127e+00,-6.509383317772365896e-01,-2.626198307780089891e-01,7.122556512282056662e-01,1.741008291960641372e+03
7.497140755950668201e+00,-7.127244569002091801e+00,-7.058579522294036401e+00,-5.098080068121777497e-01,-3.717742263648517453e-01,7.758077859897741790e-01,1.745747815899283069e+03
7.504746566374228323e+00,-7.070310685134493234e+00,-7.088529385803082228e+00,-3.503901657112631907e-01,-4.675925566558170043e-01,8.115306110889058955e-01,1.746463670349502991e+03
7.366120099842707880e+00,-6.655679075790956745e+00,-7.218657186344920262e+00,-1.784033589316588453e-01,-5.466376839328307424e-01,8.181427039508405441e-01,1.751203194288144687e+03
6.795499554265735931e+00,-6.159113643561388685e+00,-7.223108218400464686e+00,-1.699997626480353034e-05,-6.060741538053411315e-01,7.954068894608732343e-01,1.755942718226786383e+03
5.808527222551412628e+00,-5.592989503127693496e+00,-7.097054837313169884e+00,-3.174156238471469438e-01,-5.833892234724128434e-01,7.475977097849199060e-01,1.760682242165428079e+03
4.693501519011525680e+00,-5.026519909618119009e+00,-6.805020171877738555e+00,-6.019483181530416172e-01,-5.002987406356926847e-01,6.223804241719608221e-01,1.765421766104069775e+03
4.249367106356715773e+00,-4.797923741592084568e+00,-6.624404690078779190e+00,-8.241538594725047462e-01,-3.654060487723821415e-01,4.327202738932152126e-01,1.767459462774772419e+03
3.588842373486438753e+00,-4.374880370560358500e+00,-6.039931660351695264e+00,-9.610244581931659535e-01,-1.926782403640255048e-01,1.982551044629309311e-01,1.772198986713414115e+03
3.550600426839473744e+00,-4.336707148940349477e+00,-5.954391733518425767e+00,-9.983881034639606744e-01,-0.000000000000000000e+00,-5.673794905025816154e-02,1.772761650686703206e+03
3.350095953372612900e+00,-4.177445504604368587e+00,-4.863681045725397389e+00,-0.000000000000000000e+00,-7.954506429652810073e-01,6.060167279919074224e-01,1.777501174625344902e+03
3.358771638720206454e+00,-4.382647120579968636e+00,-3.412358633721837453e+00,-7.210981958187557828e-01,-5.750716144384162565e-01,3.864039728761088366e-01,1.782240698563986598e+03
3.378390841210368478e+00,-4.453363468117133905e+00,-3.171803218365317534e+00,-9.974370922968400777e-01,-0.000000000000000000e+00,-7.153493490066997751e-02,1.783047247139391402e+03
3.849089601038590214e+00,-5.059910086233641024e+00,-2.416303931359633062e+00,-9.937228025369038154e-01,1.821895828463063194e-02,1.103678453052341496e-01,1.787786771078033098e+03
