3.887719266047429123e+00,1.275371425814096504e+01,-9.220894112087863803e+00,-4.822622571119882240e-01,1.313145414164163249e-01,8.661279389208698110e-01,9.351973800189742292e+01
4.207452633166608003e+00,1.262584438140450871e+01,-8.576819551894100613e+00,-5.367095707810943805e-01,1.516331246029972435e-01,8.300290550074360674e-01,9.510853844228805087e+01
4.507396651410388699e+00,1.249344993569930651e+01,-7.905565912115045890e+00,-5.886448212658882406e-01,1.712419908787092826e-01,7.900452233626342746e-01,9.669733888267867883e+01
4.783652702638693910e+00,1.235391718544532580e+01,-7.212278369279339962e+00,-6.378249268744961009e-01,1.900493614616348692e-01,7.463635862412140165e-01,9.828613932306930678e+01
5.032292886377280894e+00,1.220465472834503018e+01,-6.502102254047869678e+00,-6.840197008926774958e-01,2.079672088167840993e-01,6.991885931912854568e-01,9.987493976345993474e+01
5.249360076061072355e+00,1.204309364298353913e+01,-5.780183015206938002e+00,-7.270129289257662997e-01,2.249116686481305305e-01,6.487410442400828314e-01,1.014637402038505627e+02
5.431335884981167261e+00,1.186717225323514313e+01,-5.051428424122034855e+00,-9.246034767262547582e-01,-1.743419773614379165e-01,3.386905457147098009e-01,1.030525406442411906e+02
5.596407392299044936e+00,1.162786380680116416e+01,-4.155548157647990237e+00,-8.498265231567917466e-01,-5.222387069684532035e-01,-7.113096008795406766e-02,1.050000257257920424e+02
5.687974799069694498e+00,1.135916097147863901e+01,-3.264648444540304340e+00,-9.225027107052581332e-01,-3.820525499434559435e-01,-5.497815768559451838e-02,1.069475108073428942e+02
5.707367365080202148e+00,1.109291898338245552e+01,-2.472567235743816649e+00,-9.719364694593536358e-01,-2.322406754257876627e-01,-3.744019247301075964e-02,1.087028936583431147e+02
5.668776497840332773e+00,1.080713154212413585e+01,-1.696277525400992969e+00,-9.968823582192178900e-01,-7.657756097871246115e-02,-1.895892997445768405e-02,1.104582765093433352e+02
5.571953278013699773e+00,1.050477569165038361e+01,-9.410046638708290390e-01,-9.967118863751273095e-01,8.101490948214877530e-02,-0.000000000000000000e+00,1.122136593603435557e+02
5.417737798028954721e+00,1.018914320891170533e+01,-2.109197823388465898e-01,-9.935909064848896799e-01,8.139279809092614393e-02,-7.842399486575242495e-02,1.139690422113437762e+02
5.209120980418657787e+00,9.864144920814258199e+00,4.919142823760463967e-01,-9.843491894992110192e-01,8.126928927329975239e-02,-1.563648801825682499e-01,1.157244250623439967e+02
4.991081594976498614e+00,9.579894010786658143e+00,1.076430736489972562e+00,-9.690436666902570995e-01,8.064514388862012439e-02,-2.333425225199094455e-01,1.172373069545191839e+02
4.742843596820979002e+00,9.294740313250189345e+00,1.642141222320925298e+00,-9.477686238613035608e-01,7.952420684081119850e-02,-3.088827223262657351e-01,1.187501888466943711e+02
4.466722756798044536e+00,9.010983363963047665e+00,2.188484553676209643e+00,-9.206551204992963200e-01,7.791338339109914191e-02,-3.825201351410187911e-01,1.202630707388695583e+02
4.165057293343981115e+00,8.730910034034181422e+00,2.714899667263532823e+00,-8.878701823842151120e-01,7.582259661745806290e-02,-4.538011382495300561e-01,1.217759526310447455e+02
3.840207842033294128e+00,8.456794422643316267e+00,3.220825626246428985e+00,-8.496157726316143632e-01,7.326472628303362655e-02,-5.222866251204036914e-01,1.232888345232199327e+02
3.494557424911887367e+00,8.190897749883832901e+00,3.705701623799096289e+00,-8.061275475093008236e-01,7.025552949030966499e-02,-5.875547104092730955e-01,1.248017164153951200e+02
3.130511419615682023e+00,7.935468249729308532e+00,4.168966986660594287e+00,-7.576734046951907331e-01,6.681354361001122510e-02,-6.492033288649762257e-01,1.263145983075703072e+02
2.750497528274877368e+00,7.692741063124644008e+00,4.610061178688406258e+00,-7.045518329220857856e-01,6.295997208294094871e-02,-7.068527121281976688e-01,1.278274801997454944e+02
2.356965746204011225e+00,7.464938131202556448e+00,5.028423804411353615e+00,-6.470900731785629301e-01,5.871855379845413586e-02,-7.601477281655009133e-01,1.293403620919206674e+02
1.952388330377996972e+00,7.254268088626332656e+00,5.423494612581831298e+00,-5.856421027958264025e-01,5.411541685443719413e-02,-8.087600689284755173e-01,1.308532439840958546e+02
1.539259767694310277e+00,7.062926157059671084e+00,5.794713499727351724e+00,-5.205864548410971127e-01,4.917891759984553690e-02,-8.523902727632276521e-01,1.323661258762710418e+02
1.120096743021508301e+00,6.893094038764470355e+00,6.141520513701365758e+00,-4.523238862522119264e-01,4.393946595148573442e-02,-8.907695691138756144e-01,1.338790077684462290e+02
6.974381070342553501e-01,6.746939810327395648e+00,6.463355857233391788e+00,-3.812749090793531859e-01,3.842933806123980528e-02,-9.236615341587349759e-01,1.353918896606214162e+02
2.738448438350505332e-01,6.626617816516080950e+00,6.759659891478412952e+00,-3.078772000425074040e-01,3.268247748780536005e-02,-9.508635471827900920e-01,1.369047715527966034e+02
-1.480999616371810601e-01,6.534268564265810930e+00,7.029873139565524731e+00,-2.325829043622278658e-01,2.673428609778935594e-02,-9.722080387175837668e-01,1.384176534449717906e+02
-5.657911564114618264e-01,6.472018616797551971e+00,7.273436290145797400e+00,-1.558558504719395055e-01,2.062140598421018101e-02,-9.875635227623282830e-01,1.399305353371469778e+02
-9.766015525018987287e-01,6.441980487868159244e+00,7.489790200939316911e+00,-7.816869276843597947e-02,1.438149374574877910e-02,-9.968354067298987875e-01,1.414434172293221650e+02
-1.391817151899822802e+00,6.447723044682518889e+00,7.684091136463671923e+00,-0.000000000000000000e+00,8.052988517103476865e-03,-9.999665741302532496e-01,1.430104589938938489e+02
-1.793079215299402618e+00,6.493492482494992224e+00,7.848313893230109528e+00,1.984795552643255426e-02,-2.502312411574146231e-02,-9.994888203086398359e-01,1.445775007584655327e+02
-2.176397819854541726e+00,6.580396154211122450e+00,7.985916052674345345e+00,3.966637210066471797e-02,-5.806199530753911042e-02,-9.975236255981020372e-01,1.461445425230372166e+02
-2.537472763396882769e+00,6.709095045255309309e+00,8.101721848561583172e+00,5.942575608357240219e-02,-9.101445682225073330e-02,-9.940739148395347780e-01,1.477115842876089005e+02
-2.871995892480396328e+00,6.880226157376808871e+00,8.200555662981081184e+00,7.909670170042037984e-02,-1.238314690392284950e-01,-9.891448220846599249e-01,1.492786260521805843e+02
-3.175651161110174758e+00,7.094402469037368597e+00,8.287241993494578907e+00,9.864993479936944032e-02,-1.564641939287245986e-01,-9.827436829527518292e-01,1.508456678167522682e+02
-3.445499716298249027e+00,7.351395842707274753e+00,8.365509570576982412e+00,1.180563564139884697e-01,-1.888640677271934687e-01,-9.748800237121687529e-01,1.524127095813239521e+02
-3.681376630816648454e+00,7.649330367564501465e+00,8.436895482518490752e+00,1.372870860649880176e-01,-2.209828732043121191e-01,-9.655655471025326175e-01,1.539797513458956360e+02
-3.884523374141040541e+00,7.985515097585945909e+00,8.501841014664476504e+00,1.563135047367802954e-01,-2.527728114142484550e-01,-9.548141149186625265e-01,1.555467931104673198e+02
-4.056208599496975431e+00,8.357266436605934601e+00,8.560787496116990525e+00,1.751072974649543479e-01,-2.841865728244751810e-01,-9.426417273821817711e-01,1.571138348750390037e+02
-4.197728124670105032e+00,8.761908272915288620e+00,8.614176296728837556e+00,1.936404954713352999e-01,-3.151774077163534971e-01,-9.290664993314886599e-01,1.586808766396106876e+02
-4.311133592845530771e+00,9.200709121743363639e+00,8.662819344288525514e+00,2.118855177839669979e-01,-3.456991957527928983e-01,-9.141086332655016244e-01,1.602612433546739510e+02
-4.396370909369778701e+00,9.667749433700747019e+00,8.706673528303852549e+00,2.298152122801234709e-01,-3.757065146095286412e-01,-8.977903892812639786e-01,1.618416100697372144e+02
-4.454864696670250979e+00,1.016028550316964463e+01,8.746195328580597561e+00,2.474028960913110531e-01,-4.051547075679520216e-01,-8.801360519501076896e-01,1.634219767848004778e+02
-4.488067827055795433e+00,1.067558199406239261e+01,8.781841254824531262e+00,2.646223953101696225e-01,-4.339999499689659035e-01,-8.611718941816207673e-01,1.650023434998637413e+02
-4.497461401058250097e+00,1.121091208096937031e+01,8.814067843479389097e+00,2.814480839402158652e-01,-4.621993144290285072e-01,-8.409261381291346371e-01,1.665827102149270047e+02
-4.484554725478622217e+00,1.176355759021520875e+01,8.843331654564702049e+00,2.978549220304967937e-01,-4.897108347213858237e-01,-8.194289131948488958e-01,1.681630769299902681e+02
-4.450885291138048316e+00,1.233080914082206370e+01,8.870089268513492442e+00,3.138184929384293942e-01,-5.164935682274721662e-01,-7.967122111970159626e-01,1.697434436450535316e+02
-4.398018750333640980e+00,1.290996628537872937e+01,8.894797283009879152e+00,3.293150396653934386e-01,-5.425076568655753384e-01,-7.728098387658244306e-01,1.713238103601167950e+02
-4.327548893999370705e+00,1.349833765081434223e+01,8.917912309826574457e+00,3.443215002110234235e-01,-5.677143864061273693e-01,-7.477573670387459570e-01,1.729041770751800584e+02
-4.241097628572119582e+00,1.409324107907547408e+01,8.939890971662322272e+00,3.588155418935968788e-01,-5.920762440853672981e-01,-7.215920787301187689e-01,1.744845437902433218e+02
-4.140331164927184560e+00,1.469202872065015164e+01,8.960946183687937605e+00,3.261238091665379923e-01,-5.983834238621090762e-01,-7.318323162737410126e-01,1.760649105053065853e+02
-4.026975849119568629e+00,1.529211225036574717e+01,8.980803436780147919e+00,2.930363611846212857e-01,-6.039645280424834617e-01,-7.411845518431734448e-01,1.776452772203698487e+02
-3.902801388776356628e+00,1.589093823618495627e+01,8.998944514713794973e+00,2.595933459443491298e-01,-6.088127846805938548e-01,-7.496374376668961670e-01,1.792256439354331121e+02
-3.769604436667940206e+00,1.648596338298149533e+01,9.014851213041801259e+00,2.258353428610545555e-01,-6.129223110491396342e-01,-7.571807172227503768e-01,1.808060106504963755e+02
-3.629208565201495151e+00,1.707465466733185977e+01,9.028005342683789181e+00,1.918033135327638639e-01,-6.162881207760494418e-01,-7.638052376811473865e-01,1.823863773655596390e+02
-3.490061210257099145e+00,1.762915437572853605e+01,9.037596961165462517e+00,1.575385520405528095e-01,-6.189061298936551214e-01,-7.695029610092630756e-01,1.838965192883133568e+02
-3.347723154851317329e+00,1.817380324467022490e+01,9.043893916310304704e+00,1.230826348456841302e-01,-6.207731617931020462e-01,-7.742669737227949600e-01,1.854066612110670746e+02
-3.203782621416155330e+00,1.870651335302392582e+01,9.046463213981146723e+00,8.847737034428532210e-02,-6.218869510779986287e-01,-7.780914952734651058e-01,1.869168031338207925e+02
-3.059849221758950577e+00,1.922520539192200673e+01,9.044871883523237344e+00,5.376474814073870651e-02,-6.222461463126371939e-01,-7.809718850621093500e-01,1.884269450565745103e+02
-2.917553936572778728e+00,1.972780876707405895e+01,9.038686980502159685e+00,1.898688810129652016e-02,-6.218503116614556570e-01,-7.829046480688471865e-01,1.899370869793282282e+02
-2.778549094741615821e+00,2.021226170099616581e+01,9.027475589441651849e+00,-1.581401075030107808e-02,-6.206999274177608106e-01,-7.838874390935167691e-01,1.914472289020819460e+02
-2.644508352440376076e+00,2.067651133515682105e+01,9.010804826561289005e+00,-5.059572143323603360e-02,-6.187963894210655180e-01,-7.839190656012282599e-01,1.929573708248356638e+02
-2.517126672029935897e+00,2.111851383203861943e+01,8.988241842514009150e+00,-8.531604024396619024e-02,-6.161420073637511319e-01,-7.829994891695866155e-01,1.944675127475893817e+02
-2.398120300747256461e+00,2.153623447711495231e+01,8.959353825123498538e+00,-1.199328379623955249e-01,-6.127400019891026117e-01,-7.811298255358239961e-01,1.959776546703430995e+02
-2.289226749190732324e+00,2.192764778074091581e+01,8.923708002121379934e+00,-1.544041109677668500e-01,-6.085945011841122909e-01,-7.783123432437816236e-01,1.974877965930968173e+02
-2.192204769600873515e+00,2.229073757995755045e+01,8.880871643884219679e+00,-1.886880322022950474e-01,-6.037105349717799552e-01,-7.745504608923696743e-01,1.989979385158505352e+02
-2.108834333936448147e+00,2.262349714020867708e+01,8.830412066170335805e+00,-2.227430019207359002e-01,-5.980940294089788223e-01,-7.698487429888369871e-01,2.005080804386042530e+02
-2.040916611746208975e+00,2.292392925696947614e+01,8.771896632856384102e+00,-2.565276981643504484e-01,-5.917517993972735146e-01,-7.642128944118629086e-01,2.020182223613579708e+02
-1.990273947836321389e+00,2.319004635728599339e+01,8.704892758673716813e+00,-2.900011268980501322e-01,-5.846915404154006124e-01,-7.576497534911739162e-01,2.035283642841116887e+02
-1.958749839733615827e+00,2.341987060122480457e+01,8.628967911944503300e+00,-3.231226717499197654e-01,-5.769218191834223353e-01,-7.501672837120598736e-01,2.050385062068654065e+02
-1.948208914944791870e+00,2.361143398323200415e+01,8.543689617317603791e+00,-3.558521432927905237e-01,-5.684520632698635279e-01,-7.417745640548345509e-01,2.065486481296191243e+02
-1.960536908011695667e+00,2.376277843340067975e+01,8.448625458504164243e+00,-3.881498278080903752e-01,-5.592925496544206565e-01,-7.324817779809349449e-01,2.080587900523728422e+02
-2.002080299122708240e+00,2.387609026939810875e+01,8.335481276005744178e+00,-4.199765354728211553e-01,-5.494543922600975128e-01,-7.223002010789976168e-01,2.096707596792464301e+02
-2.074647206993965654e+00,2.393623276443340586e+01,8.209490497491424676e+00,-1.294010743361807547e-01,-5.992516874889408651e-01,-7.900321366902033349e-01,2.112827293061200180e+02
-2.176004388484612750e+00,2.394244169028777236e+01,8.070383063864426276e+00,1.730147582869359657e-01,-5.942164588185467888e-01,-7.854748204016575031e-01,2.128946989329936059e+02
-2.302342036788127544e+00,2.389451863928801600e+01,7.917985405254944986e+00,4.595995113955018141e-01,-5.348094314391391713e-01,-7.090452462074303686e-01,2.145066685598671938e+02
-2.449853866469853703e+00,2.379224269130845926e+01,7.752124047448075927e+00,4.886031448440830149e-01,-5.546216120546998418e-01,-6.735427486739613556e-01,2.161186381867407817e+02
-2.615408687611947336e+00,2.363595227106788244e+01,7.572921389125580660e+00,5.163881206062458373e-01,-5.730504741844442140e-01,-6.363603247647567906e-01,2.177306078136143697e+02
-2.797213473652584437e+00,2.342713218691903165e+01,7.381091476975995214e+00,5.428851385968223031e-01,-5.900500533862655939e-01,-5.975907134406943655e-01,2.193425774404879576e+02
-2.994129128977176979e+00,2.316783952944970437e+01,7.177644224562222064e+00,5.680281110850071702e-01,-6.055779500541840221e-01,-5.573306123176429150e-01,2.209545470673615455e+02
-3.204994744182056987e+00,2.286012432732730204e+01,6.963589629057473473e+00,5.917543275216134990e-01,-6.195954351654459069e-01,-5.156804364939292507e-01,2.225665166942351334e+02
-3.415504583697148711e+00,2.252822090807294586e+01,6.752935899444997503e+00,6.140046109438028754e-01,-6.320675468734066049e-01,-4.727440681067912043e-01,2.240880029226550221e+02
-3.635874497747442646e+00,2.215894047577773662e+01,6.534990546785236276e+00,6.347234655674028891e-01,-6.429631777054481967e-01,-4.286285972423875545e-01,2.256094891510749108e+02
-3.865130880318823792e+00,2.175389496985643945e+01,6.310557812781012466e+00,6.538592151988021905e-01,-6.522551521485164816e-01,-3.834440548453685316e-01,2.271309753794947994e+02
-4.102283817678268996e+00,2.131469070737055205e+01,6.080441980710964422e+00,6.713641321212908686e-01,-6.599202944287987371e-01,-3.373031382939402634e-01,2.286524616079146881e+02
-4.346327102714430346e+00,2.084292830451267520e+01,5.845447370269120313e+00,6.871945561344431352e-01,-6.659394863165046807e-01,-2.903209303246466200e-01,2.301739478363345768e+02
-4.596238249436662038e+00,2.034020259814938569e+01,5.606378332404314158e+00,7.013110034496757850e-01,-6.702977148115681905e-01,-2.426146120076677903e-01,2.316954340647544655e+02
-4.850978507632410341e+00,1.980810256742321585e+01,5.364039244159418018e+00,7.136782651703841296e-01,-6.729841095912906246e-01,-1.943031704882758337e-01,2.332169202931743541e+02
-5.109492877682882295e+00,1.924821125541440026e+01,5.119234503510453393e+00,7.242654951110107930e-01,-6.739919701264712737e-01,-1.455071022231477496e-01,2.347384065215942428e+02
-5.370710125536889201e+00,1.866210569086297610e+01,4.872768524205594254e+00,7.330462867359625045e-01,-6.733187823983054487e-01,-9.634811245148323933e-02,2.362598927500141315e+02
-5.633542797842769900e+00,1.805135680995192615e+01,4.625445730604111461e+00,7.399987390264024523e-01,-6.709662251742529726e-01,-4.694881165028084308e-02,2.377813789784340202e+02
-5.896887237238339630e+00,1.741752937815194713e+01,4.378070552515255009e+00,7.451055111105355788e-01,-6.669401658271010280e-01,2.567590269329712849e-03,2.393028652068539088e+02
-6.159623597798774775e+00,1.676218191212849007e+01,4.131447420037112295e+00,7.483538655210080215e-01,-6.612506457075105759e-01,5.207759126214162038e-02,2.408243514352737975e+02
-6.420615860642343797e+00,1.608686660171172278e+01,3.886380758395450830e+00,7.497356999713864489e-01,-6.539118551063769491e-01,1.014577051789949114e-01,2.423458376636936862e+02
-6.678711849693870661e+00,1.539312923192999349e+01,3.643674982782594718e+00,7.492475675723040407e-01,-6.449420978692937956e-01,1.505847697587968381e-01,2.438673238921135749e+02
-6.932743247605868575e+00,1.468250910510749030e+01,3.404134493196349975e+00,7.468906854366754722e-01,-6.343637457512095734e-01,1.993362538143297891e-01,2.453888101205334635e+02
-7.181525611837230372e+00,1.395653896302667718e+01,3.168563669279005346e+00,7.426709316523423254e-01,-6.222031826249545539e-01,2.475905628457103214e-01,2.469102963489533522e+02
-7.423858390889424008e+00,1.321674490915613909e+01,2.937766865156443252e+00,7.365988306295064847e-01,-6.084907386826270415e-01,2.952273423192458002e-01,2.484317825773732409e+02
-7.658524940700070616e+00,1.246464633094447549e+01,2.712548404277379532e+00,7.286895268593145403e-01,-5.932606147937857788e-01,3.421277778552244686e-01,2.499532688057931296e+02
-7.891526300589543297e+00,1.167562715550859131e+01,2.486561346100936820e+00,9.955207354021456956e-01,9.453287991603503970e-02,0.000000000000000000e+00,2.515261591115538238e+02
-8.113482498922595099e+00,1.087651913416321747e+01,2.268049659964107345e+00,9.895871733591945496e-01,1.439278510692431623e-01,0.000000000000000000e+00,2.530990494173145180e+02
-8.323847919583160504e+00,1.006945243497878906e+01,2.056485543794047466e+00,9.812043098871008340e-01,1.929665832452480967e-01,0.000000000000000000e+00,2.546719397230752122e+02
-8.522353227391588959e+00,9.256693811299706809e+00,1.850859570875747151e+00,9.703928888839234990e-01,2.415277234467198553e-01,0.000000000000000000e+00,2.562448300288359064e+02
-8.708704227060099612e+00,8.440508375871647928e+00,1.650162273733740914e+00,9.769128538952149832e-01,2.136335083477470254e-01,0.000000000000000000e+00,2.578177203345965722e+02
-8.882581867546194943e+00,7.623159476773332166e+00,1.453384151059587737e+00,9.826311646046371751e-01,1.855639898862600778e-01,0.000000000000000000e+00,2.593906106403572380e+02
-9.043642246665895001e+00,6.806908573367056015e+00,1.259515674639532179e+00,9.875431292009232420e-01,1.573422001971287454e-01,0.000000000000000000e+00,2.609635009461179038e+02
-9.191516615966744297e+00,5.994015112269061696e+00,1.067547296282307157e+00,9.916447173610906107e-01,1.289912963135745883e-01,0.000000000000000000e+00,2.625363912518785696e+02
-9.325811385860600211e+00,5.186736403340814761e+00,8.764694547470331942e-01,9.949325635558181613e-01,1.005345411835595754e-01,0.000000000000000000e+00,2.641092815576392354e+02
-9.446108131016135445e+00,4.387327495702253444e+00,6.852725826712070534e-01,9.974039698086810679e-01,7.199528459899393051e-02,0.000000000000000000e+00,2.656821718633999012e+02
-9.550494426817492055e+00,3.610711151602485902e+00,4.961082183897700948e-01,9.990569079092538329e-01,4.339694405382944764e-02,0.000000000000000000e+00,2.672294485174402894e+02
-9.640735135112420195e+00,2.845847606501386462e+00,3.049223610289846231e-01,9.998900210782709630e-01,1.476298554660309542e-02,0.000000000000000000e+00,2.687767251714806775e+02
-9.716514926942092956e+00,2.094852674863330044e+00,1.109542158562552006e-01,8.808491902946983254e-01,2.673097542801564433e-02,-4.726395655342977564e-01,2.703240018255210657e+02
-9.777787244478584938e+00,1.359861501125315453e+00,-8.618623849906444090e-02,8.586017000741579253e-01,2.421703666549421610e-02,-5.120689951201196077e-01,2.718712784795614539e+02
-9.824628197123159268e+00,6.430196793457422233e-01,-2.867036249017960725e-01,8.345889668483753576e-01,2.165330910737599257e-02,-5.504456291208008611e-01,2.734185551336018420e+02
-9.857090598202301379e+00,-5.352671116706892579e-02,-4.908025437977846517e-01,8.088603593861364294e-01,1.904506358068168773e-02,-5.876905687226433583e-01,2.749658317876422302e+02
-9.875203963527681594e+00,-7.276312202614683144e-01,-6.986875718534383273e-01,7.814687739147881951e-01,1.639766242822902897e-02,-6.237272417184045459e-01,2.765131084416826184e+02
-9.878974510191920189e+00,-1.377147141354615467e+00,-9.105632605953875025e-01,7.524705253870281885e-01,1.371654848636694700e-02,-6.584815598936918368e-01,2.780603850957230065e+02
-9.868102178045429440e+00,-2.006353361041848249e+00,-1.129017456209319148e+00,7.219252317248031625e-01,1.100723389739487364e-02,-6.918820713095650277e-01,2.796243950274525218e+02
-9.842335383680159921e+00,-2.605711010802946426e+00,-1.352015421142134466e+00,6.898956912776850192e-01,8.275288779613358681e-03,-7.238601071689310107e-01,2.811884049591820371e+02
-9.801857863726485931e+00,-3.173203554955811523e+00,-1.579910176193926041e+00,6.564477537470857493e-01,5.526329778247112551e-03,-7.543499229654547777e-01,2.827524148909115524e+02
-9.747333182366936910e+00,-3.707261131896609108e+00,-1.813334059070277338e+00,6.216501848410274089e-01,2.766008520725274887e-03,-7.832888336253912565e-01,2.843164248226410677e+02
-9.682117060610137216e+00,-4.192294171180304119e+00,-2.045525941751037635e+00,5.855745249369939120e-01,0.000000000000000000e+00,-8.106173423649849497e-01,2.858325664139024411e+02
-9.605747791579512196e+00,-4.644433165873156355e+00,-2.284149521422733642e+00,8.010230466218279943e-01,1.680977087608944570e-02,-5.983957807208056812e-01,2.873487080051638145e+02
-9.518992776980397252e+00,-5.062476107208686571e+00,-2.529887491863411775e+00,9.429866597446359133e-01,3.207743219650309452e-02,-3.312781276935125585e-01,2.888648495964251879e+02
-9.422606513558951846e+00,-5.445216603418526091e+00,-2.783422501480403710e+00,9.984418138771008477e-01,4.440234749862993768e-02,-3.376945127337916547e-02,2.903809911876865613e+02
-9.317625605046563564e+00,-5.791748479306858322e+00,-3.045392961064197213e+00,9.623011475947070847e-01,5.265384537069009441e-02,2.668371674009193950e-01,2.918971327789479346e+02
-9.205667972621888850e+00,-6.101768222891374549e+00,-3.316348851824189481e+00,8.378801759393996740e-01,5.607494484992718575e-02,5.429644659909178550e-01,2.934132743702093080e+02
-9.088644112167941103e+00,-6.375267256001204252e+00,-3.596795909772753319e+00,9.053473691449666072e-01,4.153717105648690455e-01,-8.837693841807206518e-02,2.949294159614706814e+02
-8.968464145874243343e+00,-6.612226329312830053e+00,-3.887239810391554862e+00,9.360722153546453539e-01,3.202522752089287938e-01,1.456203552547300495e-01,2.964455575527320548e+02
-8.839714488426698935e+00,-6.822281501168212969e+00,-4.207006677136495121e+00,9.061895982315796294e-01,2.043976334009164064e-01,3.701891672065157901e-01,2.980530021474328919e+02
-8.711833223894272393e+00,-6.988713577655635945e+00,-4.539889540222294961e+00,8.176343202152047684e-01,7.530893738781591074e-02,5.707895254430604970e-01,2.996604467421337290e+02
-8.586372597651163119e+00,-7.112235858525477461e+00,-4.886998287248307093e+00,7.843785636195371724e-01,1.014329603648742861e-01,6.119310610452609600e-01,3.012678913368345661e+02
-8.463185103596769565e+00,-7.195111941161596469e+00,-5.250388891810885639e+00,7.483923528909645073e-01,1.272038900111869819e-01,6.509424371525430741e-01,3.028753359315354032e+02
-8.295140885474991066e+00,-7.237298934116161320e+00,-5.787214980143439824e+00,0.000000000000000000e+00,9.983844631533018710e-01,-5.680196945670642344e-02,3.050836114631876512e+02
-8.123854452354288824e+00,-7.197428177431657303e+00,-6.378641341707552037e+00,4.081438505715209025e-02,9.978246683405279649e-01,5.175052872767943457e-02,3.072918869948398992e+02
-7.996105535423832400e+00,-7.130362116401530947e+00,-6.836621117224703781e+00,8.107982391399500000e-02,9.838443326184724835e-01,1.596069902250729367e-01,3.088811760806968891e+02
-7.863284424516558069e+00,-7.042115789363230682e+00,-7.316787037109895309e+00,1.202547528576992514e-01,9.566314911224695905e-01,2.653167627726186195e-01,3.104704651665538790e+02
-7.715836477949070904e+00,-6.929342775326132298e+00,-7.845621270042290263e+00,1.578122758224531907e-01,9.165521556103991552e-01,3.674580678744239770e-01,3.121493063977750353e+02
-7.559746486132993049e+00,-6.799466739863551545e+00,-8.390951058881343627e+00,1.932472512690127098e-01,8.641453910704877117e-01,4.646571240916265721e-01,3.138281476289961915e+02
-7.394061424780421277e+00,-6.655822711147616033e+00,-8.944775111148334901e+00,2.260830863773561072e-01,8.001160645898474089e-01,5.556066245465611786e-01,3.155069888602173478e+02
-7.217865910439091870e+00,-6.501751246758303182e+00,-9.499092067850622101e+00,2.558781471538286167e-01,7.253253641091970128e-01,6.390833200685656079e-01,3.171858300914385040e+02
-7.030282214609334446e+00,-6.340598233479365575e+00,-1.004590056600785708e+01,2.822316982334162616e-01,6.407792146972540737e-01,7.139644714727254593e-01,3.188646713226596603e+02
-6.830621107749248466e+00,-6.175917040600507946e+00,-1.057733144475402298e+01,3.047892924972596673e-01,5.476147482561699587e-01,7.792429497099214730e-01,3.205435125538808165e+02
-6.618546069887645267e+00,-6.011690501212330950e+00,-1.108612294851139168e+01,3.232475380382590080e-01,4.470850087367330139e-01,8.340407808473885298e-01,3.222223537851019728e+02
-6.393937699802106245e+00,-5.852147472190896593e+00,-1.156583163826638661e+01,3.373581783923914057e-01,3.405420986485929169e-01,8.776209537843587816e-01,3.239011950163231290e+02
-6.167021574795062300e+00,-5.707322718511844251e+00,-1.199346386555242105e+01,3.469314311961577135e-01,2.294189935806829062e-01,9.093973319920788390e-01,3.255105737869507720e+02
-5.928962143483883729e+00,-5.574000663598502214e+00,-1.238486087085127174e+01,3.518385404063183453e-01,1.152102693228961444e-01,9.289425360747919358e-01,3.271199525575784151e+02
-5.679759029207219534e+00,-5.455508486748256836e+00,-1.273483183043560096e+01,3.520135077923879363e-01,-5.479992337527160454e-04,9.359936912342581294e-01,3.287293313282060581e+02
-5.419392797229931169e+00,-5.354642722716905112e+00,-1.303813196995307955e+01,2.667117791109648306e-01,2.447389377469652225e-02,9.634645065623386184e-01,3.303387100988337011e+02
-5.147846145976849641e+00,-5.273934761921723613e+00,-1.328948972608665891e+01,1.791010901817740864e-01,4.928391228887925996e-02,9.825944715311299982e-01,3.319480888694613441e+02
-4.804962120822080962e+00,-5.210581485935889212e+00,-1.350708679276594815e+01,8.993987732009491032e-02,7.366727837904697707e-02,9.932179773654231658e-01,3.338834695940711299e+02
-4.443234015179014840e+00,-5.191750886793701447e+00,-1.361856111640364020e+01,0.000000000000000000e+00,9.741290686787916486e-02,9.952430484926604315e-01,3.358188503186809157e+02
-4.063997247520574341e+00,-5.222631623661142086e+00,-1.362508591980067862e+01,-0.000000000000000000e+00,-9.695091807975529663e-02,9.952881590151888558e-01,3.377542310432907016e+02
-3.749377532570935756e+00,-5.282604423858876963e+00,-1.356616045984536534e+01,-4.291282096655081070e-03,-2.252196961352708748e-01,9.742975281538440724e-01,3.393072186219453101e+02
-3.427924091024775688e+00,-5.371841160330741438e+00,-1.346299607240295337e+01,-8.509987894250357898e-03,-3.496795025689147796e-01,9.368296673276681474e-01,3.408602062005999187e+02
-3.100723883259082214e+00,-5.491596189788005233e+00,-1.332107144932105136e+01,-7.525276839494735026e-03,-2.888018937096377692e-01,9.573582591684978160e-01,3.424131937792545273e+02
-2.768876843666267629e+00,-5.643117966485817760e+00,-1.314586554151107833e+01,-6.509497914867861529e-03,-2.267319778936881802e-01,9.739344108497848262e-01,3.439661813579091358e+02
-2.433375372461483277e+00,-5.826964990096077379e+00,-1.294249550870159382e+01,-5.466844694432428445e-03,-1.637260063597008319e-01,9.864896899869861624e-01,3.455191689365637444e+02
-2.094974177708139873e+00,-6.042322667357135302e+00,-1.271535467161155886e+01,-4.401621693856015705e-03,-1.000440944872977578e-01,9.949722633745504696e-01,3.470721565152183530e+02
-1.718825908249916212e+00,-6.316388975935316452e+00,-1.244104626736709029e+01,-3.318226602569682160e-03,-3.594914811486257106e-02,9.993471109288953880e-01,3.487856200276899585e+02
-1.340419086738188437e+00,-6.628311940654959322e+00,-1.214631912996266472e+01,-2.221132131458964602e-03,2.829422165749335971e-02,9.995961702570690388e-01,3.504990835401615641e+02
-9.606230956012719036e-01,-6.975859216661822515e+00,-1.183711458118612470e+01,-1.114867550911389929e-03,9.242079070677156061e-02,9.957184112564252398e-01,3.522125470526331696e+02
-5.802811635997023876e-01,-7.356793472480891438e+00,-1.151937406048766022e+01,-3.999995304131439757e-06,1.561658166662475977e-01,9.877298404362626627e-01,3.539260105651047752e+02
-1.997397281734156205e-01,-7.768377621018085044e+00,-1.119754100511006811e+01,-3.431258075468773590e-06,1.373532654656963448e-01,9.905211155965775172e-01,3.556394740775763808e+02
1.816299043149918746e-01,-8.206883936318991601e+00,-1.087306274241461246e+01,-2.861279878233495316e-06,1.184910373819077628e-01,9.929541147710270188e-01,3.573529375900479863e+02
5.622572700296727399e-01,-8.664729976612612461e+00,-1.054820222903371096e+01,-2.290266830177746974e-06,9.958595345257659215e-02,9.950279583300892794e-01,3.590543796104893772e+02
9.459655712411474404e-01,-9.140725860535376057e+00,-1.022065138571234222e+01,-1.718425422772605465e-06,8.064485019431115453e-02,9.967418964421337346e-01,3.607558216309307682e+02
1.333963342779962646e+00,-9.630785258328831588e+00,-9.890360927754931808e+00,-1.145962446714471925e-06,6.167457713616028570e-02,9.980953093380336982e-01,3.624572636513721591e+02
1.727506651934193505e+00,-1.013082949985923520e+01,-9.557281592294021522e+00,-5.730849173465950719e-07,4.268199434934798892e-02,9.990877075345891978e-01,3.641587056718135500e+02
2.127899077153298180e+00,-1.063678783100180780e+01,-9.221364138690947954e+00,-0.000000000000000000e+00,2.367396997322678345e-02,9.997187320112477238e-01,3.658601476922549409e+02
2.535626111555908668e+00,-1.114479925760294066e+01,-8.881818286556585562e+00,-1.815685972366613410e-06,8.631051170094888869e-02,9.962672811885360247e-01,3.675615897126963318e+02
2.949486439539788396e+00,-1.165140731287990938e+01,-8.536371659720753513e+00,-3.624226711587903945e-06,1.486073979362688424e-01,9.888952630413665457e-01,3.692630317331377228e+02
3.342679096687810159e+00,-1.212424361121808225e+01,-8.203434711320580774e+00,-5.418505219052842428e-06,2.103194769713875589e-01,9.776316881000031156e-01,3.708643974005989890e+02
3.737636111510818537e+00,-1.259069658368768607e+01,-7.860665170729562945e+00,-7.191460618315129887e-06,2.712038983333718289e-01,9.625208805408472790e-01,3.724657630680602551e+02
4.132820753352389964e+00,-1.304818359204448797e+01,-7.505690332958178779e+00,-8.936115937843508848e-06,3.310210683394158027e-01,9.436223038035528310e-01,3.740671287355215213e+02
4.526724534513626885e+00,-1.349411314515456972e+01,-7.136137579707155787e+00,-1.064560556384511033e-05,3.895355928452018390e-01,9.210103266485138995e-01,3.756684944029827875e+02
4.917867232794394639e+00,-1.392588504239636649e+01,-6.749634396243004097e+00,-1.231320225525063741e-05,4.465172034807274315e-01,8.947739305789715880e-01,3.772698600704440537e+02
5.304796913729340702e+00,-1.434089051715806384e+01,-6.343808388273038723e+00,-1.393234361465973069e-05,5.017416637323274253e-01,8.650163597761567624e-01,3.788712257379053199e+02
5.686089952518549318e+00,-1.473651238042904055e+01,-5.916287298819804086e+00,-1.549665791116819078e-05,5.549916513083045233e-01,8.318547149214672309e-01,3.804725914053665861e+02
6.060351055652697383e+00,-1.511012516448415255e+01,-5.464699025094756024e+00,-1.699998915352857377e-05,6.060576133181894143e-01,7.954194924999823391e-01,3.820739570728278522e+02
6.426419365120276339e+00,-1.545935120219562009e+01,-4.987447972017918119e+00,-8.714160024713584786e-06,6.747554542646525544e-01,7.380400238874712526e-01,3.836753227402891184e+02
6.852862819772164826e+00,-1.583961184787795240e+01,-4.377357976338378975e+00,-3.585205410199641569e-07,7.380472384462178903e-01,6.747475630322210538e-01,3.855974869278406914e+02
7.263301324154608274e+00,-1.617088854473780302e+01,-3.724851605719388115e+00,7.999989140413108610e-06,7.954259202489223357e-01,6.060491773184206732e-01,3.875196511153922643e+02
7.655992734467994332e+00,-1.645073670091536400e+01,-3.032370994904074468e+00,6.003447275242286630e-06,8.086875497486893938e-01,5.882367268597092913e-01,3.894418153029438372e+02
7.966881839047843528e+00,-1.664620851285544134e+01,-2.433268577286476830e+00,4.003944591395868871e-06,8.215503719717091036e-01,5.701341826957058156e-01,3.910340298006260582e+02
8.263747872615850198e+00,-1.681230225949070700e+01,-1.816151600224492180e+00,2.002466653143350101e-06,8.340080464920200942e-01,5.517504674787980790e-01,3.926262442983082792e+02
8.544694159538870792e+00,-1.694912797601628895e+01,-1.183524933405783797e+00,0.000000000000000000e+00,8.460544322668346329e-01,5.330946422741880131e-01,3.942184587959905002e+02
8.807857256716712158e+00,-1.705704605249198025e+01,-5.382476694292483987e-01,-4.820826492293019128e-02,8.823206484469500177e-01,4.681711615612655364e-01,3.958106732936727212e+02
9.042291715174268774e+00,-1.713472317103608233e+01,8.920077811123515443e-02,-9.603787901766490387e-02,9.116568066446733010e-01,3.995705102891313198e-01,3.973379658955657874e+02
9.257908141974066751e+00,-1.718862752751618572e+01,7.213561294970877169e-01,-1.431131713361313007e-01,9.338324929755451587e-01,3.278315043644232096e-01,3.988652584974588535e+02
9.453191409873900497e+00,-1.721970248125344582e+01,1.354891033483004881e+00,-1.890643961725632649e-01,9.486735350473675110e-01,2.535176088587287602e-01,4.003925510993519197e+02
9.626615727640187359e+00,-1.722888287442850697e+01,1.986478129893041844e+00,-2.335306372001663133e-01,9.560633697694566058e-01,1.772125121850524065e-01,4.019198437012449858e+02
9.776644661171959072e+00,-1.721709498030087104e+01,2.612790071135902448e+00,-2.761626422186226892e-01,9.559439586337196149e-01,9.951554147806541961e-02,4.034471363031380520e+02
9.901731154730589068e+00,-1.718525645151427383e+01,3.230499543720118716e+00,-3.166255662481883837e-01,9.483162433044955986e-01,2.103695520210341341e-02,4.049744289050311181e+02
1.000031755227514374e+01,-1.713427626848861252e+01,3.836279289769079170e+00,-3.546016014287784457e-01,9.332401379573836975e-01,-5.760685003445976254e-02,4.065017215069241843e+02
1.007083561890321732e+01,-1.706505468789875124e+01,4.426802128535785918e+00,-3.897924730740328636e-01,9.108340584458703981e-01,-1.357981808105405142e-01,4.080290141088172504e+02
1.011170656239713672e+01,-1.697848319124066307e+01,4.998740977917235817e+00,-4.219217822837038057e-01,8.812739920112185876e-01,-2.129228983478907711e-01,4.095563067107103166e+02
1.012134105487541369e+01,-1.687544443348537371e+01,5.548768875968317360e+00,-4.507371767244026106e-01,8.447921148573285244e-01,-2.883752419941771894e-01,4.110835993126033827e+02
1.009813925454932537e+01,-1.675681219182104442e+01,6.073559002415121810e+00,-4.760123325391987792e-01,8.016749684599806525e-01,-3.615625868603486448e-01,4.126108919144964489e+02
1.004049082758448819e+01,-1.662345131448368107e+01,6.569784700167552671e+00,-4.975487318301110573e-01,7.522612089413860392e-01,-4.319100982591105309e-01,4.141381845163895150e+02
9.937372742656954472e+00,-1.646494417688361978e+01,7.063934614284984370e+00,-5.151772217625080197e-01,6.969389471894419374e-01,-4.988652464037193202e-01,4.157720594580900979e+02
9.788889167018856696e+00,-1.629088324490141559e+01,7.515608114938468809e+00,-4.711698250525133691e-01,6.409557283566804653e-01,-6.059478114891631018e-01,4.174059343997906808e+02
9.595532216270983739e+00,-1.610322165779999537e+01,7.922764880046885949e+00,-4.193704694032804325e-01,5.743727203469485287e-01,-7.030095216392946433e-01,4.190398093414912637e+02
9.358650103240496065e+00,-1.590420081367665084e+01,8.284131628765447175e+00,-3.606357834583678867e-01,4.982910355864810792e-01,-7.884452267249042468e-01,4.206736842831918466e+02
9.079563867398285026e+00,-1.569606987703383005e+01,8.598435419097672394e+00,-2.959370872987276413e-01,4.139688686939323459e-01,-8.608420390031479297e-01,4.223075592248924295e+02
8.759567355162891644e+00,-1.548108563745814159e+01,8.864403657313273399e+00,-2.263443299816221832e-01,3.228006900576384508e-01,-9.190026979204383162e-01,4.239414341665930124e+02
8.399927200513255698e+00,-1.526151236821455370e+01,9.080764107364151627e+00,-1.530083961310036433e-01,2.262941859352027851e-01,-9.619653695049218411e-01,4.255753091082935953e+02
8.001882805910382146e+00,-1.503962168475712957e+01,9.246244900298361102e+00,-7.714207405483466951e-02,1.260453262576606281e-01,-9.890195529615819492e-01,4.272091840499941782e+02
7.524617133740421515e+00,-1.479836449363313022e+01,9.364426498510054486e+00,-0.000000000000000000e+00,2.371197228180339442e-02,-9.997178313761895252e-01,4.289872703554020745e+02
7.001548865018222045e+00,-1.456010216626902398e+01,9.416537836380211246e+00,-7.892990921127130202e-03,0.000000000000000000e+00,-9.999678497920404530e-01,4.307653566608099709e+02
6.436147617519349495e+00,-1.432649607352808552e+01,9.409036866020157319e+00,-2.872728885472881633e-01,3.020151847007489232e-02,-9.573714826484192031e-01,4.325434429662178673e+02
5.849557729390023830e+00,-1.410341132803224795e+01,9.354457978663901940e+00,-5.434469747315679999e-01,5.796336819077416852e-02,-8.374387342386809818e-01,4.342762899229354048e+02
5.233419672887803742e+00,-1.388441654857040852e+01,9.263584826405342199e+00,-7.557215732820177223e-01,8.104295423911778151e-02,-6.498576330580629890e-01,4.360091368796529423e+02
4.593133926454492588e+00,-1.366889718532243769e+01,9.145131063975648900e+00,-6.115149142376264946e-01,9.641599621263295672e-02,-7.853352566502768140e-01,4.377419838363704798e+02
3.991890711446686169e+00,-1.347361502630190166e+01,9.019031508888069482e+00,-4.432229302732431653e-01,1.079915881966053010e-01,-8.898815937847283086e-01,4.393273710104307952e+02
3.381517709719552123e+00,-1.327885560246326513e+01,8.881257708067394674e+00,-2.574739619737981822e-01,1.153138048074176941e-01,-9.593789060240146549e-01,4.409127581844911106e+02
2.766639862407415329e+00,-1.308361070319772068e+01,8.736046783791159953e+00,-6.158395249877657296e-02,1.180942434069155444e-01,-9.910898881866269106e-01,4.424981453585514259e+02
2.151892633546257816e+00,-1.288689855013385177e+01,8.587635910063207589e+00,1.367316977029822134e-01,1.162233860325112417e-01,-9.837655042636471725e-01,4.440835325326117413e+02
1.541921943587597488e+00,-1.268776384981142691e+01,8.440262283084175365e+00,3.296620231152499469e-01,1.097749153141582001e-01,-9.376942030747426049e-01,4.456689197066720567e+02
9.413841028017201351e-01,-1.248527784607483504e+01,8.298163091721896478e+00,5.096081590780147108e-01,9.900281355549056528e-02,-8.546905680455579857e-01,4.472543068807323721e+02
3.549457445706601377e-01,-1.227853837218571798e+01,8.165575487981808323e+00,6.694826561777903473e-01,8.433135883447590020e-02,-7.380238444599726000e-01,4.488396940547926874e+02
-2.127162414286620229e-01,-1.206666990265432382e+01,8.046736557477586871e+00,8.029886460050812413e-01,6.633841231103834724e-02,-5.922891603235169722e-01,4.504250812288530028e+02
-3.642248112541292548e-01,-1.200807504909999501e+01,8.016706113647082077e+00,9.048678568021243374e-01,4.573265567638402918e-02,-4.232265184620244147e-01,4.508570014242857837e+02
-9.720382658652199082e-01,-1.175998607940986318e+01,7.905302101762575084e+00,9.711077085916172136e-01,2.332567623659526079e-02,-2.374946970797414125e-01,4.526471057173492909e+02
-1.538768784822486024e+00,-1.150162996996243514e+01,7.817730784485605433e+00,9.990993339585199084e-01,0.000000000000000000e+00,-4.240897172840243229e-02,4.544372100104127981e+02
-2.058139365156406608e+00,-1.123148204422581564e+01,7.750734655266584561e+00,9.990993332535061944e-01,-0.000000000000000000e+00,-4.240897169847657883e-02,4.562273143034763052e+02
-2.523555532551682745e+00,-1.094812914919935309e+01,7.697559925424450000e+00,6.921409340576635261e-01,-0.000000000000000000e+00,-7.217609904965988088e-01,4.580174185965398124e+02
-2.928254544881648602e+00,-1.065023630566910384e+01,7.649704633736867265e+00,5.299993955616641179e-04,-0.000000000000000000e+00,-9.999988595503095379e-01,4.598075228896033195e+02
-3.294585995550651791e+00,-1.029968148014447671e+01,7.594291282350209116e+00,4.169530785743756907e-01,4.529412474209571632e-02,-9.077976495522456224e-01,4.617980492884489081e+02
-3.560964697436433291e+00,-9.927252873570623137e+00,7.532037848077509423e+00,7.566728811008494038e-01,8.225587836747591530e-02,-6.485970409135887182e-01,4.637885756872944967e+02
-3.721650865707270661e+00,-9.533344782870079470e+00,7.460681746818346838e+00,7.550757964904738495e-01,2.554995927611568990e-02,-6.551379557806323861e-01,4.657791020861400852e+02
-3.778736679611656601e+00,-9.167339321333107804e+00,7.388648760200737797e+00,6.590534516584888314e-01,1.078671533496725621e-01,-7.443193031803649884e-01,4.675486979039659445e+02
-3.760019377873324853e+00,-8.789073758435867134e+00,7.307928140544986739e+00,5.472469119253028369e-01,1.876009636281161796e-01,-8.156743810096410696e-01,4.693182937217918038e+02
-3.686622609845908283e+00,-8.452145024676916307e+00,7.230483786503235422e+00,4.223338967758962226e-01,2.628417910506486432e-01,-8.674942492676822603e-01,4.708566169981860412e+02
-3.566384518217433630e+00,-8.109688474943521186e+00,7.146293306185063088e+00,2.873060232881916587e-01,3.317876362785645017e-01,-8.985378196802467077e-01,4.723949402745802786e+02
-3.402513630821883517e+00,-7.763152578867902776e+00,7.055009931435929360e+00,1.453971637443779996e-01,3.927872558892319677e-01,-9.080615818249158089e-01,4.739332635509745160e+02
-3.198231631446367018e+00,-7.413967974748261192e+00,6.956286940568178423e+00,5.999996079955432846e-06,4.443797096684325432e-01,-8.958374147125192088e-01,4.754715868273687533e+02
-2.956757865472579461e+00,-7.063577149346508044e+00,6.849676069712810289e+00,-2.306513462730577085e-02,3.985177464148167426e-01,-9.168694592773080076e-01,4.770099101037629907e+02
-2.659686524776497141e+00,-6.689059054311107033e+00,6.725790191701009668e+00,-4.606527057889397980e-02,3.514291765664014910e-01,-9.350794216016892202e-01,4.786557788078009708e+02
-2.325355486648429615e+00,-6.316763505258560230e+00,6.590502779764523922e+00,-6.892361564629416459e-02,3.032589350963585395e-01,-9.504112549255870901e-01,4.803016475118389508e+02
-1.957970369638601271e+00,-5.948622626902801969e+00,6.442830885787115491e+00,-9.156981413887105292e-02,2.541552858707411544e-01,-9.628177708172112048e-01,4.819475162158769308e+02
-1.561756635381187808e+00,-5.586543589445029490e+00,6.281791654586481144e+00,-1.139341633962921291e-01,2.042693653700792256e-01,-9.722607843482423684e-01,4.835933849199149108e+02
-1.140959523470575165e+00,-5.232408505621670258e+00,6.106402331299076280e+00,-1.359478282856954878e-01,1.537547175801981247e-01,-9.787112315720272182e-01,4.852392536239528908e+02
-6.367746818768321715e-01,-4.842606652832888159e+00,5.886966904180925830e+00,-1.575430530285201469e-01,1.027668214811527370e-01,-9.821492589439214660e-01,4.871106136734319989e+02
-1.102252914729589944e-01,-4.469931690056136553e+00,5.643558169827948667e+00,-1.786533697062624437e-01,5.146261258608860606e-02,-9.825642844095885398e-01,4.889819737229111070e+02
4.318205730435735745e-01,-4.117274213300305519e+00,5.374914472437224866e+00,-1.992138028046138709e-01,0.000000000000000000e+00,-9.799550299737879167e-01,4.908533337723902150e+02
9.830546772579294990e-01,-3.787257872626062394e+00,5.080507498968367841e+00,-2.153716596713729781e-01,-2.002182468751991197e-06,-9.765311301671198985e-01,4.927246938218693231e+02
1.482085569398216673e+00,-3.510699819577765446e+00,4.794407280636383106e+00,-2.314707588939864946e-01,-4.003818211357638265e-06,-9.728408337134496486e-01,4.944086970505193221e+02
1.979531041308436379e+00,-3.254274855158409530e+00,4.489173128484093667e+00,-2.475067112427223326e-01,-6.004361501903186632e-06,-9.688851468740005135e-01,4.960927002791693212e+02
2.471374684907876151e+00,-3.019557906297158478e+00,4.164698788050245959e+00,-2.634751446801240626e-01,-8.003266912316206219e-06,-9.646651481477370726e-01,4.977767035078193203e+02
2.953581867685858064e+00,-2.808099659091038980e+00,3.820878156102363032e+00,-2.793717055426080398e-01,-9.999989460024915751e-06,-9.601819879695102644e-01,4.994607067364693194e+02
3.422564542557498424e+00,-2.621215506319358735e+00,3.459235509734780223e+00,-3.547642754181097868e-01,-2.630757755957549224e-02,-9.345845174466091976e-01,5.011447099651193184e+02
3.875649289317799617e+00,-2.459778258330513889e+00,3.084555722646281861e+00,-4.276625492563340125e-01,-5.242018957211361935e-02,-9.024161277868031350e-01,5.028287131937693175e+02
4.310617468448548095e+00,-2.324434667424406076e+00,2.703253999260544660e+00,-4.975539921374549923e-01,-7.816424278913521040e-02,-8.639029899579134808e-01,5.045127164224193166e+02
4.725242129487500442e+00,-2.215818213834896522e+00,2.321745596026469460e+00,-5.639472095602890978e-01,-1.033587352566131129e-01,-8.193158833296516619e-01,5.061967196510693157e+02
5.077511984622120167e+00,-2.140815799486880167e+00,1.985648125446328072e+00,-6.263754022335834559e-01,-1.278265288544903067e-01,-7.689682919331783939e-01,5.077005367194950054e+02
5.412251331741745553e+00,-2.085846034756478673e+00,1.658103208213617119e+00,-6.843996479583034365e-01,-1.513955946837269029e-01,-7.132142004936273816e-01,5.092043537879206951e+02
5.728024087432177502e+00,-2.051288369672292333e+00,1.343215607119038424e+00,-7.376119875368718493e-01,-1.739002225370667731e-01,-6.524456057360277228e-01,5.107081708563463849e+02
6.023615652432285472e+00,-2.037383326468776179e+00,1.044181940088268812e+00,-7.856382930184034885e-01,-1.951821859524037750e-01,-5.870897604546322368e-01,5.122119879247720746e+02
6.298260868349129460e+00,-2.044102838853117277e+00,7.623825946625560901e-01,-8.281408981173177253e-01,-2.150918546593917069e-01,-5.176061697132658956e-01,5.137158049931977075e+02
6.551420582932302672e+00,-2.071283965081358591e+00,4.982897848224602244e-01,-8.648209723125533932e-01,-2.334892465991560417e-01,-4.444833602863401123e-01,5.152196220616233404e+02
6.794811121977811119e+00,-2.122834304933334248e+00,2.389884645518162987e-01,-8.954206219344170714e-01,-2.502450121210860745e-01,-3.682354460443683086e-01,5.168124249110093160e+02
7.011405165760573155e+00,-2.198211481116183919e+00,1.816343332602342146e-03,-9.197247034633164731e-01,-2.652413434367635325e-01,-2.893985134230204204e-01,5.184052277603952916e+02
7.200528301092228745e+00,-2.297199902081059619e+00,-2.126345211898885978e-01,-9.375623362859477616e-01,-2.783728029358326639e-01,-2.085268523807997931e-01,5.199980306097812672e+02
7.361507165150118936e+00,-2.419580283864521064e+00,-4.037722312126247881e-01,-8.851352005091986941e-01,2.537197708297864521e-02,4.646395803182720718e-01,5.215908334591672428e+02
7.493994768917578320e+00,-2.564283556965540001e+00,-5.724255421923577503e-01,-9.326402006502990671e-01,1.780777216001360949e-02,3.603652860383348977e-01,5.231836363085532184e+02
7.598308062966596665e+00,-2.728547280639230799e+00,-7.222643462692277527e-01,-9.678463806872210640e-01,1.000873530664363187e-02,2.513388322724821600e-01,5.247764391579391940e+02
