-2.673534881185970491e+00,1.716368642911671216e+01,-6.690927041233020844e+00,5.810606172294330296e-01,-8.388574282553397377e-02,8.095243920080945621e-01,4.427251623826673921e+01
-2.741060342825916596e+00,1.726821579716699162e+01,-7.141526557072102044e+00,5.765513035912456230e-01,-1.423395591180482735e-02,8.169357311483508299e-01,4.585040937689382901e+01
-2.779045232192942638e+00,1.734003636779108604e+01,-7.598015185585362374e+00,5.692015277679184360e-01,5.548795396500057903e-02,8.203223194281856756e-01,4.742830251552091880e+01
-2.788668099843878867e+00,1.737853551523821238e+01,-8.043344546131251604e+00,3.929044487389432572e-01,4.365734123405916323e-02,9.185413059394110791e-01,4.895812993759756182e+01
-2.773936169911087823e+00,1.738690753893698471e+01,-8.488560898502102603e+00,2.005502775541377347e-01,3.004255441678143138e-02,9.792216455410993614e-01,5.048795735967419773e+01
-2.737582073474527977e+00,1.736543060523412407e+01,-8.930934257042732582e+00,0.000000000000000000e+00,1.519999199371368896e-02,9.998834733317381041e-01,5.201778478175083364e+01
-2.682334219659525232e+00,1.731439717799619871e+01,-9.367734654459207277e+00,-0.000000000000000000e+00,6.929318367292624549e-03,9.999749919543112764e-01,5.354761220382746956e+01
-2.610333913686765150e+00,1.723467931628730909e+01,-9.796212887904308886e+00,-0.000000000000000000e+00,-1.341828029950291150e-03,9.999980997405671923e-01,5.507743962590410547e+01
-2.522543997181942110e+00,1.712828983725318821e+01,-1.021358126518788900e+01,-0.000000000000000000e+00,-9.612881475356369054e-03,9.999527951343901711e-01,5.660726704798074138e+01
-2.419318958783466478e+00,1.699781072579684604e+01,-1.061703289448984222e+01,-0.000000000000000000e+00,-1.788327625324216685e-02,9.998390812615326473e-01,5.813709447005737729e+01
-2.297516313564838430e+00,1.684136385775558509e+01,-1.101334388681474330e+01,-0.000000000000000000e+00,-2.615244669357645602e-02,9.996569659235591265e-01,5.970669106181776442e+01
-2.159742935212718429e+00,1.666458666448722781e+01,-1.138856700308663505e+01,-0.000000000000000000e+00,-3.441982721056505157e-02,9.994064615973005106e-01,6.127628765357815155e+01
-2.006290850982671348e+00,1.647034231888209632e+01,-1.173960454822880983e+01,-0.000000000000000000e+00,-4.268485234122960936e-02,9.990875854339893447e-01,6.284588424533853868e+01
-1.837418317308748827e+00,1.626149538124757044e+01,-1.206335899225483566e+01,-0.000000000000000000e+00,-5.094695678397787725e-02,9.987003592580795397e-01,6.441548083709892580e+01
-1.653349816941508621e+00,1.604091163425988498e+01,-1.235673299142494308e+01,-0.000000000000000000e+00,-5.920557543716267052e-02,9.982448095657491249e-01,6.598507742885931293e+01
-1.454276056428682740e+00,1.581145791790485511e+01,-1.261662940940155586e+01,-0.000000000000000000e+00,-6.746014343762715693e-02,9.977209675230855890e-01,6.755467402061970006e+01
-1.240353963938514603e+00,1.557600196440891516e+01,-1.283995133840380554e+01,-0.000000000000000000e+00,-7.571009619923378675e-02,9.971288689639556946e-01,6.912427061238008719e+01
-1.011706687425772744e+00,1.533741223316189206e+01,-1.302360212036083276e+01,-0.000000000000000000e+00,-8.395486945137441148e-02,9.964685543875577700e-01,7.069386720414047431e+01
-7.684235931404599373e-01,1.509855774563295228e+01,-1.316448536806374570e+01,-0.000000000000000000e+00,-9.219389927745884339e-02,9.957400689556590301e-01,7.226346379590086144e+01
-5.105602644792269773e-01,1.486230792028106151e+01,-1.325950498631619823e+01,-0.000000000000000000e+00,-1.004266221533796771e-01,9.949434624895154844e-01,7.383306038766124857e+01
-2.367604308777473132e-01,1.463046214614304219e+01,-1.330555781137907978e+01,-0.000000000000000000e+00,-1.086524749859500982e-01,9.940787894664768753e-01,7.541019847128949039e+01
5.181848993704451373e-02,1.440709805084069117e+01,-1.329882696359301342e+01,-0.000000000000000000e+00,-1.168708951513131450e-01,9.931461090162760907e-01,7.698733655491773220e+01
3.550414518636023642e-01,1.419505464139472473e+01,-1.323646310488796907e+01,-0.000000000000000000e+00,-5.842598549233594951e-02,9.982907413244255235e-01,7.856447463854597402e+01
6.724427929681132676e-01,1.399700086575355051e+01,-1.311622382917265206e+01,-0.000000000000000000e+00,2.200131365709311819e-04,9.999989757941887270e-01,8.014161272217421583e+01
8.049868330008101980e-01,1.391995239349595082e+01,-1.305309187346350619e+01,-0.000000000000000000e+00,5.886523909786058745e-02,9.982649365881264281e-01,8.078403856062790567e+01
1.141742660723807701e+00,1.373851939117554899e+01,-1.285957649394510227e+01,-0.000000000000000000e+00,1.173078338869206483e-01,9.930945937341473240e-01,8.238127097373336483e+01
1.489470421327359517e+00,1.357447382135121927e+01,-1.260409507755653813e+01,1.270998419732385096e-03,1.158168560016881454e-01,9.932687650413736247e-01,8.397850338683882399e+01
1.845170588443102666e+00,1.342643556085494261e+01,-1.228853715836790528e+01,-1.177648228227752558e-01,0.000000000000000000e+00,9.930405059701471471e-01,8.557573579994428314e+01
2.203652938716307297e+00,1.329267095792662978e+01,-1.191884463124126725e+01,-1.763156287943793976e-01,2.062332165748461885e-02,9.841165975878357619e-01,8.716453624033491110e+01
2.563579718559155562e+00,1.316977677511572509e+01,-1.149792705966537376e+01,-2.341729504548448471e-01,4.116552618769131477e-02,9.713220005385787559e-01,8.875333668072553905e+01
2.921742964942837251e+00,1.305523218379441808e+01,-1.103007272336186517e+01,-2.911092270767062229e-01,6.154581825240908188e-02,9.547070389223207831e-01,9.034213712111616701e+01
3.274905352777568002e+00,1.294653417584639321e+01,-1.051957023045224915e+01,-3.469005206505925698e-01,8.168403939141852255e-02,9.343370625649425332e-01,9.193093756150679496e+01
3.619800239306521394e+00,1.284119770871617305e+01,-9.970708487445147483e+00,-4.013273965962690371e-01,1.015009832736075285e-01,9.102921899792500993e-01,9.351973800189742292e+01
3.953131708804166866e+00,1.273675585027149637e+01,-9.387776669221775450e+00,-4.541757867598858467e-01,1.209187072024037607e-01,8.826669932488763193e-01,9.510853844228805087e+01
4.271574617578715483e+00,1.263075992347750365e+01,-8.775064189019708749e+00,-5.052378313063671245e-01,1.398608386512625312e-01,8.515701260789159122e-01,9.669733888267867883e+01
4.571774639278215702e+00,1.252077965088142975e+01,-8.136860668415447861e+00,-5.543126961982601797e-01,1.582528756244896972e-01,8.171238964755642709e-01,9.828613932306930678e+01
4.850348310500051774e+00,1.240440329890654425e+01,-7.477455907306164384e+00,-6.012073630482207554e-01,1.760224796629284438e-01,7.794637857343128529e-01,9.987493976345993474e+01
5.103883076703644939e+00,1.227923782195405700e+01,-6.801139853890586728e+00,-6.457373882407045906e-01,1.930997603428957488e-01,7.387379156269492375e-01,1.014637402038505627e+02
5.328937338426089632e+00,1.214290900631178793e+01,-6.112202574649125530e+00,-6.877276283389794909e-01,2.094175501501162051e-01,6.951064658809584795e-01,1.030525406442411906e+02
5.555679973670255123e+00,1.195472951868677924e+01,-5.256267789837389515e+00,-7.270129289257662997e-01,2.249116686481305305e-01,6.487410442400828314e-01,1.050000257257920424e+02
5.718278766045298056e+00,1.173805543022801601e+01,-4.394868474902055233e+00,-9.246034767262547582e-01,-1.743419773614379165e-01,3.386905457147098009e-01,1.069475108073428942e+02
5.808302302743323153e+00,1.151789846426314767e+01,-3.621011079170628033e+00,-8.498265231567917466e-01,-5.222387069684532035e-01,-7.113096008795406766e-02,1.087028936583431147e+02
5.845136686572201867e+00,1.127570808858017060e+01,-2.855641722194620424e+00,-9.225027107052581332e-01,-3.820525499434559435e-01,-5.497815768559451838e-02,1.104582765093433352e+02
5.828398203339393291e+00,1.101369838835993598e+01,-2.103415057161776236e+00,-9.719364694593536358e-01,-2.322406754257876627e-01,-3.744019247301075964e-02,1.122136593603435557e+02
5.758488277969012081e+00,1.073498731181619981e+01,-1.368471681583623312e+00,-9.968823582192178900e-01,-7.657756097871246115e-02,-1.895892997445768405e-02,1.139690422113437762e+02
5.635845063035446856e+00,1.044269011021673421e+01,-6.549520452590242847e-01,-9.967118863751273095e-01,8.101490948214877530e-02,-0.000000000000000000e+00,1.157244250623439967e+02
5.491196420474830475e+00,1.018285993021587821e+01,-5.856784807177897734e-02,-9.938786151399388036e-01,8.138616644815961643e-02,-7.469665507656873815e-02,1.172373069545191839e+02
5.315324662313194892e+00,9.918776326437241053e+00,5.208360401392453376e-01,-9.854917821397713995e-01,8.130265650452821180e-02,-1.489759221536578471e-01,1.187501888466943711e+02
5.111081385646023989e+00,9.652863687769746903e+00,1.083061451634301342e+00,-9.715982512682185268e-01,8.076484630003151477e-02,-2.224227455453637037e-01,1.202630707388695583e+02
4.881343757267864625e+00,9.387531369957700988e+00,1.627910327694617409e+00,-9.522756566966336100e-01,7.977574101885170910e-02,-2.946267211390999341e-01,1.217759526310447455e+02
4.629014478146102896e+00,9.125173575616974730e+00,2.155184719873838972e+00,-9.276319690529114537e-01,7.834086758696734432e-02,-3.651843896691878144e-01,1.232888345232199327e+02
4.357021747655952737e+00,8.868169234393652900e+00,2.664686791248922049e+00,-8.978048920799472921e-01,7.646824378700474434e-02,-4.337014911788947824e-01,1.248017164153951200e+02
4.068319227576862929e+00,8.618881883265997246e+00,3.156218817670556565e+00,-8.629610931471517477e-01,7.416833345428397450e-02,-4.997951680721581247e-01,1.263145983075703072e+02
3.765886005850527685e+00,8.379659546990739116e+00,3.629583189013075639e+00,-8.232952719163704192e-01,7.145398800453733879e-02,-5.630961044438403951e-01,1.278274801997454944e+02
3.452726560100697561e+00,8.152834618694569713e+00,4.084582410423764465e+00,-7.790290723681012608e-01,6.834037462017285292e-02,-6.232505897338126433e-01,1.293403620919206674e+02
3.131870720914991413e+00,7.940723740611818293e+00,4.521019103571625841e+00,-7.304098442692613657e-01,6.484489149651384565e-02,-6.799224951734420541e-01,1.308532439840958546e+02
2.806373634888922997e+00,7.745627684969243809e+00,4.938696007895606144e+00,-6.777092610050395871e-01,6.098707062175647703e-02,-7.327951519807884839e-01,1.323661258762710418e+02
2.479315727432369165e+00,7.569831235018884108e+00,5.337415981852230651e+00,-6.212218014998746041e-01,5.678846863403960027e-02,-7.815731208102436600e-01,1.338790077684462290e+02
2.153802665338654165e+00,7.415603066219886408e+00,5.716982004162669107e+00,-5.612631047118560312e-01,5.227254636563311713e-02,-8.259838425703722731e-01,1.353918896606214162e+02
1.832965319116456770e+00,7.285195627570263177e+00,6.077197175059187551e+00,-4.981682058965949400e-01,4.746453774744382320e-02,-8.657791613869482150e-01,1.369047715527966034e+02
1.519959725084750302e+00,7.180845023089511336e+00,6.417864717531014840e+00,-4.322896644969278501e-01,4.239130880646608396e-02,-9.007367112028601408e-01,1.384176534449717906e+02
1.217967047231004019e+00,7.104770893453017599e+00,6.738787978569665604e+00,-3.639955941199917167e-01,3.708120754413164050e-02,-9.306611582687187578e-01,1.399305353371469778e+02
9.301935388328912424e-01,7.059176297779200304e+00,7.039770430413727631e+00,-2.936676056099062349e-01,3.156390553443598479e-02,-9.553852925833411502e-01,1.414434172293221650e+02
6.509137201742590806e-01,7.047035555565533294e+00,7.329964299738926492e+00,-2.216986747094622234e-01,2.587023212695041541e-02,-9.747709621873168473e-01,1.430104589938938489e+02
3.947084911925941020e-01,7.073600238088437742e+00,7.597675282740336655e+00,-1.484909462251836343e-01,2.003200218111740247e-02,-9.887098450908657910e-01,1.445775007584655327e+02
1.653450604526371381e-01,7.141343660555760309e+00,7.842678845895930451e+00,-7.445348696453935045e-02,1.408183829433862395e-02,-9.971240545242712194e-01,1.461445425230372166e+02
-3.337971474573119685e-02,7.252718847479726172e+00,8.064750610216945503e+00,-0.000000000000000000e+00,8.052988517103476865e-03,-9.999665741302532496e-01,1.477115842876089005e+02
-1.976561921181159143e-01,7.409642894608261976e+00,8.265000064592012308e+00,2.480648213142977454e-02,-3.328825544376778911e-02,-9.991368927703728753e-01,1.492786260521805843e+02
-3.236867134405843061e-01,7.612981465817202142e+00,8.447204270048970898e+00,4.955528359987007581e-02,-7.455209612162742860e-02,-9.959840655514209384e-01,1.508456678167522682e+02
-4.099418336390817652e-01,7.862195359883410006e+00,8.615196630889398577e+00,7.418885998289542760e-02,-1.156425893159232915e-01,-9.905154237021905894e-01,1.524127095813239521e+02
-4.594220050570302916e-01,8.155003401547030961e+00,8.770255665439723458e+00,9.864993479936944032e-02,-1.564641939287245986e-01,-9.827436829527518292e-01,1.539797513458956360e+02
-4.774164800506905948e-01,8.488276131899985089e+00,8.912382488668713520e+00,1.228816326759893801e-01,-1.969219940957168125e-01,-9.726869139622991156e-01,1.555467931104673198e+02
-4.692487961816569908e-01,8.858913186431566444e+00,9.041578303503166936e+00,1.468276115808932192e-01,-2.369219198629048118e-01,-9.603685002993336273e-01,1.571138348750390037e+02
-4.402767043025405669e-01,9.263843461700780324e+00,9.157844400817904074e+00,1.704321938170866024e-01,-2.763709658962886229e-01,-9.458170840714991146e-01,1.586808766396106876e+02
-3.954284007515799781e-01,9.703978982862258462e+00,9.261958527069447555e+00,1.936404954713352999e-01,-3.151774077163534971e-01,-9.290664993314886599e-01,1.602612433546739510e+02
-3.404041465090951180e-01,1.017304517687350263e+01,9.352831201496476510e+00,2.163985540177539579e-01,-3.532510149549621947e-01,-9.101556934137911004e-01,1.618416100697372144e+02
-2.808480642219116086e-01,1.066795854986369285e+01,9.430464034058157807e+00,2.386534537796070055e-01,-3.905032611391511255e-01,-8.891286363850489094e-01,1.634219767848004778e+02
-2.224396418357774130e-01,1.118566680977577654e+01,9.494858726295857920e+00,2.603534489578043232e-01,-4.268475295143882020e-01,-8.660342188183842715e-01,1.650023434998637413e+02
-1.706250907265186023e-01,1.172309602094159686e+01,9.546083618311664409e+00,2.814480839402158652e-01,-4.621993144290285072e-01,-8.409261381291346371e-01,1.665827102149270047e+02
-1.282894458498116119e-01,1.227720500570990581e+01,9.584813423035207336e+00,3.018883106122317583e-01,-4.964764178119956961e-01,-8.138627737359940273e-01,1.681630769299902681e+02
-9.396448773545436339e-02,1.284512975080081354e+01,9.612735862309337520e+00,3.216266023959436504e-01,-5.295991402870849907e-01,-7.849070513374922786e-01,1.697434436450535316e+02
-6.415518694259761401e-02,1.342410382392484003e+01,9.632011920460383791e+00,3.406170647529017104e-01,-5.614904664797094602e-01,-7.541262966190149797e-01,1.713238103601167950e+02
-3.539895053675094772e-02,1.401134179885367992e+01,9.644802641581570413e+00,3.588155418935968788e-01,-5.920762440853672981e-01,-7.215920787301187689e-01,1.729041770751800584e+02
-5.395397622775538297e-03,1.460407635011845784e+01,9.652675699108298701e+00,3.229890445555960166e-01,-5.989463529045001566e-01,-7.327614505692066071e-01,1.744845437902433218e+02
2.586441897847821525e-02,1.519960360282451006e+01,9.656011969503097703e+00,2.866924405694454281e-01,-6.049446985458846182e-01,-7.428642919285066704e-01,1.760649105053065853e+02
5.722855151825439329e-02,1.579525873658102952e+01,9.654598945075566263e+00,2.499785592381796873e-01,-6.100625506299954814e-01,-7.518858984187363204e-01,1.776452772203698487e+02
8.751417170349190533e-02,1.638838333069375963e+01,9.648224150911865138e+00,2.129008371748329909e-01,-6.142924603087822621e-01,-7.598131393566428526e-01,1.792256439354331121e+02
1.155075865909665628e-01,1.697632551595952322e+01,9.636675146346204812e+00,1.755132405301283449e-01,-6.176282711052184515e-01,-7.666344768735490200e-01,1.808060106504963755e+02
1.399642547982394847e-01,1.755644012639379881e+01,9.619739526432153909e+00,1.378701864498234897e-01,-6.200651278721323045e-01,-7.723399827059432843e-01,1.823863773655596390e+02
1.590051308787522044e-01,1.810127969853547825e+01,9.598427267376246519e+00,1.000264638759830460e-01,-6.215994838573334347e-01,-7.769213526437450668e-01,1.838965192883133568e+02
1.728177510742216483e-01,1.863476863127857541e+01,9.572016242190374058e+00,6.203715380738106938e-02,-6.222291058647699824e-01,-7.803719186152442422e-01,1.854066612110670746e+02
1.802847610045600069e-01,1.915471426916673181e+01,9.540328218648252090e+00,2.395754913502240804e-02,-6.219530775042170223e-01,-7.826866583911489261e-01,1.869168031338207925e+02
1.802642006045072354e-01,1.965892978850460082e+01,9.503184997798712175e+00,-1.415692583061425522e-02,-6.207718005247816473e-01,-7.838622028936359509e-01,1.884269450565745103e+02
1.715895176830155855e-01,2.014523431294755085e+01,9.460408415092832257e+00,-5.225079602355988534e-02,-6.186869942302801739e-01,-7.838968410997737557e-01,1.899370869793282282e+02
1.530695817133146674e-01,2.061145302903684140e+01,9.411820341510933829e+00,-9.026861636023883473e-02,-6.157016929773433400e-01,-7.827905225321866167e-01,1.914472289020819460e+02
1.234886978535818525e-01,2.105541730167944792e+01,9.357242684689438761e+00,-1.281550524338131714e-01,-6.118202417598794796e-01,-7.805448573333297890e-01,1.929573708248356638e+02
8.160662119814303395e-02,2.147496478957161159e+01,9.296497390047548492e+00,-1.658549610476182379e-01,-6.070482898863129861e-01,-7.771631139232572094e-01,1.944675127475893817e+02
2.615857125912638900e-02,2.186793956056520827e+01,9.229406441913743819e+00,-2.033134704705427676e-01,-6.013927827587797204e-01,-7.726502142442752685e-01,1.959776546703430995e+02
-4.414475332151049369e-02,2.223219220697601983e+01,9.155791864652115919e+00,-2.404760602976152850e-01,-5.948619517662254719e-01,-7.670127265993759158e-01,1.974877965930968173e+02
-1.306171598296603509e-01,2.256557996083300210e+01,9.075475723788493099e+00,-2.772886407996254521e-01,-5.874653023060867341e-01,-7.602588560948483343e-01,1.989979385158505352e+02
-2.345969463065343541e-01,2.286596680906767176e+01,8.988280127136377473e+00,-3.136976316463486736e-01,-5.792135999519593126e-01,-7.523984327009382023e-01,2.005080804386042530e+02
-3.574468861460024516e-01,2.313122360864265303e+01,8.894027225922688018e+00,-3.496500398888479078e-01,-5.701188547873504708e-01,-7.434428969478947824e-01,2.020182223613579708e+02
-5.005542124618894695e-01,2.335922820161850311e+01,8.792539215913270922e+00,-3.850935370873992958e-01,-5.601943039282750725e-01,-7.334052832781767783e-01,2.035283642841116887e+02
-6.653306022253160368e-01,2.354786553015793871e+01,8.683638338538234080e+00,-4.199765354728211553e-01,-5.494543922600975128e-01,-7.223002010789976168e-01,2.050385062068654065e+02
-8.521530224069617798e-01,2.369550682272597442e+01,8.567094231498341372e+00,-2.986539060027746939e-01,-5.773301820899950920e-01,-7.599300660442835920e-01,2.065486481296191243e+02
-1.059297473231400000e+00,2.380148137796920693e+01,8.442571279704136344e+00,-1.722803761576005011e-01,-5.954419999853507450e-01,-7.847077778672809645e-01,2.080587900523728422e+02
-1.300234350038266484e+00,2.386682203475319852e+01,8.300129259474463339e+00,-4.299320395488334667e-02,-6.034835382950518579e-01,-7.962142949116118862e-01,2.096707596792464301e+02
-1.558828664351783244e+00,2.388103992416243315e+01,8.147116737236180128e+00,8.702107858375952854e-02,-6.013187983962540173e-01,-7.942550186044825544e-01,2.112827293061200180e+02
-1.831505999579976729e+00,2.384383229537647253e+01,7.983034931383166999e+00,2.155636429056352332e-01,-5.889843903941661685e-01,-7.788630840720257575e-01,2.128946989329936059e+02
-2.114696370371613288e+00,2.375487606532175633e+01,7.807385139961241727e+00,3.404605492752357798e-01,-5.666889140566566674e-01,-7.502987998612793419e-01,2.145066685598671938e+02
-2.404834274750714318e+00,2.361382784115624389e+01,7.619668744263527138e+00,4.595995113955018141e-01,-5.348094314391391713e-01,-7.090452462074303686e-01,2.161186381867407817e+02
-2.699112884142123470e+00,2.342092304221899823e+01,7.419777714088555243e+00,4.913029508824278691e-01,-5.564370897287909123e-01,-6.700725152021465014e-01,2.177306078136143697e+02
-2.996228804155101511e+00,2.317758062938515096e+01,7.208385110184241995e+00,5.215365373706113417e-01,-5.764000306082366354e-01,-6.290951000471017851e-01,2.193425774404879576e+02
-3.295613827632665860e+00,2.288581238146536023e+01,6.986554577737792648e+00,5.502098200434755171e-01,-5.946385303258634458e-01,-5.862355944333379476e-01,2.209545470673615455e+02
-3.596676097075567125e+00,2.254762649764893823e+01,6.755349837051502604e+00,5.772370160745274870e-01,-6.110980241680370462e-01,-5.416222227090429220e-01,2.225665166942351334e+02
-3.881846134303334139e+00,2.218869818096855084e+01,6.529636799276806514e+00,6.025372672575874944e-01,-6.257292696958585143e-01,-4.953884562771189715e-01,2.240880029226550221e+02
-4.167468488503305757e+00,2.179397926927561358e+01,6.297723129726358060e+00,6.260348819051936298e-01,-6.384884940605703996e-01,-4.476726142966327426e-01,2.256094891510749108e+02
-4.453015602376367177e+00,2.136505892659385708e+01,6.060460940417179643e+00,6.476595612917986911e-01,-6.493375249571238239e-01,-3.986174498824853751e-01,2.271309753794947994e+02
-4.737942155705717084e+00,2.090352327612082206e+01,5.818702377634580536e+00,6.673466099644935756e-01,-6.582439048242226809e-01,-3.483697230408702161e-01,2.286524616079146881e+02
-5.021685073295446777e+00,2.041095531618681136e+01,5.573299616464611361e+00,6.850371292922013966e-01,-6.651809879492396327e-01,-2.970797616177369149e-01,2.301739478363345768e+02
-5.303663533077997982e+00,1.988893483624624636e+01,5.325104855326356024e+00,7.006781936743797790e-01,-6.701280201874877385e-01,-2.449010115733313564e-01,2.316954340647544655e+02
-5.583278974390371019e+00,1.933903833290214536e+01,5.074970310504109072e+00,7.142230088820901157e-01,-6.730702010572912064e-01,-1.919895779278038839e-01,2.332169202931743541e+02
-5.859915106419075315e+00,1.876283892596428160e+01,4.823748210679523751e+00,7.256310520576872980e-01,-6.739987280249798429e-01,-1.385037577508025919e-01,2.347384065215942428e+02
-6.132937916813800072e+00,1.816190627454181694e+01,4.572290791463676563e+00,7.348681929542018043e-01,-6.729108228471618602e-01,-8.460356659178963623e-02,2.362598927500141315e+02
-6.401695680469793537e+00,1.753780649317094031e+01,4.321450289929087418e+00,7.419067960515566273e-01,-6.698097398912715716e-01,-3.045025976747224236e-02,2.377813789784340202e+02
-6.665518968478844286e+00,1.689210206797833180e+01,4.072078939141688281e+00,7.467258032439190174e-01,-6.647047564092625205e-01,2.379415006182448306e-02,2.393028652068539088e+02
-6.923720657248787269e+00,1.622635177288102071e+01,3.825028962692839318e+00,7.493107968505700045e-01,-6.576111447932784237e-01,7.796737758386423911e-02,2.408243514352737975e+02
-7.175595937791520385e+00,1.554211058582333749e+01,3.581152569231408123e+00,7.496540427615033808e-01,-6.485501268960124355e-01,1.319073503444577189e-01,2.423458376636936862e+02
-7.420422325179483636e+00,1.484092960505162040e+01,3.341301946995917316e+00,7.477545135883590932e-01,-6.375488105521098792e-01,1.854526936233294732e-01,2.438673238921135749e+02
-7.657459668170574218e+00,1.412435596542734828e+01,3.106329258346802735e+00,7.436178917510996023e-01,-6.246401084902080125e-01,2.384432132253721248e-01,2.453888101205334635e+02
-7.885950159001461124e+00,1.339393275477934075e+01,2.877086634298820833e+00,7.372565524908418766e-01,-6.098626398778880242e-01,2.907203747429286667e-01,2.469102963489533522e+02
-8.105118343349122512e+00,1.265119893029574349e+01,2.654426169053591078e+00,7.286895268593145403e-01,-5.932606147937857788e-01,3.421277778552244686e-01,2.484317825773732409e+02
-8.314171130460607628e+00,1.189768923495646824e+01,2.439199914532292457e+00,9.955207354021456956e-01,9.453287991603503970e-02,0.000000000000000000e+00,2.499532688057931296e+02
-8.518775441722223007e+00,1.110898146993350366e+01,2.225053004230866271e+00,9.913008634114531814e-01,1.316077436555698199e-01,0.000000000000000000e+00,2.515261591115538238e+02
-8.711195106365087426e+00,1.031223084603541373e+01,2.018949445848875701e+00,9.857007492619630495e-01,1.684993557698928335e-01,0.000000000000000000e+00,2.530990494173145180e+02
-8.891349027206345568e+00,9.509619062717099780e+00,1.819824045301771998e+00,9.787281891584446170e-01,2.051563592407236736e-01,0.000000000000000000e+00,2.546719397230752122e+02
-9.059130288269384934e+00,8.703327265314122485e+00,1.626611560610585316e+00,9.703928888839234990e-01,2.415277234467198553e-01,0.000000000000000000e+00,2.562448300288359064e+02
-9.214406156404054471e+00,7.895535918581698454e+00,1.438246709211937313e+00,9.777789528712391709e-01,2.096337742748142774e-01,0.000000000000000000e+00,2.578177203345965722e+02
-9.357018083170039802e+00,7.088424680241008247e+00,1.253664175268287329e+00,9.841170519577222553e-01,1.775151487643703008e-01,0.000000000000000000e+00,2.593906106403572380e+02
-9.486781706983364870e+00,6.284172274533909253e+00,1.071798616978336671e+00,9.894003939684115068e-01,1.452062684940973181e-01,0.000000000000000000e+00,2.609635009461179038e+02
-9.603486855526057298e+00,5.484956365787084565e+00,8.915846738875561339e-01,9.936233168569873486e-01,1.127417588691026346e-01,0.000000000000000000e+00,2.625363912518785696e+02
-9.706897548418947252e+00,4.692953431986728319e+00,7.119569741988271971e-01,9.967812947695334769e-01,8.015641204684448295e-02,0.000000000000000000e+00,2.641092815576392354e+02
-9.796752000157582074e+00,3.910338638364879937e+00,5.318501420831790449e-01,9.988709428919735345e-01,4.748514968431895994e-02,0.000000000000000000e+00,2.656821718633999012e+02
-9.871759916366354304e+00,3.151638794694724410e+00,3.531915013426701333e-01,9.998900210782709630e-01,1.476298554660309542e-02,0.000000000000000000e+00,2.672294485174402894e+02
-9.933424717741054621e+00,2.405968070393082137e+00,1.722423467029449984e-01,9.696210115950587571e-01,2.139234177120899472e-02,-2.436708057729844723e-01,2.687767251714806775e+02
-9.981745405789089531e+00,1.675286459942564754e+00,-1.144628964467927189e-02,8.808491902946983254e-01,2.673097542801564433e-02,-4.726395655342977564e-01,2.703240018255210657e+02
-1.001680350176697765e+01,9.615292297006226008e-01,-1.981396220286323895e-01,8.560199191347874770e-01,2.393454119583877937e-02,-5.163865178145649049e-01,2.718712784795614539e+02
-1.003865787459257142e+01,2.666321279707397074e-01,-3.881028448299681521e-01,8.290179760429385869e-01,2.107735878052078085e-02,-5.588228165913226020e-01,2.734185551336018420e+02
-1.004734473946338547e+01,-4.074687241540863036e-01,-5.816011307198013514e-01,7.999118945068467434e-01,1.816667992238582205e-02,-5.998407561725753734e-01,2.749658317876422302e+02
-1.004287765669847410e+01,-1.058836941953139821e+00,-7.788996288968409454e-01,7.687755481037492622e-01,1.520989212566839326e-02,-6.393362306470284917e-01,2.765131084416826184e+02
-1.002524753080386333e+01,-1.685535986244169671e+00,-9.802634633251040563e-01,7.356879630359510758e-01,1.221449991245565983e-02,-6.772089980460405112e-01,2.780603850957230065e+02
-9.993938820361970343e+00,-2.291816435596598645e+00,-1.188228217447692359e+00,7.007331175990012540e-01,9.188105779921381180e-03,-7.133629347048452418e-01,2.796243950274525218e+02
-9.948935021572481219e+00,-2.868609303407399835e+00,-1.400934279427825446e+00,6.639997290902663885e-01,6.138390909072089820e-03,-7.477062791788827711e-01,2.811884049591820371e+02
-9.890405269267681376e+00,-3.414084240779223567e+00,-1.618789931232659463e+00,6.255810286974577972e-01,3.073095673857234849e-03,-7.801518650974788027e-01,2.827524148909115524e+02
-9.818997629439108366e+00,-3.926789697831837955e+00,-1.842467512908881666e+00,5.855745249369939120e-01,0.000000000000000000e+00,-8.106173423649849497e-01,2.843164248226410677e+02
-9.738488110566148492e+00,-4.391815714063403320e+00,-2.065526761307298731e+00,7.697594241280639737e-01,1.407459754418853223e-02,-6.381773536178406703e-01,2.858325664139024411e+02
-9.647838903954470524e+00,-4.824682037250826561e+00,-2.295364352680518305e+00,9.047891352437696932e-01,2.725042073836634118e-02,-4.249847471558993450e-01,2.873487080051638145e+02
-9.547804398326203312e+00,-5.224261039173036636e+00,-2.532693855093655522e+00,9.820409621608355843e-01,3.868609001835592726e-02,-1.846535541985379614e-01,2.888648495964251879e+02
-9.439125950843004986e+00,-5.589420959897926089e+00,-2.778228788834521179e+00,9.965817864270374304e-01,4.765134892139884920e-02,6.746919229384173988e-02,2.903809911876865613e+02
-9.322854935593124281e+00,-5.919312021413178471e+00,-3.032635873137696780e+00,9.474830769237077011e-01,5.357369636953746711e-02,3.152834883108385777e-01,2.918971327789479346e+02
-9.200680045132038742e+00,-6.213650271058290819e+00,-3.296488273206807484e+00,8.378801759393996740e-01,5.607494484992718575e-02,5.429644659909178550e-01,2.934132743702093080e+02
-9.074610594452167334e+00,-6.472428161023506377e+00,-3.570312345283866762e+00,9.053473691449666072e-01,4.153717105648690455e-01,-8.837693841807206518e-02,2.949294159614706814e+02
-8.946655564478030342e+00,-6.695627369809207252e+00,-3.854634382017795513e+00,9.360722153546453539e-01,3.202522752089287938e-01,1.456203552547300495e-01,2.964455575527320548e+02
-8.811208787452651237e+00,-6.892209346879183407e+00,-4.168457573383054893e+00,9.061895982315796294e-01,2.043976334009164064e-01,3.701891672065157901e-01,2.980530021474328919e+02
-8.678381284381428529e+00,-7.046379488599003871e+00,-4.495959205138533754e+00,8.176343202152047684e-01,7.530893738781591074e-02,5.707895254430604970e-01,2.996604467421337290e+02
-8.549761313805545271e+00,-7.158835101947773616e+00,-4.838338891130416819e+00,7.843785636195371724e-01,1.014329603648742861e-01,6.119310610452609600e-01,3.012678913368345661e+02
-8.425078597424564109e+00,-7.231790298577498000e+00,-5.197877903015320378e+00,7.483923528909645073e-01,1.272038900111869819e-01,6.509424371525430741e-01,3.028753359315354032e+02
-8.257680222960667393e+00,-7.262950580218515917e+00,-5.730660895786233056e+00,0.000000000000000000e+00,9.983844631533018710e-01,-5.680196945670642344e-02,3.050836114631876512e+02
-8.089955473668453578e+00,-7.215465314553402010e+00,-6.319549649098694211e+00,4.081438505715209025e-02,9.978246683405279649e-01,5.175052872767943457e-02,3.072918869948398992e+02
-7.966036784122268344e+00,-7.144414426874480917e+00,-6.777466331858469140e+00,8.107982391399500000e-02,9.838443326184724835e-01,1.596069902250729367e-01,3.088811760806968891e+02
-7.837633840714382849e+00,-7.052859482890738718e+00,-7.259774006788635603e+00,1.202547528576992514e-01,9.566314911224695905e-01,2.653167627726186195e-01,3.104704651665538790e+02
-7.695343148928248667e+00,-6.937252858680536427e+00,-7.793278742107383472e+00,1.578122758224531907e-01,9.165521556103991552e-01,3.674580678744239770e-01,3.121493063977750353e+02
-7.544813900994242317e+00,-6.805145884192016048e+00,-8.345556509433862402e+00,1.932472512690127098e-01,8.641453910704877117e-01,4.646571240916265721e-01,3.138281476289961915e+02
-7.384992022309852189e+00,-6.659760298647046994e+00,-8.908316323396395120e+00,2.260830863773561072e-01,8.001160645898474089e-01,5.556066245465611786e-01,3.155069888602173478e+02
-7.214862558402844961e+00,-6.504323768745913448e+00,-9.473267116576037594e+00,2.558781471538286167e-01,7.253253641091970128e-01,6.390833200685656079e-01,3.171858300914385040e+02
-7.033449689843126684e+00,-6.342069684332686030e+00,-1.003211780429628774e+01,2.822316982334162616e-01,6.407792146972540737e-01,7.139644714727254593e-01,3.188646713226596603e+02
-6.839996470356292768e+00,-6.176453092583738425e+00,-1.057673357074807008e+01,3.047892924972596673e-01,5.476147482561699587e-01,7.792429497099214730e-01,3.205435125538808165e+02
-6.634157122953709518e+00,-6.011381772176352278e+00,-1.109959050213265108e+01,3.232475380382590080e-01,4.470850087367330139e-01,8.340407808473885298e-01,3.222223537851019728e+02
-6.415831927849029448e+00,-5.851014235478311676e+00,-1.159391777236089816e+01,3.373581783923914057e-01,3.405420986485929169e-01,8.776209537843587816e-01,3.239011950163231290e+02
-6.194986781695156708e+00,-5.705355854854118114e+00,-1.203565992396359619e+01,3.469314311961577135e-01,2.294189935806829062e-01,9.093973319920788390e-01,3.255105737869507720e+02
-5.963049496498318724e+00,-5.571100638555700257e+00,-1.244083661502216742e+01,3.518385404063183453e-01,1.152102693228961444e-01,9.289425360747919358e-01,3.271199525575784151e+02
-5.720029643607168701e+00,-5.451520143874325264e+00,-1.280388531308053501e+01,3.520135077923879363e-01,-5.479992337527160454e-04,9.359936912342581294e-01,3.287293313282060581e+02
-5.465894898025395854e+00,-5.349362394176718105e+00,-1.311912883446891342e+01,2.667117791109648306e-01,2.447389377469652225e-02,9.634645065623386184e-01,3.303387100988337011e+02
-5.200604311328037355e+00,-5.267113920876765221e+00,-1.338083286188501120e+01,1.791010901817740864e-01,4.928391228887925996e-02,9.825944715311299982e-01,3.319480888694613441e+02
-4.865374206787771882e+00,-5.201348352843784717e+00,-1.360903375308981289e+01,8.993987732009491032e-02,7.366727837904697707e-02,9.932179773654231658e-01,3.338834695940711299e+02
-4.511516780092732937e+00,-5.179247116508885362e+00,-1.372941163772574669e+01,0.000000000000000000e+00,9.741290686787916486e-02,9.952430484926604315e-01,3.358188503186809157e+02
-4.140289193592550987e+00,-5.205886306022779131e+00,-1.374290938828926656e+01,-0.000000000000000000e+00,-9.695091807975529663e-02,9.952881590151888558e-01,3.377542310432907016e+02
-3.832061844723313460e+00,-5.261863482872240816e+00,-1.368766594149581728e+01,-4.291282096655081070e-03,-2.252196961352708748e-01,9.742975281538440724e-01,3.393072186219453101e+02
-3.516842948989684636e+00,-5.346730541399900893e+00,-1.358602888903666184e+01,-8.509987894250357898e-03,-3.496795025689147796e-01,9.368296673276681474e-01,3.408602062005999187e+02
-3.195682970670401968e+00,-5.461726945002084221e+00,-1.344370979673666255e+01,-7.636298918902155453e-03,-2.956295949471905993e-01,9.552710764647325270e-01,3.424131937792545273e+02
-2.869646182278520641e+00,-5.608086648515827832e+00,-1.326642050233671455e+01,-6.737698540331832527e-03,-2.406152762095235820e-01,9.705961530281199678e-01,3.439661813579091358e+02
-2.539652567652125104e+00,-5.786365702856373971e+00,-1.305942225992555095e+01,-5.817118179492025004e-03,-1.848160143417502954e-01,9.827549043270881191e-01,3.455191689365637444e+02
-2.206309502364946162e+00,-5.995771011209366286e+00,-1.282707488738526536e+01,-4.877560955736740152e-03,-1.284138377628337713e-01,9.917076664371218264e-01,3.470721565152183530e+02
-1.834965392561737740e+00,-6.262793623990683400e+00,-1.254507796102027584e+01,-3.922091891688285654e-03,-7.159274161279889637e-02,9.974252335606494935e-01,3.487856200276899585e+02
-1.460267864205473609e+00,-6.567155712491932640e+00,-1.224046148778590926e+01,-2.953827916271877397e-03,-1.453808762843182729e-02,9.998889532886163778e-01,3.504990835401615641e+02
-1.082806207041905999e+00,-6.906685041851709173e+00,-1.191892329498375069e+01,-1.975927698488835933e-03,4.256400043828593299e-02,9.990907874543366596e-01,3.522125470526331696e+02
-7.031422808850101847e-01,-7.279206215262223445e+00,-1.158616134747735771e+01,-9.915813450336687963e-04,9.952724389017328366e-02,9.950333383809690790e-01,3.539260105651047752e+02
-3.218105082685695506e-01,-7.682540820341413834e+00,-1.124787370130975894e+01,-3.999995304131439757e-06,1.561658166662475977e-01,9.877298404362626627e-01,3.556394740775763808e+02
6.110602253476438150e-02,-8.113963336222878908e+00,-1.090829721675129527e+01,-3.336342326332634652e-06,1.342128265673918630e-01,9.909515210958855791e-01,3.573529375900479863e+02
4.436776068890483371e-01,-8.566326288065491568e+00,-1.057112897193445811e+01,-2.671046988837721208e-06,1.121937671884797733e-01,9.936853418390096948e-01,3.590543796104893772e+02
8.298165313380274632e-01,-9.038242652084036877e+00,-1.023384257510462803e+01,-2.004436753114909808e-06,9.011947642004634884e-02,9.959299573537451211e-01,3.607558216309307682e+02
1.220816364798350762e+00,-9.525487685835258844e+00,-9.896295076548511815e+00,-1.336839726995968190e-06,6.800081930634807592e-02,9.976842629613479341e-01,3.624572636513721591e+02
1.618023536359850301e+00,-1.002384455328653168e+01,-9.558343528486792806e+00,-6.685845035928538692e-07,4.584868271106449372e-02,9.989473951524817652e-01,3.641587056718135500e+02
2.022837313659636038e+00,-1.052910460480033805e+01,-9.219844986226803485e+00,-0.000000000000000000e+00,2.367396997322678345e-02,9.997187320112477238e-01,3.658601476922549409e+02
2.435794698606351449e+00,-1.103728446761907378e+01,-8.879849403732679392e+00,-1.815685972366613410e-06,8.631051170094888869e-02,9.962672811885360247e-01,3.675615897126963318e+02
2.855651706622530206e+00,-1.154483592144323723e+01,-8.535792535674534776e+00,-3.624226711587903945e-06,1.486073979362688424e-01,9.888952630413665457e-01,3.692630317331377228e+02
3.255103627944470279e+00,-1.201917852431938094e+01,-8.205468127800012113e+00,-5.418505219052842428e-06,2.103194769713875589e-01,9.776316881000031156e-01,3.708643974005989890e+02
3.656835970766357580e+00,-1.248764872696088624e+01,-7.866207124534653872e+00,-7.191460618315129887e-06,2.712038983333718289e-01,9.625208805408472790e-01,3.724657630680602551e+02
4.059242059229788424e+00,-1.294759900074834569e+01,-7.515336428146967229e+00,-8.936115937843508848e-06,3.310210683394158027e-01,9.436223038035528310e-01,3.740671287355215213e+02
4.460746416316915486e+00,-1.339637291394354612e+01,-7.150183023361644352e+00,-1.064560556384511033e-05,3.895355928452018390e-01,9.210103266485138995e-01,3.756684944029827875e+02
4.859804786076690419e+00,-1.383130528718912089e+01,-6.768073996371070322e+00,-1.231320225525063741e-05,4.465172034807274315e-01,8.947739305789715880e-01,3.772698600704440537e+02
5.254904155522148734e+00,-1.424972234910161717e+01,-6.366336553846143609e+00,-1.393234361465973069e-05,5.017416637323274253e-01,8.650163597761567624e-01,3.788712257379053199e+02
5.644562776198638332e+00,-1.464894189195653773e+01,-5.942298041946572518e+00,-1.549665791116819078e-05,5.549916513083045233e-01,8.318547149214672309e-01,3.804725914053665861e+02
6.027330185422846931e+00,-1.502627342746400529e+01,-5.493285965330537479e+00,-1.699998915352857377e-05,6.060576133181894143e-01,7.954194924999823391e-01,3.820739570728278522e+02
6.402024003174593858e+00,-1.537928234444531483e+01,-5.017466525837381397e+00,-8.714160024713584786e-06,6.747554542646525544e-01,7.380400238874712526e-01,3.836753227402891184e+02
6.839165594560392414e+00,-1.576425605585862755e+01,-4.407777493367215804e+00,-3.585205410199641569e-07,7.380472384462178903e-01,6.747475630322210538e-01,3.855974869278406914e+02
7.260927062611942873e+00,-1.610052092487731201e+01,-3.754447636300422442e+00,7.999989140413108610e-06,7.954259202489223357e-01,6.060491773184206732e-01,3.875196511153922643e+02
7.665671676809430402e+00,-1.638559133767443043e+01,-3.059820183295923535e+00,6.003447275242286630e-06,8.086875497486893938e-01,5.882367268597092913e-01,3.894418153029438372e+02
7.986961063577935782e+00,-1.658543894356381543e+01,-2.457751408089781986e+00,4.003944591395868871e-06,8.215503719717091036e-01,5.701341826957058156e-01,3.910340298006260582e+02
8.294402301089739638e+00,-1.675582256751168231e+01,-1.836447909961657743e+00,2.002466653143350101e-06,8.340080464920200942e-01,5.517504674787980790e-01,3.926262442983082792e+02
8.586027354121799959e+00,-1.689683777510576945e+01,-1.198484561230682033e+00,0.000000000000000000e+00,8.460544322668346329e-01,5.330946422741880131e-01,3.942184587959905002e+02
8.859893897135144414e+00,-1.700883418144404757e+01,-5.468182954151153963e-01,-4.820826492293019128e-02,8.823206484469500177e-01,4.681711615612655364e-01,3.958106732936727212e+02
9.104511577875362249e+00,-1.709030456701287193e+01,8.760757161139373639e-02,-9.603787901766490387e-02,9.116568066446733010e-01,3.995705102891313198e-01,3.973379658955657874e+02
9.330115654156259097e+00,-1.714787512087462673e+01,7.274046074149731478e-01,-1.431131713361313007e-01,9.338324929755451587e-01,3.278315043644232096e-01,3.988652584974588535e+02
9.535099044237481891e+00,-1.718249004482509790e+01,1.369076555101330195e+00,-1.890643961725632649e-01,9.486735350473675110e-01,2.535176088587287602e-01,4.003925510993519197e+02
9.717843158189721109e+00,-1.719508485848379920e+01,2.009127145641507184e+00,-2.335306372001663133e-01,9.560633697694566058e-01,1.772125121850524065e-01,4.019198437012449858e+02
9.876717919019259995e+00,-1.718658634448878786e+01,2.644060120479720943e+00,-2.761626422186226892e-01,9.559439586337196149e-01,9.951554147806541961e-02,4.034471363031380520e+02
1.001008178390365089e+01,-1.715791249377702599e+01,3.270379254141023484e+00,-3.166255662481883837e-01,9.483162433044955986e-01,2.103695520210341341e-02,4.049744289050311181e+02
1.011628176553840142e+01,-1.710997245095067498e+01,3.884588376838840063e+00,-3.546016014287784457e-01,9.332401379573836975e-01,-5.760685003445976254e-02,4.065017215069241843e+02
1.019365345359456931e+01,-1.704366645972986660e+01,4.483191397082235241e+00,-3.897924730740328636e-01,9.108340584458703981e-01,-1.357981808105405142e-01,4.080290141088172504e+02
1.024052103628711308e+01,-1.695988580849233074e+01,5.062692324282774159e+00,-4.219217822837038057e-01,8.812739920112185876e-01,-2.129228983478907711e-01,4.095563067107103166e+02
1.025519732205389545e+01,-1.685951277590030983e+01,5.619595291360886868e+00,-4.507371767244026106e-01,8.447921148573285244e-01,-2.883752419941771894e-01,4.110835993126033827e+02
1.023598376134524024e+01,-1.674342057661526439e+01,6.150404577351624269e+00,-4.760123325391987792e-01,8.016749684599806525e-01,-3.615625868603486448e-01,4.126108919144964489e+02
1.018117046852389862e+01,-1.661247330710073200e+01,6.651624630009680850e+00,-4.975487318301110573e-01,7.522612089413860392e-01,-4.319100982591105309e-01,4.141381845163895150e+02
1.007974071497718427e+01,-1.645641677125900415e+01,7.149892829690814189e+00,-5.151772217625080197e-01,6.969389471894419374e-01,-4.988652464037193202e-01,4.157720594580900979e+02
9.931529353559257700e+00,-1.628467536811903216e+01,7.604356295536334187e+00,-4.711698250525133691e-01,6.409557283566804653e-01,-6.059478114891631018e-01,4.174059343997906808e+02
9.737047819605377796e+00,-1.609919229112142247e+01,8.012871319009045479e+00,-4.193704694032804325e-01,5.743727203469485287e-01,-7.030095216392946433e-01,4.190398093414912637e+02
9.497709699272352424e+00,-1.590219678825947724e+01,8.374089407085136827e+00,-3.606357834583678867e-01,4.982910355864810792e-01,-7.884452267249042468e-01,4.206736842831918466e+02
9.214899429098014849e+00,-1.569592596282843466e+01,8.686662416743557102e+00,-2.959370872987276413e-01,4.139688686939323459e-01,-8.608420390031479297e-01,4.223075592248924295e+02
8.889972276448833810e+00,-1.548262462468232847e+01,8.949242564940641742e+00,-2.263443299816221832e-01,3.228006900576384508e-01,-9.190026979204383162e-01,4.239414341665930124e+02
8.524254320290387099e+00,-1.526454514140720420e+01,9.160482438582709719e+00,-1.530083961310036433e-01,2.262941859352027851e-01,-9.619653695049218411e-01,4.255753091082935953e+02
8.119042432280817678e+00,-1.504394728941212023e+01,9.319035004496582175e+00,-7.714207405483466951e-02,1.260453262576606281e-01,-9.890195529615819492e-01,4.272091840499941782e+02
7.632900189654531431e+00,-1.480384071708546934e+01,9.427798055837538271e+00,-0.000000000000000000e+00,2.371197228180339442e-02,-9.997178313761895252e-01,4.289872703554020745e+02
7.099985303904564837e+00,-1.456643310477494424e+01,9.468868875264353946e+00,-7.892990921127130202e-03,0.000000000000000000e+00,-9.999678497920404530e-01,4.307653566608099709e+02
6.523830434009679102e+00,-1.433338018803927660e+01,9.449138424217506937e+00,-2.872728885472881633e-01,3.020151847007489232e-02,-9.573714826484192031e-01,4.325434429662178673e+02
5.925943321817319642e+00,-1.411056188500556630e+01,9.382019512712435727e+00,-5.434469747315679999e-01,5.796336819077416852e-02,-8.374387342386809818e-01,4.342762899229354048e+02
5.297770943321726378e+00,-1.389158796112955940e+01,9.278523549310115470e+00,-7.557215732820177223e-01,8.104295423911778151e-02,-6.498576330580629890e-01,4.360091368796529423e+02
4.644822661161333244e+00,-1.367586379624648352e+01,9.147874444476265410e+00,-6.115149142376264946e-01,9.641599621263295672e-02,-7.853352566502768140e-01,4.377419838363704798e+02
4.031534715427889992e+00,-1.348022679763764486e+01,9.011177022747485665e+00,-4.432229302732431653e-01,1.079915881966053010e-01,-8.898815937847283086e-01,4.393273710104307952e+02
3.408783094268843961e+00,-1.328498206257259717e+01,8.863449436868512166e+00,-2.574739619737981822e-01,1.153138048074176941e-01,-9.593789060240146549e-01,4.409127581844911106e+02
2.781326416907596411e+00,-1.308913807947474517e+01,8.709145898826534449e+00,-6.158395249877657296e-02,1.180942434069155444e-01,-9.910898881866269106e-01,4.424981453585514259e+02
2.153934437431757054e+00,-1.289172954041800701e+01,8.552720666334327149e+00,1.367316977029822134e-01,1.162233860325112417e-01,-9.837655042636471725e-01,4.440835325326117413e+02
1.531387980093475987e+00,-1.269181739585612156e+01,8.398628011787900860e+00,3.296620231152499469e-01,1.097749153141582001e-01,-9.376942030747426049e-01,4.456689197066720567e+02
9.184788744955040274e-01,-1.248848890908081266e+01,8.251322191224103264e+00,5.096081590780147108e-01,9.900281355549056528e-02,-8.546905680455579857e-01,4.472543068807323721e+02
3.200098906633520035e-01,-1.228085771040831453e+01,8.115257413278314402e+00,6.694826561777903473e-01,8.433135883447590020e-02,-7.380238444599726000e-01,4.488396940547926874e+02
-2.592053259960639400e-01,-1.206806385109381452e+01,7.994887808142376429e+00,8.029886460050812413e-01,6.633841231103834724e-02,-5.922891603235169722e-01,4.504250812288530028e+02
-4.137733330147618238e-01,-1.200921158180235082e+01,7.964753514184329752e+00,9.048678568021243374e-01,4.573265567638402918e-02,-4.232265184620244147e-01,4.508570014242857837e+02
-1.033873209243223013e+00,-1.176006032801269718e+01,7.854286511154101369e+00,9.711077085916172136e-01,2.332567623659526079e-02,-2.374946970797414125e-01,4.526471057173492909e+02
-1.612169483512342127e+00,-1.150068216052808090e+01,7.769964186724556576e+00,9.990993339585199084e-01,0.000000000000000000e+00,-4.240897172840243229e-02,4.544372100104127981e+02
-2.142243571796498269e+00,-1.122958284264470130e+01,7.708123957572428075e+00,9.990993332535061944e-01,-0.000000000000000000e+00,-4.240897169847657883e-02,4.562273143034763052e+02
-2.617266738358618561e+00,-1.094537870567445914e+01,7.661386393703589093e+00,6.921409340576635261e-01,-0.000000000000000000e+00,-7.217609904965988088e-01,4.580174185965398124e+02
-3.030195100905247241e+00,-1.064676406151441235e+01,7.620513607401613321e+00,5.299993955616641179e-04,-0.000000000000000000e+00,-9.999988595503095379e-01,4.598075228896033195e+02
-3.404019973574288649e+00,-1.029564350233981074e+01,7.572848420275333226e+00,4.169530785743756907e-01,4.529412474209571632e-02,-9.077976495522456224e-01,4.617980492884489081e+02
-3.676078541099137453e+00,-9.922975601585047656e+00,7.518074708110595417e+00,7.566728811008494038e-01,8.225587836747591530e-02,-6.485970409135887182e-01,4.637885756872944967e+02
-3.840353961187409570e+00,-9.529168834394644350e+00,7.453883522673575790e+00,7.550757964904738495e-01,2.554995927611568990e-02,-6.551379557806323861e-01,4.657791020861400852e+02
-3.898521210348742994e+00,-9.163490294064816410e+00,7.387907804913630194e+00,6.590534516584888314e-01,1.078671533496725621e-01,-7.443193031803649884e-01,4.675486979039659445e+02
-3.878611938914867885e+00,-8.785719003609681721e+00,7.312913335608833165e+00,5.472469119253028369e-01,1.876009636281161796e-01,-8.156743810096410696e-01,4.693182937217918038e+02
-3.802270987228016708e+00,-8.449330024824281082e+00,7.240151016498035830e+00,4.223338967758962226e-01,2.628417910506486432e-01,-8.674942492676822603e-01,4.708566169981860412e+02
-3.677355626845536740e+00,-8.107488394547397448e+00,7.160339027669293088e+00,2.873060232881916587e-01,3.317876362785645017e-01,-8.985378196802467077e-01,4.723949402745802786e+02
