-4.490995337150758715e+00,1.647049207060189246e+01,-8.097552815438234575e+00,4.835294157386399450e-01,4.982784431975507966e-02,8.739075981161877893e-01,4.895812993759756182e+01
-4.234026095917501564e+00,1.656991803001290720e+01,-8.540934073890904088e+00,3.929044487389432572e-01,4.365734123405916323e-02,9.185413059394110791e-01,5.048795735967419773e+01
-3.970963307733929248e+00,1.663612643712779260e+01,-8.978872927708827945e+00,2.982549030237791055e-01,3.703964951800046285e-02,9.537662591983232518e-01,5.201778478175083364e+01
-3.704319700746072197e+00,1.666950125480472167e+01,-9.409649461580817942e+00,2.005502775541377347e-01,3.004255441678143138e-02,9.792216455410993614e-01,5.354761220382746956e+01
-3.436602955003509763e+00,1.667043899516887961e+01,-9.831543806587628609e+00,1.007913646263624702e-01,2.273772737333837335e-02,9.946467194786005050e-01,5.507743962590410547e+01
-3.170315673937641687e+00,1.663934869608722167e+01,-1.024283615135862036e+01,0.000000000000000000e+00,1.519999199371368896e-02,9.998834733317381041e-01,5.660726704798074138e+01
-2.907103097681016823e+00,1.657732521665525027e+01,-1.064139200193333323e+01,-0.000000000000000000e+00,4.172294161665150887e-03,9.999902959271851355e-01,5.813709447005737729e+01
-2.640158284425355273e+00,1.648388649097824654e+01,-1.103400053152764038e+01,-0.000000000000000000e+00,-6.855908909492898495e-03,9.999754979499855256e-01,5.970669106181776442e+01
-2.375342653128952541e+00,1.636338175517404991e+01,-1.140655473313415769e+01,-0.000000000000000000e+00,-1.788327625324216685e-02,9.998390812615326473e-01,6.127628765357815155e+01
-2.111569918330281848e+00,1.621923336772021074e+01,-1.175542787295012559e+01,-0.000000000000000000e+00,-2.890846700660624005e-02,9.995810625071457345e-01,6.284588424533853868e+01
-1.847710474266357705e+00,1.605485777867723485e+01,-1.207699337882409907e+01,-0.000000000000000000e+00,-3.993014057283689189e-02,9.992014731081632073e-01,6.441548083709892580e+01
-1.582591409645198732e+00,1.587366532293426680e+01,-1.236762486502659009e+01,-0.000000000000000000e+00,-5.094695678397787725e-02,9.987003592580795397e-01,6.598507742885931293e+01
-1.314996522843438598e+00,1.567906001351638778e+01,-1.262369615702029968e+01,-0.000000000000000000e+00,-6.195757606337539553e-02,9.980777819169028842e-01,6.755467402061970006e+01
-1.043666337528919241e+00,1.547443933495549118e+01,-1.284158131622882237e+01,-0.000000000000000000e+00,-7.296065958811630281e-02,9.973338168037325646e-01,6.912427061238008719e+01
-7.672981187082540400e-01,1.526319403672643560e+01,-1.301765466480370570e+01,-0.000000000000000000e+00,-8.395486945137441148e-02,9.964685543875577700e-01,7.069386720414047431e+01
-4.845458891993740802e-01,1.504870792675017022e+01,-1.314829081039024672e+01,-0.000000000000000000e+00,-9.493886882464608323e-02,9.954820998762801132e-01,7.226346379590086144e+01
-1.940204465289262215e-01,1.483435766496547714e+01,-1.322986467089188167e+01,-0.000000000000000000e+00,-1.059113221198559884e-01,9.943745732039576124e-01,7.383306038766124857e+01
1.071816471244965013e-01,1.462252635185111238e+01,-1.325878739671354367e+01,-0.000000000000000000e+00,-1.168708951513131450e-01,9.931461090162760907e-01,7.541019847128949039e+01
4.189508526629488472e-01,1.441755313252806481e+01,-1.323125042090131132e+01,4.271009153723480975e-04,-3.938973353242305325e-02,9.992228312402899881e-01,7.698733655491773220e+01
7.421216902715470631e-01,1.422250162521180705e+01,-1.314461187099470685e+01,8.516217579232864118e-04,3.832932482848624284e-02,9.992637977999676568e-01,7.856447463854597402e+01
1.077332391316661697e+00,1.404031425362125773e+01,-1.299657368141120806e+01,1.270998420251536658e-03,1.158168560489946514e-01,9.932687654470839789e-01,8.014161272217421583e+01
1.217009271658083369e+00,1.396959062623452041e+01,-1.291901828212061609e+01,0.000000000000000000e+00,1.173078338390019654e-01,9.930945933284813787e-01,8.078403856062790567e+01
1.571246942678931058e+00,1.380308133698656725e+01,-1.268277579662697363e+01,-1.177648228227758248e-01,0.000000000000000000e+00,9.930405059701521431e-01,8.238127097373336483e+01
1.934762038697704245e+00,1.365154321095209866e+01,-1.238301667300961029e+01,-1.718334208608132685e-01,1.903875956595443147e-02,9.849410140260459467e-01,8.397850338683882399e+01
2.304228891747543084e+00,1.351304924181285472e+01,-1.202228632934085084e+01,-2.253261143692684432e-01,3.801370885045658038e-02,9.735404974236920861e-01,8.557573579994428314e+01
2.674183717925471271e+00,1.338582598959757419e+01,-1.160703093816041331e+01,-2.780636239689197597e-01,5.686125376168874729e-02,9.588771656720611603e-01,8.716453624033491110e+01
3.043008678013606527e+00,1.326649514350849834e+01,-1.114033835142204865e+01,-3.298692013560086123e-01,7.551822724213318183e-02,9.410001633115568920e-01,8.875333668072553905e+01
3.407120551105365713e+00,1.315248642519114064e+01,-1.062707973279073492e+01,-3.805692216246341908e-01,9.392210095604157372e-02,9.199694052007826306e-01,9.034213712111616701e+01
3.762903118514091094e+00,1.304124863299855619e+01,-1.007212657174973636e+01,-4.299937651198358912e-01,1.120111948355999726e-01,8.958553757114162686e-01,9.193093756150679496e+01
4.106707210203971670e+00,1.293024980152363668e+01,-9.480350649506496197e+00,-4.779771868733713180e-01,1.297248837840308811e-01,8.687388925087369262e-01,9.351973800189742292e+01
4.434850751552385617e+00,1.281697736093721751e+01,-8.856624004897225788e+00,-5.243586717152480814e-01,1.470038008434053078e-01,8.387108357092184496e-01,9.510853844228805087e+01
4.743618810443515521e+00,1.269893829613063296e+01,-8.205818900290573481e+00,-5.689827732020049655e-01,1.637900361467729271e-01,8.058718433223677202e-01,9.669733888267867883e+01
5.029263644693759971e+00,1.257365930566141365e+01,-7.532807787490776619e+00,-6.116999345568586710e-01,1.800273309883163586e-01,7.703319739967228186e-01,9.828613932306930678e+01
5.288004749808587590e+00,1.243868696050074085e+01,-6.842463273640483123e+00,-6.523669898769680620e-01,1.956612663615568681e-01,7.322103381992772775e-01,9.987493976345993474e+01
5.516028907070595899e+00,1.229158786258133773e+01,-6.139658087122779051e+00,-6.908476439290043292e-01,2.106394453341159378e-01,6.916346990631832004e-01,1.014637402038505627e+02
5.709490231958781692e+00,1.212994880314447776e+01,-5.429265043461961149e+00,-7.270129289257662997e-01,2.249116686481305305e-01,6.487410442400828314e-01,1.030525406442411906e+02
5.893918362322948745e+00,1.190761685918481128e+01,-4.555352440020153715e+00,-9.246034767262547582e-01,-1.743419773614379165e-01,3.386905457147098009e-01,1.050000257257920424e+02
6.015732532963694368e+00,1.165574460997370032e+01,-3.685298752403003419e+00,-8.498265231567917466e-01,-5.222387069684532035e-01,-7.113096008795406766e-02,1.069475108073428942e+02
6.069592761035269568e+00,1.140428744027660279e+01,-2.910340464998996790e+00,-9.225027107052581332e-01,-3.820525499434559435e-01,-5.497815768559451838e-02,1.087028936583431147e+02
6.069843590952862300e+00,1.113247170484790161e+01,-2.148861494745224476e+00,-9.719364694593536358e-01,-2.322406754257876627e-01,-3.744019247301075964e-02,1.104582765093433352e+02
6.016689543848865007e+00,1.084325615600096171e+01,-1.404591312604787756e+00,-9.968823582192178900e-01,-7.657756097871246115e-02,-1.895892997445768405e-02,1.122136593603435557e+02
5.910372050156327717e+00,1.053959809386646818e+01,-6.812592424655978807e-01,-9.967118863751273095e-01,8.101490948214877530e-02,-0.000000000000000000e+00,1.139690422113437762e+02
5.752301432961820282e+00,1.022475837372543772e+01,1.831943836322463132e-02,-9.941281149482134039e-01,8.137915063956752126e-02,-7.130725707760776633e-02,1.157244250623439967e+02
5.577653888911552116e+00,9.947529845914644397e+00,6.010118626852647417e-01,-9.864826969030150439e-01,8.132904630158882542e-02,-1.422514496934058070e-01,1.172373069545191839e+02
5.371217294258133990e+00,9.667832660770567799e+00,1.164488204204608524e+00,-9.738145594085826362e-01,8.086485158871307977e-02,-2.124713619824247501e-01,1.187501888466943711e+02
5.136080084600047613e+00,9.388068159986728389e+00,1.708699740333128769e+00,-9.561882031422715977e-01,7.998892999030605966e-02,-2.816094658420491004e-01,1.202630707388695583e+02
4.875358876403248942e+00,9.110622159024680755e+00,2.233597870740575253e+00,-9.336933738669894733e-01,7.870574132979393789e-02,-3.493137413270714364e-01,1.217759526310447455e+02
4.592198431240682055e+00,8.837864818078587703e+00,2.739134117658062362e+00,-9.064446054661884355e-01,7.702181905577903942e-02,-4.152394689958151530e-01,1.232888345232199327e+02
4.289771619776992395e+00,8.572150513181970410e+00,3.225260126181432430e+00,-8.745806367648886193e-01,7.494573697482374841e-02,-4.790509850805022563e-01,1.248017164153951200e+02
3.971279385498649450e+00,8.315817707457600960e+00,3.691927664574211843e+00,-8.382637051071618606e-01,7.248806559537107619e-02,-5.404233905445524622e-01,1.263145983075703072e+02
3.639950708189676032e+00,8.071188822511471628e+00,4.139088624569544628e+00,-7.976787202881371330e-01,6.966131830517877099e-02,-5.990442053245498277e-01,1.278274801997454944e+02
3.299042567153067207e+00,7.840570109971880974e+00,4.566695021671488774e+00,-7.530323230478557228e-01,6.647988765641561770e-02,-6.546149593339890549e-01,1.293403620919206674e+02
2.951839904178241714e+00,7.626251523174677693e+00,4.974698995455837824e+00,-7.045518329220857856e-01,6.295997208294094871e-02,-7.068527121281976688e-01,1.308532439840958546e+02
2.601655586254765229e+00,7.430506588995707595e+00,5.363052809870382021e+00,-6.524840908084987845e-01,5.911949342300136523e-02,-7.554914934933433246e-01,1.323661258762710418e+02
2.251830368032454732e+00,7.255592279831332370e+00,5.731708853534509096e+00,-5.970942021425749147e-01,5.497800566738670486e-02,-8.002836576253380407e-01,1.338790077684462290e+02
1.905732854028118650e+00,7.103748885728027318e+00,6.080619640037854268e+00,-5.386641870834877333e-01,5.055659539775372163e-02,-8.410011440046588627e-01,1.353918896606214162e+02
1.566759460579185914e+00,6.977199886661991535e+00,6.409737808238577195e+00,-4.774915445834682637e-01,4.587777442211795481e-02,-8.774366385483783892e-01,1.369047715527966034e+02
1.238334377544454856e+00,6.878151824969811479e+00,6.719016122561471960e+00,-4.138877376523731333e-01,4.096536515422601749e-02,-9.094046291286003170e-01,1.384176534449717906e+02
9.239095297521926486e-01,6.808794177931320135e+00,7.008407473295366508e+00,-3.481766075301297447e-01,3.584437932044194641e-02,-9.367423500844397344e-01,1.399305353371469778e+02
6.269645381956103769e-01,6.771299230505619882e+00,7.277864876889879042e+00,-2.806927248414117781e-01,3.054089061173149641e-02,-9.593106109199194265e-01,1.414434172293221650e+02
3.416774703550963244e-01,6.768813165797812559e+00,7.535987786016721479e+00,-2.117796861274592601e-01,2.508190192913289929e-02,-9.769945049698061101e-01,1.430104589938938489e+02
8.304284654288264511e-02,6.806116445362914824e+00,7.772795152082407455e+00,-1.417883644277836419e-01,1.949520789860580833e-02,-9.897039944264767186e-01,1.445775007584655327e+02
-1.449458608453144393e-01,6.885622717769448897e+00,7.988235603914257688e+00,-7.107512281819890199e-02,1.380925335521453884e-02,-9.973743687502693023e-01,1.461445425230372166e+02
-3.382630898049058810e-01,7.009724986800107693e+00,8.182257915755073441e+00,-0.000000000000000000e+00,8.052988517103476865e-03,-9.999665741302532496e-01,1.477115842876089005e+02
-4.927774294766674723e-01,7.180286620124289421e+00,8.356188617219086012e+00,2.480648213142977454e-02,-3.328825544376778911e-02,-9.991368927703728753e-01,1.492786260521805843e+02
-6.041864558283104314e-01,7.398131859682175460e+00,8.514109593866782788e+00,4.955528359987007581e-02,-7.455209612162742860e-02,-9.959840655514209384e-01,1.508456678167522682e+02
-6.707370894174901066e-01,7.662671921370853845e+00,8.660074675624755969e+00,7.418885998289542760e-02,-1.156425893159232915e-01,-9.905154237021905894e-01,1.524127095813239521e+02
-6.959523045049569312e-01,7.971549959272767438e+00,8.795326225396797426e+00,9.864993479936944032e-02,-1.564641939287245986e-01,-9.827436829527518292e-01,1.539797513458956360e+02
-6.860199374005748751e-01,8.321550475662686353e+00,8.919700904776195927e+00,1.228816326759893801e-01,-1.969219940957168125e-01,-9.726869139622991156e-01,1.555467931104673198e+02
-6.471664883415377822e-01,8.709490523047431765e+00,9.033035449329577915e+00,1.468276115808932192e-01,-2.369219198629048118e-01,-9.603685002993336273e-01,1.571138348750390037e+02
-5.856570429328179506e-01,9.132219887963302085e+00,9.135166669706139331e+00,1.704321938170866024e-01,-2.763709658962886229e-01,-9.458170840714991146e-01,1.586808766396106876e+02
-5.070805672607837655e-01,9.590695615313643785e+00,9.226666145657427265e+00,1.936404954713352999e-01,-3.151774077163534971e-01,-9.290664993314886599e-01,1.602612433546739510e+02
-4.183632263746541180e-01,1.007838783673383176e+01,9.306462677549779627e+00,2.163985540177539579e-01,-3.532510149549621947e-01,-9.101556934137911004e-01,1.618416100697372144e+02
-3.260605672749574135e-01,1.059214990878195906e+01,9.374389470919997081e+00,2.386534537796070055e-01,-3.905032611391511255e-01,-8.891286363850489094e-01,1.634219767848004778e+02
-2.367678336529269179e-01,1.112886990739005100e+01,9.430279813410846756e+00,2.603534489578043232e-01,-4.268475295143882020e-01,-8.660342188183842715e-01,1.650023434998637413e+02
-1.567746933518116281e-01,1.168541127944237523e+01,9.474043276606206376e+00,2.814480839402158652e-01,-4.621993144290285072e-01,-8.409261381291346371e-01,1.665827102149270047e+02
-8.929722773194818941e-02,1.225866285531659017e+01,9.506237912469702067e+00,3.018883106122317583e-01,-4.964764178119956961e-01,-8.138627737359940273e-01,1.681630769299902681e+02
-3.239886498910311136e-02,1.284568974327929247e+01,9.528490043934235487e+00,3.216266023959436504e-01,-5.295991402870849907e-01,-7.849070513374922786e-01,1.697434436450535316e+02
1.824311907424795709e-02,1.344365458170471861e+01,9.542922057824668514e+00,3.406170647529017104e-01,-5.614904664797094602e-01,-7.541262966190149797e-01,1.713238103601167950e+02
6.691478932343294939e-02,1.404969744277299881e+01,9.551656395022019908e+00,3.588155418935968788e-01,-5.920762440853672981e-01,-7.215920787301187689e-01,1.729041770751800584e+02
1.164822076889024532e-01,1.466096982983405361e+01,9.556229156342840980e+00,3.211849428912349480e-01,-5.992670522976669689e-01,-7.332920512941952795e-01,1.744845437902433218e+02
1.670086399334173854e-01,1.527467837061095857e+01,9.557003712480828028e+00,2.830389527178454601e-01,-6.054962389530291755e-01,-7.438153372033975419e-01,1.760649105053065853e+02
2.171386456926404640e-01,1.588806571331446627e+01,9.553757080909006660e+00,2.444387825824987093e-01,-6.107538085137781403e-01,-7.531450504095669185e-01,1.776452772203698487e+02
2.654816520874489494e-01,1.649838172345762999e+01,9.546266306842916549e+00,2.054463724580465334e-01,-6.150313245328966616e-01,-7.612662201149514862e-01,1.792256439354331121e+02
3.106119712482035000e-01,1.710288365277753897e+01,9.534308464784515991e+00,1.661242916940164627e-01,-6.183219231889047762e-01,-7.681658147913962287e-01,1.808060106504963755e+02
3.510688181889534132e-01,1.769883630808381270e+01,9.517660660065986988e+00,1.265356386200930661e-01,-6.206203242976541246e-01,-7.738327630881846053e-01,1.823863773655596390e+02
3.840355710544661183e-01,1.825800057471596105e+01,9.497142706812709889e+00,8.674393930121074292e-02,-6.219228397834201116e-01,-7.782579715950620480e-01,1.838965192883133568e+02
4.101226489325612845e-01,1.880487668473759300e+01,9.471894744378179354e+00,4.681304560662421371e-02,-6.222273795957306008e-01,-7.814343394319780423e-01,1.854066612110670746e+02
4.279800192155507887e-01,1.933717074354014187e+01,9.441720300540175970e+00,6.807032756418628441e-03,-6.215334550624512788e-01,-7.833567696421649407e-01,1.869168031338207925e+02
4.362289078644623896e-01,1.985259559484360636e+01,9.406422934140351799e+00,-3.320990349024550287e-02,-6.198421796737618727e-01,-7.840221773702942265e-01,1.884269450565745103e+02
4.334618147114367437e-01,2.034887095235801624e+01,9.365806236326497114e+00,-7.317354984028126563e-02,-6.171562672957620066e-01,-7.834294948125956060e-01,1.899370869793282282e+02
4.182425290226808867e-01,2.082372353138392285e+01,9.319673831794842656e+00,-1.130197785000408711e-01,-6.134800278165758458e-01,-7.815796729309995028e-01,1.914472289020819460e+02
3.891061453219151200e-01,2.127488718035090898e+01,9.267829380032241104e+00,-1.526846500716714516e-01,-6.088193602319189601e-01,-7.784756799285390549e-01,1.929573708248356638e+02
3.445590794741454910e-01,2.170010301229311978e+01,9.210076576558172690e+00,-1.921045161474519147e-01,-6.031817431812098729e-01,-7.741224964884403370e-01,1.944675127475893817e+02
2.830790850296747707e-01,2.209711953626084480e+01,9.146219154166603360e+00,-2.312161214375831608e-01,-5.965762229493768443e-01,-7.685271077845109433e-01,1.959776546703430995e+02
2.031152698282741309e-01,2.246369278866704278e+01,9.076060884167670650e+00,-2.699567052676475343e-01,-5.890133989535802916e-01,-7.616984922756067089e-01,1.974877965930968173e+02
1.030881128634262012e-01,2.279758646456786053e+01,8.999405577629207897e+00,-3.082641022829544775e-01,-5.805054067380960303e-01,-7.536476073021112221e-01,1.989979385158505352e+02
-1.861051859345680751e-02,2.309657204887611925e+01,8.916057086618030425e+00,-3.460768421982581278e-01,-5.710658985045954372e-01,-7.443873715074829089e-01,2.005080804386042530e+02
-1.636173516089334812e-01,2.335842894750672727e+01,8.825819305440996132e+00,-3.833342484328515765e-01,-5.607100212090149194e-01,-7.339326441130157308e-01,2.020182223613579708e+02
-3.335976899436506882e-01,2.358094461845300316e+01,8.728496171885929300e+00,-4.199765354728211553e-01,-5.494543922600975128e-01,-7.223002010789976168e-01,2.035283642841116887e+02
-5.290288205570861102e-01,2.376241744105955433e+01,8.623813296813933604e+00,-3.141385007942008034e-01,-5.743715676271480275e-01,-7.559181864601064449e-01,2.050385062068654065e+02
-7.479751150964361051e-01,2.390215147305213605e+01,8.511339594247123941e+00,-2.042315232335925046e-01,-5.918490498460435845e-01,-7.797449500413348167e-01,2.065486481296191243e+02
-9.872921525850979485e-01,2.399994162773111128e+01,8.390565655744238072e+00,-9.167919634133196716e-02,-6.016604607407545213e-01,-7.934718740701748319e-01,2.080587900523728422e+02
-1.261761845672406457e+00,2.405668417757481947e+01,8.251989580922478140e+00,2.206062339442155240e-02,-6.036787175315465603e-01,-7.969211597742492659e-01,2.096707596792464301e+02
-1.552271821969405607e+00,2.406287401938623915e+01,8.102923591629860312e+00,1.355146989267453084e-01,-5.978776786596280424e-01,-7.900481300125633544e-01,2.112827293061200180e+02
-1.854966176787876231e+00,2.401818626157141168e+01,7.942758090427948225e+00,2.472134941618859549e-01,-5.843324823401598866e-01,-7.729418078919988444e-01,2.128946989329936059e+02
-2.165994019428044037e+00,2.392227498104626804e+01,7.770883559753070102e+00,3.557102075596545454e-01,-5.632185734645729358e-01,-7.458237638632615463e-01,2.145066685598671938e+02
-2.481509525932998450e+00,2.377477324808872794e+01,7.586690566310037909e+00,4.595995113955018141e-01,-5.348094314391391713e-01,-7.090452462074303686e-01,2.161186381867407817e+02
-2.798535347672597151e+00,2.357589239614814502e+01,7.389993929040244325e+00,5.052810068771005358e-01,-5.161937598995610665e-01,-6.915440017316401011e-01,2.177306078136143697e+02
-3.115815720958309498e+00,2.332702746476548583e+01,7.181456884033184274e+00,5.495782112055798141e-01,-4.961639037809060793e-01,-6.721481758913101512e-01,2.193425774404879576e+02
-3.432937696926662507e+00,2.303016717700460703e+01,6.962166916175686282e+00,5.923697662220269722e-01,-4.747747379128701706e-01,-6.509109065816379713e-01,2.209545470673615455e+02
-3.749462648886231264e+00,2.268729767281318388e+01,6.733211587744457383e+00,6.335384387581237675e-01,-4.520848611113041926e-01,-6.278903765555321481e-01,2.225665166942351334e+02
-4.047274216886124876e+00,2.232398614085033017e+01,6.509159634595545363e+00,6.729714418045151803e-01,-4.281564356343420807e-01,-6.031496540176860544e-01,2.240880029226550221e+02
-4.343756049121136442e+00,2.192458896309146610e+01,6.278284309446054756e+00,7.105607434971634717e-01,-4.030550168768496366e-01,-5.767565198352033740e-01,2.256094891510749108e+02
-4.638477803983165337e+00,2.149070585813149847e+01,6.041513384260052355e+00,7.462033630754889568e-01,-3.768493737699405433e-01,-5.487832818384070777e-01,2.271309753794947994e+02
-4.930989178739193513e+00,2.102393414371152502e+01,5.799774668786298548e+00,7.798016530017342074e-01,-3.496113003776566974e-01,-5.193065767206749284e-01,2.286524616079146881e+02
-5.220819915805399170e+00,2.052586864456081983e+01,5.553996004604720760e+00,8.112635664689171744e-01,-3.214154192069962335e-01,-4.884071600800900526e-01,2.301739478363345768e+02
-5.507479809204563814e+00,1.999810160026435923e+01,5.305105259172844256e+00,8.405029095647771342e-01,-2.923389767701495834e-01,-4.561696851781505968e-01,2.316954340647544655e+02
-5.790458711206790454e+00,1.944222257315659519e+01,5.054030319872306443e+00,8.674395774011461890e-01,-2.624616319590003521e-01,-4.226824710216552927e-01,2.332169202931743541e+02
-6.069226539153787847e+00,1.885981835624221148e+01,4.801699088055273457e+00,8.919997735621182366e-01,-2.318652378116155266e-01,-3.880372604031047667e-01,2.347384065215942428e+02
-6.343233282466885115e+00,1.825247288114453426e+01,4.549039473090807029e+00,9.141162122700545734e-01,-2.006336172685248553e-01,-3.523289685624292344e-01,2.362598927500141315e+02
-6.611909009838850437e+00,1.762176712608231455e+01,4.296979386410957780e+00,9.337283027158089777e-01,-1.688523335330311681e-01,-3.156554231585200210e-01,2.377813789784340202e+02
-6.874663876609085733e+00,1.696927902387565013e+01,4.046446735556625818e+00,9.507823150483843966e-01,-1.366084556645574544e-01,-2.781170962628198295e-01,2.393028652068539088e+02
-7.130888132321953954e+00,1.629658336998187451e+01,3.798369418223634053e+00,9.652315275694548502e-01,-1.039903200470779360e-01,-2.398168291090602700e-01,2.408243514352737975e+02
-7.379952128468443284e+00,1.560525173056196557e+01,3.553675316308980481e+00,9.770363547296352369e-01,-7.108728838596282962e-02,-2.008595503530527238e-01,2.423458376636936862e+02
-7.621206326411280152e+00,1.489685235057826418e+01,3.313292289957013192e+00,9.861644555759493391e-01,-3.798950289607325170e-02,-1.613519886142105730e-01,2.438673238921135749e+02
-7.853981305493618947e+00,1.417295006192405893e+01,3.078148171605839423e+00,9.925908223534525288e-01,-4.787639351625803778e-03,-1.214023800861248337e-01,2.453888101205334635e+02
-8.077587771331186772e+00,1.343510619158580077e+01,2.849170760034152039e+00,9.962978490182999858e-01,2.842734132579578799e-02,-8.112017201702242941e-02,2.469102963489533522e+02
-8.291316564287285473e+00,1.268487846983894762e+01,2.627287814408028499e+00,9.972753794745361500e-01,6.156444226069587161e-02,-4.061572287224782946e-02,2.484317825773732409e+02
-8.494438668130603887e+00,1.192382093847806779e+01,2.413427048327664970e+00,9.955207354023959399e-01,9.453287991605881235e-02,-0.000000000000000000e+00,2.499532688057931296e+02
-8.692627208865454591e+00,1.112732341213111553e+01,2.201194825640936603e+00,9.895871733591945496e-01,1.439278510692431623e-01,0.000000000000000000e+00,2.515261591115538238e+02
-8.878557094441969610e+00,1.032286212591328756e+01,1.997342492838819261e+00,9.812043098871008340e-01,1.929665832452480967e-01,0.000000000000000000e+00,2.530990494173145180e+02
-9.052186128136915144e+00,9.512633075690102302e+00,1.800759551949125736e+00,9.703928888839234990e-01,2.415277234467198553e-01,0.000000000000000000e+00,2.546719397230752122e+02
-9.213443528014343187e+00,8.698831926545130599e+00,1.610335455110109670e+00,9.769128538952149832e-01,2.136335083477470254e-01,0.000000000000000000e+00,2.562448300288359064e+02
-9.362229927984078159e+00,7.883653875905747732e+00,1.424959612191090574e+00,9.826311646046371751e-01,1.855639898862600778e-01,0.000000000000000000e+00,2.578177203345965722e+02
-9.498417379142731320e+00,7.069293516674032496e+00,1.243521398413471868e+00,9.875431292009232420e-01,1.573422001971287454e-01,0.000000000000000000e+00,2.593906106403572380e+02
-9.621849351397312233e+00,6.257944700363882617e+00,1.064910161971843294e+00,9.916447173610906107e-01,1.289912963135745883e-01,0.000000000000000000e+00,2.609635009461179038e+02
-9.732340735371534990e+00,5.451800400245293332e+00,8.880152316551316316e-01,9.949325635558181613e-01,1.005345411835595754e-01,0.000000000000000000e+00,2.625363912518785696e+02
-9.829677844594769454e+00,4.653052574496910232e+00,7.117259244680174124e-01,9.974039698086810679e-01,7.199528459899393051e-02,0.000000000000000000e+00,2.641092815576392354e+02
-9.913618417973596664e+00,3.863892029368335646e+00,5.349315532526727202e-01,9.990569079092538329e-01,4.339694405382944764e-02,0.000000000000000000e+00,2.656821718633999012e+02
-9.982886431899348878e+00,3.098988656577946088e+00,3.594443327906775010e-01,9.998900210782709630e-01,1.476298554660309542e-02,0.000000000000000000e+00,2.672294485174402894e+02
-1.003879467852311436e+01,2.347399032779108552e+00,1.815231984459275139e-01,9.962137931015124792e-01,1.379333285831311172e-02,-8.582436952020218446e-02,2.687767251714806775e+02
-1.008131848799063235e+01,1.611122405553877091e+00,6.988543236695222288e-04,9.851852175856112837e-01,1.272188143630537116e-02,-1.710153232437534032e-01,2.703240018255210657e+02
-1.011050245721355267e+01,8.921381997063138058e-01,-1.833005734353606309e-01,9.668856898819657708e-01,1.155653889840314863e-02,-2.549441293908575878e-01,2.718712784795614539e+02
-1.012636558730659964e+01,1.924260965110013988e-01,-3.707469376087414448e-01,9.414502662991307558e-01,1.030590579253040477e-02,-3.369913713907328745e-01,2.734185551336018420e+02
-1.012890128277826562e+01,-4.860340867207076920e-01,-5.619120680854711170e-01,9.090666673329422798e-01,8.979212124291683153e-03,-4.165515191360025238e-01,2.749658317876422302e+02
-1.011807735096637373e+01,-1.141262517077273664e+00,-7.570677700592073345e-01,8.699738922743760483e-01,7.586249239746260808e-03,-4.930373977540812858e-01,2.765131084416826184e+02
-1.009383600171869588e+01,-1.771279466485348841e+00,-9.564858222221699346e-01,8.244604554201455660e-01,6.137297565949939582e-03,-5.658845209294945944e-01,2.780603850957230065e+02
-1.005559319272776619e+01,-2.380359638572884240e+00,-1.162663760003266322e+00,7.728622568968787077e-01,4.643050742320553245e-03,-6.345552568095174095e-01,2.796243950274525218e+02
-1.000340604536055977e+01,-2.959394777250914821e+00,-1.373742334372159757e+00,7.155601038031140781e-01,3.114536702494184132e-03,-6.985427957590173431e-01,2.811884049591820371e+02
-9.937418615008247968e+00,-3.506513829084312306e+00,-1.590156697369730532e+00,6.529768999514995453e-01,1.563036288837333244e-03,-7.573748906899301359e-01,2.827524148909115524e+02
-9.858320049148463937e+00,-4.020219720651784456e+00,-1.812652525108285451e+00,5.855745249376080874e-01,0.000000000000000000e+00,-8.106173423658352695e-01,2.843164248226410677e+02
-9.770067392258958705e+00,-4.485425188029549481e+00,-2.035015651643374390e+00,7.697594241280639737e-01,1.407459754418853223e-02,-6.381773536178406703e-01,2.858325664139024411e+02
-9.671330590757646561e+00,-4.917511530087392835e+00,-2.264814127273570232e+00,9.047891352437696932e-01,2.725042073836634118e-02,-4.249847471558993450e-01,2.873487080051638145e+02
-9.562944519348638650e+00,-5.315298790785798033e+00,-2.502874473985514214e+00,9.820409621608355843e-01,3.868609001835592726e-02,-1.846535541985379614e-01,2.888648495964251879e+02
-9.445728899826637104e+00,-5.677602686378214969e+00,-2.750023161079331757e+00,9.965817864270374304e-01,4.765134892139884920e-02,6.746919229384173988e-02,2.903809911876865613e+02
-9.320884042053183549e+00,-6.003526819342558163e+00,-3.007046879011646023e+00,9.474830769237077011e-01,5.357369636953746711e-02,3.152834883108385777e-01,2.918971327789479346e+02
-9.190391418811438839e+00,-6.292752238268692899e+00,-3.274652813491672365e+00,8.378801759393996740e-01,5.607494484992718575e-02,5.429644659909178550e-01,2.934132743702093080e+02
-9.056625147263696718e+00,-6.545241354895296126e+00,-3.553508361856490883e+00,9.053473691449666072e-01,4.153717105648690455e-01,-8.837693841807206518e-02,2.949294159614706814e+02
-8.921958628024611926e+00,-6.760944484018565959e+00,-3.844280849706703140e+00,9.360722153546453539e-01,3.202522752089287938e-01,1.456203552547300495e-01,2.964455575527320548e+02
-8.780882509324056784e+00,-6.948548163396600863e+00,-4.166226594677232775e+00,9.061895982315796294e-01,2.043976334009164064e-01,3.701891672065157901e-01,2.980530021474328919e+02
-8.644327004550643068e+00,-7.092954356543426542e+00,-4.502901400901737183e+00,8.176343202152047684e-01,7.530893738781591074e-02,5.707895254430604970e-01,2.996604467421337290e+02
-8.514054193050567321e+00,-7.194841098425484915e+00,-4.855650974987313795e+00,7.843785636195371724e-01,1.014329603648742861e-01,6.119310610452609600e-01,3.012678913368345661e+02
-8.389652194255402762e+00,-7.256449150651594238e+00,-5.226944850284894528e+00,7.483923528909645073e-01,1.272038900111869819e-01,6.509424371525430741e-01,3.028753359315354032e+02
-8.224824906773140043e+00,-7.275727871000484015e+00,-5.770096245376107547e+00,0.000000000000000000e+00,9.983844631533018710e-01,-5.680196945670642344e-02,3.050836114631876512e+02
-8.061861509789533642e+00,-7.224108639547450750e+00,-6.354665565468647692e+00,4.081438505715209025e-02,9.978246683405279649e-01,5.175052872767943457e-02,3.072918869948398992e+02
-7.942435648254970282e+00,-7.152356609316429470e+00,-6.804884515416704360e+00,8.107982391399500000e-02,9.838443326184724835e-01,1.596069902250729367e-01,3.088811760806968891e+02
-7.818726109308643757e+00,-7.059620450401738800e+00,-7.281604348280862560e+00,1.202547528576992514e-01,9.566314911224695905e-01,2.653167627726186195e-01,3.104704651665538790e+02
-7.681443321922652778e+00,-6.942470730063100781e+00,-7.810558015214300376e+00,1.578122758224531907e-01,9.165521556103991552e-01,3.674580678744239770e-01,3.121493063977750353e+02
-7.535908850179826146e+00,-6.808685491761552022e+00,-8.358785864213018613e+00,1.932472512690127098e-01,8.641453910704877117e-01,4.646571240916265721e-01,3.138281476289961915e+02
-7.380923943143704591e+00,-6.661472227145470271e+00,-8.917921827599629481e+00,2.260830863773561072e-01,8.001160645898474089e-01,5.556066245465611786e-01,3.155069888602173478e+02
-7.215331855233539926e+00,-6.504044970614065058e+00,-9.479599752332637408e+00,2.558781471538286167e-01,7.253253641091970128e-01,6.390833200685656079e-01,3.171858300914385040e+02
-7.038017862441820149e+00,-6.339624083790093678e+00,-1.003545346538173533e+01,2.822316982334162616e-01,6.407792146972540737e-01,7.139644714727254593e-01,3.188646713226596603e+02
-6.848128483284882329e+00,-6.171672301042113062e+00,-1.057728281457430164e+01,3.047892924972596673e-01,5.476147482561699587e-01,7.792429497099214730e-01,3.205435125538808165e+02
-6.645304309044122171e+00,-6.004144633627046979e+00,-1.109749161458757349e+01,3.232475380382590080e-01,4.470850087367330139e-01,8.340407808473885298e-01,3.222223537851019728e+02
-6.429476782701251558e+00,-5.841264826764923868e+00,-1.158919363728564100e+01,3.373581783923914057e-01,3.405420986485929169e-01,8.776209537843587816e-01,3.239011950163231290e+02
-6.210404766408408328e+00,-5.693261876385535381e+00,-1.202749079834120494e+01,3.469314311961577135e-01,2.294189935806829062e-01,9.093973319920788390e-01,3.255105737869507720e+02
-5.979497128957484087e+00,-5.556863538330958363e+00,-1.242721520109839162e+01,3.518385404063183453e-01,1.152102693228961444e-01,9.289425360747919358e-01,3.271199525575784151e+02
-5.736791524165492540e+00,-5.435434979701545544e+00,-1.278241557791872118e+01,3.520135077923879363e-01,-5.479992337527160454e-04,9.359936912342581294e-01,3.287293313282060581e+02
-5.482263157006985743e+00,-5.331801653954935993e+00,-1.308703502797000695e+01,2.667117791109648306e-01,2.447389377469652225e-02,9.634645065623386184e-01,3.303387100988337011e+02
-5.215869838078212695e+00,-5.248519460190091301e+00,-1.333496403713710343e+01,1.791010901817740864e-01,4.928391228887925996e-02,9.825944715311299982e-01,3.319480888694613441e+02
-4.879656592820113659e+00,-5.181025475983139117e+00,-1.355216411809943011e+01,8.993987732009491032e-02,7.366727837904697707e-02,9.932179773654231658e-01,3.338834695940711299e+02
-4.526359262169124875e+00,-5.155554580923791264e+00,-1.367704513146252765e+01,0.000000000000000000e+00,9.741290686787916486e-02,9.952430484926604315e-01,3.358188503186809157e+02
-4.157240378196434882e+00,-5.177016993796485167e+00,-1.371039152901379587e+01,-0.000000000000000000e+00,-9.695091807975529663e-02,9.952881590151888558e-01,3.377542310432907016e+02
-3.851076529551044736e+00,-5.228581564235835977e+00,-1.367449688765164950e+01,-4.291282096655081070e-03,-2.252196961352708748e-01,9.742975281538440724e-01,3.393072186219453101e+02
-3.537514680528775379e+00,-5.310055809836399909e+00,-1.358744716500299710e+01,-8.509987894250357898e-03,-3.496795025689147796e-01,9.368296673276681474e-01,3.408602062005999187e+02
-3.217787896287251037e+00,-5.422737992353604319e+00,-1.345553853385900567e+01,-7.636298918902155453e-03,-2.956295949471905993e-01,9.552710764647325270e-01,3.424131937792545273e+02
-2.893145224031135943e+00,-5.567920143348715989e+00,-1.328506746687407336e+01,-6.737698540331832527e-03,-2.406152762095235820e-01,9.705961530281199678e-01,3.439661813579091358e+02
-2.564653416973689204e+00,-5.746187630904474375e+00,-1.308183244028793801e+01,-5.817118179492025004e-03,-1.848160143417502954e-01,9.827549043270881191e-01,3.455191689365637444e+02
-2.232986894388045318e+00,-5.956720107705793410e+00,-1.285063564097870525e+01,-4.877560955736740152e-03,-1.284138377628337713e-01,9.917076664371218264e-01,3.470721565152183530e+02
-1.863894225568600849e+00,-6.225736517534159020e+00,-1.256871199828360552e+01,-3.922091891688285654e-03,-7.159274161279889637e-02,9.974252335606494935e-01,3.487856200276899585e+02
-1.492039995607561842e+00,-6.532358555001489542e+00,-1.226440330292981784e+01,-2.953827916271877397e-03,-1.453808762843182729e-02,9.998889532886163778e-01,3.504990835401615641e+02
-1.118005315380302234e+00,-6.874397935111910662e+00,-1.194333161917274388e+01,-1.975927698488835933e-03,4.256400043828593299e-02,9.990907874543366596e-01,3.522125470526331696e+02
-7.423417238060669998e-01,-7.249663346339492165e+00,-1.161111914755327845e+01,-9.915813450336687963e-04,9.952724389017328366e-02,9.950333383809690790e-01,3.539260105651047752e+02
-3.655711809837217108e-01,-7.655960605843183941e+00,-1.127338817913266666e+01,-3.999995304131439757e-06,1.561658166662475977e-01,9.877298404362626627e-01,3.556394740775763808e+02
1.230885177138728130e-02,-8.090543502049738933e+00,-1.093432354884216906e+01,-3.336342326332634652e-06,1.342128265673918630e-01,9.909515210958855791e-01,3.573529375900479863e+02
3.896490807761511799e-01,-8.546233426708649716e+00,-1.059761459039881792e+01,-2.671046988837721208e-06,1.121937671884797733e-01,9.936853418390096948e-01,3.590543796104893772e+02
7.706439806368742262e-01,-9.021649664960154524e+00,-1.026075691468777507e+01,-2.004436753114909808e-06,9.011947642004634884e-02,9.959299573537451211e-01,3.607558216309307682e+02
1.156897604156707615e+00,-9.512526114346506745e+00,-9.923625243597372858e+00,-1.336839726995968190e-06,6.800081930634807592e-02,9.976842629613479341e-01,3.624572636513721591e+02
1.550071342495761062e+00,-1.001460611115273203e+01,-9.586094301070611223e+00,-6.685845035928538692e-07,4.584868271106449372e-02,9.989473951524817652e-01,3.641587056718135500e+02
1.951883899895647145e+00,-1.052364272899748521e+01,-9.248038814114226014e+00,-0.000000000000000000e+00,2.367396997322678345e-02,9.997187320112477238e-01,3.658601476922549409e+02
2.363103886808014753e+00,-1.103562116186026643e+01,-8.908524868123304685e+00,-1.815685972366613410e-06,8.631051170094888869e-02,9.962672811885360247e-01,3.675615897126963318e+02
2.782538432217939839e+00,-1.154697341593675119e+01,-8.565001268698424042e+00,-3.624226711587903945e-06,1.486073979362688424e-01,9.888952630413665457e-01,3.692630317331377228e+02
3.182868140995645412e+00,-1.202482574470803556e+01,-8.234970160620536106e+00,-5.418505219052842428e-06,2.103194769713875589e-01,9.776316881000031156e-01,3.708643974005989890e+02
3.586758433973509685e+00,-1.249664494009262228e+01,-7.895441971244155255e+00,-7.191460618315129887e-06,2.712038983333718289e-01,9.625208805408472790e-01,3.724657630680602551e+02
3.992501321646368062e+00,-1.295972270095723466e+01,-7.543565068269606044e+00,-8.936115937843508848e-06,3.310210683394158027e-01,9.436223038035528310e-01,3.740671287355215213e+02
4.398423805783840734e+00,-1.341134164563799480e+01,-7.176487907119676990e+00,-1.064560556384511033e-05,3.895355928452018390e-01,9.210103266485138995e-01,3.756684944029827875e+02
4.802887901606994525e+00,-1.384877548268478265e+01,-6.791359051219840737e+00,-1.231320225525063741e-05,4.465172034807274315e-01,8.947739305789715880e-01,3.772698600704440537e+02
5.204290659606310321e+00,-1.426928918169816640e+01,-6.385327192276920805e+00,-1.393234361465973069e-05,5.017416637323274253e-01,8.650163597761567624e-01,3.788712257379053199e+02
5.601064187001040473e+00,-1.467013914425715271e+01,-5.955541170557879127e+00,-1.549665791116819078e-05,5.549916513083045233e-01,8.318547149214672309e-01,3.804725914053665861e+02
5.991675668839789637e+00,-1.504857337493629110e+01,-5.499149995168637339e+00,-1.699998915352857377e-05,6.060576133181894143e-01,7.954194924999823391e-01,3.820739570728278522e+02
6.374919659011405670e+00,-1.540210317568896770e+01,-5.014180311824029346e+00,-8.714160024713584786e-06,6.747554542646525544e-01,7.380400238874712526e-01,3.836753227402891184e+02
6.824307782813017198e+00,-1.578830938545527829e+01,-4.395379723964649266e+00,-3.585205410199641569e-07,7.380472384462178903e-01,6.747475630322210538e-01,3.855974869278406914e+02
7.261610369398180609e+00,-1.612782522759307113e+01,-3.738720012851857621e+00,7.999989140413108610e-06,7.954259202489223357e-01,6.060491773184206732e-01,3.875196511153922643e+02
7.685565464154755944e+00,-1.641828988509893250e+01,-3.046114956280736585e+00,6.003447275242286630e-06,8.086875497486893938e-01,5.882367268597092913e-01,3.894418153029438372e+02
8.024769926157688360e+00,-1.662317970173685211e+01,-2.446911964320385380e+00,4.003944591395868871e-06,8.215503719717091036e-01,5.701341826957058156e-01,3.910340298006260582e+02
8.350869566849439707e+00,-1.679794865447075125e+01,-1.826715559013174728e+00,2.002466653143350101e-06,8.340080464920200942e-01,5.517504674787980790e-01,3.926262442983082792e+02
8.661743056065960289e+00,-1.694271813364994017e+01,-1.188222015829591749e+00,0.000000000000000000e+00,8.460544322668346329e-01,5.330946422741880131e-01,3.942184587959905002e+02
8.955275091463073878e+00,-1.705786805200662926e+01,-5.345364700232480004e-01,-4.820826492293019128e-02,8.823206484469500177e-01,4.681711615612655364e-01,3.958106732936727212e+02
9.218684879790776776e+00,-1.714169268312846128e+01,1.032106129888951118e-01,-9.603787901766490387e-02,9.116568066446733010e-01,3.995705102891313198e-01,3.973379658955657874e+02
9.462503303550272804e+00,-1.720085886131328579e+01,7.475701971367280096e-01,-1.431131713361313007e-01,9.338324929755451587e-01,3.278315043644232096e-01,3.988652584974588535e+02
9.684868187196611800e+00,-1.723635746402822733e+01,1.394680479670084461e+00,-1.890643961725632649e-01,9.486735350473675110e-01,2.535176088587287602e-01,4.003925510993519197e+02
9.883903975617581494e+00,-1.724916978973401527e+01,2.040679640040199860e+00,-2.335306372001663133e-01,9.560633697694566058e-01,1.772125121850524065e-01,4.019198437012449858e+02
1.005772175684342784e+01,-1.724026749575048711e+01,2.681705864873074940e+00,-2.761626422186226892e-01,9.559439586337196149e-01,9.951554147806541961e-02,4.034471363031380520e+02
1.020441928488138750e+01,-1.721061253621314435e+01,3.313897372941812414e+00,-3.166255662481883837e-01,9.483162433044955986e-01,2.103695520210341341e-02,4.049744289050311181e+02
1.032208100267493123e+01,-1.716115710012136830e+01,3.933392440139062973e+00,-3.546016014287784457e-01,9.332401379573836975e-01,-5.760685003445976254e-02,4.065017215069241843e+02
1.040877806518757076e+01,-1.709284354947881823e+01,4.536329424449184522e+00,-3.897924730740328636e-01,9.108340584458703981e-01,-1.357981808105405142e-01,4.080290141088172504e+02
1.046256836261120782e+01,-1.700660435752654465e+01,5.118846790919710621e+00,-4.219217822837038057e-01,8.812739920112185876e-01,-2.129228983478907711e-01,4.095563067107103166e+02
1.048149654369885297e+01,-1.690336204706925116e+01,5.677083136632299798e+00,-4.507371767244026106e-01,8.447921148573285244e-01,-2.883752419941771894e-01,4.110835993126033827e+02
1.046359403922146392e+01,-1.678402912889520593e+01,6.207177215673159054e+00,-4.760123325391987792e-01,8.016749684599806525e-01,-3.615625868603486448e-01,4.126108919144964489e+02
1.040687908554890484e+01,-1.664950804029036391e+01,6.705267964102569422e+00,-4.975487318301110573e-01,7.522612089413860392e-01,-4.319100982591105309e-01,4.141381845163895150e+02
1.030063035843542707e+01,-1.648945309904587475e+01,7.198632660042770581e+00,-5.151772217625080197e-01,6.969389471894419374e-01,-4.988652464037193202e-01,4.157720594580900979e+02
1.014557376873723804e+01,-1.631371986494943727e+01,7.647795395554184417e+00,-4.711698250525133691e-01,6.409557283566804653e-01,-6.059478114891631018e-01,4.174059343997906808e+02
9.942217644173929614e+00,-1.612429566815714210e+01,8.050480215185404020e+00,-4.193704694032804325e-01,5.743727203469485287e-01,-7.030095216392946433e-01,4.190398093414912637e+02
9.692047142241271729e+00,-1.592345844792938081e+01,8.405201448095301231e+00,-3.606357834583678867e-01,4.982910355864810792e-01,-7.884452267249042468e-01,4.206736842831918466e+02
9.396514996131157815e+00,-1.571349409855672974e+01,8.710473778388163169e+00,-2.959370872987276413e-01,4.139688686939323459e-01,-8.608420390031479297e-01,4.223075592248924295e+02
9.057041495324501312e+00,-1.549669630725451341e+01,8.964812256104242039e+00,-2.263443299816221832e-01,3.228006900576384508e-01,-9.190026979204383162e-01,4.239414341665930124e+02
8.675014466533388813e+00,-1.527536639197506929e+01,9.166732308208123570e+00,-1.530083961310036433e-01,2.262941859352027851e-01,-9.619653695049218411e-01,4.255753091082935953e+02
8.251789254992665690e+00,-1.505181313913916341e+01,9.314749749574763982e+00,-7.714207405483466951e-02,1.260453262576606281e-01,-9.890195529615819492e-01,4.272091840499941782e+02
7.745722340262166661e+00,-1.480885310309928293e+01,9.413721750798877963e+00,-0.000000000000000000e+00,2.371197228180339442e-02,-9.997178313761895252e-01,4.289872703554020745e+02
7.194030024657590339e+00,-1.456896291714180691e+01,9.449570638882152096e+00,-7.892990921127130202e-03,0.000000000000000000e+00,-9.999678497920404530e-01,4.307653566608099709e+02
6.600175141668031209e+00,-1.433377362570495350e+01,9.428636082594730183e+00,-2.872728885472881633e-01,3.020151847007489232e-02,-9.573714826484192031e-01,4.325434429662178673e+02
5.985663106357652197e+00,-1.410919790789871797e+01,9.362858947946856247e+00,-5.434469747315679999e-01,5.796336819077416852e-02,-8.374387342386809818e-01,4.342762899229354048e+02
5.341130146335378193e+00,-1.388877235556785372e+01,9.261967106073802469e+00,-7.557215732820177223e-01,8.104295423911778151e-02,-6.498576330580629890e-01,4.360091368796529423e+02
4.672172487828315290e+00,-1.367185652927121708e+01,9.134797200670492501e+00,-6.115149142376264946e-01,9.641599621263295672e-02,-7.853352566502768140e-01,4.377419838363704798e+02
4.044223782273092205e+00,-1.347535071443461874e+01,9.001115331599452318e+00,-4.432229302732431653e-01,1.079915881966053010e-01,-8.898815937847283086e-01,4.393273710104307952e+02
3.406640209073213743e+00,-1.327942835873197858e+01,8.855562359613500689e+00,-2.574739619737981822e-01,1.153138048074176941e-01,-9.593789060240146549e-01,4.409127581844911106e+02
2.764641477086540178e+00,-1.308302666554322080e+01,8.702873034136793251e+00,-6.158395249877657296e-02,1.180942434069155444e-01,-9.910898881866269106e-01,4.424981453585514259e+02
2.123460440137225902e+00,-1.288511042144250496e+01,8.547782154235779473e+00,1.367316977029822134e-01,1.162233860325112417e-01,-9.837655042636471725e-01,4.440835325326117413e+02
1.488343030375498754e+00,-1.268467205944585885e+01,8.395024535621779194e+00,3.296620231152499469e-01,1.097749153141582001e-01,-9.376942030747426049e-01,4.456689197066720567e+02
8.645481915063633060e-01,-1.248073172198148306e+01,8.249334977653798973e+00,5.096081590780147108e-01,9.900281355549056528e-02,-8.546905680455579857e-01,4.472543068807323721e+02
2.573478118874508724e-01,-1.227233732358224216e+01,8.115448230341440805e+00,6.694826561777903473e-01,8.433135883447590020e-02,-7.380238444599726000e-01,4.488396940547926874e+02
-3.279733425036514549e-01,-1.205856461329990204e+01,7.998098961347965385e+00,8.029886460050812413e-01,6.633841231103834724e-02,-5.922891603235169722e-01,4.504250812288530028e+02
-4.836304461747427674e-01,-1.199940176359014998e+01,7.969214369209417725e+00,9.048678568021243374e-01,4.573265567638402918e-02,-4.232265184620244147e-01,4.508570014242857837e+02
-1.106941822845328716e+00,-1.174882027921735173e+01,7.864052011199404113e+00,9.711077085916172136e-01,2.332567623659526079e-02,-2.374946970797414125e-01,4.526471057173492909e+02
-1.687374465111340482e+00,-1.148778878602082543e+01,7.782923408432982804e+00,9.990993339585199084e-01,0.000000000000000000e+00,-4.240897172840243229e-02,4.544372100104127981e+02
-2.218455861373204829e+00,-1.121476744264413128e+01,7.722431002801132038e+00,9.990993332535061944e-01,-0.000000000000000000e+00,-4.240897169847657883e-02,4.562273143034763052e+02
-2.693197374828445678e+00,-1.092833209420945195e+01,7.675721085464638271e+00,6.921409340576635261e-01,-0.000000000000000000e+00,-7.217609904965988088e-01,4.580174185965398124e+02
-3.104341393453357245e+00,-1.062713942226415753e+01,7.634211841371786100e+00,5.299993955616641179e-04,-0.000000000000000000e+00,-9.999988595503095379e-01,4.598075228896033195e+02
-3.478316087730141781e+00,-1.027307375305996828e+01,7.586008805937043853e+00,4.169530785743756907e-01,4.529412474209571632e-02,-9.077976495522456224e-01,4.617980492884489081e+02
-3.756789491186269814e+00,-9.897686623783858550e+00,7.531600705145224950e+00,7.566728811008494038e-01,8.225587836747591530e-02,-6.485970409135887182e-01,4.637885756872944967e+02
-3.934090525941098093e+00,-9.501330959923825148e+00,7.468996031742718422e+00,7.550757964904738495e-01,2.554995927611568990e-02,-6.551379557806323861e-01,4.657791020861400852e+02
-4.005519690318865678e+00,-9.133168760056753044e+00,7.405000908269804505e+00,6.590534516584888314e-01,1.078671533496725621e-01,-7.443193031803649884e-01,4.675486979039659445e+02
-3.996298598009140779e+00,-8.752374820968626068e+00,7.331904699498841715e+00,5.472469119253028369e-01,1.876009636281161796e-01,-8.156743810096410696e-01,4.693182937217918038e+02
-3.924610784049818335e+00,-8.412811920421029654e+00,7.260090692919331623e+00,4.223338967758962226e-01,2.628417910506486432e-01,-8.674942492676822603e-01,4.708566169981860412e+02
-3.797595288840823091e+00,-8.067220581825274905e+00,7.179845326706326247e+00,2.873060232881916587e-01,3.317876362785645017e-01,-8.985378196802467077e-01,4.723949402745802786e+02
-3.619370928634380924e+00,-7.717148135242698714e+00,7.090693862310799567e+00,1.453971637443779996e-01,3.927872558892319677e-01,-9.080615818249158089e-01,4.739332635509745160e+02
-3.394073105965560000e+00,-7.364120841677541662e+00,6.992161619565423258e+00,5.999996079955432846e-06,4.443797096684325432e-01,-8.958374147125192088e-01,4.754715868273687533e+02
-3.125776144726671646e+00,-7.009680756416770464e+00,6.883634714761625695e+00,-2.306513462730577085e-02,3.985177464148167426e-01,-9.168694592773080076e-01,4.770099101037629907e+02
