-4.545902674956637135e+00,3.834369257289707567e-01,2.868047904414423144e+00,-2.256800000000000125e-02,-9.740079999999999849e-01,-2.253860000000000030e-01,0.000000000000000000e+00
-4.688033449829452692e+00,1.095839748964587912e+00,2.573798849852678927e+00,8.808491902956787634e-01,2.673097542804539484e-02,-4.726395655348238356e-01,1.579087266284199487e+00
-4.828094253580248463e+00,1.807519665128805020e+00,2.279692827270529243e+00,8.341444870652676702e-01,-2.175313078193196747e-01,-5.068343958512430136e-01,3.158174532568398973e+00
-4.966629713666342205e+00,2.517223308050306141e+00,1.985882782912434363e+00,7.348763334842611794e-01,-4.480858952511201365e-01,-5.090911558479405130e-01,4.737261798852598460e+00
-5.104199298603838919e+00,3.223700283180539472e+00,1.692521660979418030e+00,5.893000915912232074e-01,-6.504044391729747465e-01,-4.792676366661017817e-01,6.316349065136797947e+00
-5.241377310692952207e+00,3.925703240019475793e+00,1.399762402571058217e+00,4.065892156517061373e-01,-8.117378780806829841e-01,-4.192431597600821402e-01,7.895436331420997433e+00
-5.378752878592237607e+00,4.621987944510893342e+00,1.107757944629363278e+00,1.982571915474574120e-01,-9.219198144243603288e-01,-3.328001529029809835e-01,9.474523597705196920e+00
-5.516929949740305261e+00,5.311313351408423422e+00,8.166612188799208250e-01,-2.256798027912854804e-02,-9.740071488706768532e-01,-2.253858030481951102e-01,1.105361086398939641e+01
-5.655554043966952271e+00,5.992465185417628959e+00,5.260971402436240840e-01,4.175853957719830034e-02,-9.817508978933168207e-01,-1.855246583572285335e-01,1.263269813027359589e+01
-5.792338618414659024e+00,6.664272501590758679e+00,2.346345989001096533e-01,1.058434082326786679e-01,-9.838134614292907143e-01,-1.445899237318208075e-01,1.421178539655779538e+01
-5.919420329421740234e+00,7.302262372422807069e+00,-4.919535475644461892e-02,1.693157810590300016e-01,-9.801829046574587201e-01,-1.028184793810635045e-01,1.573468103808561125e+01
-6.038672321308197866e+00,7.929466897500383915e+00,-3.376033520343720840e-01,2.318083579016236018e-01,-9.708802373059878255e-01,-6.045204724600528046e-02,1.725757667961342534e+01
-6.147098666951213985e+00,8.544816638956708843e+00,-6.324115444569706757e-01,2.929595084925589177e-01,-9.559592920504993430e-01,-1.773579224950773414e-02,1.878047232114123943e+01
-6.241715638624614648e+00,9.147226683647588175e+00,-9.354420423858231803e-01,3.524153650528677462e-01,-9.355064129933010619e-01,2.508309637298067329e-02,2.030336796266905353e+01
-6.319551744353606892e+00,9.735596700199666387e+00,-1.248516903300607828e+00,4.098318699784531671e-01,-9.096399560263812578e-01,6.775683545481457626e-02,2.182626360419686762e+01
-6.378262741202583186e+00,1.030875607276267836e+01,-1.572916815369987065e+00,4.648767667640926748e-01,-8.785096039684928693e-01,1.100384817170902002e-01,2.334915924572468171e+01
-6.416747521839160306e+00,1.086541326168782007e+01,-1.908839784504178683e+00,5.172315226479154981e-01,-8.422955004374943488e-01,1.516833607305932696e-01,2.487205488725249580e+01
-6.434534471503638997e+00,1.140421712966175605e+01,-2.255942437787721300e+00,5.665931718533100403e-01,-8.012072074671343636e-01,1.924504827541545782e-01,2.639495052878030990e+01
-6.430749618806193446e+00,1.197105623771503424e+01,-2.647197756803872259e+00,6.126760687639836167e-01,-7.554824928966493713e-01,2.321039372584563221e-01,2.805963386483880839e+01
-6.403136098447757441e+00,1.251300082779137668e+01,-3.049886885155953298e+00,6.552135408882563405e-01,-7.053859545460340330e-01,2.704142580672580509e-01,2.972431720089730689e+01
-6.351195786174562485e+00,1.302827200052305123e+01,-3.463599147709879311e+00,6.939594320476658584e-01,-6.512074891339743044e-01,3.071597512175384126e-01,3.138900053695580539e+01
-6.274450731967507799e+00,1.351508782662589070e+01,-3.887923784590479492e+00,7.286895268592803454e-01,-5.932606147937581342e-01,3.421277778552084814e-01,3.305368387301430033e+01
-6.172907539744917571e+00,1.397178513703549996e+01,-4.322139363714256000e+00,7.363071346953760088e-01,-5.343919544315132164e-01,4.150602877117565148e-01,3.471836720907279528e+01
-6.047519796415536497e+00,1.439694490460048293e+01,-4.764903195708238393e+00,7.374137881663357375e-01,-4.707978291538882365e-01,4.843225258917148168e-01,3.638305054513129022e+01
-5.907445886865559714e+00,1.476971311081978833e+01,-5.191139340287265647e+00,7.319997045307125028e-01,-4.030405836924288998e-01,5.493020302747019246e-01,3.796094368375838002e+01
-5.747498478351503515e+00,1.511199368383282504e+01,-5.622426415321023718e+00,7.201127611616110480e-01,-3.317193747726869257e-01,6.094242099004582025e-01,3.953883682238546982e+01
-5.568983334638208049e+00,1.542270049798839437e+01,-6.057278977845093060e+00,7.018580720135308981e-01,-2.574648731060340534e-01,6.641574255145896721e-01,4.111672996101255961e+01
-5.373218159592468623e+00,1.570075432157280737e+01,-6.494211560224402824e+00,6.773970580533823505e-01,-1.809336868048654345e-01,7.130176903275605715e-01,4.269462309963964941e+01
-5.161532580959860894e+00,1.594508287483636089e+01,-6.931738680402982133e+00,6.469460198813845597e-01,-1.028025555123482926e-01,7.555729494495908583e-01,4.427251623826673921e+01
-4.935268134021362663e+00,1.615462088795237960e+01,-7.368374852153896093e+00,6.107742251619819873e-01,-2.376236655980817902e-02,7.914469001855815034e-01,4.585040937689382901e+01
-4.695778245129988093e+00,1.632831015890814896e+01,-7.802634595329455358e+00,5.692015277677465734e-01,5.548795396498383548e-02,8.203223194279380959e-01,4.742830251552091880e+01
-4.452382025901663098e+00,1.646188207957378324e+01,-8.219871271261526502e+00,4.835294157386399450e-01,4.982784431975507966e-02,8.739075981161877893e-01,4.895812993759756182e+01
-4.199987060611981349e+00,1.656126472541028249e+01,-8.631721088621832294e+00,3.929044487389432572e-01,4.365734123405916323e-02,9.185413059394110791e-01,5.048795735967419773e+01
-3.941075533850555423e+00,1.662685520643867676e+01,-9.036540680026622141e+00,2.982549030237791055e-01,3.703964951800046285e-02,9.537662591983232518e-01,5.201778478175083364e+01
-3.678124549600341631e+00,1.665906330008161262e+01,-9.432686723634070347e+00,2.005502775541377347e-01,3.004255441678143138e-02,9.792216455410993614e-01,5.354761220382746956e+01
-3.413606102103520890e+00,1.665831142716356084e+01,-9.818515953804480390e+00,1.007913646263624702e-01,2.273772737333837335e-02,9.946467194786005050e-01,5.507743962590410547e+01
-3.149987046776276056e+00,1.662503462779395136e+01,-1.019238517176014014e+01,0.000000000000000000e+00,1.519999199371368896e-02,9.998834733317381041e-01,5.660726704798074138e+01
-2.888926061733535278e+00,1.656037242574380386e+01,-1.055241567987144613e+01,-0.000000000000000000e+00,4.172294161665150887e-03,9.999902959271851355e-01,5.813709447005737729e+01
-2.623739750713308450e+00,1.646404392347959345e+01,-1.090517848733889927e+01,-0.000000000000000000e+00,-6.855908909492898495e-03,9.999754979499855256e-01,5.970669106181776442e+01
-2.360384921689737681e+00,1.634074615554923682e+01,-1.123860965930611577e+01,-0.000000000000000000e+00,-1.788327625324216685e-02,9.998390812615326473e-01,6.127628765357815155e+01
-2.097981639994258352e+00,1.619396235725491806e+01,-1.154998790838907929e+01,-0.000000000000000000e+00,-2.890846700660624005e-02,9.995810625071457345e-01,6.284588424533853868e+01
-1.835608669215602173e+00,1.602717079063967631e+01,-1.183659209774023147e+01,-0.000000000000000000e+00,-3.993014057283689189e-02,9.992014731081632073e-01,6.441548083709892580e+01
-1.572303483924471612e+00,1.584384454434672485e+01,-1.209570125963337262e+01,-0.000000000000000000e+00,-5.094695678397787725e-02,9.987003592580795397e-01,6.598507742885931293e+01
-1.307062282811862541e+00,1.564745133353204309e+01,-1.232459461404867263e+01,-0.000000000000000000e+00,-6.195757606337539553e-02,9.980777819169028842e-01,6.755467402061970006e+01
-1.038840002240787985e+00,1.544145329983199133e+01,-1.252055158725755035e+01,-0.000000000000000000e+00,-7.296065958811630281e-02,9.973338168037325646e-01,6.912427061238008719e+01
-7.665503302115045381e-01,1.522930681138813824e+01,-1.268085183040574826e+01,-0.000000000000000000e+00,-8.395486945137441148e-02,9.964685543875577700e-01,7.069386720414047431e+01
-4.890657207404545126e-01,1.501446226293102448e+01,-1.280277523809456852e+01,-0.000000000000000000e+00,-9.493886882464608323e-02,9.954820998762801132e-01,7.226346379590086144e+01
-2.052174086527341068e-01,1.480036387592424774e+01,-1.288360196696095450e+01,-0.000000000000000000e+00,-1.059113221198559884e-01,9.943745732039576124e-01,7.383306038766124857e+01
8.760440861607754481e-02,1.458946096135507986e+01,-1.292078689141017023e+01,-0.000000000000000000e+00,-1.168708951513131450e-01,9.931461090162760907e-01,7.541019847128949039e+01
3.890864311002976694e-01,1.438615367493597752e+01,-1.291149803980703936e+01,4.271009153723480975e-04,-3.938973353242305325e-02,9.992228312402899881e-01,7.698733655491773220e+01
6.999034300977395873e-01,1.419357804565177084e+01,-1.285388625576633892e+01,8.516217579232864118e-04,3.832932482848624284e-02,9.992637977999676568e-01,7.856447463854597402e+01
1.020557916677418353e+00,1.401475303960876495e+01,-1.274640137619689995e+01,1.270998420251536658e-03,1.158168560489946514e-01,9.932687654470839789e-01,8.014161272217421583e+01
1.155366426971652372e+00,1.394590323930393971e+01,-1.268183058407051256e+01,0.000000000000000000e+00,1.173078338390019654e-01,9.930945933284813787e-01,8.078403856062790567e+01
1.500122198096570436e+00,1.378528425566520355e+01,-1.246953505052710476e+01,-1.177648228227758248e-01,0.000000000000000000e+00,9.930405059701521431e-01,8.238127097373336483e+01
1.852015980849345045e+00,1.364057767429116197e+01,-1.220649563913221947e+01,-1.679883403598090019e-01,1.768020929829746540e-02,9.856294068784235973e-01,8.397850338683882399e+01
2.208137251595921668e+00,1.350994091287661547e+01,-1.189461320498310393e+01,-2.177263799542146216e-01,3.530932247110497163e-02,9.753699171185985506e-01,8.557573579994428314e+01
2.563583592355574314e+00,1.339165165770451082e+01,-1.153870620857571083e+01,-2.668352035013187851e-01,5.283639306061095609e-02,9.622916864143145066e-01,8.716453624033491110e+01
2.917170761544683799e+00,1.328246603251080415e+01,-1.114054729540303867e+01,-3.151728913456910419e-01,7.021076953483017247e-02,9.464325102211631480e-01,8.875333668072553905e+01
3.265807395272489977e+00,1.317988728121862962e+01,-1.070355122882391008e+01,-3.625997523844344816e-01,8.738224165515344477e-02,9.278382204972561720e-01,9.034213712111616701e+01
3.606372232199826389e+00,1.308143563978679680e+01,-1.023113304392433243e+01,-4.089787277289213541e-01,1.043011855681169053e-01,9.065625532503469586e-01,9.193093756150679496e+01
3.935714155628395439e+00,1.298464848316085885e+01,-9.726708023617916865e+00,-4.541757867598858467e-01,1.209187072024037607e-01,8.826669932488763193e-01,9.351973800189742292e+01
4.250652235899426756e+00,1.288708047204764284e+01,-9.193691674741527819e+00,-4.980603144322192088e-01,1.371867835569935135e-01,8.562205963456062108e-01,9.510853844228805087e+01
4.547975773098157148e+00,1.278630369951125978e+01,-8.635499704150303657e+00,-5.405054887110686268e-01,1.530584014724629405e-01,8.272997899270443378e-01,9.669733888267867883e+01
4.824444340063881675e+00,1.267990783738915361e+01,-8.055547994814567403e+00,-5.813886470493114800e-01,1.684876934847052699e-01,7.959881520649374487e-01,9.828613932306930678e+01
5.076787825706834845e+00,1.256550028252728346e+01,-7.457252581917067857e+00,-6.205916408480682822e-01,1.834300703687445910e-01,7.623761700075182279e-01,9.987493976345993474e+01
5.301706478631984076e+00,1.244070630283324164e+01,-6.844029628949432897e+00,-6.580011768765487989e-01,1.978423499898593896e-01,7.265609787077731418e-01,1.014637402038505627e+02
5.495870951069678156e+00,1.230316918314608188e+01,-6.219295403807826084e+00,-6.935091446651042713e-01,2.116828820898674079e-01,6.886460801435927426e-01,1.030525406442411906e+02
5.691751441806828460e+00,1.211367873241313298e+01,-5.443833333185680523e+00,-7.270129289257662997e-01,2.249116686481305305e-01,6.487410442400828314e-01,1.050000257257920424e+02
5.841209810892187271e+00,1.189820820690243330e+01,-4.663481161174851231e+00,-9.246034767262547582e-01,-1.743419773614379165e-01,3.386905457147098009e-01,1.069475108073428942e+02
5.931279417074800442e+00,1.168034615231458062e+01,-3.959960781952326592e+00,-8.498265231567917466e-01,-5.222387069684532035e-01,-7.113096008795406766e-02,1.087028936583431147e+02
5.975220475299218847e+00,1.144033085731726551e+01,-3.259878829289987401e+00,-9.097764572098885338e-01,-4.109769391039692077e-01,-5.833312464285502624e-02,1.104582765093433352e+02
5.972834721088231547e+00,1.118021226760138909e+01,-2.565938900749439089e+00,-9.550453190685268545e-01,-2.930832919055429975e-01,-4.459397415261633774e-02,1.122136593603435557e+02
5.924581485815216375e+00,1.090287258268214110e+01,-1.880458976756953282e+00,-9.849026284388019414e-01,-1.704602042659174865e-01,-3.013521620656858108e-02,1.139690422113437762e+02
5.830952763897392366e+00,1.061119088767110874e+01,-1.205756965410364812e+00,-9.988665941599867981e-01,-4.508642607873940278e-02,-1.519016967036251192e-02,1.157244250623439967e+02
5.711656268919282020e+00,1.035048683873723618e+01,-6.354809356073141124e-01,-9.967118863751273095e-01,8.101490948214877530e-02,-0.000000000000000000e+00,1.172373069545191839e+02
5.554991102973704464e+00,1.008339047297368651e+01,-7.785565355917677122e-02,-9.938786151399388036e-01,8.138616644815961643e-02,-7.469665507656873815e-02,1.187501888466943711e+02
5.363595346291993415e+00,9.812351123536940278e+00,4.664709089620598936e-01,-9.854917821397713995e-01,8.130265650452821180e-02,-1.489759221536578471e-01,1.202630707388695583e+02
5.140867631054447884e+00,9.540008042102670061e+00,9.972086080395223817e-01,-9.715982512682185268e-01,8.076484630003151477e-02,-2.224227455453637037e-01,1.217759526310447455e+02
4.890236069749093417e+00,9.268983035702195394e+00,1.514067385998121296e+00,-9.522756566966336100e-01,7.977574101885170910e-02,-2.946267211390999341e-01,1.232888345232199327e+02
4.615158214528012337e+00,9.001880330245151995e+00,2.016757273240944670e+00,-9.276319690529114537e-01,7.834086758696734432e-02,-3.651843896691878144e-01,1.248017164153951200e+02
4.319121016293217430e+00,8.741286434204480926e+00,2.504988390085629568e+00,-8.978048920799472921e-01,7.646824378700474434e-02,-4.337014911788947824e-01,1.263145983075703072e+02
4.005640783512307124e+00,8.489770002464791077e+00,2.978470948600692392e+00,-8.629610931471517477e-01,7.416833345428397450e-02,-4.997951680721581247e-01,1.278274801997454944e+02
3.678263140764076233e+00,8.249881700334935175e+00,3.436915254441426981e+00,-8.232952719163704192e-01,7.145398800453733879e-02,-5.630961044438403951e-01,1.293403620919206674e+02
3.340562987013820262e+00,8.024154067725818962e+00,3.880031708685488301e+00,-7.790290723681012608e-01,6.834037462017285292e-02,-6.232505897338126433e-01,1.308532439840958546e+02
2.996144453618622805e+00,7.815101383494471143e+00,4.307530809667774463e+00,-7.304098442692613657e-01,6.484489149651384565e-02,-6.799224951734420541e-01,1.323661258762710418e+02
2.648640862063522672e+00,7.625219529955696629e+00,4.719123154814581333e+00,-6.777092610050395871e-01,6.098707062175647703e-02,-7.327951519807884839e-01,1.338790077684462290e+02
2.301714681428664644e+00,7.456985857562369091e+00,5.114519442477414302e+00,-6.212218014998746041e-01,5.678846863403960027e-02,-7.815731208102436600e-01,1.353918896606214162e+02
1.959057485587147429e+00,7.312859049755170204e+00,5.493430473766196975e+00,-5.612631047118560312e-01,5.227254636563311713e-02,-8.259838425703722731e-01,1.369047715527966034e+02
1.624389910134068638e+00,7.195278987982801411e+00,5.855567154381547290e+00,-4.981682058965949400e-01,4.746453774744382320e-02,-8.657791613869482150e-01,1.384176534449717906e+02
1.301461609047161350e+00,7.106666616894065314e+00,6.200640496446307104e+00,-4.322896644969278501e-01,4.239130880646608396e-02,-9.007367112028601408e-01,1.399305353371469778e+02
9.940512110792592004e-01,7.049423809702857646e+00,6.528361620336482929e+00,-3.639955941199917167e-01,3.708120754413164050e-02,-9.306611582687187578e-01,1.414434172293221650e+02
6.956866734631027560e-01,7.025837747868489913e+00,6.849539295727249844e+00,-2.936676056099062349e-01,3.156390553443598479e-02,-9.553852925833411502e-01,1.430104589938938489e+02
4.214566300325616188e-01,7.041246189453598703e+00,7.152133952429306163e+00,-2.216986747094622234e-01,2.587023212695041541e-02,-9.747709621873168473e-01,1.445775007584655327e+02
1.755153462621913685e-01,7.098267111171949750e+00,7.435835985289790173e+00,-1.484909462251836343e-01,2.003200218111740247e-02,-9.887098450908657910e-01,1.461445425230372166e+02
-3.795052850272100792e-02,7.199496409901003702e+00,7.700335917739440816e+00,-7.445348696453935045e-02,1.408183829433862395e-02,-9.971240545242712194e-01,1.477115842876089005e+02
-2.147220137794743355e-01,7.347507745880498931e+00,7.945324403896609766e+00,-0.000000000000000000e+00,8.052988517103476865e-03,-9.999665741302532496e-01,1.492786260521805843e+02
-3.505150980697835927e-01,7.544294828807032616e+00,8.171372080846648345e+00,2.645883429299849404e-02,-3.604264902265709447e-02,-9.989989276972984777e-01,1.508456678167522682e+02
-4.434553531087028211e-01,7.789803029443906901e+00,8.380077272625785056e+00,5.284767139284701765e-02,-8.004293464461913199e-02,-9.953884931236486322e-01,1.524127095813239521e+02
-4.966369213639447167e-01,8.081593910395749703e+00,8.572453986854483787e+00,7.909670170042037984e-02,-1.238314690392284950e-01,-9.891448220846599249e-01,1.539797513458956360e+02
-5.156828767681778114e-01,8.416339964287800512e+00,8.748784199957292174e+00,1.051364854977059060e-01,-1.672924131244902524e-01,-9.802844321570185482e-01,1.555467931104673198e+02
-5.062539046911449514e-01,8.790744156756455041e+00,8.909349997543056787e+00,1.308981366322461148e-01,-2.103107944677680974e-01,-9.688307631149003507e-01,1.571138348750390037e+02
-4.740482271762958000e-01,9.201540107925280765e+00,9.054433572480096615e+00,1.563135047367802954e-01,-2.527728114142484550e-01,-9.548141149186625265e-01,1.586808766396106876e+02
-4.243883100840555866e-01,9.649408635988777405e+00,9.185422129259125157e+00,1.813153555023845898e-01,-2.945661341181041171e-01,-9.382715675597443905e-01,1.602612433546739510e+02
-3.633998056323236026e-01,1.012773763141418648e+01,9.301368469764282665e+00,2.058375485285607598e-01,-3.355802016805821686e-01,-9.192468829737804326e-01,1.618416100697372144e+02
-2.969918155856121622e-01,1.063327017834984645e+01,9.402559919167067903e+00,2.298152122801234154e-01,-3.757065146095285302e-01,-8.977903892812639786e-01,1.634219767848004778e+02
-2.311117427143585257e-01,1.116278163927834299e+01,9.489283904734167052e+00,2.531849156883770879e-01,-4.148389218272125478e-01,-8.739588476617502488e-01,1.650023434998637413e+02
-1.715333342278667073e-01,1.171303955345428882e+01,9.561858016608935529e+00,2.758848359429245667e-01,-4.528739014676980146e-01,-8.478153022134322647e-01,1.665827102149270047e+02
-1.213887427439648559e-01,1.228087710071728011e+01,9.620956878899942666e+00,2.978549220304967937e-01,-4.897108347213858237e-01,-8.194289131948488958e-01,1.681630769299902681e+02
-7.912280091046697272e-02,1.286333008335081729e+01,9.667878892757640230e+00,3.190370535884070602e-01,-5.252522720026856495e-01,-7.888747740893683469e-01,1.697434436450535316e+02
-4.095901849870829670e-02,1.345753709155966504e+01,9.704219354091353722e+00,3.393751946525839780e-01,-5.594041907370083111e-01,-7.562337129758202048e-01,1.713238103601167950e+02
-3.155304489372173261e-03,1.406061643113601178e+01,9.731573631996315754e+00,3.588155418935968788e-01,-5.920762440853672981e-01,-7.215920787301187689e-01,1.729041770751800584e+02
3.675458147749128407e-02,1.466969868819874279e+01,9.751141551392038309e+00,3.211849428912349480e-01,-5.992670522976669689e-01,-7.332920512941952795e-01,1.744845437902433218e+02
7.872007196778829652e-02,1.528196825742255527e+01,9.763331778402543293e+00,2.830389527178454601e-01,-6.054962389530291755e-01,-7.438153372033975419e-01,1.760649105053065853e+02
1.214159133414789982e-01,1.589464455606139559e+01,9.768157423833928377e+00,2.444387825824987093e-01,-6.107538085137781403e-01,-7.531450504095669185e-01,1.776452772203698487e+02
1.634838248441576325e-01,1.650495427131383863e+01,9.765631649391671942e+00,2.054463724580465334e-01,-6.150313245328966616e-01,-7.612662201149514862e-01,1.792256439354331121e+02
2.035325165454497376e-01,1.711013152165543261e+01,9.755767667589093861e+00,1.661242916940164627e-01,-6.183219231889047762e-01,-7.681658147913962287e-01,1.808060106504963755e+02
2.401377076135383648e-01,1.770741801809588978e+01,9.738578741655640414e+00,1.265356386200930661e-01,-6.206203242976541246e-01,-7.738327630881846053e-01,1.823863773655596390e+02
2.704025179530960554e-01,1.826830587730103872e+01,9.715167460073200090e+00,8.674393930121074292e-02,-6.219228397834201116e-01,-7.782579715950620480e-01,1.838965192883133568e+02
2.945330549742050108e-01,1.881714614207816894e+01,9.684783076515868672e+00,4.681304560662421371e-02,-6.222273795957306008e-01,-7.814343394319780423e-01,1.854066612110670746e+02
3.111429679064290355e-01,1.935156600207462674e+01,9.647437834098436582e+00,6.807032756418628441e-03,-6.215334550624512788e-01,-7.833567696421649407e-01,1.869168031338207925e+02
3.188176277411183812e-01,1.986919970418976789e+01,9.603144019865943903e+00,-3.320990349024550287e-02,-6.198421796737618727e-01,-7.840221773702942265e-01,1.884269450565745103e+02
3.161141434414508344e-01,2.036768868355116524e+01,9.551913964715586403e+00,-7.317354984028126563e-02,-6.171562672957620066e-01,-7.834294948125956060e-01,1.899370869793282282e+02
3.015613784127342822e-01,2.084468169442588348e+01,9.493760043318761888e+00,-1.130197785000408711e-01,-6.134800278165758458e-01,-7.815796729309995028e-01,1.914472289020819460e+02
2.736599672326626709e-01,2.129783494106575148e+01,9.428694674043248014e+00,-1.526846500716714516e-01,-6.088193602319189601e-01,-7.784756799285390549e-01,1.929573708248356638e+02
2.308823326415434252e-01,2.172481220848587213e+01,9.356730318875188246e+00,-1.921045161474519147e-01,-6.031817431812098729e-01,-7.741224964884403370e-01,1.944675127475893817e+02
1.716727027924004612e-01,2.212328499317529662e+01,9.277879483340884192e+00,-2.312161214375831608e-01,-5.965762229493768443e-01,-7.685271077845109433e-01,1.959776546703430995e+02
9.444712876084018771e-02,2.249093263373888263e+01,9.192154716428406758e+00,-2.699567052676475343e-01,-5.890133989535802916e-01,-7.616984922756067089e-01,1.974877965930968173e+02
-2.406497685413928802e-03,2.282544244146928136e+01,9.099568610509011890e+00,-3.082641022829544775e-01,-5.805054067380960303e-01,-7.536476073021112221e-01,1.989979385158505352e+02
-1.205284260574137067e-01,2.312450983084805500e+01,9.000133801258334287e+00,-3.460768421982581278e-01,-5.710658985045954372e-01,-7.443873715074829089e-01,2.005080804386042530e+02
-2.615870288564107748e-01,2.338583844997491212e+01,8.893862967577293333e+00,-3.833342484328515765e-01,-5.607100212090149194e-01,-7.339326441130157308e-01,2.020182223613579708e+02
-4.272787830259269226e-01,2.360714031092402010e+01,8.780768831512864026e+00,-4.199765354728211553e-01,-5.494543922600975128e-01,-7.223002010789976168e-01,2.035283642841116887e+02
-6.181310042795574722e-01,2.378665201365047110e+01,8.660802827295935202e+00,-3.141385007942008034e-01,-5.743715676271480275e-01,-7.559181864601064449e-01,2.050385062068654065e+02
-8.322964602961099301e-01,2.392364282337433679e+01,8.533793770766878950e+00,-2.042315232335925046e-01,-5.918490498460435845e-01,-7.797449500413348167e-01,2.065486481296191243e+02
-1.066738440016429701e+00,2.401788644093827685e+01,8.399509191342138692e+00,-9.167919634133196716e-02,-6.016604607407545213e-01,-7.934718740701748319e-01,2.080587900523728422e+02
-1.335332758711220924e+00,2.407087081795957317e+01,8.248150569551501832e+00,2.206062339442155240e-02,-6.036787175315465603e-01,-7.969211597742492659e-01,2.096707596792464301e+02
-1.618877456048814834e+00,2.407421714178082794e+01,8.088511098031551327e+00,1.355146989267453084e-01,-5.978776786596280424e-01,-7.900481300125633544e-01,2.112827293061200180e+02
-1.913939181818290036e+00,2.402758505332999306e+01,7.920326099930315777e+00,2.472134941618859549e-01,-5.843324823401598866e-01,-7.729418078919988444e-01,2.128946989329936059e+02
-2.217089377348666623e+00,2.393061477236244983e+01,7.743330959871600250e+00,3.557102075596545454e-01,-5.632185734645729358e-01,-7.458237638632615463e-01,2.145066685598671938e+02
-2.524904325182309339e+00,2.378292712164874700e+01,7.557261125863664830e+00,4.595995113955018141e-01,-5.348094314391391713e-01,-7.090452462074303686e-01,2.161186381867407817e+02
-2.834721274723798423e+00,2.358471827447858971e+01,7.362105986442377237e+00,5.052810068771005358e-01,-5.161937598995610665e-01,-6.915440017316401011e-01,2.177306078136143697e+02
-3.145385096675587189e+00,2.333736009285693669e+01,7.158362745984966580e+00,5.495782112055798141e-01,-4.961639037809060793e-01,-6.721481758913101512e-01,2.193425774404879576e+02
-3.456478032689139557e+00,2.304281375652354669e+01,6.946782545895692884e+00,5.923697662220269722e-01,-4.747747379128701706e-01,-6.509109065816379713e-01,2.209545470673615455e+02
-3.767558896461610018e+00,2.270303773463653130e+01,6.728116583961929464e+00,6.335384387581237675e-01,-4.520848611113041926e-01,-6.278903765555321481e-01,2.225665166942351334e+02
-4.060696464357836710e+00,2.234269526869043077e+01,6.515736568004731666e+00,6.729714418045151803e-01,-4.281564356343420807e-01,-6.031496540176860544e-01,2.240880029226550221e+02
-4.352866451730220021e+00,2.194565788804946749e+01,6.298048169683090336e+00,7.105607434971634717e-01,-4.030550168768496366e-01,-5.767565198352033740e-01,2.256094891510749108e+02
-4.643606382261744159e+00,2.151355534605395192e+01,6.075720699965203586e+00,7.462033630754889568e-01,-3.768493737699405433e-01,-5.487832818384070777e-01,2.271309753794947994e+02
-4.932434490632083168e+00,2.104801476532606230e+01,5.849423499541249072e+00,7.798016530017342074e-01,-3.496113003776566974e-01,-5.193065767206749284e-01,2.286524616079146881e+02
-5.218849729417127215e+00,2.055066054765411465e+01,5.619825934528633660e+00,8.112635664689171744e-01,-3.214154192069962335e-01,-4.884071600800900526e-01,2.301739478363345768e+02
-5.502331776167915578e+00,2.002311428390494896e+01,5.387597392177307931e+00,8.405029095647771342e-01,-2.923389767701495834e-01,-4.561696851781505968e-01,2.316954340647544655e+02
-5.782341040669062515e+00,1.946699466396519895e+01,5.153407276575298290e+00,8.674395774011461890e-01,-2.624616319590003521e-01,-4.226824710216552927e-01,2.332169202931743541e+02
-6.058318672377410508e+00,1.888391738671215592e+01,4.917925004354177787e+00,8.919997735621182366e-01,-2.318652378116155266e-01,-3.880372604031047667e-01,2.347384065215942428e+02
-6.329686568041339001e+00,1.827549507001479157e+01,4.681820000394526282e+00,9.141162122700545734e-01,-2.006336172685248553e-01,-3.523289685624292344e-01,2.362598927500141315e+02
-6.595847379501010188e+00,1.764333716076566105e+01,4.445761693531005143e+00,9.337283027158089777e-01,-1.688523335330311681e-01,-3.156554231585200210e-01,2.377813789784340202e+02
-6.856184521668633458e+00,1.698904984494453885e+01,4.210419512256970975e+00,9.507823150483843966e-01,-1.366084556645574544e-01,-2.781170962628198295e-01,2.393028652068539088e+02
-7.110062180688029976e+00,1.631423595771464008e+01,3.976462880429407321e+00,9.652315275694548502e-01,-1.039903200470779360e-01,-2.398168291090602700e-01,2.408243514352737975e+02
-7.356825322274127998e+00,1.562049489355191945e+01,3.744561212974245823e+00,9.770363547296352369e-01,-7.108728838596282962e-02,-2.008595503530527238e-01,2.423458376636936862e+02
-7.595799700232637619e+00,1.490942251640810490e+01,3.515383911591615007e+00,9.861644555759493391e-01,-3.798950289607325170e-02,-1.613519886142105730e-01,2.438673238921135749e+02
-7.826291865160362349e+00,1.418261106990786935e+01,3.289600360461194750e+00,9.925908223534525288e-01,-4.787639351625803778e-03,-1.214023800861248337e-01,2.453888101205334635e+02
-8.047589173326116452e+00,1.344164908758090071e+01,3.067879921947946009e+00,9.962978490182999858e-01,2.842734132579578799e-02,-8.112017201702242941e-02,2.469102963489533522e+02
-8.258959795730506315e+00,1.268812130313032682e+01,2.850891932307802801e+00,9.972753794745361500e-01,6.156444226069587161e-02,-4.061572287224782946e-02,2.484317825773732409e+02
-8.459652727344622036e+00,1.192360856073807085e+01,2.639305697393047545e+00,9.955207354023959399e-01,9.453287991605881235e-02,-0.000000000000000000e+00,2.499532688057931296e+02
-8.655537398274967487e+00,1.112349927477353262e+01,2.426475393333509256e+00,9.913008634114531814e-01,1.316077436555698199e-01,0.000000000000000000e+00,2.515261591115538238e+02
-8.839654352205611687e+00,1.031549457607787446e+01,2.219126687651993723e+00,9.857007492619630495e-01,1.684993557698928335e-01,0.000000000000000000e+00,2.530990494173145180e+02
-9.011945753177544205e+00,9.501792441750177787e+00,2.016465299165274505e+00,9.787281891584446170e-01,2.051563592407236736e-01,0.000000000000000000e+00,2.546719397230752122e+02
-9.172327012993786610e+00,8.684590427203014329e+00,1.817696914513458495e+00,9.703928888839234990e-01,2.415277234467198553e-01,0.000000000000000000e+00,2.562448300288359064e+02
-9.320686792506142737e+00,7.866085536059647332e+00,1.622027193611012219e+00,9.777789528712391709e-01,2.096337742748142774e-01,0.000000000000000000e+00,2.578177203345965722e+02
-9.456887003172091966e+00,7.048474090057567309e+00,1.428661775098156728e+00,9.841170519577222553e-01,1.775151487643703008e-01,0.000000000000000000e+00,2.593906106403572380e+02
-9.580762808881729597e+00,6.233951598959296625e+00,1.236806281792467876e+00,9.894003939684115068e-01,1.452062684940973181e-01,0.000000000000000000e+00,2.609635009461179038e+02
-9.692122628054958611e+00,5.424712630471015373e+00,1.045666326140471059e+00,9.936233168569873486e-01,1.127417588691026346e-01,0.000000000000000000e+00,2.625363912518785696e+02
-9.790748136009030489e+00,4.622950680170082371e+00,8.544475156699357088e-01,9.967812947695334769e-01,8.015641204684448295e-02,0.000000000000000000e+00,2.641092815576392354e+02
-9.876394267596076304e+00,3.830858041443262696e+00,6.623554584429059977e-01,9.988709428919735345e-01,4.748514968431895994e-02,0.000000000000000000e+00,2.656821718633999012e+02
-9.947587445500579051e+00,3.063208341410055269e+00,4.717542369369684407e-01,9.998900210782709630e-01,1.476298554660309542e-02,0.000000000000000000e+00,2.672294485174402894e+02
-1.000550787037215272e+01,2.309080873332729933e+00,2.788303922706628635e-01,9.962137931015124792e-01,1.379333285831311172e-02,-8.582436952020218446e-02,2.687767251714806775e+02
-1.005013856151213858e+01,1.570507061528103154e+00,8.307483767564503851e-02,9.851852175856112837e-01,1.272188143630537116e-02,-1.710153232437534032e-01,2.703240018255210657e+02
-1.008153650921921418e+01,8.495026049689746728e-01,-1.159349542675875561e-01,9.668856898819657708e-01,1.155653889840314863e-02,-2.549441293908575878e-01,2.718712784795614539e+02
-1.009973415454070000e+01,1.480835411425222570e-01,-3.186214893692970729e-01,9.414502662991307558e-01,1.030590579253040477e-02,-3.369913713907328745e-01,2.734185551336018420e+02
-1.010473938824427975e+01,-5.317338710669728963e-01,-5.254072490237832183e-01,9.090666673329422798e-01,8.979212124291683153e-03,-4.165515191360025238e-01,2.749658317876422302e+02
-1.009653555002963365e+01,-1.187933268498920336e+00,-7.367146874023505765e-01,8.699738922743760483e-01,7.586249239746260808e-03,-4.930373977540812858e-01,2.765131084416826184e+02
-1.007508142797944650e+01,-1.818498300840073467e+00,-9.529662286463548293e-01,8.244604554201455660e-01,6.137297565949939582e-03,-5.658845209294945944e-01,2.780603850957230065e+02
-1.003994769229851869e+01,-2.427753988814790098e+00,-1.176982125024336190e+00,7.728622568968787077e-01,4.643050742320553245e-03,-6.345552568095174095e-01,2.796243950274525218e+02
-9.991285781168151914e+00,-3.006640528025338988e+00,-1.406854049818808905e+00,7.155601038031140781e-01,3.114536702494184132e-03,-6.985427957590173431e-01,2.811884049591820371e+02
-9.929242575427915440e+00,-3.553257135267599232e+00,-1.643095882602355395e+00,6.529768999514995453e-01,1.563036288837333244e-03,-7.573748906899301359e-01,2.827524148909115524e+02
-9.854474476886071699e+00,-4.066069569617909885e+00,-1.886386234165791986e+00,5.855745249376080874e-01,0.000000000000000000e+00,-8.106173423658352695e-01,2.843164248226410677e+02
-9.770501155247609759e+00,-4.529706881534570684e+00,-2.129795306043388070e+00,8.010230466218279943e-01,1.680977087608944570e-02,-5.983957807208056812e-01,2.858325664139024411e+02
-9.675850588223324777e+00,-4.959191733482503750e+00,-2.381490077826932783e+00,9.429866597446359133e-01,3.207743219650309452e-02,-3.312781276935125585e-01,2.873487080051638145e+02
-9.571346234397269725e+00,-5.353287343999509673e+00,-2.642185555292547505e+00,9.984418138771008477e-01,4.440234749862993768e-02,-3.376945127337916547e-02,2.888648495964251879e+02
-9.457796459450444004e+00,-5.710752554557348759e+00,-2.912596686818341496e+00,9.623011475947070847e-01,5.265384537069009441e-02,2.668371674009193950e-01,2.903809911876865613e+02
-9.336370901540153255e+00,-6.030639054603098792e+00,-3.193371183934924584e+00,8.378801759393996740e-01,5.607494484992718575e-02,5.429644659909178550e-01,2.918971327789479346e+02
-9.208981511695144562e+00,-6.312586028655051251e+00,-3.485022342304376686e+00,9.053473691449666072e-01,4.153717105648690455e-01,-8.837693841807206518e-02,2.934132743702093080e+02
-9.077913172160938515e+00,-6.556519178126258396e+00,-3.787996213345433016e+00,9.360722153546453539e-01,3.202522752089287938e-01,1.456203552547300495e-01,2.949294159614706814e+02
-8.945449631393490364e+00,-6.762352290538180988e+00,-4.102738776296527057e+00,9.061895982315796294e-01,2.043976334009164064e-01,3.701891672065157901e-01,2.964455575527320548e+02
-8.806009318986001588e+00,-6.938729532820346435e+00,-4.449392194492852504e+00,8.176343202152047684e-01,7.530893738781591074e-02,5.707895254430604970e-01,2.980530021474328919e+02
-8.670111922061815690e+00,-7.071777897080041342e+00,-4.809496010463260696e+00,7.957731143247932515e-01,9.275971804356768213e-02,5.984469777786836087e-01,2.996604467421337290e+02
-8.539325325331518002e+00,-7.162136091833585461e+00,-5.183785069515028709e+00,7.726805509466726507e-01,1.100669599842965807e-01,6.251783989348375092e-01,3.012678913368345661e+02
-8.413258949290389310e+00,-7.212005813680979038e+00,-5.573461864552697875e+00,7.483923528909645073e-01,1.272038900111869819e-01,6.509424371525430741e-01,3.028753359315354032e+02
-8.244130443968156641e+00,-7.221958770797484384e+00,-6.131738568301679848e+00,0.000000000000000000e+00,9.983844631533018710e-01,-5.680196945670642344e-02,3.050836114631876512e+02
-8.075402194977087333e+00,-7.173698054175261518e+00,-6.714446197910615588e+00,3.810445529456370911e-02,9.982805671505174949e-01,4.451920637676058667e-02,3.072918869948398992e+02
-7.951507393117053901e+00,-7.108258536701425712e+00,-7.151644218134622477e+00,7.576240324136067350e-02,9.864788553138916782e-01,1.453187058633440554e-01,3.088811760806968891e+02
-7.823032683892246375e+00,-7.021401123939666533e+00,-7.605473222679115075e+00,1.125325679745770302e-01,9.631176214730524654e-01,2.444153603056155311e-01,3.104704651665538790e+02
-7.680731508355273185e+00,-6.910329411311225023e+00,-8.099326554989614735e+00,1.479840769989751448e-01,9.284706151528355766e-01,3.406479557443062856e-01,3.121493063977750353e+02
-7.530512029042066402e+00,-6.782776385813253484e+00,-8.602336656108320767e+00,1.817015103134324572e-01,8.829438333846411080e-01,4.328888405102313541e-01,3.138281476289961915e+02
-7.371279162433016729e+00,-6.641903638312388836e+00,-9.108118955423696761e+00,2.132897684044118003e-01,8.270707626967401804e-01,5.200571393480035720e-01,3.155069888602173478e+02
-7.201975623864960596e+00,-6.490878974758199860e+00,-9.610288860549136558e+00,2.423787020534020342e-01,7.615061270961324125e-01,6.011314192310535098e-01,3.171858300914385040e+02
-7.021581943274270543e+00,-6.332876218008597569e+00,-1.010246180722433884e+01,2.686274497009184525e-01,6.870182153710554518e-01,6.751616584319050096e-01,3.188646713226596603e+02
-6.829293694210781140e+00,-6.171293136764917087e+00,-1.057834189660674795e+01,2.917284315445748399e-01,6.044798776933462126e-01,7.412803785974196868e-01,3.205435125538808165e+02
-6.624720509240217048e+00,-6.010002291173194955e+00,-1.103215822584747485e+01,3.114109535789338357e-01,5.148582970881430132e-01,7.987128094076650919e-01,3.222223537851019728e+02
-6.407732978015256542e+00,-5.853164760434087732e+00,-1.145892403979783580e+01,3.274443793622670018e-01,4.192036556827557492e-01,8.467859667517860789e-01,3.239011950163231290e+02
-6.187774288823749913e+00,-5.710845897478701971e+00,-1.183770099389293939e+01,3.396408323656667783e-01,3.186368285800526001e-01,8.849365380997761266e-01,3.255105737869507720e+02
-5.955863589312443196e+00,-5.580150862618471486e+00,-1.218183887066007642e+01,3.478573972632099109e-01,2.143362495746643226e-01,9.127174827345225783e-01,3.271199525575784151e+02
-5.711992108420086645e+00,-5.464498518077325784e+00,-1.248711800409134476e+01,3.519977943933309539e-01,1.075241026116825621e-01,9.298032695691893501e-01,3.287293313282060581e+02
-5.456111422022670077e+00,-5.366764170107493293e+00,-1.274940445972923975e+01,3.520135077923879363e-01,-5.479992337527160454e-04,9.359936912342581294e-01,3.303387100988337011e+02
-5.188166362226604988e+00,-5.289551657819833608e+00,-1.296460733805826315e+01,2.377276624752589496e-01,3.277810355994040942e-02,9.707776029655289518e-01,3.319480888694613441e+02
-4.851387072023545244e+00,-5.227606640411120331e+00,-1.316160759233413025e+01,1.197851196601070617e-01,6.560002165780126626e-02,9.906291749512750044e-01,3.338834695940711299e+02
-4.500288588398079881e+00,-5.203681082258198920e+00,-1.329270146934137031e+01,0.000000000000000000e+00,9.741290686787916486e-02,9.952430484926604315e-01,3.358188503186809157e+02
-4.135840290412851061e+00,-5.222187132251357333e+00,-1.335815914511225344e+01,-0.000000000000000000e+00,-9.695091807975529663e-02,9.952881590151888558e-01,3.377542310432907016e+02
-3.833910392123625943e+00,-5.269900072020430315e+00,-1.336165261723757247e+01,-4.291282096655081070e-03,-2.252196961352708748e-01,9.742975281538440724e-01,3.393072186219453101e+02
-3.523727944201473949e+00,-5.348378017934385831e+00,-1.332045603480809604e+01,-8.509987894250357898e-03,-3.496795025689147796e-01,9.368296673276681474e-01,3.408602062005999187e+02
-3.206490349378128268e+00,-5.458948287169183899e+00,-1.323865381317063772e+01,-7.636298918902155453e-03,-2.956295949471905993e-01,9.552710764647325270e-01,3.424131937792545273e+02
-2.883410342855467601e+00,-5.602932008322927260e+00,-1.312033063910449293e+01,-6.737698540331832527e-03,-2.406152762095235820e-01,9.705961530281199678e-01,3.439661813579091358e+02
-2.555533940269017368e+00,-5.780927937517920334e+00,-1.296932136487346376e+01,-5.817118179492025004e-03,-1.848160143417502954e-01,9.827549043270881191e-01,3.455191689365637444e+02
-2.223547070255509350e+00,-5.992097576871204367e+00,-1.278896090394919582e+01,-4.877560955736740152e-03,-1.284138377628337713e-01,9.917076664371218264e-01,3.470721565152183530e+02
-1.853324563419703974e+00,-6.261782334220671764e+00,-1.256106830413095565e+01,-3.922091891688285654e-03,-7.159274161279889637e-02,9.974252335606494935e-01,3.487856200276899585e+02
-1.479793178660440356e+00,-6.568057018051432827e+00,-1.230794635199015730e+01,-2.953827916271877397e-03,-1.453808762843182729e-02,9.998889532886163778e-01,3.504990835401615641e+02
-1.103515256343825301e+00,-6.908808847131078679e+00,-1.203335110515144812e+01,-1.975927698488835933e-03,4.256400043828593299e-02,9.990907874543366596e-01,3.522125470526331696e+02
-7.250272129826360601e-01,-7.281921994013658583e+00,-1.174103879588079558e+01,-9.915813450336687963e-04,9.952724389017328366e-02,9.950333383809690790e-01,3.539260105651047752e+02
-3.448395341222365018e-01,-7.685277724367837848e+00,-1.143476580051084746e+01,-3.999995304131439757e-06,1.561658166662475977e-01,9.877298404362626627e-01,3.556394740775763808e+02
3.696748386092597871e-02,-8.116222786011757506e+00,-1.111743811828054440e+01,-3.336342326332634652e-06,1.342128265673918630e-01,9.909515210958855791e-01,3.573529375900479863e+02
4.184653520647709790e-01,-8.567780828610297661e+00,-1.079255583980778077e+01,-2.671046988837721208e-06,1.121937671884797733e-01,9.936853418390096948e-01,3.590543796104893772e+02
8.035389840448735610e-01,-9.038723336087153726e+00,-1.045824312962693980e+01,-2.004436753114909808e-06,9.011947642004634884e-02,9.959299573537451211e-01,3.607558216309307682e+02
1.193437032655096708e+00,-9.524904778951819750e+00,-1.011484979172661802e+01,-1.336839726995968190e-06,6.800081930634807592e-02,9.976842629613479341e-01,3.624572636513721591e+02
1.589458774890099901e+00,-1.002218735468932920e+01,-9.762725702850008958e+00,-6.685845035928538692e-07,4.584868271106449372e-02,9.989473951524817652e-01,3.641587056718135500e+02
1.992954090624079022e+00,-1.052644125751912085e+01,-9.402220809689238123e+00,-0.000000000000000000e+00,2.367396997322678345e-02,9.997187320112477238e-01,3.658601476922549409e+02
2.404466157469354659e+00,-1.103375849891725657e+01,-9.033183807348050820e+00,-1.815685972366613410e-06,8.631051170094888869e-02,9.962672811885360247e-01,3.675615897126963318e+02
2.822870670334241439e+00,-1.154065988870389958e+01,-8.654460821829822237e+00,-3.624226711587903945e-06,1.486073979362688424e-01,9.888952630413665457e-01,3.692630317331377228e+02
3.221407879083340031e+00,-1.201447263389441211e+01,-8.287363602280622743e+00,-5.418505219052842428e-06,2.103194769713875589e-01,9.776316881000031156e-01,3.708643974005989890e+02
3.623030857675350713e+00,-1.248230045235516528e+01,-7.908128132339466099e+00,-7.191460618315129887e-06,2.712038983333718289e-01,9.625208805408472790e-01,3.724657630680602551e+02
4.026087289336386377e+00,-1.294140419387901275e+01,-7.515288357430175203e+00,-8.936115937843508848e-06,3.310210683394158027e-01,9.436223038035528310e-01,3.740671287355215213e+02
4.428957706492778534e+00,-1.338903562582727780e+01,-7.107378319634721997e+00,-1.064560556384511033e-05,3.895355928452018390e-01,9.210103266485138995e-01,3.756684944029827875e+02
4.830055513349999607e+00,-1.382243759621233536e+01,-6.682932168120997218e+00,-1.231320225525063741e-05,4.465172034807274315e-01,8.947739305789715880e-01,3.772698600704440537e+02
5.227827008126843644e+00,-1.423884419687530745e+01,-6.240484169568431660e+00,-1.393234361465973069e-05,5.017416637323274253e-01,8.650163597761567624e-01,3.788712257379053199e+02
5.620751404945205643e+00,-1.463548092675666368e+01,-5.778568718594272013e+00,-1.549665791116819078e-05,5.549916513083045233e-01,8.318547149214672309e-01,3.804725914053665861e+02
6.007340855375308486e+00,-1.500956485525845352e+01,-5.295720348180460668e+00,-1.699998915352857377e-05,6.060576133181894143e-01,7.954194924999823391e-01,3.820739570728278522e+02
6.386398192576454136e+00,-1.535858116815247243e+01,-4.791043326298727756e+00,-8.714160024713584786e-06,6.747554542646525544e-01,7.380400238874712526e-01,3.836753227402891184e+02
6.831403158199561787e+00,-1.574164761067341800e+01,-4.159403070854096995e+00,-3.585205410199641569e-07,7.380472384462178903e-01,6.747475630322210538e-01,3.855974869278406914e+02
7.265793024601672201e+00,-1.608295335482793220e+01,-3.503021973949881573e+00,7.999989140413108610e-06,7.954259202489223357e-01,6.060491773184206732e-01,3.875196511153922643e+02
7.688474369278329057e+00,-1.638037989863449795e+01,-2.823607856598544963e+00,5.337226716009543779e-06,8.130197862525434527e-01,5.822343403772590742e-01,3.894418153029438372e+02
8.027161172549977408e+00,-1.659307223418326416e+01,-2.243924181999400691e+00,2.669784555868305996e-06,8.299008879425801011e-01,5.579090572536804515e-01,3.910340298006260582e+02
8.352341063394087328e+00,-1.677536838468813940e+01,-1.649738099942325231e+00,0.000000000000000000e+00,8.460544322668346329e-01,5.330946422741880131e-01,3.926262442983082792e+02
8.661966676451511304e+00,-1.692739806926044110e+01,-1.043323057615550553e+00,-4.500198171441815304e-02,8.801156381497284853e-01,4.726195987540224297e-01,3.942184587959905002e+02
8.953995803064270120e+00,-1.704955208836540947e+01,-4.272332671784494496e-01,-8.969602795022582620e-02,9.081545716738015361e-01,4.089106216747104838e-01,3.958106732936727212e+02
9.215313180279501637e+00,-1.713955481825306393e+01,1.700605654214535356e-01,-1.337763153254973303e-01,9.299793759668724125e-01,3.424036473737024910e-01,3.973379658955657874e+02
9.455932020920062797e+00,-1.720407613152923076e+01,7.705210473255926784e-01,-1.769412205600329746e-01,9.454407153936259522e-01,2.735537573192554639e-01,3.988652584974588535e+02
9.673958277979982867e+00,-1.724414506118863599e+01,1.371023200760811633e+00,-2.188953843816090761e-01,9.544327972627357770e-01,2.028320640495047678e-01,4.003925510993519197e+02
9.867484713269110586e+00,-1.726078066586213211e+01,1.968442047678195417e+00,-2.593517325437196819e-01,9.568940955529622316e-01,1.307224874439460449e-01,4.019198437012449858e+02
1.003459092134829689e+01,-1.725499196777720101e+01,2.559652629961761683e+00,-2.980334401259320809e-01,9.528077717250643675e-01,5.771844339773678223e-02,4.034471363031380520e+02
1.017334335358975572e+01,-1.722777789081462885e+01,3.141530029635406507e+00,-3.346758256776921070e-01,9.422017897514121110e-01,-1.568053243916106912e-02,4.049744289050311181e+02
1.028179534236262782e+01,-1.718012719866210603e+01,3.710949389069922777e+00,-3.690281622479809620e-01,9.251487245878124988e-01,-8.897220275423541047e-02,4.065017215069241843e+02
1.035798712534345078e+01,-1.711301843306538828e+01,4.264785931189774004e+00,-4.008553929132623317e-01,9.017652654092868092e-01,-1.616550651087414747e-01,4.080290141088172504e+02
1.039994586995138270e+01,-1.702741985217755527e+01,4.799914979679344107e+00,-4.299397390706680144e-01,8.722114170190106153e-01,-2.332317834071389040e-01,4.095563067107103166e+02
1.040568569790836229e+01,-1.692428936900673619e+01,5.313211979188577239e+00,-4.560821904978357155e-01,8.366894049031949887e-01,-3.032125908257297664e-01,4.110835993126033827e+02
1.037320770992407226e+01,-1.680457448996277847e+01,5.801552515538051402e+00,-4.791038669901376834e-01,7.954422914302474723e-01,-3.711186409238522721e-01,4.126108919144964489e+02
1.030050001050521047e+01,-1.666921225350353808e+01,6.261812335923219841e+00,-4.988472422646924587e-01,7.487523126664734630e-01,-4.364852840170240222e-01,4.141381845163895150e+02
1.017750032091193191e+01,-1.650809745819439556e+01,6.720749968672713237e+00,-5.151772217625080197e-01,6.969389471894419374e-01,-4.988652464037193202e-01,4.157720594580900979e+02
1.000793527780971104e+01,-1.633145615613172907e+01,7.143327706692337742e+00,-4.764587954802803615e-01,6.477180406668950896e-01,-5.945135456874621749e-01,4.174059343997906808e+02
9.792218402531245758e+00,-1.614126222324293636e+01,7.527768288058701351e+00,-4.315128467695426573e-01,5.900311791714117904e-01,-6.823912885436248521e-01,4.190398093414912637e+02
9.531656725801308738e+00,-1.593977302687444819e+01,7.872893952022620212e+00,-3.809268374968131643e-01,5.246323535355498224e-01,-7.613498788994490507e-01,4.206736842831918466e+02
9.227527723674151972e+00,-1.572925317805679057e+01,8.177527228772186518e+00,-3.253619465913307751e-01,4.523763519792335375e-01,-8.303572965187864252e-01,4.223075592248924295e+02
8.881079299541960737e+00,-1.551197438079836211e+01,8.440490948144249828e+00,-2.655444285217176126e-01,3.742075881395393600e-01,-8.885115854402232394e-01,4.239414341665930124e+02
8.493529766470846454e+00,-1.529021528130218321e+01,8.660608248334627390e+00,-2.022561212894118943e-01,2.911477577725803956e-01,-9.350526426605469954e-01,4.255753091082935953e+02
