2.042285057193633957e+00,1.370872762851528215e+01,-1.050983212012063817e+01,-2.570706177293431427e-01,4.934157905335190969e-02,9.651311341357261542e-01,8.557573579994428314e+01
2.283218243061536867e+00,1.358853343610307896e+01,-1.025250113562625742e+01,-3.023661767162267866e-01,6.559537845396175293e-02,9.509310918804197987e-01,8.716453624033491110e+01
2.517663793100751501e+00,1.347050231681988208e+01,-9.968111042222474794e+00,-3.469005206505925698e-01,8.168403939141852255e-02,9.343370625649425332e-01,8.875333668072553905e+01
2.744479189927912621e+00,1.335381041622559373e+01,-9.658288484285922237e+00,-3.905615342221069874e-01,9.756705861203342212e-02,9.153908220324984413e-01,9.034213712111616701e+01
2.962515520610913278e+00,1.323764248124157916e+01,-9.324660284099719476e+00,-4.332393007276156838e-01,1.132044505690274899e-01,8.941400677063329194e-01,9.193093756150679496e+01
3.170617500899951757e+00,1.312119189618430859e+01,-8.968853430467724763e+00,-4.748263787648514533e-01,1.285568480784936851e-01,8.706382985158938048e-01,9.351973800189742292e+01
3.367623499534897924e+00,1.300366071869203033e+01,-8.592495067330419900e+00,-5.152180726956434587e-01,1.435856014188499341e-01,8.449446802213878005e-01,9.510853844228805087e+01
3.552365562631463636e+00,1.288425971554521787e+01,-8.197212482380146881e+00,-5.543126961982601797e-01,1.582528756244896972e-01,8.171238964755642709e-01,9.669733888267867883e+01
3.723669438146641752e+00,1.276220839837989729e+01,-7.784633095675521197e+00,-5.920118282458791681e-01,1.725217457288740486e-01,7.872459859973860441e-01,9.828613932306930678e+01
3.880354600423207234e+00,1.263673505929355834e+01,-7.356384448255032460e+00,-6.282205608671914687e-01,1.863562897174559918e-01,7.553861662671302879e-01,9.987493976345993474e+01
4.021234274812292675e+00,1.250707680634435270e+01,-6.914094190750189384e+00,-6.628477380657872287e-01,1.997216789565776918e-01,7.216246441863342076e-01,1.014637402038505627e+02
4.145115462374015181e+00,1.237247959894324545e+01,-6.459390071998186933e+00,-6.958061852971461070e-01,2.125842658708128885e-01,6.860464141787543380e-01,1.030525406442411906e+02
4.274509791526892144e+00,1.220041680032453435e+01,-5.888921283097234394e+00,-7.270129289257662997e-01,2.249116686481305305e-01,6.487410442400828314e-01,1.050000257257920424e+02
4.379937956802499421e+00,1.202051547912930651e+01,-5.307606858958186180e+00,-8.877117058308335862e-01,-4.113255839432064520e-02,4.585564741362617713e-01,1.069475108073428942e+02
4.452538647491222967e+00,1.185127319900820986e+01,-4.775840810511160939e+00,-9.305453817935082084e-01,-3.017155779250095260e-01,2.074873549420498398e-01,1.087028936583431147e+02
4.502171038987914820e+00,1.167523000515798692e+01,-4.238108457767890691e+00,-8.498265231567917466e-01,-5.222387069684532035e-01,-7.113096008795406766e-02,1.104582765093433352e+02
4.528531265702887332e+00,1.149301724482362808e+01,-3.696078725431321210e+00,-8.941079885489863210e-01,-4.435235167498022824e-01,-6.209504732172116404e-02,1.122136593603435557e+02
4.531829996183028619e+00,1.130600053340264743e+01,-3.151204359437055569e+00,-9.310232505799866942e-01,-3.611543445821806531e-01,-5.254756196351747372e-02,1.139690422113437762e+02
4.512543854619579520e+00,1.111590920713275921e+01,-2.604830022258416644e+00,-9.602681886303738867e-01,-2.758097943338574387e-01,-4.256716168265127498e-02,1.157244250623439967e+02
4.476907981494975708e+00,1.095085765726629567e+01,-2.133762465100049965e+00,-9.816018734269598145e-01,-1.881929803328760975e-01,-3.223607044823216528e-02,1.172373069545191839e+02
4.422689381493855265e+00,1.078590671329402184e+01,-1.663560964520991670e+00,-9.948485513330306285e-01,-9.902573517747415011e-02,-2.163940117134026744e-02,1.187501888466943711e+02
4.350269692368247121e+00,1.062233205156471882e+01,-1.195224088927824058e+00,-9.998990918407817396e-01,-9.042663484708748228e-03,-1.086445456601446875e-02,1.202630707388695583e+02
4.260039059672847905e+00,1.046140661406954031e+01,-7.297503948779676675e-01,-9.967118863751273095e-01,8.101490948214877530e-02,-0.000000000000000000e+00,1.217759526310447455e+02
4.152645241648639463e+00,1.030449942436708355e+01,-2.680530397000955301e-01,-9.932567570293234782e-01,8.139880434615835714e-02,-8.254240890503737604e-02,1.232888345232199327e+02
4.029243654492308480e+00,1.015317203539632551e+01,1.891256053434575701e-01,-9.830223045673989191e-01,8.122712403018601812e-02,-1.645214364331784862e-01,1.248017164153951200e+02
3.891249655357124304e+00,1.000907606530206628e+01,6.411285787184703988e-01,-9.660783830276251649e-01,8.050104033451617458e-02,-2.453775465544107415e-01,1.263145983075703072e+02
3.740089875975806777e+00,9.873853094219665394e+00,1.087298951738811637e+00,-9.425406411065262446e-01,7.922550907238744278e-02,-3.245588676588880839e-01,1.278274801997454944e+02
3.577202195932362550e+00,9.749134604397932335e+00,1.526979832733017961e+00,-9.125697327805535330e-01,7.740923624233604639e-02,-4.015249593220102109e-01,1.293403620919206674e+02
3.404035715810263873e+00,9.636541920433849384e+00,1.959514371210661965e+00,-8.763702207390996479e-01,7.506461860316120116e-02,-4.757505010370863263e-01,1.308532439840958546e+02
3.222050730217072001e+00,9.537686149619702292e+00,2.384245762027988214e+00,-8.341891801169368792e-01,7.220765905738532608e-02,-5.467288777362185881e-01,1.323661258762710418e+02
3.032718700685221869e+00,9.454168122402444752e+00,2.800517249553883925e+00,-7.863145120595614879e-01,6.885785742101434292e-02,-6.139756376252964998e-01,1.338790077684462290e+02
2.837522228449072426e+00,9.387578332955763827e+00,3.207672131836362794e+00,-7.330729786357232936e-01,6.503807732543331888e-02,-6.770317987314022901e-01,1.353918896606214162e+02
2.637955027098818572e+00,9.339496879865254897e+00,3.605053764768472835e+00,-6.748279725133988771e-01,6.077439016019298840e-02,-7.354669815944707700e-01,1.369047715527966034e+02
2.435521895111619539e+00,9.311493406927414895e+00,3.992005566252823989e+00,-6.119770366256332972e-01,5.609589712214067131e-02,-7.888823467226213637e-01,1.384176534449717906e+02
2.231738688259840675e+00,9.305127044062624364e+00,4.367871020365156731e+00,-5.449491507587007622e-01,5.103453058575693757e-02,-8.369133167640062654e-01,1.399305353371469778e+02
2.028132291896478367e+00,9.321946348342349253e+00,4.731993681517630002e+00,-4.742018035852761937e-01,4.562483615065762027e-02,-8.792320648181624065e-01,1.414434172293221650e+02
1.819029418192421810e+00,9.365004019872113616e+00,5.096302211626032808e+00,-4.002178701289689777e-01,3.990373685404841747e-02,-9.155497519066165824e-01,1.430104589938938489e+02
1.613369261660744236e+00,9.435335385958309118e+00,5.447062977243553483e+00,-3.235023159736916676e-01,3.391028115758249611e-02,-9.456184983349567030e-01,1.445775007584655327e+02
1.412825961398353813e+00,9.534566814898994380e+00,5.783571905631234245e+00,-2.445787507129186800e-01,2.768537642874062746e-02,-9.692330754950132521e-01,1.461445425230372166e+02
1.219085786720383702e+00,9.664312659921131754e+00,6.105125021052032253e+00,-1.639858541619299004e-01,2.127150973578075324e-02,-9.862323065638125552e-01,1.477115842876089005e+02
1.033847104543936357e+00,9.826175191980885515e+00,6.411018449560668131e+00,-8.227369972366822826e-02,1.471245786181720958e-02,-9.965001665425308186e-01,1.492786260521805843e+02
8.587481083556242067e-01,1.002131209421250269e+01,6.700841792896858884e+00,-0.000000000000000000e+00,8.052988517103476865e-03,-9.999665741302532496e-01,1.508456678167522682e+02
6.946556241799657361e-01,1.024939688408425020e+01,6.974701151402461718e+00,3.052496209953728737e-02,-4.282104847823041405e-02,-9.986153335980403334e-01,1.524127095813239521e+02
5.410902829896658828e-01,1.050845085439216753e+01,7.232855405213474143e+00,6.094241957656240660e-02,-9.354427507249027385e-02,-9.937471962720056951e-01,1.539797513458956360e+02
3.969223152349274364e-01,1.079589307768543449e+01,7.475493192367457240e+00,9.114524965222346731e-02,-1.439380565724926453e-01,-9.853793073416857728e-01,1.555467931104673198e+02
2.610032444370956606e-01,1.110915141497196146e+01,7.702803256494340722e+00,1.210270854643778204e-01,-1.938249185976965161e-01,-9.735411370434454703e-01,1.571138348750390037e+02
1.321659123442322503e-01,1.144566261899316473e+01,7.914974445530537750e+00,1.504826906387840002e-01,-2.430291720568721059e-01,-9.582743768612046464e-01,1.586808766396106876e+02
8.181964915221908580e-03,1.180590642521516109e+01,8.113873021744355540e+00,1.794083298784596436e-01,-2.913775318364463240e-01,-9.396327926974369360e-01,1.602612433546739510e+02
-1.110284552463472324e-01,1.218444495198953348e+01,8.297892067871796229e+00,2.077021342670274662e-01,-3.386997270232364743e-01,-9.176820355311219313e-01,1.618416100697372144e+02
-2.262227306980904851e-01,1.257886901391434087e+01,8.467291879642745656e+00,2.352644600004733799e-01,-3.848291005140755394e-01,-8.924994102291630149e-01,1.634219767848004778e+02
-3.374101692653662665e-01,1.298709155140370264e+01,8.622441327771971586e+00,2.619982392848403951e-01,-4.296031959021362479e-01,-8.641736033248406113e-01,1.650023434998637413e+02
-4.442531744281257300e-01,1.340718116215419542e+01,8.763760882512423578e+00,2.878093221648998501e-01,-4.728643295744530683e-01,-8.328043707210740498e-01,1.665827102149270047e+02
-5.464283999642898237e-01,1.383720414425980927e+01,8.891671109818553020e+00,3.126068080806790328e-01,-5.144601460070591381e-01,-7.985021864171333306e-01,1.681630769299902681e+02
-6.436267560254038678e-01,1.427522457566582581e+01,9.006592668425115633e+00,3.363033659847843859e-01,-5.542441543031330076e-01,-7.613878534944773513e-01,1.697434436450535316e+02
-7.355534150105837998e-01,1.471930439366671273e+01,9.108946306929986747e+00,3.588155418935968788e-01,-5.920762440853672981e-01,-7.215920787301187689e-01,1.713238103601167950e+02
-8.221577896775743577e-01,1.516747645253440702e+01,9.199104644236879125e+00,3.211849428912349480e-01,-5.992670522976669689e-01,-7.332920512941952795e-01,1.729041770751800584e+02
-9.038637804965077294e-01,1.561771986395794798e+01,9.277343950331967903e+00,2.830389527178454601e-01,-6.054962389530291755e-01,-7.438153372033975419e-01,1.744845437902433218e+02
-9.813402046529422496e-01,1.606799052449033027e+01,9.343892361009761061e+00,2.444387825824987093e-01,-6.107538085137781403e-01,-7.531450504095669185e-01,1.760649105053065853e+02
-1.055270946604348836e+00,1.651624936235908336e+01,9.398978092932591011e+00,2.054463724580465334e-01,-6.150313245328966616e-01,-7.612662201149514862e-01,1.776452772203698487e+02
-1.126354943949387843e+00,1.696046242147130911e+01,9.442829442048967792e+00,1.661242916940164627e-01,-6.183219231889047762e-01,-7.681658147913962287e-01,1.792256439354331121e+02
-1.195306173114953907e+00,1.739860094535719881e+01,9.475674782011591191e+00,1.265356386200930661e-01,-6.206203242976541246e-01,-7.738327630881846053e-01,1.808060106504963755e+02
-1.262853634861102359e+00,1.782864146105118763e+01,9.497742562594966742e+00,8.674393930121074292e-02,-6.219228397834201116e-01,-7.782579715950620480e-01,1.823863773655596390e+02
-1.326794530545377215e+00,1.822992229495581640e+01,9.508747735731496675e+00,4.681304560662421371e-02,-6.222273795957306008e-01,-7.814343394319780423e-01,1.838965192883133568e+02
-1.390864215498311074e+00,1.861968822810045410e+01,9.509882757655329755e+00,6.807032756418628441e-03,-6.215334550624512788e-01,-7.833567696421649407e-01,1.854066612110670746e+02
-1.455768515825175413e+00,1.899610644991165387e+01,9.501356424463626382e+00,-3.320990349024550287e-02,-6.198421796737618727e-01,-7.840221773702942265e-01,1.869168031338207925e+02
-1.522226315594768842e+00,1.935734904557519087e+01,9.483377593263004002e+00,-7.317354984028126563e-02,-6.171562672957620066e-01,-7.834294948125956060e-01,1.884269450565745103e+02
-1.590969544013106640e+00,1.970159306570899815e+01,9.456155180848124786e+00,-1.130197785000408711e-01,-6.134800278165758458e-01,-7.815796729309995028e-01,1.899370869793282282e+02
-1.662743162452669177e+00,2.002702059598226469e+01,9.419898162380361484e+00,-1.526846500716714516e-01,-6.088193602319189601e-01,-7.784756799285390549e-01,1.914472289020819460e+02
-1.738305151337278920e+00,2.033181882668004548e+01,9.374815570066481030e+00,-1.921045161474519147e-01,-6.031817431812098729e-01,-7.741224964884403370e-01,1.929573708248356638e+02
-1.818426496882227905e+00,2.061418012221337293e+01,9.321116491837099005e+00,-2.312161214375831608e-01,-5.965762229493768443e-01,-7.685271077845109433e-01,1.944675127475893817e+02
-1.903891177689735148e+00,2.087230209057417696e+01,9.259010070024887185e+00,-2.699567052676475343e-01,-5.890133989535802916e-01,-7.616984922756067089e-01,1.959776546703430995e+02
-1.995496151200091273e+00,2.110438765273455175e+01,9.188705500042509300e+00,-3.082641022829544775e-01,-5.805054067380960303e-01,-7.536476073021112221e-01,1.974877965930968173e+02
-2.094051339998575845e+00,2.130864511198963740e+01,9.110412029060356076e+00,-3.460768421982581278e-01,-5.710658985045954372e-01,-7.443873715074829089e-01,1.989979385158505352e+02
-2.200379617978219571e+00,2.148328822324363685e+01,9.024338954684019143e+00,-3.833342484328515765e-01,-5.607100212090149194e-01,-7.339326441130157308e-01,2.005080804386042530e+02
-2.315316796358495743e+00,2.162653626223833569e+01,8.930695623631564217e+00,-4.199765354728211553e-01,-5.494543922600975128e-01,-7.223002010789976168e-01,2.020182223613579708e+02
-2.439333105350443898e+00,2.173699670317038724e+01,8.829668938635876430e+00,-2.485924457744723148e-01,-5.857675069561850689e-01,-7.714118379303657180e-01,2.035283642841116887e+02
-2.572151045349804210e+00,2.181404430131789951e+01,8.721400865489032483e+00,-6.897918907131329880e-02,-6.026898605379259477e-01,-7.949872976852214723e-01,2.050385062068654065e+02
-2.713118443367722676e+00,2.185743313812821143e+01,8.606010923920246469e+00,1.129174884084330061e-01,-5.996612779033404506e-01,-7.922461691897638714e-01,2.065486481296191243e+02
-2.861585153031907858e+00,2.186691223327307299e+01,8.483618678615819420e+00,2.910762554624261034e-01,-5.767820131696964614e-01,-7.632791905919688036e-01,2.080587900523728422e+02
-3.027365616027951400e+00,2.184057555270046791e+01,8.345628019448344759e+00,4.595995113955018141e-01,-5.348094314391391713e-01,-7.090452462074303686e-01,2.096707596792464301e+02
-3.199727120511097311e+00,2.177751047738790291e+01,8.200425005460036942e+00,4.998698848303276265e-01,-5.185033512154567648e-01,-6.937451787357097333e-01,2.112827293061200180e+02
-3.377936113996631740e+00,2.167741324857674101e+01,8.048146053213478979e+00,5.390796886516721065e-01,-5.010971697797158564e-01,-6.769732016284029097e-01,2.128946989329936059e+02
-3.561261580326662290e+00,2.153997400698628084e+01,7.888927630157665405e+00,5.771457320997773754e-01,-4.826278177562139393e-01,-6.587648999817541373e-01,2.145066685598671938e+02
-3.748975058049146991e+00,2.136487680744991735e+01,7.722906253646823593e+00,6.139872511490415130e-01,-4.631344814646815022e-01,-6.391589063026623663e-01,2.161186381867407817e+02
-3.940436831559205988e+00,2.115224639477068180e+01,7.550264050391072068e+00,6.495260798598008201e-01,-4.426585197768713731e-01,-6.181968185392782145e-01,2.177306078136143697e+02
-4.135177600144801957e+00,2.090309584483196659e+01,7.371274315578572711e+00,6.836868162171801933e-01,-4.212433763640131557e-01,-5.959231118202098498e-01,2.193425774404879576e+02
-4.332805537275296714e+00,2.061888108534157737e+01,7.186255950476651222e+00,7.163969821053209897e-01,-3.989344875214433928e-01,-5.723850440897747527e-01,2.209545470673615455e+02
-4.532917868596111788e+00,2.030105451427133545e+01,6.995527899704441666e+00,7.475871770776754133e-01,-3.757791857660093826e-01,-5.476325558395590543e-01,2.225665166942351334e+02
-4.723723194045827967e+00,1.997067124315517717e+01,6.810414164819122540e+00,7.771912255972199812e-01,-3.518265994107983019e-01,-5.217181641490554744e-01,2.240880029226550221e+02
-4.916035339295351747e+00,1.961117724411160879e+01,6.620497835313758017e+00,8.051463174343032048e-01,-3.271275483302743536e-01,-4.946968512602165635e-01,2.256094891510749108e+02
-5.109467132768233277e+00,1.922385670456678142e+01,6.426063120738058743e+00,8.313931409243595638e-01,-3.017344361369737604e-01,-4.666259479223458517e-01,2.271309753794947994e+02
-5.303622234227726828e+00,1.880999064070973148e+01,6.227394259586530367e+00,8.558760088028739554e-01,-2.757011389985162819e-01,-4.375650117548318674e-01,2.286524616079146881e+02
-5.498095144003577239e+00,1.837085684823657061e+01,6.024775517475433162e+00,8.785429763507243139e-01,-2.490828913308047732e-01,-4.075757008857864294e-01,2.301739478363345768e+02
-5.692471212321405183e+00,1.790772985313358490e+01,5.818491185319889070e+00,8.993459515993448283e-01,-2.219361686099094455e-01,-3.767216431346659400e-01,2.316954340647544655e+02
-5.886326648734634404e+00,1.742188086249955603e+01,5.608825577511226790e+00,9.182407973619854946e-01,-1.943185675512291155e-01,-3.450683010163866360e-01,2.332169202931743541e+02
-6.079228531658966261e+00,1.691457771540812871e+01,5.396063030094215840e+00,9.351874248746879781e-01,-1.662886839101102021e-01,-3.126828328533134971e-01,2.347384065215942428e+02
-6.270734818009424671e+00,1.638708483381060788e+01,5.180487898944198477e+00,9.501498788483798696e-01,-1.379059881631330142e-01,-2.796339502897349227e-01,2.362598927500141315e+02
-6.460394352940425300e+00,1.584066317347949138e+01,4.962384557943605223e+00,9.630964137517057377e-01,-1.092306993337738424e-01,-2.459917725110739029e-01,2.377813789784340202e+02
-6.647746879689107935e+00,1.527657017499282155e+01,4.742037397157839784e+00,9.739995611628051719e-01,-8.032365723007710290e-02,-2.118276774770575521e-01,2.393028652068539088e+02
-6.832323049521357383e+00,1.469605971475978023e+01,4.519730821011332722e+00,9.828361880471829792e-01,-5.124619336534271680e-02,-1.772141504844070847e-01,2.408243514352737975e+02
-7.013644431780353017e+00,1.410038205608761075e+01,4.295749246464421134e+00,9.895875458380531953e-01,-2.206000083562098188e-02,-1.422246303802631451e-01,2.423458376636936862e+02
-7.191223524038048431e+00,1.349078380028982771e+01,4.070377101191025915e+00,9.942393102150365314e-01,7.172996569977652809e-03,-1.069333537525472000e-01,2.438673238921135749e+02
-7.364563762348571352e+00,1.286850783783758168e+01,3.843898821756049689e+00,9.967816114968136576e-01,3.639077574852197378e-02,-7.141519742775126467e-02,2.453888101205334635e+02
-7.533159531603252468e+00,1.223479329955482697e+01,3.616598851791937186e+00,9.972090555832314740e-01,6.553134587337509920e-02,-3.574551961023526847e-02,2.469102963489533522e+02
-7.696496175987982191e+00,1.159087550785688059e+01,3.388761640174689838e+00,9.955207354023959399e-01,9.453287991605881235e-02,-0.000000000000000000e+00,2.484317825773732409e+02
-7.854137841192710745e+00,1.093805785187608670e+01,3.160548161527852784e+00,9.913008634114531814e-01,1.316077436555698199e-01,0.000000000000000000e+00,2.499532688057931296e+02
-8.010979736692814157e+00,1.025549989132780659e+01,2.924144524462758188e+00,9.857007492619630495e-01,1.684993557698928335e-01,0.000000000000000000e+00,2.515261591115538238e+02
-8.161533691074996710e+00,9.566872247629728321e+00,2.687038852091716556e+00,9.787281891584446170e-01,2.051563592407236736e-01,0.000000000000000000e+00,2.530990494173145180e+02
-8.305581217882336276e+00,8.873791821034034299e+00,2.449007330689958906e+00,9.703928888839234990e-01,2.415277234467198553e-01,0.000000000000000000e+00,2.546719397230752122e+02
-8.442891608361289713e+00,8.177873781234362482e+00,2.209826152860324022e+00,9.762279090292290684e-01,2.167419424732175692e-01,0.000000000000000000e+00,2.562448300288359064e+02
-8.573221936466426385e+00,7.480731499252792460e+00,1.969271519071004839e+00,9.814299582598581262e-01,1.918156328999458538e-01,0.000000000000000000e+00,2.578177203345965722e+02
-8.696317064012619724e+00,6.783976479349134614e+00,1.727119639193432921e+00,9.859956641162486157e-01,1.667649553676443519e-01,0.000000000000000000e+00,2.593906106403572380e+02
-8.811909645974870031e+00,6.089218290952656432e+00,1.483146734040019288e+00,9.899220666094779020e-01,1.416061511179741716e-01,0.000000000000000000e+00,2.609635009461179038e+02
-8.919720135936339389e+00,5.398064500616786887e+00,1.237129036902251622e+00,9.932066201401694716e-01,1.163555314737123869e-01,0.000000000000000000e+00,2.625363912518785696e+02
-9.019456791684698160e+00,4.712120603997341561e+00,9.888427950886498063e-01,9.958471951472656070e-01,9.102946727311383990e-02,0.000000000000000000e+00,2.641092815576392354e+02
-9.110815680955699492e+00,4.032989957856230490e+00,7.380642714622418499e-01,9.978420794878647415e-01,6.564437826578990720e-02,0.000000000000000000e+00,2.656821718633999012e+02
-9.192115029548441285e+00,3.373186902542932408e+00,4.886986796553505763e-01,9.991899795472329870e-01,4.021672247691633617e-02,0.000000000000000000e+00,2.672294485174402894e+02
-9.264502972674742765e+00,2.723203160486127317e+00,2.364448662498108700e-01,9.998900210782709630e-01,1.476298554660309542e-02,0.000000000000000000e+00,2.687767251714806775e+02
-9.327714423299584112e+00,2.084596685757604373e+00,-1.887981787845212367e-02,9.962137931015124792e-01,1.379333285831311172e-02,-8.582436952020218446e-02,2.703240018255210657e+02
-9.381600763750270744e+00,1.458949943328077037e+00,-2.773903604324137184e-01,9.851852175856112837e-01,1.272188143630537116e-02,-1.710153232437534032e-01,2.718712784795614539e+02
-9.426065570742579780e+00,8.478576879850332482e-01,-5.391679074430086871e-01,9.668856898819657708e-01,1.155653889840314863e-02,-2.549441293908575878e-01,2.734185551336018420e+02
-9.461000465048392982e+00,2.529141197246169148e-01,-8.042935832424809028e-01,9.414502662991307558e-01,1.030590579253040477e-02,-3.369913713907328745e-01,2.749658317876422302e+02
-9.486285112734085700e+00,-3.242871818625807645e-01,-1.072848489923437176e+00,9.090666673329422798e-01,8.979212124291683153e-03,-4.165515191360025238e-01,2.765131084416826184e+02
-9.501787226539839537e+00,-8.821533231998519575e-01,-1.344913706798985809e+00,8.699738922743760483e-01,7.586249239746260808e-03,-4.930373977540812858e-01,2.780603850957230065e+02
-9.507433926989612871e+00,-1.424894369346018763e+00,-1.623551619494757459e+00,8.244604554201455660e-01,6.137297565949939582e-03,-5.658845209294945944e-01,2.796243950274525218e+02
-9.502909658322025166e+00,-1.944855363667184589e+00,-1.905902473033874278e+00,7.728622568968787077e-01,4.643050742320553245e-03,-6.345552568095174095e-01,2.811884049591820371e+02
-9.488132784179514445e+00,-2.440569339168395580e+00,-2.192035965574398837e+00,7.155601038031140781e-01,3.114536702494184132e-03,-6.985427957590173431e-01,2.827524148909115524e+02
-9.463191595746707208e+00,-2.910885679649221736e+00,-2.481995648120666420e+00,6.529768999514995453e-01,1.563036288837333244e-03,-7.573748906899301359e-01,2.843164248226410677e+02
-9.429297664315722471e+00,-3.341229740895206746e+00,-2.766819296117636995e+00,5.855745249376080874e-01,0.000000000000000000e+00,-8.106173423658352695e-01,2.858325664139024411e+02
-9.385815552056289590e+00,-3.745051916021568061e+00,-3.055410443229367168e+00,8.010230466218279943e-01,1.680977087608944570e-02,-5.983957807208056812e-01,2.873487080051638145e+02
-9.332891078006785079e+00,-4.121415743254705610e+00,-3.347797697678215112e+00,9.429866597446359133e-01,3.207743219650309452e-02,-3.312781276935125585e-01,2.888648495964251879e+02
-9.270663054061895281e+00,-4.469383392864935800e+00,-3.644009643450864200e+00,9.984418138771008477e-01,4.440234749862993768e-02,-3.376945127337916547e-02,2.903809911876865613e+02
-9.199358619425558103e+00,-4.788241843968052081e+00,-3.944016544623600407e+00,9.623011475947070847e-01,5.265384537069009441e-02,2.668371674009193950e-01,2.918971327789479346e+02
-9.119390728715522698e+00,-5.077728150402913698e+00,-4.247672050068681315e+00,8.378801759393996740e-01,5.607494484992718575e-02,5.429644659909178550e-01,2.934132743702093080e+02
-9.031266036443472700e+00,-5.337801959334496082e+00,-4.554771489888697289e+00,9.053473691449666072e-01,4.153717105648690455e-01,-8.837693841807206518e-02,2.949294159614706814e+02
-8.935490624569691676e+00,-5.568418924174046936e+00,-4.865110172213299222e+00,9.286776543665467010e-01,2.644741591311298157e-01,2.600177559940689553e-01,2.964455575527320548e+02
-8.826408005541248158e+00,-5.781652106261036650e+00,-5.197351148306612600e+00,8.176343202152047684e-01,7.530893738781591074e-02,5.707895254430604970e-01,2.980530021474328919e+02
-8.710372074556946842e+00,-5.963566715803713336e+00,-5.532578204953511047e+00,7.957731143247932515e-01,9.275971804356768213e-02,5.984469777786836087e-01,2.996604467421337290e+02
-8.587727694901488462e+00,-6.114550141621404755e+00,-5.870565179498742125e+00,7.726805509466726507e-01,1.100669599842965807e-01,6.251783989348375092e-01,3.012678913368345661e+02
-8.458379629187845694e+00,-6.235889850720440108e+00,-6.211094007904160996e+00,7.483923528909645073e-01,1.272038900111869819e-01,6.509424371525430741e-01,3.028753359315354032e+02
-8.271041479505802485e+00,-6.364999666911731246e+00,-6.681913305183498686e+00,6.270281476763863715e-01,5.814938989485127774e-01,5.183614062676717982e-01,3.050836114631876512e+02
-8.073360159762525967e+00,-6.460915441548952032e+00,-7.154885861382139112e+00,3.560004710560493724e-01,8.969889863980563538e-01,2.620542365403942808e-01,3.072918869948398992e+02
-7.922976310176749415e+00,-6.509240701006556051e+00,-7.495971816310082581e+00,0.000000000000000000e+00,9.983844631533018710e-01,-5.680196945670642344e-02,3.088811760806968891e+02
-7.763957391895701221e+00,-6.539590709285977077e+00,-7.836642837607738166e+00,4.393818171944788992e-02,9.972244329321328093e-01,6.009048635557286133e-02,3.104704651665538790e+02
-7.586499028518253418e+00,-6.555348010274888892e+00,-8.194498631591038418e+00,8.719111169791116112e-02,9.805119036624164730e-01,1.760457804587090835e-01,3.121493063977750353e+02
-7.399316670588971689e+00,-6.557307486704486266e+00,-8.548226675756216864e+00,1.290842244620158119e-01,9.485075237392539549e-01,2.892554933018607888e-01,3.138281476289961915e+02
-7.202226520595429449e+00,-6.547865883654733210e+00,-8.895439291483947741e+00,1.689641626931429053e-01,9.017104326829645800e-01,3.979540266368566392e-01,3.155069888602173478e+02
-6.995063349432670385e+00,-6.529421139076948322e+00,-9.233748850970075139e+00,2.062089671624579568e-01,8.408504757218545622e-01,5.004461402995207253e-01,3.171858300914385040e+02
-6.777680499464529440e+00,-6.504372274034238011e+00,-9.560767795874800967e+00,2.402377768356797338e-01,7.668768200476424601e-01,5.951333913127672126e-01,3.188646713226596603e+02
-6.549949887396480541e+00,-6.475119283434731976e+00,-9.874108656061364897e+00,2.705198878423788478e-01,6.809431504558148829e-01,6.805390628979649525e-01,3.205435125538808165e+02
-6.311762007004574571e+00,-6.444063027851024472e+00,-1.017138406856948762e+01,2.965830300282961685e-01,5.843896754472710509e-01,7.553311945968229635e-01,3.222223537851019728e+02
-6.063045483402126123e+00,-6.413764517795526920e+00,-1.045023610359767474e+01,3.180207320362726242e-01,4.787222246013330129e-01,8.183433543869313986e-01,3.239011950163231290e+02
-5.814515713213093129e+00,-6.388157154433003804e+00,-1.069770873918662701e+01,3.344986600977444824e-01,3.655887633592754815e-01,8.685928289479519782e-01,3.255105737869507720e+02
-5.555910254159404538e+00,-6.368790718666909711e+00,-1.092323211224588775e+01,3.457598317374120933e-01,2.467536915797985952e-01,9.052959485440894571e-01,3.271199525575784151e+02
-5.287294967597159889e+00,-6.358274946937907401e+00,-1.112481415081584579e+01,3.516286231467029011e-01,1.240703267237425328e-01,9.278803076972711450e-01,3.287293313282060581e+02
-5.008790009422726897e+00,-6.358852364400743085e+00,-1.130064996030270130e+01,3.520135077923879363e-01,-5.479992337527160454e-04,9.359936912342581294e-01,3.303387100988337011e+02
-4.720549380566297692e+00,-6.372581271243086931e+00,-1.144902833367370398e+01,2.377276624752589496e-01,3.277810355994040942e-02,9.707776029655289518e-01,3.319480888694613441e+02
-4.362443591237585849e+00,-6.407640367845085727e+00,-1.159227667564533881e+01,1.197851196601070617e-01,6.560002165780126626e-02,9.906291749512750044e-01,3.338834695940711299e+02
-3.993232780275937532e+00,-6.464197497692271810e+00,-1.169846346618906274e+01,0.000000000000000000e+00,9.741290686787916486e-02,9.952430484926604315e-01,3.358188503186809157e+02
-3.613595694199233321e+00,-6.544724880289810365e+00,-1.176710293732247870e+01,-0.000000000000000000e+00,-9.695091807975529663e-02,9.952881590151888558e-01,3.377542310432907016e+02
-3.301309026781279687e+00,-6.629708955201780718e+00,-1.179279467958805228e+01,-8.509987894250357898e-03,-3.496795025689147796e-01,9.368296673276681474e-01,3.393072186219453101e+02
-2.982066376308976974e+00,-6.735772896681988087e+00,-1.179011871713852599e+01,-7.525276839494735026e-03,-2.888018937096377692e-01,9.573582591684978160e-01,3.408602062005999187e+02
-2.656572637958697580e+00,-6.863714223983442331e+00,-1.176002986324531463e+01,-6.509497914867861529e-03,-2.267319778936881802e-01,9.739344108497848262e-01,3.424131937792545273e+02
-2.325538308816537558e+00,-7.014325560745629851e+00,-1.170348311439971134e+01,-5.466844694432428445e-03,-1.637260063597008319e-01,9.864896899869861624e-01,3.439661813579091358e+02
-1.989673057905833486e+00,-7.187948931622512028e+00,-1.162146586205107290e+01,-4.401621693856015705e-03,-1.000440944872977578e-01,9.949722633745504696e-01,3.455191689365637444e+02
-1.649674949664378776e+00,-7.384030128171986895e+00,-1.151503010412882233e+01,-3.318226602569682160e-03,-3.594914811486257106e-02,9.993471109288953880e-01,3.470721565152183530e+02
-1.270803658338937048e+00,-7.624085414125009841e+00,-1.137187934125376643e+01,-2.221132131458964602e-03,2.829422165749335971e-02,9.995961702570690388e-01,3.487856200276899585e+02
-8.890437102262160884e-01,-7.886723644362223951e+00,-1.120429917820716170e+01,-1.114867550911389929e-03,9.242079070677156061e-02,9.957184112564252398e-01,3.504990835401615641e+02
-5.052111009772299877e-01,-8.170709122088288368e+00,-1.101361012642779436e+01,-3.999995304131439757e-06,1.561658166662475977e-01,9.877298404362626627e-01,3.522125470526331696e+02
-1.201117307149966590e-01,-8.474799934653232114e+00,-1.080113288533242866e+01,-3.431258075468773590e-06,1.373532654656963448e-01,9.905211155965775172e-01,3.539260105651047752e+02
2.655321430860536625e-01,-8.797448675606297286e+00,-1.056804647970562883e+01,-2.861279878233495316e-06,1.184910373819077628e-01,9.929541147710270188e-01,3.556394740775763808e+02
6.511586740293604514e-01,-9.136503963449081667e+00,-1.031524639824372258e+01,-2.290266830177746974e-06,9.958595345257659215e-02,9.950279583300892794e-01,3.573529375900479863e+02
1.033601241802030835e+00,-9.487033266531772924e+00,-1.004539191188495018e+01,-1.718425422772605465e-06,8.064485019431115453e-02,9.967418964421337346e-01,3.590543796104893772e+02
1.415125355533706886e+00,-9.848981844792348284e+00,-9.757454261096306425e+00,-1.145962446714471925e-06,6.167457713616028570e-02,9.980953093380336982e-01,3.607558216309307682e+02
1.795306375326186199e+00,-1.021992256188087467e+01,-9.452176992218516816e+00,-5.730849173465950719e-07,4.268199434934798892e-02,9.990877075345891978e-01,3.624572636513721591e+02
2.173739088022637045e+00,-1.059742508236684522e+01,-9.130303790651838725e+00,-0.000000000000000000e+00,2.367396997322678345e-02,9.997187320112477238e-01,3.641587056718135500e+02
2.549832898139296145e+00,-1.097914777957959132e+01,-8.792486891647170566e+00,-1.650811621594222253e-06,8.062661886136229805e-02,9.967433713491306024e-01,3.658601476922549409e+02
2.922606036472586766e+00,-1.136292745339548205e+01,-8.439195491831743112e+00,-3.296253997837497036e-06,1.373170312095850498e-01,9.905261394476675418e-01,3.675615897126963318e+02
3.290888922315009069e+00,-1.174668436384277115e+01,-8.070807328691808280e+00,-4.930975442929054909e-06,1.935608254340309420e-01,9.810872575021736264e-01,3.692630317331377228e+02
3.632255753414351140e+00,-1.210587007853560948e+01,-7.710229722531289021e+00,-6.549659138655733894e-06,2.491750724857892396e-01,9.684574245721383479e-01,3.708643974005989890e+02
3.967386670339220434e+00,-1.246112905488919509e+01,-7.336135486546570661e+00,-8.147040424878093841e-06,3.039788907431306697e-01,9.526777177598968471e-01,3.724657630680602551e+02
4.295288442449996857e+00,-1.281059551712503897e+01,-6.948859455395297147e+00,-9.717923920501568132e-06,3.577940342491268688e-01,9.337994586425816257e-01,3.740671287355215213e+02
4.614981696543630996e+00,-1.315239615476831325e+01,-6.548736557395611335e+00,-1.125720041931224548e-05,4.104454723837964170e-01,9.118840463966059184e-01,3.756684944029827875e+02
4.925500938259187222e+00,-1.348465020091700950e+01,-6.136101812146558920e+00,-1.275986350578334758e-05,4.617619590874265101e-01,8.870027581560712138e-01,3.772698600704440537e+02
5.225894573311725466e+00,-1.380546951060366823e+01,-5.711290328149512874e+00,-1.422102583686205169e-05,5.115765897854466226e-01,8.592365172527295369e-01,3.788712257379053199e+02
5.515224928554578909e+00,-1.411295863924910954e+01,-5.274637300430639719e+00,-1.563593503682367953e-05,5.597273442049124359e-01,8.286756300893310945e-01,3.804725914053665861e+02
5.792568272869467627e+00,-1.440521492120889135e+01,-4.826478008163091360e+00,-1.699998915352857377e-05,6.060576133181894143e-01,7.954194924999823391e-01,3.820739570728278522e+02
6.057086339431311472e+00,-1.468050198119147787e+01,-4.367305899149609871e+00,-8.714160024713584786e-06,6.747554542646525544e-01,7.380400238874712526e-01,3.836753227402891184e+02
6.358229840923622866e+00,-1.498893657099843857e+01,-3.803957994708364154e+00,-3.585205410199641569e-07,7.380472384462178903e-01,6.747475630322210538e-01,3.855974869278406914e+02
6.642067497607613724e+00,-1.527379001963242899e+01,-3.229754238587048576e+00,7.999989140413108610e-06,7.954259202489223357e-01,6.060491773184206732e-01,3.875196511153922643e+02
6.907667591433955145e+00,-1.553368460652526473e+01,-2.646235127112091412e+00,6.003447275242286630e-06,8.086875497486893938e-01,5.882367268597092913e-01,3.894418153029438372e+02
7.111786774857423055e+00,-1.572773147307975350e+01,-2.156611567021192055e+00,4.003944591395868871e-06,8.215503719717091036e-01,5.701341826957058156e-01,3.910340298006260582e+02
7.299249889449811235e+00,-1.590032273635143412e+01,-1.662146785213694189e+00,2.002466653143350101e-06,8.340080464920200942e-01,5.517504674787980790e-01,3.926262442983082792e+02
7.469261270981421674e+00,-1.605131993426557102e+01,-1.164196937306239299e+00,0.000000000000000000e+00,8.460544322668346329e-01,5.330946422741880131e-01,3.942184587959905002e+02
7.621105019589854201e+00,-1.618076822673712201e+01,-6.641729382314124353e-01,-4.500198171441815304e-02,8.801156381497284853e-01,4.726195987540224297e-01,3.958106732936727212e+02
7.748806759629284002e+00,-1.628465384164212537e+01,-1.839906791541564834e-01,-8.969602795022582620e-02,9.081545716738015361e-01,4.089106216747104838e-01,3.973379658955657874e+02
7.858115156138587132e+00,-1.636880755469065107e+01,2.952734220277855037e-01,-1.337763153254973303e-01,9.299793759668724125e-01,3.424036473737024910e-01,3.988652584974588535e+02
7.948580724091797833e+00,-1.643378273947342549e+01,7.721701316309256269e-01,-1.769412205600329746e-01,9.454407153936259522e-01,2.735537573192554639e-01,4.003925510993519197e+02
8.019749402868914245e+00,-1.648012926822488922e+01,1.245250231277175157e+00,-2.188953843816090761e-01,9.544327972627357770e-01,2.028320640495047678e-01,4.019198437012449858e+02
8.071162566179943099e+00,-1.650839348672419149e+01,1.713064527265252934e+00,-2.593517325437196819e-01,9.568940955529622316e-01,1.307224874439460449e-01,4.034471363031380520e+02
8.102357032042485585e+00,-1.651911818923877107e+01,2.174163859943650579e+00,-2.980334401259320809e-01,9.528077717250643675e-01,5.771844339773678223e-02,4.049744289050311181e+02
8.112865072812994072e+00,-1.651284259350867600e+01,2.627099113081552417e+00,-3.346758256776921070e-01,9.422017897514121110e-01,-1.568053243916106912e-02,4.065017215069241843e+02
8.102214425271691667e+00,-1.649010231577204522e+01,3.070421223238044117e+00,-3.690281622479809620e-01,9.251487245878124988e-01,-8.897220275423541047e-02,4.080290141088172504e+02
8.069928300761354478e+00,-1.645142934583316574e+01,3.502681189131269246e+00,-4.008553929132623317e-01,9.017652654092868092e-01,-1.616550651087414747e-01,4.095563067107103166e+02
8.015525395379869522e+00,-1.639735202217348231e+01,3.922430081007231450e+00,-4.299397390706680144e-01,8.722114170190106153e-01,-2.332317834071389040e-01,4.110835993126033827e+02
7.938519900225784021e+00,-1.632839500710581504e+01,4.328219050007966473e+00,-4.560821904978357155e-01,8.366894049031949887e-01,-3.032125908257297664e-01,4.126108919144964489e+02
7.838421511696764377e+00,-1.624507926197200547e+01,4.718599337539198579e+00,-4.791038669901376834e-01,7.954422914302474723e-01,-3.711186409238522721e-01,4.141381845163895150e+02
7.706109330397875823e+00,-1.614113700121849959e+01,5.118161024883344012e+00,-4.988472422646924587e-01,7.487523126664734630e-01,-4.364852840170240222e-01,4.157720594580900979e+02
7.548021700705694670e+00,-1.602294482367180706e+01,5.498029969868341915e+00,-5.151772217625080197e-01,6.969389471894419374e-01,-4.988652464037193202e-01,4.174059343997906808e+02
7.363967731450730803e+00,-1.589125149258989822e+01,5.856766226418731236e+00,-4.711698250525133691e-01,6.409557283566804653e-01,-6.059478114891631018e-01,4.190398093414912637e+02
7.154521577482040762e+00,-1.574713661375328755e+01,6.193365566806008360e+00,-4.193704694032804325e-01,5.743727203469485287e-01,-7.030095216392946433e-01,4.206736842831918466e+02
6.920633793688903523e+00,-1.559185075991809377e+01,6.507041708094058130e+00,-3.606357834583678867e-01,4.982910355864810792e-01,-7.884452267249042468e-01,4.223075592248924295e+02
6.663244371931148713e+00,-1.542665162223419095e+01,6.797008536969284087e+00,-2.959370872987276413e-01,4.139688686939323459e-01,-8.608420390031479297e-01,4.239414341665930124e+02
6.383282720867073934e+00,-1.525280394852394750e+01,7.062480115555120896e+00,-2.263443299816221832e-01,3.228006900576384508e-01,-9.190026979204383162e-01,4.255753091082935953e+02
6.081667645921198684e+00,-1.507157948147068360e+01,7.302670687225919721e+00,-1.530083961310036433e-01,2.262941859352027851e-01,-9.619653695049218411e-01,4.272091840499941782e+02
5.730913429058838382e+00,-1.486769706634974852e+01,7.535673829520909806e+00,-7.714207405483466951e-02,1.260453262576606281e-01,-9.890195529615819492e-01,4.289872703554020745e+02
5.358957848900005594e+00,-1.465845136879953436e+01,7.739838341799071486e+00,-0.000000000000000000e+00,2.371197228180339442e-02,-9.997178313761895252e-01,4.307653566608099709e+02
4.967818513520303014e+00,-1.444472693337887215e+01,7.915820879679114519e+00,-7.892990921127130202e-03,0.000000000000000000e+00,-9.999678497920404530e-01,4.325434429662178673e+02
4.570589227699886514e+00,-1.423236588574677874e+01,8.061334747033063408e+00,-7.557215732820177223e-01,8.104295423911778151e-02,-6.498576330580629890e-01,4.342762899229354048e+02
4.160179454425792400e+00,-1.401600408879221149e+01,8.182507065336903196e+00,-6.500645209263292701e-01,9.290748674656117145e-02,-7.541765824646675664e-01,4.360091368796529423e+02
3.739611397593921360e+00,-1.379557548418768143e+01,8.280944942575878542e+00,-5.299846502123876091e-01,1.027107153919776250e-01,-8.417628998009492047e-01,4.377419838363704798e+02
3.348506870773978683e+00,-1.358996267480098830e+01,8.351590821083672012e+00,-3.981461141092109135e-01,1.102351365305916236e-01,-9.106733149114107917e-01,4.393273710104307952e+02
2.954064149751292057e+00,-1.338009803667573649e+01,8.404118379017429419e+00,-2.574739619737981822e-01,1.153138048074176941e-01,-9.593789060240146549e-01,4.409127581844911106e+02
2.559241626185370322e+00,-1.316563521549003823e+01,8.439793891454742791e+00,-1.110892449560461209e-01,1.178340377634160552e-01,-9.867990267509257896e-01,4.424981453585514259e+02
2.167000173828673937e+00,-1.294624990798445197e+01,8.459883750843012251e+00,3.776022978086548965e-02,1.177399165858050989e-01,-9.923252879404484972e-01,4.440835325326117413e+02
1.780303086856151573e+00,-1.272163987570214694e+01,8.465654458173194286e+00,1.857719597008131995e-01,1.150335273818071935e-01,-9.758350611469592817e-01,4.456689197066720567e+02
1.402116018165197264e+00,-1.249152495846023925e+01,8.458372614152935398e+00,3.296620231152499469e-01,1.097749153141582001e-01,-9.376942030747426049e-01,4.472543068807323721e+02
1.035406917646152225e+00,-1.225564708755214127e+01,8.439304910379398450e+00,4.662379443263655054e-01,1.020807525334580940e-01,-8.787489398168776278e-01,4.488396940547926874e+02
6.831459704236181318e-01,-1.201377029868128155e+01,8.409718120511483264e+00,5.924695299255268166e-01,9.212174943467364707e-02,-8.003070906770211046e-01,4.504250812288530028e+02
5.916752853609721363e-01,-1.194631789425231894e+01,8.399060648403532170e+00,7.055561034850516000e-01,8.011886670751264261e-02,-7.041090483936675026e-01,4.508570014242857837e+02
2.333087013268905219e-01,-1.166005341128492034e+01,8.344665127204754285e+00,8.029886460050812413e-01,6.633841231103834724e-02,-5.922891603235169722e-01,4.526471057173492909e+02
-1.012867643158332498e-01,-1.136623513983260736e+01,8.280428271027121312e+00,8.826054628991434337e-01,5.108613227960288189e-02,-4.673283684386351777e-01,4.544372100104127981e+02
-4.090134159284416482e-01,-1.106458562364804976e+01,8.206593010883414863e+00,9.426401424273090912e-01,3.470042660298720133e-02,-3.319991600544570098e-01,4.562273143034763052e+02
-6.869451912957001971e-01,-1.075490290810953198e+01,8.122905338936806885e+00,9.817607420185220368e-01,1.754484082057338606e-02,-1.893040517022977487e-01,4.580174185965398124e+02
-9.322406770831138667e-01,-1.043703421739062343e+01,8.028862822764986973e+00,9.990993339585199084e-01,0.000000000000000000e+00,-4.240897172840243229e-02,4.598075228896033195e+02
-1.165690432763609730e+00,-1.007441105709691875e+01,7.912416700434525829e+00,5.299993955616641179e-04,-0.000000000000000000e+00,-9.999988595503095379e-01,4.617980492884489081e+02
-1.357263625934706397e+00,-9.702870924987209378e+00,7.784136893929964884e+00,9.990993339589759881e-01,-0.000000000000000000e+00,-4.240897172842179180e-02,4.637885756872944967e+02
-1.505274393075194395e+00,-9.323136094202057578e+00,7.644264957861738097e+00,7.566728811006263600e-01,8.225587836745165693e-02,-6.485970409133974268e-01,4.657791020861400852e+02
-1.597734305116258913e+00,-8.979359021487542947e+00,7.509819432372159653e+00,7.550757964904738495e-01,2.554995927611568990e-02,-6.551379557806323861e-01,4.675486979039659445e+02
-1.651188547605986434e+00,-8.630637249585182857e+00,7.365469733182494316e+00,6.049639977889966769e-01,1.481783273090158393e-01,-7.823424727679112456e-01,4.693182937217918038e+02
-1.664207363677228324e+00,-8.324277056630666749e+00,7.231539031537986162e+00,4.223338967758962226e-01,2.628417910506486432e-01,-8.674942492676822603e-01,4.708566169981860412e+02
-1.644932103229225895e+00,-8.015880055176635821e+00,7.089324815564649995e+00,2.170022226365545259e-01,3.633769277550212840e-01,-9.060161387892701201e-01,4.723949402745802786e+02
-1.594788276581702524e+00,-7.706657435187485916e+00,6.938987948436039943e+00,5.999996079955432846e-06,4.443797096684325432e-01,-8.958374147125192088e-01,4.739332635509745160e+02
-1.515302451340181600e+00,-7.397807905948323715e+00,6.780673996309666940e+00,-2.306513462730577085e-02,3.985177464148167426e-01,-9.168694592773080076e-01,4.754715868273687533e+02
-1.408195525447270668e+00,-7.090514641086340220e+00,6.614497877100682821e+00,-4.606527057889397980e-02,3.514291765664014910e-01,-9.350794216016892202e-01,4.770099101037629907e+02
-1.265990983735928443e+00,-6.764690702256695332e+00,6.428400072878590166e+00,-6.892361564629416459e-02,3.032589350963585395e-01,-9.504112549255870901e-01,4.786557788078009708e+02
-1.098196292262394680e+00,-6.443136277395943523e+00,6.234109552386487785e+00,-9.156981413887105292e-02,2.541552858707411544e-01,-9.628177708172112048e-01,4.803016475118389508e+02
-9.069151855175645593e-01,-6.127157262276542227e+00,6.031740517027084358e+00,-1.139341633962921291e-01,2.042693653700792256e-01,-9.722607843482423684e-01,4.819475162158769308e+02
-6.942605898601916792e-01,-5.818043284978437590e+00,5.821407228831185776e+00,-1.359478282856954878e-01,1.537547175801981247e-01,-9.787112315720272182e-01,4.835933849199149108e+02
-4.623545763153959487e-01,-5.517067653212283318e+00,5.603224009603044564e+00,-1.575430530285201469e-01,1.027668214811527370e-01,-9.821492589439214660e-01,4.852392536239528908e+02
-1.792044873451455189e-01,-5.185659694075304138e+00,5.346356193539481438e+00,-1.786533697062624437e-01,5.146261258608860606e-02,-9.825642844095885398e-01,4.871106136734319989e+02
1.208213742311515654e-01,-4.866681840167909279e+00,5.080837843402414400e+00,-1.992138028046138709e-01,0.000000000000000000e+00,-9.799550299737879167e-01,4.889819737229111070e+02
4.349786911964219627e-01,-4.561636660687573119e+00,4.806908382515143963e+00,-2.107609324567989439e-01,-1.430162252623332346e-06,-9.775366127807674221e-01,4.908533337723902150e+02
7.605842829701443542e-01,-4.271850381789464635e+00,4.524989800919425598e+00,-2.222787247491846141e-01,-2.860125130334335172e-06,-9.749821375260564471e-01,4.927246938218693231e+02
1.061504898470796432e+00,-4.025819537249252456e+00,4.264558413952054927e+00,-2.337655775280285120e-01,-4.289689720092228934e-06,-9.722919596108300366e-01,4.944086970505193221e+02
1.368064074633889238e+00,-3.795468228777949982e+00,3.997817273162773688e+00,-2.452198929398524685e-01,-5.718657164414017872e-06,-9.694664532892123265e-01,4.960927002791693212e+02
1.678094697350915654e+00,-3.581754616250298007e+00,3.725182043869533555e+00,-2.566400776501361336e-01,-7.146828688841583777e-06,-9.665060116067006879e-01,4.977767035078193203e+02
1.989422246047573228e+00,-3.385619888871612915e+00,3.447068437713868061e+00,-2.680245430633939052e-01,-8.574005629397336774e-06,-9.634110463458667173e-01,4.994607067364693194e+02
2.300045755404175551e+00,-3.207851435145576691e+00,3.164140288332363937e+00,-2.793717055426080398e-01,-9.999989460024915751e-06,-9.601819879695102644e-01,5.011447099651193184e+02
2.608320224841261581e+00,-3.048947928668770846e+00,2.877557625075977565e+00,-3.448446403530442961e-01,-2.280789268492338859e-02,-9.383815716711129129e-01,5.028287131937693175e+02
2.912777921367238676e+00,-2.909258954586932067e+00,2.588728584952975531e+00,-4.084962008274120038e-01,-4.548531971553826381e-02,-9.116248897440604182e-01,5.045127164224193166e+02
3.211948226915269267e+00,-2.789122733082339600e+00,2.299061322620906012e+00,-4.699901984865612614e-01,-6.792250565674946838e-02,-8.800532634748935434e-01,5.061967196510693157e+02
3.473082227056910387e+00,-2.699529579502050858e+00,2.040863825123712783e+00,-5.290018404246127348e-01,-9.000094397876703955e-02,-8.438334450063244008e-01,5.077005367194950054e+02
3.726956397034089541e+00,-2.627828918633508870e+00,1.784298987771140377e+00,-5.852194447098786334e-01,-1.116040229414178159e-01,-8.031567366321941126e-01,5.092043537879206951e+02
3.972391700793439728e+00,-2.574264496028254801e+00,1.530489640353551062e+00,-6.383460865410260920e-01,-1.326176414820213756e-01,-7.582379804298884363e-01,5.107081708563463849e+02
4.208376594588033370e+00,-2.538967897589397893e+00,1.280394419459452759e+00,-6.881011664699486774e-01,-1.529308118444403786e-01,-7.093144235754308413e-01,5.122119879247720746e+02
4.434237488280267314e+00,-2.521856119883269631e+00,1.034643586547504768e+00,-7.342218924108920852e-01,-1.724362457673956628e-01,-6.566444653318929126e-01,5.137158049931977075e+02
4.649470779102895968e+00,-2.522737989401066194e+00,7.937031999125343518e-01,-7.764646676101614187e-01,-1.910309211368338145e-01,-6.005062923262158847e-01,5.152196220616233404e+02
4.865644082302661211e+00,-2.542544783053082291e+00,5.441015100992682152e-01,-8.146063772467520003e-01,-2.086166261101412844e-01,-5.411964093191947711e-01,5.168124249110093160e+02
