-5.842798016295922103e+00,6.513993047446659190e+00,-2.063422981430029183e-04,5.246617630321131348e-02,-9.824899153471560176e-01,-1.787704298417046311e-01,1.421178539655779538e+01
-5.885066291004169337e+00,7.128869501386241758e+00,-3.478295113092843005e-01,1.270871526656984218e-01,-9.832354847611762816e-01,-1.307472261057875118e-01,1.573468103808561125e+01
-5.921267119068861717e+00,7.733456300310175280e+00,-6.974181340710801091e-01,2.007073034706965131e-01,-9.762379868232551328e-01,-8.169437812607188709e-02,1.725757667961342534e+01
-5.949922796031779093e+00,8.326590961703647764e+00,-1.049596799030874328e+00,2.727468650918817850e-01,-9.615525279603530651e-01,-3.199818051418599346e-02,1.878047232114123943e+01
-5.969563771650310713e+00,8.907100284724730699e+00,-1.404990077975112772e+00,3.426385211414885723e-01,-9.392947573165809638e-01,1.795000579826255827e-02,2.030336796266905353e+01
-5.978728678947462072e+00,9.473800393991870905e+00,-1.764222522010249872e+00,4.098318699784531671e-01,-9.096399560263812578e-01,6.775683545481457626e-02,2.182626360419686762e+01
-5.976224138789019591e+00,1.002547604985272756e+01,-2.127668729787959290e+00,4.737977590270154860e-01,-8.728216569305762285e-01,1.170300761960352820e-01,2.334915924572468171e+01
-5.961384763956977473e+00,1.056086244346663783e+01,-2.495203417337711560e+00,5.340324517831058770e-01,-8.291298056000514505e-01,1.653816976227422408e-01,2.487205488725249580e+01
-5.933813703240826243e+00,1.107866970291034114e+01,-2.866451346624695695e+00,5.900615947015899199e-01,-7.789084771408705254e-01,2.124309268836627740e-01,2.639495052878030990e+01
-5.889234415097665654e+00,1.162401886876458335e+01,-3.275902677328719204e+00,6.414439527309382383e-01,-7.225531667502514965e-01,2.578072472300502738e-01,2.805963386483880839e+01
-5.829681968584652374e+00,1.214717708079479763e+01,-3.688553276806841197e+00,6.877748840809111419e-01,-6.605076753477377993e-01,3.011533158282463929e-01,2.972431720089730689e+01
-5.754715503326322867e+00,1.264659118473845112e+01,-4.103954568706960515e+00,7.286895268592803454e-01,-5.932606147937581342e-01,3.421277778552084814e-01,3.138900053695580539e+01
-5.663905781477779122e+00,1.312070425346320590e+01,-4.521657955501249049e+00,7.358377055575915371e-01,-5.405003988881736943e-01,4.079217938297244883e-01,3.305368387301430033e+01
-5.557077700330969705e+00,1.356809507322248187e+01,-4.941025980535994400e+00,7.377146346612940553e-01,-4.838682614781825153e-01,4.707936101314204036e-01,3.471836720907279528e+01
-5.434551348739141474e+00,1.398762016269640718e+01,-5.361043491531500393e+00,7.343068709303214314e-01,-4.237698928596116410e-01,5.302928409947975652e-01,3.638305054513129022e+01
-5.304105095348099042e+00,1.435793553240209874e+01,-5.758652689264832425e+00,7.256388279985173106e-01,-3.606358131693869207e-01,5.859932606786046883e-01,3.796094368375838002e+01
-5.159914172579031622e+00,1.470001825750417979e+01,-6.154655653569780505e+00,7.117726013725617085e-01,-2.949182883921979692e-01,6.374958565413267886e-01,3.953883682238546982e+01
-5.002503753713657630e+00,1.501297604593964508e+01,-6.547970746799236075e+00,6.928075235397916920e-01,-2.270880906406065880e-01,6.844316871800251167e-01,4.111672996101255961e+01
-4.832405185973798645e+00,1.529592013522074012e+01,-6.937516349801205351e+00,6.688794523759175048e-01,-1.576311259076745019e-01,7.264645251728345521e-01,4.269462309963964941e+01
-4.650155981382671833e+00,1.554796532651072205e+01,-7.322210869381314602e+00,6.401597979510211811e-01,-8.704495343790540074e-02,7.632932655070894246e-01,4.427251623826673921e+01
-4.456299807553532943e+00,1.576823001866025464e+01,-7.700972745764938843e+00,6.068542947029024193e-01,-1.583522163666878368e-02,7.946540824512625667e-01,4.585040937689382901e+01
-4.251386478405919433e+00,1.595583624220377672e+01,-8.072720460059084502e+00,5.692015277677465734e-01,5.548795396498383548e-02,8.203223194279380959e-01,4.742830251552091880e+01
-4.042693007776605008e+00,1.610555034600101010e+01,-8.425253813557361582e+00,4.960925847556462154e-01,5.066909171507737175e-02,8.667887807848714266e-01,4.895812993759756182e+01
-3.824977793598966613e+00,1.622322392403278002e+01,-8.768724178079436271e+00,4.192494188000465694e-01,4.546882925528237390e-02,9.067306713690302944e-01,5.048795735967419773e+01
-3.599380976284024314e+00,1.630931177908950858e+01,-9.101916824591565813e+00,3.392504450817893091e-01,3.992631011312469669e-02,9.398473414719533681e-01,5.201778478175083364e+01
-3.367039138577442969e+00,1.636427651410961204e+01,-9.423617090675854513e+00,2.566978323539829132e-01,3.408325396622818859e-02,9.658895147288265592e-01,5.354761220382746956e+01
-3.129085285228180968e+00,1.638858851273267447e+01,-9.732610388409307589e+00,1.722129708535196091e-01,2.798364264885903896e-02,9.846611642656512009e-01,5.507743962590410547e+01
-2.886648822698758110e+00,1.638272591976755166e+01,-1.002768221224235567e+01,8.643179556571539690e-02,2.167338913606614570e-02,9.960209881912578389e-01,5.660726704798074138e+01
-2.640855538916986323e+00,1.634717462157556156e+01,-1.030761814687708444e+01,0.000000000000000000e+00,1.519999199371368896e-02,9.998834733317381041e-01,5.813709447005737729e+01
-2.386131649174232372e+00,1.628137643454872219e+01,-1.057794418244916379e+01,-0.000000000000000000e+00,3.169730973932264641e-03,9.999939763781988677e-01,5.970669106181776442e+01
-2.129258649766371914e+00,1.618868519710795084e+01,-1.082980276286671817e+01,-0.000000000000000000e+00,-8.860986243040476149e-03,9.999597406446563141e-01,6.127628765357815155e+01
-1.870354976054242169e+00,1.607218745846451924e+01,-1.106150269431621425e+01,-0.000000000000000000e+00,-2.089041872885813791e-02,9.997807711657725749e-01,6.284588424533853868e+01
-1.609516170139633884e+00,1.593497024327693801e+01,-1.127135292058599170e+01,-0.000000000000000000e+00,-3.291682574372905429e-02,9.994570939117817243e-01,6.441548083709892580e+01
-1.346814880267125814e+00,1.578012092465902683e+01,-1.145766253461515660e+01,-0.000000000000000000e+00,-4.493846698771616216e-02,9.989887557788234007e-01,6.598507742885931293e+01
-1.082300860499606943e+00,1.561072709718606077e+01,-1.161874079004187088e+01,-0.000000000000000000e+00,-5.695360285188215410e-02,9.983758245820986144e-01,6.755467402061970006e+01
-8.160009706676681907e-01,1.542987644990031271e+01,-1.175289711275095250e+01,-0.000000000000000000e+00,-6.896049466933318328e-02,9.976183890460272874e-01,6.912427061238008719e+01
-5.479191765931840097e-01,1.524065663931655124e+01,-1.185844111242158228e+01,-0.000000000000000000e+00,-8.095740496612573167e-02,9.967165587914059710e-01,7.069386720414047431e+01
-2.780365505869929477e-01,1.504615516242860984e+01,-1.193368259407488274e+01,-0.000000000000000000e+00,-9.294259771200120979e-02,9.956704643195685156e-01,7.226346379590086144e+01
-6.311272220610840943e-03,1.484945922971933818e+01,-1.197693156961971184e+01,-0.000000000000000000e+00,-1.049143385709134513e-01,9.944802569935530245e-01,7.383306038766124857e+01
2.686344513741789619e-01,1.465271615132677141e+01,-1.198654209684255356e+01,-0.000000000000000000e+00,-1.168708951513131450e-01,9.931461090162760907e-01,7.541019847128949039e+01
5.454854249378239262e-01,1.445988192830933272e+01,-1.196081106075375544e+01,4.271009153723480975e-04,-3.938973353242305325e-02,9.992228312402899881e-01,7.698733655491773220e+01
8.240634951886749437e-01,1.427377612531244999e+01,-1.189865856523842425e+01,8.516217579232864118e-04,3.832932482848624284e-02,9.992637977999676568e-01,7.856447463854597402e+01
1.104114983466748079e+00,1.409712099142731390e+01,-1.179921352338400808e+01,1.270998420251536658e-03,1.158168560489946514e-01,9.932687654470839789e-01,8.014161272217421583e+01
1.218756123146631287e+00,1.403000686413494158e+01,-1.174325647895805780e+01,0.000000000000000000e+00,1.173078338390019654e-01,9.930945933284813787e-01,8.078403856062790567e+01
1.504564127546058172e+00,1.387578316961327296e+01,-1.156576718011769778e+01,-1.177648228227758248e-01,0.000000000000000000e+00,9.930405059701521431e-01,8.238127097373336483e+01
1.789721993820110990e+00,1.373316897622224353e+01,-1.135066895853331737e+01,-1.679883403598090019e-01,1.768020929829746540e-02,9.856294068784235973e-01,8.397850338683882399e+01
2.072661940066630404e+00,1.360089916611272010e+01,-1.109926302560227107e+01,-2.177263799542146216e-01,3.530932247110497163e-02,9.753699171185985506e-01,8.557573579994428314e+01
2.350316705280603991e+00,1.347796117648233327e+01,-1.081492255899128452e+01,-2.668352035013187851e-01,5.283639306061095609e-02,9.622916864143145066e-01,8.716453624033491110e+01
2.622576280835239082e+00,1.336181002777216698e+01,-1.049845046823319983e+01,-3.151728913456910419e-01,7.021076953483017247e-02,9.464325102211631480e-01,8.875333668072553905e+01
2.887823945489041755e+00,1.325061085425283736e+01,-1.015197416285808885e+01,-3.625997523844344816e-01,8.738224165515344477e-02,9.278382204972561720e-01,9.034213712111616701e+01
3.144429051948493647e+00,1.314254102033073757e+01,-9.777621262303897609e+00,-4.089787277289213541e-01,1.043011855681169053e-01,9.065625532503469586e-01,9.193093756150679496e+01
3.390747061427648923e+00,1.303579019880862511e+01,-9.377519581023245010e+00,-4.541757867598858467e-01,1.209187072024037607e-01,8.826669932488763193e-01,9.351973800189742292e+01
3.625119578376411855e+00,1.292856044899462020e+01,-8.953797113589994083e+00,-4.980603144322192088e-01,1.371867835569935135e-01,8.562205963456062108e-01,9.510853844228805087e+01
3.845874385377483939e+00,1.281906629465703951e+01,-8.508582019808169861e+00,-5.405054887110686268e-01,1.530584014724629405e-01,8.272997899270443378e-01,9.669733888267867883e+01
4.051325478214433673e+00,1.270553480182542039e+01,-8.044002609821029992e+00,-5.813886470493114800e-01,1.684876934847052699e-01,7.959881520649374487e-01,9.828613932306930678e+01
4.239773101110367648e+00,1.258620565643868794e+01,-7.562187329219262288e+00,-6.205916408480682822e-01,1.834300703687445910e-01,7.623761700075182279e-01,9.987493976345993474e+01
4.409503782136571459e+00,1.245933124183971152e+01,-7.065264744148643139e+00,-6.580011768765487989e-01,1.978423499898593896e-01,7.265609787077731418e-01,1.014637402038505627e+02
4.558790368791299841e+00,1.232317671611498966e+01,-6.555363526417067987e+00,-6.935091446651042713e-01,2.116828820898674079e-01,6.886460801435927426e-01,1.030525406442411906e+02
4.714399108114055714e+00,1.214260668123281484e+01,-5.917192800706351896e+00,-7.270129289257662997e-01,2.249116686481305305e-01,6.487410442400828314e-01,1.050000257257920424e+02
4.840437046389711284e+00,1.194643192919165386e+01,-5.268804203197397840e+00,-8.877117058308335862e-01,-4.113255839432064520e-02,4.585564741362617713e-01,1.069475108073428942e+02
4.926125088476588587e+00,1.175486660004607664e+01,-4.677685973465298019e+00,-9.305453817935082084e-01,-3.017155779250095260e-01,2.074873549420498398e-01,1.087028936583431147e+02
4.983031801311870623e+00,1.154843001755974186e+01,-4.082179830344071725e+00,-8.498265231567917466e-01,-5.222387069684532035e-01,-7.113096008795406766e-02,1.104582765093433352e+02
5.010632931843284510e+00,1.132760277596274001e+01,-3.484365050806380815e+00,-9.007810531498902096e-01,-4.300310868157444233e-01,-6.053725016394703035e-02,1.122136593603435557e+02
5.009122589523874680e+00,1.109410991556420178e+01,-2.886005261924597054e+00,-9.416370407708762880e-01,-3.330024865135313705e-01,-4.926487007574128357e-02,1.139690422113437762e+02
4.979066566897574653e+00,1.085029429200261042e+01,-2.288706260591443442e+00,-9.719364694593536358e-01,-2.322406754257876627e-01,-3.744019247301075964e-02,1.157244250623439967e+02
4.929102787191514068e+00,1.063320010516845038e+01,-1.776173315977219280e+00,-9.913396678753115809e-01,-1.288752711227891257e-01,-2.519578119042673037e-02,1.172373069545191839e+02
4.855600335985625904e+00,1.041093530412843471e+01,-1.267132219556624140e+00,-9.996291166875074241e-01,-2.406507658252460963e-02,-1.266890522379153332e-02,1.187501888466943711e+02
4.759017064769721195e+00,1.018522930150522043e+01,-7.627754367292362003e-01,-9.967118863751273095e-01,8.101490948214877530e-02,-0.000000000000000000e+00,1.202630707388695583e+02
4.640184690172084458e+00,9.957998113667782647e+00,-2.641514235388485732e-01,-9.935909064848896799e-01,8.139279809092614393e-02,-7.842399486575242495e-02,1.217759526310447455e+02
4.500672870608875442e+00,9.731530808768487972e+00,2.279793595903781556e-01,-9.843491894992110192e-01,8.126928927329975239e-02,-1.563648801825682499e-01,1.232888345232199327e+02
4.342429615889610517e+00,9.508294312949423954e+00,7.130004730625442155e-01,-9.690436666902570995e-01,8.064514388862012439e-02,-2.333425225199094455e-01,1.248017164153951200e+02
4.167419877392996241e+00,9.290741647306852258e+00,1.190295522404853923e+00,-9.477686238613035608e-01,7.952420684081119850e-02,-3.088827223262657351e-01,1.263145983075703072e+02
3.977625510883018745e+00,9.081311837840845058e+00,1.659248162175841035e+00,-9.206551204992963200e-01,7.791338339109914191e-02,-3.825201351410187911e-01,1.278274801997454944e+02
3.775045239138685282e+00,8.882429825559835734e+00,2.119242099873804186e+00,-8.878701823842151120e-01,7.582259661745806290e-02,-4.538011382495300561e-01,1.293403620919206674e+02
3.561694614397693748e+00,8.696506376740799737e+00,2.569661099845076180e+00,-8.496157726316143632e-01,7.326472628303362655e-02,-5.222866251204036914e-01,1.308532439840958546e+02
3.339605980614245517e+00,8.525937993345738874e+00,3.009888987191897236e+00,-8.061275475093008236e-01,7.025552949030966499e-02,-5.875547104092730955e-01,1.323661258762710418e+02
3.110828435530637925e+00,8.373106823594749670e+00,3.439309651680729996e+00,-7.576734046951907331e-01,6.681354361001122510e-02,-6.492033288649762257e-01,1.338790077684462290e+02
2.877427792563043596e+00,8.240380572696674122e+00,3.857307051649956353e+00,-7.045518329220857856e-01,6.295997208294094871e-02,-7.068527121281976688e-01,1.353918896606214162e+02
2.641486542502579304e+00,8.130112413738928012e+00,4.263265217916170968e+00,-6.470900731785629301e-01,5.871855379845413586e-02,-7.601477281655009133e-01,1.369047715527966034e+02
2.405103815031704340e+00,8.044640898737137391e+00,4.656568257680152811e+00,-5.856421027958264025e-01,5.411541685443719413e-02,-8.087600689284755173e-01,1.384176534449717906e+02
2.170395340055950140e+00,7.986289869844901190e+00,5.036600358432618663e+00,-5.205864548410971127e-01,4.917891759984553690e-02,-8.523902727632276521e-01,1.399305353371469778e+02
1.939493408851415301e+00,7.957368370724490880e+00,5.402745791859282498e+00,-4.523238862522119264e-01,4.393946595148573442e-02,-8.907695691138756144e-01,1.414434172293221650e+02
1.706513144804762572e+00,7.960307135659570932e+00,5.766971411762429334e+00,-3.812749090793531859e-01,3.842933806123980528e-02,-9.236615341587349759e-01,1.430104589938938489e+02
1.482023972518345056e+00,7.998580265025445613e+00,6.115514467928618636e+00,-3.078772000425074040e-01,3.268247748780536005e-02,-9.508635471827900920e-01,1.445775007584655327e+02
1.268367610724131955e+00,8.074616017482233232e+00,6.447714615924304837e+00,-2.325829043622278658e-01,2.673428609778935594e-02,-9.722080387175837668e-01,1.461445425230372166e+02
1.067904004695344300e+00,8.190825807045250428e+00,6.762911622547012058e+00,-1.558558504719395055e-01,2.062140598421018101e-02,-9.875635227623282830e-01,1.477115842876089005e+02
8.830112804488585709e-01,8.349604102023077346e+00,7.060445370316983826e+00,-7.816869276843597947e-02,1.438149374574877910e-02,-9.968354067298987875e-01,1.492786260521805843e+02
7.159827066762773917e-01,8.552769298630012784e+00,7.340071820366136812e+00,-0.000000000000000000e+00,8.052988517103476865e-03,-9.999665741302532496e-01,1.508456678167522682e+02
5.678870308258731070e-01,8.800156650569741501e+00,7.602196324537216832e+00,2.834690088608468606e-02,-3.919006955468050390e-02,-9.988286097522067752e-01,1.524127095813239521e+02
4.376236917686495698e-01,9.089339957215250010e+00,7.847275016264738667e+00,5.660771691063360561e-02,-8.631411319793044767e-02,-9.946574486978749796e-01,1.539797513458956360e+02
3.230416413014269850e-01,9.417055341632782017e+00,8.075581497024453270e+00,8.469662741515192328e-02,-1.331760390923250881e-01,-9.874657583518431370e-01,1.555467931104673198e+02
2.219663246654345612e-01,9.780055409903154029e+00,8.287389482424451614e+00,1.125283338143436423e-01,-1.796335399703844204e-01,-9.772753784926321297e-01,1.571138348750390037e+02
1.321997272673500201e-01,1.017510938076558702e+01,8.482972800338796304e+00,1.400183186071626562e-01,-2.255455367367692754e-01,-9.641172549611426446e-01,1.586808766396106876e+02
5.083598679958760413e-02,1.060260219847816998e+01,8.664133313376227719e+00,1.670831020154441848e-01,-2.707726068571033040e-01,-9.480313456832384356e-01,1.602612433546739510e+02
-2.363349174676500006e-02,1.105593109398233409e+01,8.829485938834094938e+00,1.936404954713352999e-01,-3.151774077163534971e-01,-9.290664993314886599e-01,1.618416100697372144e+02
-9.351585551972604882e-02,1.153186175981644013e+01,8.979309508246121396e+00,2.196098511843120049e-01,-3.586250936620790641e-01,-9.072803069944198606e-01,1.634219767848004778e+02
-1.609308008740856777e-01,1.202715282286402321e+01,9.113910754678467896e+00,2.449123070304541072e-01,-4.009837254670006179e-01,-8.827389273034214057e-01,1.650023434998637413e+02
-2.269962037633697916e-01,1.253877856509781452e+01,9.233737602754217733e+00,2.694710260208224017e-01,-4.421246709683125942e-01,-8.555168855478827439e-01,1.665827102149270047e+02
-2.914340388282252725e-01,1.306419388209489618e+01,9.339436869573388478e+00,2.932114296221975391e-01,-4.819229956678754423e-01,-8.256968473879670034e-01,1.681630769299902681e+02
-3.533813341594899127e-01,1.360109968371582312e+01,9.431740968079276755e+00,3.160614242220456949e-01,-5.202578421078100090e-01,-7.933693678514306402e-01,1.697434436450535316e+02
-4.119921882836566907e-01,1.414719067666230501e+01,9.511382403891762038e+00,3.379516200503286938e-01,-5.570127968699895016e-01,-7.586326163758315699e-01,1.713238103601167950e+02
-4.664377871068037806e-01,1.470015545976691129e+01,9.579093770229171412e+00,3.588155418935968788e-01,-5.920762440853672981e-01,-7.215920787301187689e-01,1.729041770751800584e+02
-5.163141199990435304e-01,1.525763416965001440e+01,9.635478380342407334e+00,3.211849428912349480e-01,-5.992670522976669689e-01,-7.332920512941952795e-01,1.744845437902433218e+02
-5.620501191559412746e-01,1.581718017333172988e+01,9.680880900845231452e+00,2.830389527178454601e-01,-6.054962389530291755e-01,-7.438153372033975419e-01,1.760649105053065853e+02
-6.045005974891194400e-01,1.637630868659758221e+01,9.715516711815922690e+00,2.444387825824987093e-01,-6.107538085137781403e-01,-7.531450504095669185e-01,1.776452772203698487e+02
-6.445387471238501753e-01,1.693254134888706020e+01,9.739601267794585127e+00,2.054463724580465334e-01,-6.150313245328966616e-01,-7.612662201149514862e-01,1.792256439354331121e+02
-6.830561213722183833e-01,1.748340632581163590e+01,9.753350096290299476e+00,1.661242916940164627e-01,-6.183219231889047762e-01,-7.681658147913962287e-01,1.808060106504963755e+02
-7.209626164832582118e-01,1.802643841159413896e+01,9.756978796287945954e+00,1.265356386200930661e-01,-6.206203242976541246e-01,-7.738327630881846053e-01,1.823863773655596390e+02
-7.575203986063058226e-01,1.853552947338387824e+01,9.750980332053339694e+00,8.674393930121074292e-02,-6.219228397834201116e-01,-7.782579715950620480e-01,1.838965192883133568e+02
-7.953298580428602715e-01,1.903254196034905377e+01,9.735715943309536158e+00,4.681304560662421371e-02,-6.222273795957306008e-01,-7.814343394319780423e-01,1.854066612110670746e+02
-8.352708615695810801e-01,1.951524347880117460e+01,9.711382677538395569e+00,6.807032756418628441e-03,-6.215334550624512788e-01,-7.833567696421649407e-01,1.869168031338207925e+02
-8.782392162953124304e-01,1.998140776763329995e+01,9.678177639482004935e+00,-3.320990349024550287e-02,-6.198421796737618727e-01,-7.840221773702942265e-01,1.884269450565745103e+02
-9.251466535396932755e-01,2.042881478339763746e+01,9.636297989895764360e+00,-7.317354984028126563e-02,-6.171562672957620066e-01,-7.834294948125956060e-01,1.899370869793282282e+02
-9.769208125351633853e-01,2.085525078531559018e+01,9.585940944301519551e+00,-1.130197785000408711e-01,-6.134800278165758458e-01,-7.815796729309995028e-01,1.914472289020819460e+02
-1.034505223952463027e+00,2.125850842021953113e+01,9.527303771740783134e+00,-1.526846500716714516e-01,-6.088193602319189601e-01,-7.784756799285390549e-01,1.929573708248356638e+02
-1.098859293249665026e+00,2.163638680742604592e+01,9.460583793527693075e+00,-1.921045161474519147e-01,-6.031817431812098729e-01,-7.741224964884403370e-01,1.944675127475893817e+02
-1.170958283844843129e+00,2.198669162353994011e+01,9.385978382001772147e+00,-2.312161214375831608e-01,-5.965762229493768443e-01,-7.685271077845109433e-01,1.959776546703430995e+02
-1.251793300112468588e+00,2.230723518718825460e+01,9.303684959280433375e+00,-2.699567052676475343e-01,-5.890133989535802916e-01,-7.616984922756067089e-01,1.974877965930968173e+02
-1.342371270203631228e+00,2.259583654368361394e+01,9.213900996011282984e+00,-3.082641022829544775e-01,-5.805054067380960303e-01,-7.536476073021112221e-01,1.989979385158505352e+02
-1.443714928690178034e+00,2.285032154961614026e+01,9.116824010124203070e+00,-3.460768421982581278e-01,-5.710658985045954372e-01,-7.443873715074829089e-01,2.005080804386042530e+02
-1.556862799033019940e+00,2.306852295737326486e+01,9.012651565583229996e+00,-3.833342484328515765e-01,-5.607100212090149194e-01,-7.339326441130157308e-01,2.020182223613579708e+02
-1.682869175874782908e+00,2.324828049958669496e+01,8.901581271138141460e+00,-4.199765354728211553e-01,-5.494543922600975128e-01,-7.223002010789976168e-01,2.035283642841116887e+02
-1.822241683584329364e+00,2.338791486917730822e+01,8.783776516111460708e+00,-2.778855552342718860e-01,-5.810372231349691940e-01,-7.649662499251962400e-01,2.050385062068654065e+02
-1.974374337670494972e+00,2.348669635890643193e+01,8.659332206402012844e+00,-1.294010743361807547e-01,-5.992516874889408651e-01,-7.900321366902033349e-01,2.065486481296191243e+02
-2.138103222699563322e+00,2.354436301066333570e+01,8.528309026850324770e+00,2.206062339442155240e-02,-6.036787175315465603e-01,-7.969211597742492659e-01,2.080587900523728422e+02
-2.323984630581121369e+00,2.356175826025038944e+01,8.381493524510837290e+00,1.730147582869359657e-01,-5.942164588185467888e-01,-7.854748204016575031e-01,2.096707596792464301e+02
-2.519675310537410784e+00,2.353470154396985592e+01,8.227787698224263480e+00,3.199882278708007233e-01,-5.710826133410989991e-01,-7.559564688290038026e-01,2.112827293061200180e+02
-2.723857139953256734e+00,2.346286332169614752e+01,8.067260870532917849e+00,4.595995113955018141e-01,-5.348094314391391713e-01,-7.090452462074303686e-01,2.128946989329936059e+02
-2.935214842190246642e+00,2.334590340306521128e+01,7.899982413028151740e+00,5.015253858190203973e-01,-5.177998092809706909e-01,-6.930754972502356503e-01,2.145066685598671938e+02
-3.152436018130968076e+00,2.318347096397812379e+01,7.726021745852419187e+00,5.422966746808342009e-01,-4.995981385311100698e-01,-6.755101898620027301e-01,2.161186381867407817e+02
-3.374419588770703360e+00,2.297574063230243624e+01,7.545523109858105926e+00,5.818195168355742020e-01,-4.802463222146140520e-01,-6.563897621304325414e-01,2.177306078136143697e+02
-3.600478812333587797e+00,2.272395067487486031e+01,7.358780338227676410e+00,6.200029252788851197e-01,-4.597889111326990963e-01,-6.357582322283925613e-01,2.193425774404879576e+02
-3.830124758914371874e+00,2.242987006020102925e+01,7.166162081701676456e+00,6.567589966072887586e-01,-4.382730012976275846e-01,-6.136630970737468882e-01,2.209545470673615455e+02
-4.062855202329023641e+00,2.209526337546445873e+01,6.968037033267743929e+00,6.920031133784170230e-01,-4.157481255086193372e-01,-5.901552229811051209e-01,2.225665166942351334e+02
-4.284917652118344300e+00,2.174280218662082831e+01,6.776179308232698872e+00,7.256541389059552039e-01,-3.922661393185372103e-01,-5.652887285574159648e-01,2.240880029226550221e+02
-4.508860797457797887e+00,2.135526795375681175e+01,6.579801758710731363e+00,7.576346040409839278e-01,-3.678811016539005330e-01,-5.391208601110577536e-01,2.256094891510749108e+02
-4.734202785434447946e+00,2.093422069619915149e+01,6.379232908400572555e+00,7.878708855098682795e-01,-3.426491503630806346e-01,-5.117118598612930835e-01,2.271309753794947994e+02
-4.960450628487702573e+00,2.048121650239768599e+01,6.174801307845580567e+00,8.162933753982831719e-01,-3.166283729791899426e-01,-4.831248272515182851e-01,2.286524616079146881e+02
-5.187100215820771076e+00,1.999780747011230275e+01,5.966835532326709490e+00,8.428366413913513933e-01,-2.898786729951825514e-01,-4.534255736855915542e-01,2.301739478363345768e+02
-5.413636324937613153e+00,1.948554164664812305e+01,5.755664179755061838e+00,8.674395774011461890e-01,-2.624616319590003521e-01,-4.226824710216552927e-01,2.316954340647544655e+02
-5.639532633304281894e+00,1.894596296913938716e+01,5.541615868564768732e+00,8.900455442349435309e-01,-2.344403677062074920e-01,-3.909662941722136797e-01,2.332169202931743541e+02
-5.864251730134390606e+00,1.838061120488269040e+01,5.325019235605986445e+00,9.106024999805214515e-01,-2.058793890564382667e-01,-3.583500581727866452e-01,2.347384065215942428e+02
-6.087245128299611174e+00,1.779102189171988613e+01,5.106202934037666452e+00,9.290631198084710052e-01,-1.768444473081076385e-01,-3.249088500941733071e-01,2.362598927500141315e+02
-6.307953276365275030e+00,1.717872627847108191e+01,4.885495631220258872e+00,9.453849049158352669e-01,-1.474023848732005648e-01,-2.907196561852199435e-01,2.377813789784340202e+02
-6.525805570750631723e+00,1.654525126541852131e+01,4.663226006607819940e+00,9.595302803603724673e-01,-1.176209814005238358e-01,-2.558611846439497461e-01,2.393028652068539088e+02
-6.740220368013962293e+00,1.589211934484159094e+01,4.439722749639532395e+00,9.714666815603004713e-01,-8.756879774158482510e-02,-2.204136844249674765e-01,2.408243514352737975e+02
-6.950604997262196605e+00,1.522084854160344314e+01,4.215314557631671732e+00,9.811666292604523942e-01,-5.731501811821860387e-02,-1.844587605001687947e-01,2.423458376636936862e+02
-7.156355772684283245e+00,1.453295235379031780e+01,3.990330133670009882e+00,9.886077927923072606e-01,-2.692929085522105179e-02,-1.480791859979363467e-01,2.438673238921135749e+02
-7.356858006209455070e+00,1.382993969340284224e+01,3.765098184502622569e+00,9.937730414822844027e-01,3.518431955450331949e-03,-1.113587116531945392e-01,2.453888101205334635e+02
-7.551486020290639978e+00,1.311331482709930718e+01,3.539947418432952908e+00,9.966504840899570450e-01,3.395805548988927586e-02,-7.438187300687514047e-02,2.469102963489533522e+02
-7.739603160811450167e+00,1.238457731699323006e+01,3.315206543212048107e+00,9.972334961853697166e-01,6.431950355623571036e-02,-3.723379579853135918e-02,2.484317825773732409e+02
-7.920561810116645951e+00,1.164522196150575084e+01,3.091204263930281915e+00,9.955207354023959399e-01,9.453287991605881235e-02,-0.000000000000000000e+00,2.499532688057931296e+02
-8.099726224347985948e+00,1.087159606732951822e+01,2.860553718181689131e+00,9.913008634114531814e-01,1.316077436555698199e-01,0.000000000000000000e+00,2.515261591115538238e+02
-8.270713124605268973e+00,1.009062863101056706e+01,2.630612263325624145e+00,9.857007492619630495e-01,1.684993557698928335e-01,0.000000000000000000e+00,2.530990494173145180e+02
-8.433315422246421278e+00,9.304390016718036449e+00,2.400985976613126738e+00,9.787281891584446170e-01,2.051563592407236736e-01,0.000000000000000000e+00,2.546719397230752122e+02
-8.587310378780991016e+00,8.514948917833010000e+00,2.171280933109047684e+00,9.703928888839234990e-01,2.415277234467198553e-01,0.000000000000000000e+00,2.562448300288359064e+02
-8.732459610751428514e+00,7.724372269735985341e+00,1.941103208397417790e+00,9.777789528712391709e-01,2.096337742748142774e-01,0.000000000000000000e+00,2.578177203345965722e+02
-8.868509094803515680e+00,6.934725162617128014e+00,1.710058881286303567e+00,9.841170519577222553e-01,1.775151487643703008e-01,0.000000000000000000e+00,2.593906106403572380e+02
-8.995189172945945444e+00,6.148070754309194363e+00,1.477754036512527458e+00,9.894003939684115068e-01,1.452062684940973181e-01,0.000000000000000000e+00,2.609635009461179038e+02
-9.112214557999271491e+00,5.366470183142690864e+00,1.243794767446848804e+00,9.936233168569873486e-01,1.127417588691026346e-01,0.000000000000000000e+00,2.625363912518785696e+02
-9.219284339234537384e+00,4.591982480824714052e+00,1.007787178799040451e+00,9.967812947695334769e-01,8.015641204684448295e-02,0.000000000000000000e+00,2.641092815576392354e+02
-9.316081988200897612e+00,3.826664485343732824e+00,7.693373893225062821e-01,9.988709428919735345e-01,4.748514968431895994e-02,0.000000000000000000e+00,2.656821718633999012e+02
-9.400849780078422313e+00,3.084839739665525826e+00,5.319823390313815903e-01,9.998900210782709630e-01,1.476298554660309542e-02,0.000000000000000000e+00,2.672294485174402894e+02
-9.474894929015794887e+00,2.356021582080271237e+00,2.914820268862680086e-01,9.962137931015124792e-01,1.379333285831311172e-02,-8.582436952020218446e-02,2.687767251714806775e+02
-9.538142022952735388e+00,1.642148659189945681e+00,4.753247737122032190e-02,9.851852175856112837e-01,1.272188143630537116e-02,-1.710153232437534032e-01,2.703240018255210657e+02
-9.590593065519524174e+00,9.451442154809863716e-01,-2.001445490841473329e-01,9.668856898819657708e-01,1.155653889840314863e-02,-2.549441293908575878e-01,2.718712784795614539e+02
-9.632235659015515594e+00,2.669316794381745295e-01,-4.518272672984327554e-01,9.414502662991307558e-01,1.030590579253040477e-02,-3.369913713907328745e-01,2.734185551336018420e+02
-9.663043003586322399e+00,-3.905654154793470334e-01,-7.077938654890210124e-01,9.090666673329422798e-01,8.979212124291683153e-03,-4.165515191360025238e-01,2.749658317876422302e+02
-9.682973896570970851e+00,-1.025423509864696658e+00,-9.683225034221393246e-01,8.699738922743760483e-01,7.586249239746260808e-03,-4.930373977540812858e-01,2.765131084416826184e+02
-9.691972732018610870e+00,-1.635719097392374977e+00,-1.233691310564120069e+00,8.244604554201455660e-01,6.137297565949939582e-03,-5.658845209294945944e-01,2.780603850957230065e+02
-9.689960114664819102e+00,-2.225837132160707998e+00,-1.507104347861407234e+00,7.728622568968787077e-01,4.643050742320553245e-03,-6.345552568095174095e-01,2.796243950274525218e+02
-9.676764921259508156e+00,-2.787217635779192015e+00,-1.785975059305927370e+00,7.155601038031140781e-01,3.114536702494184132e-03,-6.985427957590173431e-01,2.811884049591820371e+02
-9.652416643639678995e+00,-3.318069084811979153e+00,-2.070578432770587174e+00,6.529768999514995453e-01,1.563036288837333244e-03,-7.573748906899301359e-01,2.827524148909115524e+02
-9.617192993494505515e+00,-3.816945553629349064e+00,-2.361171266761494802e+00,5.855745249376080874e-01,0.000000000000000000e+00,-8.106173423658352695e-01,2.843164248226410677e+02
-9.572859504658870478e+00,-4.268327981588661224e+00,-2.648914701965928042e+00,8.010230466218279943e-01,1.680977087608944570e-02,-5.983957807208056812e-01,2.858325664139024411e+02
-9.518678316045663834e+00,-4.686271803676334002e+00,-2.942937366112454711e+00,9.429866597446359133e-01,3.207743219650309452e-02,-3.312781276935125585e-01,2.873487080051638145e+02
-9.455005259923684235e+00,-5.069572561014014767e+00,-3.243471962052542068e+00,9.984418138771008477e-01,4.440234749862993768e-02,-3.376945127337916547e-02,2.888648495964251879e+02
-9.382187240054767230e+00,-5.417022841986915083e+00,-3.550751151094797997e+00,9.623011475947070847e-01,5.265384537069009441e-02,2.668371674009193950e-01,2.903809911876865613e+02
-9.300708302785238857e+00,-5.727692687866650978e+00,-3.864920542425216432e+00,8.378801759393996740e-01,5.607494484992718575e-02,5.429644659909178550e-01,2.918971327789479346e+02
-9.211338378288406403e+00,-6.001208603645677542e+00,-4.185951683091125197e+00,9.053473691449666072e-01,4.153717105648690455e-01,-8.837693841807206518e-02,2.934132743702093080e+02
-9.114991192729645419e+00,-6.237471139331084657e+00,-4.513729067288467789e+00,9.286776543665467010e-01,2.644741591311298157e-01,2.600177559940689553e-01,2.949294159614706814e+02
-9.012579505240926991e+00,-6.436373845469653077e+00,-4.848137146194378744e+00,8.176343202152047684e-01,7.530893738781591074e-02,5.707895254430604970e-01,2.964455575527320548e+02
-8.898576036555212454e+00,-6.607534581752889657e+00,-5.209588592514813321e+00,7.957731143247932515e-01,9.275971804356768213e-02,5.984469777786836087e-01,2.980530021474328919e+02
-8.780179846161827228e+00,-6.738853423693724309e+00,-5.577816445712367788e+00,7.726805509466726507e-01,1.100669599842965807e-01,6.251783989348375092e-01,2.996604467421337290e+02
-8.658039638404895655e+00,-6.830845266956675488e+00,-5.952692332459137425e+00,7.483923528909645073e-01,1.272038900111869819e-01,6.509424371525430741e-01,3.012678913368345661e+02
-8.531946413252439854e+00,-6.885621348363955008e+00,-6.333982395872639337e+00,5.068698197220069535e-01,7.623362237635495919e-01,4.023983943722789780e-01,3.028753359315354032e+02
-8.352151014419826325e+00,-6.914920931913124846e+00,-6.865906975796156608e+00,0.000000000000000000e+00,9.983844631533018710e-01,-5.680196945670642344e-02,3.050836114631876512e+02
-8.164296005469866557e+00,-6.904777114958238649e+00,-7.404957648047828300e+00,3.810445529456370911e-02,9.982805671505174949e-01,4.451920637676058667e-02,3.072918869948398992e+02
-8.022234350718141727e+00,-6.873563115096755105e+00,-7.797024101489619774e+00,7.576240324136067350e-02,9.864788553138916782e-01,1.453187058633440554e-01,3.088811760806968891e+02
-7.872468626455096263e+00,-6.822187051724721840e+00,-8.191668154345414621e+00,1.125325679745770302e-01,9.631176214730524654e-01,2.444153603056155311e-01,3.104704651665538790e+02
-7.705418149186932020e+00,-6.750129681021320494e+00,-8.608881199033493914e+00,1.479840769989751448e-01,9.284706151528355766e-01,3.406479557443062856e-01,3.121493063977750353e+02
-7.528964545600578262e+00,-6.663409622715764868e+00,-9.023060312576957287e+00,1.817015103134324572e-01,8.829438333846411080e-01,4.328888405102313541e-01,3.138281476289961915e+02
-7.342641227887799715e+00,-6.564940552347488634e+00,-9.430353193239133347e+00,2.132897684044118003e-01,8.270707626967401804e-01,5.200571393480035720e-01,3.155069888602173478e+02
-7.146004278485593275e+00,-6.457639553243691211e+00,-9.826907592988103346e+00,2.423787020534020342e-01,7.615061270961324125e-01,6.011314192310535098e-01,3.171858300914385040e+02
-6.938632459664072272e+00,-6.344426982403971849e+00,-1.020887134760804038e+01,2.686274497009184525e-01,6.870182153710554518e-01,6.751616584319050096e-01,3.188646713226596603e+02
-6.720175342698863297e+00,-6.228348245667033822e+00,-1.057241642011861948e+01,2.917284315445748399e-01,6.044798776933462126e-01,7.412803785974196868e-01,3.205435125538808165e+02
-6.490421495082902226e+00,-6.112767569002735435e+00,-1.091411937706774893e+01,3.114109535789338357e-01,5.148582970881430132e-01,7.987128094076650919e-01,3.222223537851019728e+02
-6.249271833036052826e+00,-6.001317488058577787e+00,-1.123129383506712209e+01,3.274443793622670018e-01,4.192036556827557492e-01,8.467859667517860789e-01,3.239011950163231290e+02
-6.007133118122153448e+00,-5.901934799215510452e+00,-1.150962210610816960e+01,3.396408323656667783e-01,3.186368285800526001e-01,8.849365380997761266e-01,3.255105737869507720e+02
-5.754012433460052200e+00,-5.813431204533403118e+00,-1.176006440033649803e+01,3.478573972632099109e-01,2.143362495746643226e-01,9.127174827345225783e-01,3.271199525575784151e+02
-5.489921000909160576e+00,-5.738971486726099691e+00,-1.198054230480230409e+01,3.519977943933309539e-01,1.075241026116825621e-01,9.298032695691893501e-01,3.287293313282060581e+02
-5.214908019849931797e+00,-5.681238107698983519e+00,-1.216910184498072667e+01,3.520135077923879363e-01,-5.479992337527160454e-04,9.359936912342581294e-01,3.303387100988337011e+02
-4.929049517018073701e+00,-5.642672132469329860e+00,-1.232385138713575756e+01,2.377276624752589496e-01,3.277810355994040942e-02,9.707776029655289518e-01,3.319480888694613441e+02
-4.572356112271355855e+00,-5.622561425492610176e+00,-1.246689382028173831e+01,1.197851196601070617e-01,6.560002165780126626e-02,9.906291749512750044e-01,3.338834695940711299e+02
-4.203013878286753879e+00,-5.632300739841219261e+00,-1.256494182346505895e+01,0.000000000000000000e+00,9.741290686787916486e-02,9.952430484926604315e-01,3.358188503186809157e+02
-3.821720409722153544e+00,-5.675103353284208119e+00,-1.261798339736019514e+01,-0.000000000000000000e+00,-9.695091807975529663e-02,9.952881590151888558e-01,3.377542310432907016e+02
-3.506975510836782828e+00,-5.737573662643705497e+00,-1.262594350868871196e+01,-8.509987894250357898e-03,-3.496795025689147796e-01,9.368296673276681474e-01,3.393072186219453101e+02
-3.184253003488199507e+00,-5.829205511739624868e+00,-1.260113932926556046e+01,-7.636298918902155453e-03,-2.956295949471905993e-01,9.552710764647325270e-01,3.408602062005999187e+02
-2.854350967439704956e+00,-5.951102227334065908e+00,-1.254529686628492513e+01,-6.737698540331832527e-03,-2.406152762095235820e-01,9.705961530281199678e-01,3.424131937792545273e+02
-2.518075288390179356e+00,-6.104361662955944290e+00,-1.246014233440244290e+01,-5.817118179492025004e-03,-1.848160143417502954e-01,9.827549043270881191e-01,3.439661813579091358e+02
-2.176209570835166307e+00,-6.289434614860267558e+00,-1.234737776373887108e+01,-4.877560955736740152e-03,-1.284138377628337713e-01,9.917076664371218264e-01,3.455191689365637444e+02
-1.829478794006876408e+00,-6.505483540871225046e+00,-1.220865660804393293e+01,-3.922091891688285654e-03,-7.159274161279889637e-02,9.974252335606494935e-01,3.470721565152183530e+02
-1.442376763148075725e+00,-6.776427309332267335e+00,-1.202880383352983884e+01,-2.953827916271877397e-03,-1.453808762843182729e-02,9.998889532886163778e-01,3.487856200276899585e+02
-1.051585399062269444e+00,-7.078243340611756196e+00,-1.182408886431300488e+01,-1.975927698488835933e-03,4.256400043828593299e-02,9.990907874543366596e-01,3.504990835401615641e+02
-6.579122725145487571e-01,-7.409112853414200117e+00,-1.159649552923555582e+01,-9.915813450336687963e-04,9.952724389017328366e-02,9.950333383809690790e-01,3.522125470526331696e+02
-2.621501188383777436e-01,-7.767211062715693615e+00,-1.134800784322926681e+01,-3.999995304131439757e-06,1.561658166662475977e-01,9.877298404362626627e-01,3.539260105651047752e+02
1.350618806464802257e-01,-8.150302015075606477e+00,-1.108030793048657436e+01,-3.336342326332634652e-06,1.342128265673918630e-01,9.909515210958855791e-01,3.556394740775763808e+02
5.333811785549468221e-01,-8.555334923838813665e+00,-1.079447395008938670e+01,-2.671046988837721208e-06,1.121937671884797733e-01,9.936853418390096948e-01,3.573529375900479863e+02
9.298346519283587908e-01,-8.975880871185632159e+00,-1.049340811203885870e+01,-2.004436753114909808e-06,9.011947642004634884e-02,9.959299573537451211e-01,3.590543796104893772e+02
1.327074323827462932e+00,-9.411359269117014037e+00,-1.017587206124921195e+01,-1.336839726995968190e-06,6.800081930634807592e-02,9.976842629613479341e-01,3.607558216309307682e+02
1.724979502496759354e+00,-9.858358640316101429e+00,-9.842631452183882246e+00,-6.685845035928538692e-07,4.584868271106449372e-02,9.989473951524817652e-01,3.624572636513721591e+02
2.123456885325730514e+00,-1.031346681582085267e+01,-9.494452065234845861e+00,-0.000000000000000000e+00,2.367396997322678345e-02,9.997187320112477238e-01,3.641587056718135500e+02
2.522108960583976156e+00,-1.077345736394345543e+01,-9.131904036768130339e+00,-1.650811621594222253e-06,8.062661886136229805e-02,9.967433713491306024e-01,3.658601476922549409e+02
2.919900416496584938e+00,-1.123547247276887973e+01,-8.755166090741548501e+00,-3.296253997837497036e-06,1.373170312095850498e-01,9.905261394476675418e-01,3.675615897126963318e+02
3.315486766914163219e+00,-1.169683151668627907e+01,-8.364221301086638860e+00,-4.930975442929054909e-06,1.935608254340309420e-01,9.810872575021736264e-01,3.692630317331377228e+02
3.684552706322230975e+00,-1.212789727123277572e+01,-7.982885430075263855e+00,-6.549659138655733894e-06,2.491750724857892396e-01,9.684574245721383479e-01,3.708643974005989890e+02
4.049244140282667104e+00,-1.255333248499931997e+01,-7.588149497279018441e+00,-8.147040424878093841e-06,3.039788907431306697e-01,9.526777177598968471e-01,3.724657630680602551e+02
4.408425599862590083e+00,-1.297073564721096517e+01,-7.179998720149700198e+00,-9.717923920501568132e-06,3.577940342491268688e-01,9.337994586425816257e-01,3.740671287355215213e+02
4.760979582264614152e+00,-1.337769662201166021e+01,-6.758418411452740138e+00,-1.125720041931224548e-05,4.104454723837964170e-01,9.118840463966059184e-01,3.756684944029827875e+02
5.105806575353010857e+00,-1.377179675003325876e+01,-6.323393979373998164e+00,-1.275986350578334758e-05,4.617619590874265101e-01,8.870027581560712138e-01,3.772698600704440537e+02
5.441825081956825017e+00,-1.415060895007074038e+01,-5.874910927627512436e+00,-1.422102583686205169e-05,5.115765897854466226e-01,8.592365172527295369e-01,3.788712257379053199e+02
5.767971643949949545e+00,-1.451169782086311244e+01,-5.412954855564051648e+00,-1.563593503682367953e-05,5.597273442049124359e-01,8.286756300893310945e-01,3.804725914053665861e+02
6.083200866107607574e+00,-1.485261974298052223e+01,-4.937511458279259635e+00,-1.699998915352857377e-05,6.060576133181894143e-01,7.954194924999823391e-01,3.820739570728278522e+02
6.386571797510556259e+00,-1.517116011978269086e+01,-4.448815075963878485e+00,-8.714160024713584786e-06,6.747554542646525544e-01,7.380400238874712526e-01,3.836753227402891184e+02
6.735407313583992028e+00,-1.552459465021852303e+01,-3.847246302578828825e+00,-3.585205410199641569e-07,7.380472384462178903e-01,6.747475630322210538e-01,3.855974869278406914e+02
7.067903857209356211e+00,-1.584714918696288244e+01,-3.232056618796271152e+00,7.999989140413108610e-06,7.954259202489223357e-01,6.060491773184206732e-01,3.875196511153922643e+02
7.382939819958951766e+00,-1.613719933701709763e+01,-2.604898297849802979e+00,6.003447275242286630e-06,8.086875497486893938e-01,5.882367268597092913e-01,3.894418153029438372e+02
7.628327510557844526e+00,-1.635002546532769685e+01,-2.077162885696486772e+00,4.003944591395868871e-06,8.215503719717091036e-01,5.701341826957058156e-01,3.910340298006260582e+02
7.856991325823542205e+00,-1.653536582628425933e+01,-1.542906839338958225e+00,2.002466653143350101e-06,8.340080464920200942e-01,5.517504674787980790e-01,3.926262442983082792e+02
8.067759685442162265e+00,-1.669325554444541027e+01,-1.003756475397443504e+00,0.000000000000000000e+00,8.460544322668346329e-01,5.330946422741880131e-01,3.942184587959905002e+02
8.259526654721348393e+00,-1.682396437602029593e+01,-4.614456607576285507e-01,-4.820826492293019128e-02,8.823206484469500177e-01,4.681711615612655364e-01,3.958106732936727212e+02
8.424327591442867913e+00,-1.692396613308538988e+01,5.993486409611625820e-02,-9.603787901766490387e-02,9.116568066446733010e-01,3.995705102891313198e-01,3.973379658955657874e+02
8.569136204962326531e+00,-1.699949362473294201e+01,5.805853645071811231e-01,-1.431131713361313007e-01,9.338324929755451587e-01,3.278315043644232096e-01,3.988652584974588535e+02
8.693102152415576711e+00,-1.705144704325362426e+01,1.098613753881895638e+00,-1.890643961725632649e-01,9.486735350473675110e-01,2.535176088587287602e-01,4.003925510993519197e+02
8.795367966010431360e+00,-1.708072012880021617e+01,1.612127962579597451e+00,-2.335306372001663133e-01,9.560633697694566058e-01,1.772125121850524065e-01,4.019198437012449858e+02
8.875069071029978218e+00,-1.708820013050447173e+01,2.119235950149004122e+00,-2.761626422186226892e-01,9.559439586337196149e-01,9.951554147806541961e-02,4.034471363031380520e+02
8.931333803918395375e+00,-1.707476776766871041e+01,2.618045717562904606e+00,-3.166255662481883837e-01,9.483162433044955986e-01,2.103695520210341341e-02,4.049744289050311181e+02
8.963283430449044076e+00,-1.704129719103319829e+01,3.106665319451319629e+00,-3.546016014287784457e-01,9.332401379573836975e-01,-5.760685003445976254e-02,4.065017215069241843e+02
8.970032163975035999e+00,-1.698865594412007951e+01,3.583202876334548037e+00,-3.897924730740328636e-01,9.108340584458703981e-01,-1.357981808105405142e-01,4.080290141088172504e+02
8.950687183762129351e+00,-1.691770492465435893e+01,4.045766586855997105e+00,-4.219217822837038057e-01,8.812739920112185876e-01,-2.129228983478907711e-01,4.095563067107103166e+02
8.904348653403930669e+00,-1.682929834606216701e+01,4.492464740014362690e+00,-4.507371767244026106e-01,8.447921148573285244e-01,-2.883752419941771894e-01,4.110835993126033827e+02
8.830109739319249584e+00,-1.672428369904667278e+01,4.921405727395457674e+00,-4.760123325391987792e-01,8.016749684599806525e-01,-3.615625868603486448e-01,4.126108919144964489e+02
8.727056629331588766e+00,-1.660350171324204283e+01,5.330698055403422231e+00,-4.975487318301110573e-01,7.522612089413860392e-01,-4.319100982591105309e-01,4.141381845163895150e+02
8.585004661726133079e+00,-1.645831570288824253e+01,5.745473759075977682e+00,-5.151772217625080197e-01,6.969389471894419374e-01,-4.988652464037193202e-01,4.157720594580900979e+02
8.410640475394909998e+00,-1.629829246466545456e+01,6.135371492564539508e+00,-4.764587954802803615e-01,6.477180406668950896e-01,-5.945135456874621749e-01,4.174059343997906808e+02
8.204448739660048062e+00,-1.612504628758534508e+01,6.499219968809753389e+00,-4.315128467695426573e-01,5.900311791714117904e-01,-6.823912885436248521e-01,4.190398093414912637e+02
7.967419057162273610e+00,-1.594041993023464876e+01,6.836179100945252607e+00,-3.809268374968131643e-01,5.246323535355498224e-01,-7.613498788994490507e-01,4.206736842831918466e+02
7.700525671178293230e+00,-1.574626354852573584e+01,7.145409001079325861e+00,-3.253619465913307751e-01,4.523763519792335375e-01,-8.303572965187864252e-01,4.223075592248924295e+02
7.404727444681125981e+00,-1.554443460610680106e+01,7.426069986507433995e+00,-2.655444285217176126e-01,3.742075881395393600e-01,-8.885115854402232394e-01,4.239414341665930124e+02
7.080967839603771630e+00,-1.533679778467853971e+01,7.677322585923914922e+00,-2.022561212894118943e-01,2.911477577725803956e-01,-9.350526426605469954e-01,4.255753091082935953e+02
6.730174896306236221e+00,-1.512522489421854388e+01,7.898327545632330526e+00,-1.363242279487389963e-01,2.042824853877121538e-01,-9.693721530141856668e-01,4.272091840499941782e+02
6.320057955664343474e+00,-1.489271796451856922e+01,8.104987116952273141e+00,-6.861050515552458151e-02,1.147471352711630366e-01,-9.910215403968533066e-01,4.289872703554020745e+02
5.882975365965002368e+00,-1.465984597298591652e+01,8.277504333508053591e+00,-0.000000000000000000e+00,2.371197228180339442e-02,-9.997178313761895252e-01,4.307653566608099709e+02
5.421258712304347860e+00,-1.442777247922402672e+01,8.417200400337748079e+00,-7.892990921127130202e-03,0.000000000000000000e+00,-9.999678497920404530e-01,4.325434429662178673e+02
4.950491639871519745e+00,-1.420255304765356108e+01,8.523803196137256677e+00,-7.557215732820177223e-01,8.104295423911778151e-02,-6.498576330580629890e-01,4.342762899229354048e+02
4.462427923598337287e+00,-1.397809062990156015e+01,8.603534235365492222e+00,-6.424800233352655487e-01,9.362782706704289581e-02,-7.605598264519485285e-01,4.360091368796529423e+02
3.960799390596926983e+00,-1.375396908014075947e+01,8.658937438014410404e+00,-5.130241089622906703e-01,1.038498134249753874e-01,-8.520677671836706102e-01,4.377419838363704798e+02
3.493178861490671583e+00,-1.354856044581039320e+01,8.689460440474592318e+00,-3.706208938537999820e-01,1.114509371363939377e-01,-9.220720371252236758e-01,4.393273710104307952e+02
3.020662368413446153e+00,-1.334198292147325482e+01,8.701726597088422110e+00,-2.188642079209567048e-01,1.162393638745484181e-01,-9.688058983999574547e-01,4.409127581844911106e+02
