-4.042085376529767515e+00,1.249310843389778647e+01,-6.632802681305084214e+00,7.177154197152412207e-01,-3.204703633248091044e-01,6.182081546968052344e-01,4.111672996101255961e+01
-3.879698560128714391e+00,1.271757876517309427e+01,-6.909186772380487618e+00,7.050751310900414959e-01,-2.690535287615489768e-01,6.561076574614410628e-01,4.269462309963964941e+01
-3.711787046371588517e+00,1.292865714128621946e+01,-7.177549013384163068e+00,6.894454310472932779e-01,-2.164959491086580479e-01,6.912253624020062714e-01,4.427251623826673921e+01
-3.538512830565209377e+00,1.312608081679369221e+01,-7.437268937958575243e+00,6.708925869270163656e-01,-1.630204595047685945e-01,7.234123765802269457e-01,4.585040937689382901e+01
-3.360039735480392142e+00,1.330958812036194949e+01,-7.687726146189211462e+00,6.494952595188788758e-01,-1.088537868111511125e-01,7.525322325054053518e-01,4.742830251552091880e+01
-3.182131398402088251e+00,1.347377212342138897e+01,-7.920976918865733296e+00,6.253441695761320362e-01,-5.422558838472407716e-02,7.784614667031449775e-01,4.895812993759756182e+01
-2.999531534856625381e+00,1.362399726662783728e+01,-8.144065011277952237e+00,5.985417132062597068e-01,6.325215729531009088e-04,8.010901431603378864e-01,5.048795735967419773e+01
-2.812437311403478191e+00,1.376005172575649915e+01,-8.356412129684240853e+00,5.692015277677465734e-01,5.548795396498383548e-02,8.203223194279380959e-01,5.201778478175083364e+01
-2.621126246128717696e+00,1.388185461301083379e+01,-8.557424253512778023e+00,5.231393034839485479e-01,5.246750651108148672e-02,8.506294316034981318e-01,5.354761220382746956e+01
-2.426008433493323846e+00,1.398956565401873320e+01,-8.746472730681045249e+00,4.754818332485176713e-01,4.928706602168301393e-02,8.783426503210012282e-01,5.507743962590410547e+01
-2.227558610246954451e+00,1.408346682308181030e+01,-8.922911634174624851e+00,4.263744415662416576e-01,4.595633079676783583e-02,9.033774688568043665e-01,5.660726704798074138e+01
-2.026249364916351769e+00,1.416384333508786320e+01,-9.086095118754917266e+00,3.759668740554373834e-01,4.248545741881075422e-02,9.256575476493743571e-01,5.813709447005737729e+01
-1.817255563932516749e+00,1.423272123177007309e+01,-9.239253446499242628e+00,3.244128408731146718e-01,3.888502978517517639e-02,9.451149470485429305e-01,5.970669106181776442e+01
-1.606297012559476656e+00,1.428830642898686953e+01,-9.377468749832612360e+00,2.718695480566632461e-01,3.516602683806676483e-02,9.616903344607141690e-01,6.127628765357815155e+01
-1.393864280657149290e+00,1.433090942997755057e+01,-9.500061443273956741e+00,2.184972182091869664e-01,3.133978909030721988e-02,9.753331652588275169e-01,6.284588424533853868e+01
-1.180445581215578077e+00,1.436084418655323880e+01,-9.606352047982234410e+00,1.644586019882288697e-01,2.741798404887066734e-02,9.860018369059139198e-01,6.441548083709892580e+01
-9.665267611211337817e-01,1.437842808597518385e+01,-9.695661196395473524e+00,1.099184818856195761e-01,2.341257064147645242e-02,9.936638158224521122e-01,6.598507742885931293e+01
-7.525726486958078665e-01,1.438417076422294905e+01,-9.767300877190171704e+00,5.504316980968559231e-02,1.933576275456779653e-02,9.982957366105229546e-01,6.755467402061970006e+01
-5.390065399294932114e-01,1.437896273259181612e+01,-9.820565680300221700e+00,0.000000000000000000e+00,1.519999199371368896e-02,9.998834733317381041e-01,6.912427061238008719e+01
-3.262260412422041123e-01,1.436388624574986039e+01,-9.854741561413810302e+00,-0.000000000000000000e+00,-1.168708951513131450e-01,9.931461090162760907e-01,7.069386720414047431e+01
-1.146281522130949693e-01,1.434001119202453545e+01,-9.869210465175680014e+00,6.398446498911922750e-04,-5.306028803975711703e-04,9.999986545262882220e-01,7.226346379590086144e+01
9.538321464198379340e-02,1.430837997262780448e+01,-9.863546188054636232e+00,1.270998420251536658e-03,1.158168560489946514e-01,9.932687654470839789e-01,7.383306038766124857e+01
3.044031012441484330e-01,1.426983779979854816e+01,-9.837292506481652765e+00,0.000000000000000000e+00,1.173078338390019654e-01,9.930945933284813787e-01,7.541019847128949039e+01
5.110227218762271040e-01,1.422557650856832723e+01,-9.790143706461686079e+00,-5.908683687608541624e-02,5.885754392442430621e-02,9.965151956811832967e-01,7.698733655491773220e+01
7.148498480813103573e-01,1.417664193163136410e+01,-9.721766685488177018e+00,-1.177648228227758248e-01,0.000000000000000000e+00,9.930405059701521431e-01,7.856447463854597402e+01
9.154707272700701726e-01,1.412397798843542418e+01,-9.631929124102216022e+00,-1.568644224807576870e-01,1.375389197269604596e-02,9.875233584156617450e-01,8.014161272217421583e+01
9.957478786371081192e-01,1.410135839653914402e+01,-9.586580557993364948e+00,-1.956897588335841376e-01,2.748373570028463803e-02,9.802796348801956494e-01,8.078403856062790567e+01
1.191365672247663543e+00,1.404255783671955271e+01,-9.452222313660875841e+00,-2.341729504548448471e-01,4.116552618769131477e-02,9.713220005385787559e-01,8.238127097373336483e+01
1.382436059936412276e+00,1.398119410235076288e+01,-9.296621941275342138e+00,-2.722467141493026821e-01,5.477534246872314827e-02,9.606661170738249877e-01,8.397850338683882399e+01
1.568349685316186459e+00,1.391742523504865758e+01,-9.120387064511897179e+00,-3.098444825812751713e-01,6.828938942611949281e-02,9.483306152957164947e-01,8.557573579994428314e+01
1.747563716573863557e+00,1.385165952935119726e+01,-8.925384663410667940e+00,-3.469005206505925698e-01,8.168403939141852255e-02,9.343370625649425332e-01,8.716453624033491110e+01
1.920480323821317725e+00,1.378357134138001783e+01,-8.711621849946698859e+00,-3.833500404133557415e-01,9.493587345195941829e-02,9.187099250843283604e-01,8.875333668072553905e+01
2.086520252838070189e+00,1.371317417301372643e+01,-8.480034904521360772e+00,-4.191293143467276217e-01,1.080217223928544440e-01,9.014765251230867360e-01,9.034213712111616701e+01
2.245104128415178035e+00,1.364048583557340777e+01,-8.231560232201532656e+00,-4.541757867598858467e-01,1.209187072024037607e-01,8.826669932488763193e-01,9.193093756150679496e+01
2.395652466401958947e+00,1.356552845064896573e+01,-7.967134356168087628e+00,-4.884281831565021048e-01,1.336042790701888749e-01,8.623142156511387491e-01,9.351973800189742292e+01
2.537585685754716547e+00,1.348832845087369670e+01,-7.687693911163697713e+00,-5.218266173576877609e-01,1.460562588079660218e-01,8.404537766477692129e-01,9.510853844228805087e+01
2.670324120587032279e+00,1.340891658064705361e+01,-7.394175636940165219e+00,-5.543126961982601797e-01,1.582528756244896972e-01,8.171238964755642709e-01,9.669733888267867883e+01
2.793288032222072559e+00,1.332732789680488139e+01,-7.087516371705329554e+00,-5.858296216134056822e-01,1.701728051865210589e-01,7.923653644731177836e-01,9.828613932306930678e+01
2.905897621247317542e+00,1.324360176923704024e+01,-6.768653045569354099e+00,-6.163222899373749231e-01,1.817952068995218884e-01,7.662214677728831358e-01,9.987493976345993474e+01
3.007573039571522777e+00,1.315778188145258376e+01,-6.438522673990172862e+00,-6.457373882407045906e-01,1.930997603428957488e-01,7.387379156269492375e-01,1.014637402038505627e+02
3.097734402483290239e+00,1.306991623109241019e+01,-6.098062351218434429e+00,-6.740234875376156509e-01,2.040667007961075308e-01,7.099627594987010237e-01,1.030525406442411906e+02
3.193344657661048469e+00,1.295973009556751521e+01,-5.669288981621317447e+00,-7.011311327007039296e-01,2.146768537936022958e-01,6.799463090599264792e-01,1.050000257257920424e+02
3.273318977151856046e+00,1.284720162951766653e+01,-5.230389081582080379e+00,-7.270129289257662997e-01,2.249116686481305305e-01,6.487410442400828314e-01,1.069475108073428942e+02
3.330940085681273644e+00,1.274402428529924158e+01,-4.826853097287486349e+00,-8.580059652290623617e-01,2.627071805556559572e-02,5.129655085926755342e-01,1.087028936583431147e+02
3.373870465028473653e+00,1.263953178608459638e+01,-4.416511127432394268e+00,-9.246034767262547582e-01,-1.743419773614379165e-01,3.386905457147098009e-01,1.104582765093433352e+02
3.401998890905045148e+00,1.253424097983994656e+01,-4.000410822536971445e+00,-9.218070772726286721e-01,-3.618699516426724938e-01,1.389958646460617009e-01,1.122136593603435557e+02
3.415471170159514180e+00,1.242888226523031392e+01,-3.579509922819801737e+00,-8.498265231567917466e-01,-5.222387069684532035e-01,-7.113096008795406766e-02,1.139690422113437762e+02
3.414565359438830328e+00,1.232429096731946139e+01,-3.154721229738280286e+00,-8.889687352891419980e-01,-4.535763537553915703e-01,-6.325408280465517896e-02,1.157244250623439967e+02
3.401652325751213457e+00,1.223550184308761146e+01,-2.786025481032929019e+00,-9.225027107052581332e-01,-3.820525499434559435e-01,-5.497815768559451838e-02,1.172373069545191839e+02
3.376853846373419010e+00,1.214870515986202726e+01,-2.415445235277052571e+00,-9.502169002884005566e-01,-3.081185157867671331e-01,-4.635539488821183163e-02,1.187501888466943711e+02
3.340389485377644352e+00,1.206451636047806630e+01,-2.043658380369374861e+00,-9.719364694593536358e-01,-2.322406754257876627e-01,-3.744019247301075964e-02,1.202630707388695583e+02
3.292482819134758820e+00,1.198354934103948821e+01,-1.671342811847214005e+00,-9.875244008091748071e-01,-1.548977145829625313e-01,-2.828879324626990335e-02,1.217759526310447455e+02
3.233361432217909837e+00,1.190641642974399161e+01,-1.299176428586869658e+00,-9.968823582192178900e-01,-7.657756097871246115e-02,-1.895892997445768405e-02,1.232888345232199327e+02
3.163256913263080339e+00,1.183372836572594800e+01,-9.278371285044478833e-01,-9.999513070324644870e-01,2.225693500043039903e-03,-9.509461206636890193e-03,1.248017164153951200e+02
3.082404850786444772e+00,1.176609427791654383e+01,-5.580028042564162405e-01,-9.967118863751273095e-01,8.101490948214877530e-02,-0.000000000000000000e+00,1.263145983075703072e+02
2.991161946063595423e+00,1.170412967557542316e+01,-1.903236539518668724e-01,-9.977055605010234363e-01,6.449316290646346650e-02,-2.054863705353084449e-02,1.278274801997454944e+02
2.890123202660034973e+00,1.164846332602834345e+01,1.746055079594759085e-01,-9.980046286484874907e-01,4.792651631351939334e-02,-4.108296765526474326e-02,1.293403620919206674e+02
2.780004916297212247e+00,1.159972755222299234e+01,5.362175694717430385e-01,-9.976088826482365501e-01,3.132650345110054441e-02,-6.158869574852211121e-02,1.308532439840958546e+02
2.661527583849450096e+00,1.155854964254281469e+01,8.939454396319821416e-01,-9.965185980606403593e-01,1.470468129449755031e-02,-8.205154519228112509e-02,1.323661258762710418e+02
2.535415890020371599e+00,1.152555182858480975e+01,1.247222052138205584e+00,-9.947345339842259548e-01,-1.927377999364032366e-03,-1.024572697001452787e-01,1.338790077684462290e+02
2.402398693973524679e+00,1.150135126299327126e+01,1.595480368937304938e+00,-9.922579325269497152e-01,-1.855809514840099303e-02,-1.227916627585112080e-01,1.353918896606214162e+02
2.263209015917102995e+00,1.148655999734964794e+01,1.938153383822154741e+00,-9.890905179412106119e-01,-3.517589180679799032e-02,-1.430405675170327018e-01,1.369047715527966034e+02
2.118584023642315461e+00,1.148178496011792582e+01,2.274674126029520682e+00,-9.852344954232106211e-01,-5.176919862576939008e-02,-1.631898866444963236e-01,1.384176534449717906e+02
1.969265019015651763e+00,1.148762793464579524e+01,2.604475663837960031e+00,-9.806925495774969637e-01,-6.832646330804681423e-02,-1.832255921432478507e-01,1.399305353371469778e+02
1.815997424425746853e+00,1.150468553722173581e+01,2.926991108164234134e+00,-9.754678425477576464e-01,-8.483615865048491078e-02,-2.031337351153377213e-01,1.414434172293221650e+02
1.653938095534961183e+00,1.153459811998737372e+01,3.252912833866743458e+00,-9.695640118151710451e-01,-1.012867905691877818e-01,-2.229004554735879717e-01,1.430104589938938489e+02
1.489377532519120972e+00,1.157738864980176352e+01,3.570092012301318896e+00,-9.629851676658465198e-01,-1.176669061015690881e-01,-2.425119915908205970e-01,1.445775007584655327e+02
1.323128912061345419e+00,1.163368013664723755e+01,3.877920564369573331e+00,-9.557358903291183205e-01,-1.339651013797767132e-01,-2.619546898805312218e-01,1.461445425230372166e+02
1.156009928069628101e+00,1.170408974970774452e+01,4.175790474626308146e+00,-9.478212267886823028e-01,-1.501700295699308907e-01,-2.812150143023388615e-01,1.477115842876089005e+02
9.888427758126440148e-01,1.178922879244583299e+01,4.463093795415776555e+00,-9.392466872688043367e-01,-1.662704087716506407e-01,-3.002795557855964526e-01,1.492786260521805843e+02
8.224284958619709762e-01,1.188949791154171187e+01,4.739375901977421535e+00,-9.300182413980384588e-01,-1.822550298723687179e-01,-3.191350415646010408e-01,1.508456678167522682e+02
6.575193027806199852e-01,1.200488256131964171e+01,5.004488746511400521e+00,-9.201423140531312939e-01,-1.981127643509697778e-01,-3.377683444189084616e-01,1.524127095813239521e+02
4.948411873481710632e-01,1.213515814168784424e+01,5.258437608218789805e+00,-9.096257808860043204e-01,-2.138325720253177464e-01,-3.561664918123181311e-01,1.539797513458956360e+02
3.348934008340324064e-01,1.227982209541393921e+01,5.501235525842225194e+00,-8.984759635369291564e-01,-2.294035087382820248e-01,-3.743166749241689795e-01,1.555467931104673198e+02
1.777206212362071325e-01,1.243782333523490635e+01,5.732910981126519090e+00,-8.867006245372260897e-01,-2.448147339769106978e-01,-3.922062575666590001e-01,1.571138348750390037e+02
2.313405280002068382e-02,1.260783840150443957e+01,5.953500215099183812e+00,-8.743079619050385665e-01,-2.600555184194492941e-01,-4.098227849819819357e-01,1.586808766396106876e+02
-1.303150039243100855e-01,1.279011241614496086e+01,6.164828070392843529e+00,-8.613066034379388558e-01,-2.751152514049500786e-01,-4.271539925131583870e-01,1.602612433546739510e+02
-2.813952993811962289e-01,1.298195414276080051e+01,6.365075973908460583e+00,-8.477056007063461518e-01,-2.899834483202738955e-01,-4.441878141425252835e-01,1.618416100697372144e+02
-4.301608010861981413e-01,1.318214426728232347e+01,6.554308089235213686e+00,-8.335144227519301063e-01,-3.046497578993431210e-01,-4.609123908919409152e-01,1.634219767848004778e+02
-5.766744773296363924e-01,1.338946402112349965e+01,6.732588656280111827e+00,-8.187429494953921694e-01,-3.191039694295637053e-01,-4.773160790788588681e-01,1.650023434998637413e+02
-7.210082957496397604e-01,1.360269523110650702e+01,6.899981990761582473e+00,-8.034014648582105123e-01,-3.333360198604014002e-01,-4.933874584225231841e-01,1.665827102149270047e+02
-8.632432215134703268e-01,1.382062036957276696e+01,7.056552483747427829e+00,-7.875006496031351499e-01,-3.473360008091634921e-01,-5.091153399946430902e-01,1.681630769299902681e+02
-1.003469215340601739e+00,1.404202260453848616e+01,7.202364601201760586e+00,-7.710515738984189404e-01,-3.610941654591100503e-01,-5.244887740090129480e-01,1.697434436450535316e+02
-1.141785231404675471e+00,1.426568584985376731e+01,7.337482883533883893e+00,-7.540656896109587670e-01,-3.746009353450919788e-01,-5.394970574446547040e-01,1.713238103601167950e+02
-1.278299215124598431e+00,1.449039481535981899e+01,7.461971945147828578e+00,-7.365548223337107236e-01,-3.878469070219948134e-01,-5.541297414971774193e-01,1.729041770751800584e+02
-1.413128100843104473e+00,1.471493505703874582e+01,7.575896473991999613e+00,-7.185311631529281984e-01,-4.008228586113433134e-01,-5.683766388531658054e-01,1.744845437902433218e+02
-1.546397809394041145e+00,1.493809302715454557e+01,7.679321231108771961e+00,-7.000072601609531597e-01,-4.135197562215126577e-01,-5.822278307825349275e-01,1.760649105053065853e+02
-1.678243245561105157e+00,1.515865612438461874e+01,7.772311050183910552e+00,-6.809960097204693641e-01,-4.259287602370746550e-01,-5.956736740439136923e-01,1.776452772203698487e+02
-1.808808295428762536e+00,1.537541274394079949e+01,7.854930837095748686e+00,-6.615106474862940678e-01,-4.380412314729025258e-01,-6.087048075982490758e-01,1.792256439354331121e+02
-1.938245823624449526e+00,1.558715232767907999e+01,7.927245569464065333e+00,-6.415647391909606867e-01,-4.498487371887501807e-01,-6.213121591259597176e-01,1.808060106504963755e+02
-2.066717670450755495e+00,1.579266541419754688e+01,7.989320296198674676e+00,-6.211721712005029428e-01,-4.613430569601165154e-01,-6.334869513430982924e-01,1.823863773655596390e+02
-2.188783459064533421e+00,1.598191228570115463e+01,8.038921822838171138e+00,-6.003471408470163473e-01,-4.725161884013115987e-01,-6.452207081121297261e-01,1.838965192883133568e+02
-2.310479056387317875e+00,1.616280339529576082e+01,8.078893292412674398e+00,-5.791041465447233083e-01,-4.833603527367368868e-01,-6.565052603430667766e-01,1.854066612110670746e+02
-2.432171507174611946e+00,1.633410990994161693e+01,8.109326291850738500e+00,-5.574579776964208033e-01,-4.938680002165025673e-01,-6.673327516808570392e-01,1.869168031338207925e+02
-2.554236593158622171e+00,1.649460551302364308e+01,8.130312468332089537e+00,-5.354237043973413268e-01,-5.040318153726121020e-01,-6.776956439750622119e-01,1.884269450565745103e+02
-2.677058826510768430e+00,1.664306645095602732e+01,8.141943528706411470e+00,-5.130166669435846094e-01,-5.138447221120522324e-01,-6.875867225280172246e-01,1.899370869793282282e+02
-2.801031443207493865e+00,1.677827157975894323e+01,8.144311238912477435e+00,-4.902524651524304833e-01,-5.232998886432456143e-01,-6.969991011178204854e-01,1.914472289020819460e+02
-2.926556396299409890e+00,1.689900241160708561e+01,8.137507423397623896e+00,-4.671469475019623951e-01,-5.323907322324320512e-01,-7.059262267926522672e-01,1.929573708248356638e+02
-3.054044349083811838e+00,1.700404316135024629e+01,8.121623964536972551e+00,-4.437162000975618525e-01,-5.411109237866711386e-01,-7.143618844330879014e-01,1.944675127475893817e+02
-3.183914668180914731e+00,1.709218079300540793e+01,8.096752802052401776e+00,-4.199765354729531053e-01,-5.494543922602700414e-01,-7.223002010792245464e-01,1.959776546703430995e+02
-3.316437169918168060e+00,1.716244376257073156e+01,8.062995679663496063e+00,-2.485924457744723148e-01,-5.857675069561850689e-01,-7.714118379303657180e-01,1.974877965930968173e+02
-3.451571602163080232e+00,1.721433925672000953e+01,8.020473891676614286e+00,-6.897918907131329880e-02,-6.026898605379259477e-01,-7.949872976852214723e-01,1.989979385158505352e+02
-3.589122492098386186e+00,1.724761227229746297e+01,7.969318534985895930e+00,1.129174884084330061e-01,-5.996612779033404506e-01,-7.922461691897638714e-01,2.005080804386042530e+02
-3.728896263970296943e+00,1.726200618245303886e+01,7.909660761012411889e+00,2.910762554624261034e-01,-5.767820131696964614e-01,-7.632791905919688036e-01,2.020182223613579708e+02
-3.870701243835714678e+00,1.725726274682844519e+01,7.841631774875277294e+00,4.595995113955018141e-01,-5.348094314391391713e-01,-7.090452462074303686e-01,2.035283642841116887e+02
-4.014347664288220763e+00,1.723312212176296754e+01,7.765362834562526295e+00,4.486854376138478262e-01,-5.415465782540074269e-01,-7.109196027968527343e-01,2.050385062068654065e+02
-4.159647669162674255e+00,1.718932287051902108e+01,7.680985250101785233e+00,4.376959782630349127e-01,-5.481927331286041705e-01,-7.126745105191709673e-01,2.065486481296191243e+02
-4.306415318218618893e+00,1.712560197352791036e+01,7.588630382730329416e+00,4.266329792895320883e-01,-5.547467797538538914e-01,-7.143096746662450647e-01,2.080587900523728422e+02
-4.464456768503839434e+00,1.703605110841189685e+01,7.481674689704578718e+00,4.154982989819941408e-01,-5.612076172842122013e-01,-7.158248206313284623e-01,2.096707596792464301e+02
-4.623682821095946416e+00,1.692468733212535170e+01,7.366492171050969873e+00,4.042938076568051153e-01,-5.675741605179459581e-01,-7.172196939497587076e-01,2.112827293061200180e+02
-4.783888382454628108e+00,1.679120552338047290e+01,7.243232698747149811e+00,3.930213873449944217e-01,-5.738453400787337788e-01,-7.184940603414970983e-01,2.128946989329936059e+02
-4.944870712450234684e+00,1.663529868743458451e+01,7.112046202882662982e+00,3.816829314772086645e-01,-5.800201025946361000e-01,-7.196477057503162245e-01,2.145066685598671938e+02
-5.106429430301139938e+00,1.645665796952010851e+01,6.973082670580423859e+00,3.702803445667928739e-01,-5.860974108744091415e-01,-7.206804363796289747e-01,2.161186381867407817e+02
-5.268364491926811333e+00,1.625525779030150275e+01,6.826527368217216285e+00,3.588155418910290440e-01,-5.920762440811301319e-01,-7.215920787249546775e-01,2.177306078136143697e+02
-5.430471280980926352e+00,1.603164095625853136e+01,6.672636063389769667e+00,4.311875720623167263e-01,-5.676280165971555602e-01,-7.013370890481179787e-01,2.193425774404879576e+02
-5.592538313915267345e+00,1.578663349391429804e+01,6.511699799773898789e+00,5.008665292721984352e-01,-5.396345540930982398e-01,-6.767017569691343715e-01,2.209545470673615455e+02
-5.754347831465312701e+00,1.552105948545018954e+01,6.344009671730489686e+00,5.674172201339745536e-01,-5.082706957628807531e-01,-6.478399479236653935e-01,2.225665166942351334e+02
-5.906594149605980171e+00,1.525172943059267006e+01,6.179629150597764742e+00,6.304239895780059388e-01,-4.737323311510909241e-01,-6.149319245154902802e-01,2.240880029226550221e+02
-6.058122347680308550e+00,1.496446120479838626e+01,6.009409269872833192e+00,6.894933168612439323e-01,-4.362351766819034249e-01,-5.781832206408591412e-01,2.256094891510749108e+02
-6.208722185742151289e+00,1.465998352971717367e+01,5.833609451812116653e+00,7.442562733274572517e-01,-3.960134283591497661e-01,-5.378233577798798848e-01,2.271309753794947994e+02
-6.358178167471738362e+00,1.433902337543415406e+01,5.652489154439605201e+00,7.943708265734605867e-01,-3.533182990567679260e-01,-4.941044114782901508e-01,2.286524616079146881e+02
-6.506269545318294156e+00,1.400230593218887520e+01,5.466307869882723658e+00,8.395239766331920039e-01,-3.084164495347431201e-01,-4.472994369726574493e-01,2.301739478363345768e+02
-6.652770325701820475e+00,1.365055458211590533e+01,5.275325122708371062e+00,8.794337108404347569e-01,-2.615883229789708331e-01,-3.977007637912558513e-01,2.316954340647544655e+02
-6.797449274273778208e+00,1.328449087100793058e+01,5.079800468258921953e+00,9.138507651630852768e-01,-2.131263934656512093e-01,-3.456181699807324148e-01,2.332169202931743541e+02
-6.940069921236733386e+00,1.290483448010147072e+01,4.879993490987935445e+00,9.425601810100801004e-01,-1.633333392881150259e-01,-2.913769473600818505e-01,2.347384065215942428e+02
-7.080390566723074208e+00,1.251230319788442458e+01,4.676163802795895386e+00,9.653826477888983737e-01,-1.125201525530580837e-01,-2.353158698837489182e-01,2.362598927500141315e+02
-7.218164286232758187e+00,1.210761289192570800e+01,4.468571041365760443e+00,9.821756228290116075e-01,-6.100419685109167989e-02,-1.777850778006261900e-01,2.377813789784340202e+02
-7.353138936129968606e+00,1.169147748072849602e+01,4.257474868498005272e+00,9.928342216764359796e-01,-9.107225130834862084e-03,-1.191438908215584902e-01,2.393028652068539088e+02
-7.485057159198662546e+00,1.126460890560735173e+01,4.043134968445550648e+00,9.972918731980300322e-01,4.284662984555721865e-02,-5.975856395140545507e-02,2.408243514352737975e+02
-7.613656390257018458e+00,1.082771710258836428e+01,3.825811046248829062e+00,9.955207354024415700e-01,9.453287991606314222e-02,-0.000000000000000000e+00,2.423458376636936862e+02
-7.738702950461941121e+00,1.038155317847559012e+01,3.605707814111208886e+00,9.922554729209166480e-01,1.242057826707294726e-01,0.000000000000000000e+00,2.438673238921135749e+02
-7.860025729038465414e+00,9.926952912034240128e+00,3.382919978127104876e+00,9.881059679272566898e-01,1.537679945144918570e-01,0.000000000000000000e+00,2.453888101205334635e+02
-7.977481480385166357e+00,9.464794006807885296e+00,3.157487249635277493e+00,9.830759178530230624e-01,1.831931759860485343e-01,0.000000000000000000e+00,2.469102963489533522e+02
-8.090920532666917353e+00,8.995953015657596197e+00,2.929449356925547754e+00,9.771698042665541983e-01,2.124551096581906995e-01,0.000000000000000000e+00,2.484317825773732409e+02
-8.200186791124647101e+00,8.521305306112211042e+00,2.698846044986003889e+00,9.703928888839234990e-01,2.415277234467198553e-01,0.000000000000000000e+00,2.499532688057931296e+02
-8.308692584520942503e+00,8.025536603892426513e+00,2.457840909467747803e+00,9.752139713686297506e-01,2.212593727778432440e-01,0.000000000000000000e+00,2.515261591115538238e+02
-8.412598350431085947e+00,7.525615154116032102e+00,2.214267021302293692e+00,9.796117619889577188e-01,2.008949869150777612e-01,0.000000000000000000e+00,2.530990494173145180e+02
-8.511716337799093424e+00,7.022472610561992568e+00,1.968166936086583219e+00,9.835843521583890192e-01,1.804434043791835196e-01,0.000000000000000000e+00,2.546719397230752122e+02
-8.605851714886059156e+00,6.517039161836037486e+00,1.719583226728965464e+00,9.871300177922073260e-01,1.599135015199744103e-01,0.000000000000000000e+00,2.562448300288359064e+02
-8.694802573472154350e+00,6.010243491880706834e+00,1.468558483159643879e+00,9.902472200570201499e-01,1.393141886678042618e-01,0.000000000000000000e+00,2.578177203345965722e+02
-8.778359933144884053e+00,5.503012740503413269e+00,1.215135312041485616e+00,9.929346060378573258e-01,1.186544062698028507e-01,0.000000000000000000e+00,2.593906106403572380e+02
-8.856307745673564824e+00,4.996272463922406537e+00,9.593563364806411142e-01,9.951910093248167444e-01,9.794312101308519369e-02,0.000000000000000000e+00,2.609635009461179038e+02
-8.928422899469097729e+00,4.490946595332746760e+00,7.012641957366200218e-01,9.970154505189993133e-01,7.718932193660163477e-02,0.000000000000000000e+00,2.625363912518785696e+02
-8.994475224128821722e+00,3.987957405492858154e+00,4.409015449327594038e-01,9.984071376575213153e-01,5.640201653330027820e-02,0.000000000000000000e+00,2.641092815576392354e+02
-9.054227495067044273e+00,3.488225463330850928e+00,1.783110547672478174e-01,9.993654665574149831e-01,3.559022684427843447e-02,0.000000000000000000e+00,2.656821718633999012e+02
-9.106554450500111031e+00,3.000734050515134754e+00,-8.215303063312723308e-02,9.998900210782709630e-01,1.476298554660309542e-02,0.000000000000000000e+00,2.672294485174402894e+02
-9.152196685239022855e+00,2.518233215262653868e+00,-3.447056989127338378e-01,9.972592299659424064e-01,1.394932425752589723e-02,-7.264602261008443196e-02,2.687767251714806775e+02
-9.190985896796986410e+00,2.041604399609492582e+00,-6.092466203903085242e-01,9.893578864033523157e-01,1.306194032203855833e-02,-1.449081030417185278e-01,2.703240018255210657e+02
-9.222774296495275692e+00,1.571726465678418228e+00,-8.756557826427197044e-01,9.762277501548471959e-01,1.210552359618992380e-02,-2.164043348150578860e-01,2.718712784795614539e+02
-9.247407444143435740e+00,1.109477262695848010e+00,-1.143813160832435560e+00,9.579382149529716006e-01,1.108512876963139125e-02,-2.867568591221192897e-01,2.734185551336018420e+02
-9.264724250686176887e+00,6.557335904408760907e-01,-1.413598718501443585e+00,9.345859417355742993e-01,1.000614865218964547e-02,-3.555938617300588023e-01,2.749658317876422302e+02
-9.274556980928752026e+00,2.113711627054511988e-01,-1.684892408365209260e+00,9.062943477929015224e-01,8.874285673745195904e-03,-4.225515379372378755e-01,2.765131084416826184e+02
-9.276731256340930543e+00,-2.227354292335456121e-01,-1.957574173106351401e+00,8.732129545275081339e-01,7.695521748034443721e-03,-4.872760152018982827e-01,2.780603850957230065e+02
-9.271013355931415845e+00,-6.502847243864128268e-01,-2.234486256503148027e+00,8.355165972728730850e-01,6.476086659579872312e-03,-5.494252232868124253e-01,2.796243950274525218e+02
-9.257197490546744234e+00,-1.065693199764314425e+00,-2.512557294000473007e+00,7.934045013446828776e-01,5.222425140748127720e-03,-6.086707020402780666e-01,2.811884049591820371e+02
-9.235124019781578042e+00,-1.468149400759473311e+00,-2.791645714920443222e+00,7.470992292048537209e-01,3.941162812852012920e-03,-6.646993372628520191e-01,2.827524148909115524e+02
-9.204705197168220110e+00,-1.856999873434624693e+00,-3.071572208580198193e+00,6.968455042988385140e-01,2.639071171213512763e-03,-7.172150154885444939e-01,2.843164248226410677e+02
-9.167053459755983624e+00,-2.220205339588405824e+00,-3.343553158777159418e+00,6.429089177780181741e-01,1.323031799159196404e-03,-7.659401889368581129e-01,2.858325664139024411e+02
-9.121160645959268010e+00,-2.569121221871247585e+00,-3.615968509207377224e+00,5.855745249376080874e-01,0.000000000000000000e+00,-8.106173423658352695e-01,2.873487080051638145e+02
-9.066967988435267856e+00,-2.903208199161849468e+00,-3.888632042972079983e+00,8.010230466218279943e-01,1.680977087608944570e-02,-5.983957807208056812e-01,2.888648495964251879e+02
-9.004412592487637923e+00,-3.221927193968823655e+00,-4.161357541571481633e+00,9.429866597446359133e-01,3.207743219650309452e-02,-3.312781276935125585e-01,2.903809911876865613e+02
-8.933468373692965869e+00,-3.524849744895286463e+00,-4.433926071489266540e+00,9.984418138771008477e-01,4.440234749862993768e-02,-3.376945127337916547e-02,2.918971327789479346e+02
-8.854188046449396055e+00,-3.811767987766575327e+00,-4.706053270974857483e+00,9.623011475947070847e-01,5.265384537069009441e-02,2.668371674009193950e-01,2.934132743702093080e+02
-8.766663762084908385e+00,-4.082583734070778014e+00,-4.977422066457837246e+00,8.378801759393996740e-01,5.607494484992718575e-02,5.429644659909178550e-01,2.949294159614706814e+02
-8.670986694672189188e+00,-4.337197932611123186e+00,-5.247715389171029088e+00,9.053473691449666072e-01,4.153717105648690455e-01,-8.837693841807206518e-02,2.964455575527320548e+02
-8.561032251995023046e+00,-4.589871582743470846e+00,-5.532803952551969218e+00,9.286776543665467010e-01,2.644741591311298157e-01,2.600177559940689553e-01,2.980530021474328919e+02
-8.442691416210355015e+00,-4.825171285074142169e+00,-5.816058607249969370e+00,8.176343202152047684e-01,7.530893738781591074e-02,5.707895254430604970e-01,2.996604467421337290e+02
-8.315988251062238490e+00,-5.043176386822733726e+00,-6.097117471805676203e+00,8.013552095783027518e-01,8.840942861104605921e-02,5.916177828636077773e-01,3.012678913368345661e+02
-8.180797539973632126e+00,-5.244353744495061420e+00,-6.375607785296411478e+00,7.843785636195371724e-01,1.014329603648742861e-01,6.119310610452609600e-01,3.028753359315354032e+02
-7.983333576893331340e+00,-5.498737425412488555e+00,-6.754089600033990060e+00,7.667191557192132301e-01,1.143681995938970186e-01,6.317116835716820589e-01,3.050836114631876512e+02
-7.773983553885906339e+00,-5.732613583305376181e+00,-7.127714228574217437e+00,7.483923528909645073e-01,1.272038900111869819e-01,6.509424371525430741e-01,3.072918869948398992e+02
-7.614371509702291263e+00,-5.887278226640826340e+00,-7.392416215758022879e+00,7.272082294775819022e-01,2.877808288508776902e-01,6.231760469776619349e-01,3.088811760806968891e+02
-7.445492187605397660e+00,-6.029370439658994663e+00,-7.652144377953406185e+00,6.863860311150691285e-01,4.405863217104842855e-01,5.785809445638675497e-01,3.104704651665538790e+02
-7.257232560802700405e+00,-6.167438838337329976e+00,-7.920304199595953776e+00,6.270281476763863715e-01,5.814938989485127774e-01,5.183614062676717982e-01,3.121493063977750353e+02
-7.059196881814576940e+00,-6.294867057160585588e+00,-8.181087899165705224e+00,5.507375188343698325e-01,7.066983878799454333e-01,4.441436410853785155e-01,3.138281476289961915e+02
-6.851573941633101406e+00,-6.413166116158639518e+00,-8.433203117063666099e+00,4.595743484960623793e-01,8.128186697754966605e-01,3.579318765760233223e-01,3.155069888602173478e+02
-6.634584079661666856e+00,-6.523893215081249863e+00,-8.675351811529131041e+00,3.560004710560493724e-01,8.969889863980563538e-01,2.620542365403942808e-01,3.171858300914385040e+02
-6.408459568851728960e+00,-6.628603636845271652e+00,-8.906236018506366037e+00,2.428128714745347305e-01,9.569363303133217036e-01,1.590998716937624402e-01,3.188646713226596603e+02
-6.173444609504062264e+00,-6.728850676615663495e+00,-9.124557861839758033e+00,1.230681541355696240e-01,9.910418287851732178e-01,5.184904083901976934e-02,3.205435125538808165e+02
-5.929795323052732492e+00,-6.826185571211694558e+00,-9.329019563433149642e+00,0.000000000000000000e+00,9.983844631533018710e-01,-5.680196945670642344e-02,3.222223537851019728e+02
-5.677779745701902137e+00,-6.922157428644341692e+00,-9.518323453396076772e+00,2.558781471538286167e-01,7.253253641091970128e-01,6.390833200685656079e-01,3.239011950163231290e+02
-5.428427854051904866e+00,-7.014299412864122729e+00,-9.684033935569969387e+00,3.520135077923879363e-01,-5.479992337527160454e-04,9.359936912342581294e-01,3.255105737869507720e+02
-5.171583912557579765e+00,-7.107913798129382066e+00,-9.832843927656677252e+00,2.377208791469192228e-01,-3.335954713963492496e-02,9.707594574510259866e-01,3.271199525575784151e+02
-4.907554255508714824e+00,-7.204168095517458070e+00,-9.963755729222532054e+00,1.197796698475675631e-01,-6.565909467350096451e-02,9.906259203028372484e-01,3.287293313282060581e+02
-4.636663173877813904e+00,-7.304144161433835158e+00,-1.007583658020868533e+01,0.000000000000000000e+00,-9.695091807998966471e-02,9.952881590175949311e-01,3.303387100988337011e+02
-4.359242898951998235e+00,-7.408921406609422888e+00,-1.016815385570654051e+01,-8.509987894250357898e-03,-3.496795025689147796e-01,9.368296673276681474e-01,3.319480888694613441e+02
-4.018296543299235246e+00,-7.542137445927488137e+00,-1.025445603620450719e+01,-0.000000000000000000e+00,9.741290686792523912e-02,9.952430484931311661e-01,3.338834695940711299e+02
-3.670665694141654889e+00,-7.684039760912671824e+00,-1.031544994153504824e+01,-5.002876138499968862e-07,1.047799552704165443e-01,9.944944247921619906e-01,3.358188503186809157e+02
-3.317054907992934787e+00,-7.835793739848041284e+00,-1.035095388379931514e+01,-1.000547674006687248e-06,1.121412563964579723e-01,9.936912692493817811e-01,3.377542310432907016e+02
-3.029063988607227476e+00,-7.965946375696979054e+00,-1.035919560231881142e+01,-1.500752780483266933e-06,1.194964070586005955e-01,9.928336258747513243e-01,3.393072186219453101e+02
-2.737349878013801696e+00,-8.104755690496491027e+00,-1.034754019523562896e+01,-2.000875536336822612e-06,1.268450044071887661e-01,9.919215416668776264e-01,3.408602062005999187e+02
-2.442466273501648466e+00,-8.252597667487622246e+00,-1.031631370084890342e+01,-2.500888549148347577e-06,1.341866459506981801e-01,9.909550665959225846e-01,3.424131937792545273e+02
-2.144969496518758678e+00,-8.409844340384593053e+00,-1.026584228825455369e+01,-3.000764432502508511e-06,1.415209295774781662e-01,9.899342536008967075e-01,3.439661813579091358e+02
-1.845420170218640132e+00,-8.576667922606006300e+00,-1.019649696284203344e+01,-3.500475807467085942e-06,1.488474535774740037e-01,9.888591585867976264e-01,3.455191689365637444e+02
-1.544382986882636422e+00,-8.752844922997702781e+00,-1.010873827149147530e+01,-3.999995304072031407e-06,1.561658166639282030e-01,9.877298404215928418e-01,3.470721565152183530e+02
-1.211273695369028180e+00,-8.957130374173555509e+00,-9.992165149159824011e+00,-3.502422316965690592e-06,1.397076907694424774e-01,9.901917799679643695e-01,3.487856200276899585e+02
-8.779052224127832371e-01,-9.170873455537376984e+00,-9.856445102515262846e+00,-3.003879503240916525e-06,1.232108788686506473e-01,9.923795036719034179e-01,3.504990835401615641e+02
-5.449562394276155075e-01,-9.393547993906761207e+00,-9.702193699989878795e+00,-2.504504894711929159e-06,1.066799484464117931e-01,9.942924059762385802e-01,3.522125470526331696e+02
-2.131011561159654455e-01,-9.624622485238445435e+00,-9.530026660754996826e+00,-2.004436753114909808e-06,9.011947642004634884e-02,9.959299573537451211e-01,3.539260105651047752e+02
1.170196182804251472e-01,-9.863418017907118696e+00,-9.340543028438601070e+00,-1.503813531967476547e-06,7.353404787697578882e-02,9.972917044623560434e-01,3.556394740775763808e+02
4.448309429279346805e-01,-1.010896651845992800e+01,-9.134308344976737715e+00,-1.002773838338385558e-06,5.692825480866876842e-02,9.983772702702270463e-01,3.573529375900479863e+02
7.675199955070396429e-01,-1.035838843077842064e+01,-8.913431235469593261e+00,-5.014563945751669103e-07,4.030669484269473052e-02,9.991863541598587917e-01,3.590543796104893772e+02
1.086868203225232365e+00,-1.061229682151328113e+01,-8.677007169479612259e+00,-0.000000000000000000e+00,2.367396997322678345e-02,9.997187320112477238e-01,3.607558216309307682e+02
1.402363288779044259e+00,-1.086958445701082532e+01,-8.425577577627528569e+00,-1.397055783316173835e-06,7.187711120414867760e-02,9.974124928449421557e-01,3.624572636513721591e+02
1.713501721588780224e+00,-1.112914007239785263e+01,-8.159684010872796378e+00,-2.790857975264785839e-06,1.199128590411113471e-01,9.927834135545265948e-01,3.641587056718135500e+02
2.019726045381847968e+00,-1.138986764004346419e+01,-7.879861070359799768e+00,-4.178160630728307504e-06,1.676693458182651197e-01,9.858422746340248510e-01,3.658601476922549409e+02
2.320361999942539111e+00,-1.165070496795920896e+01,-7.586629337320025535e+00,-5.555732940556940756e-06,2.150353542058634770e-01,9.766052408270334828e-01,3.675615897126963318e+02
2.614680911213876691e+00,-1.191060352979435777e+01,-7.280502434709254622e+00,-6.920366754690576803e-06,2.619005761862849835e-01,9.650938234935905191e-01,3.692630317331377228e+02
2.885102591582350051e+00,-1.215332165704825940e+01,-6.980721980578372232e+00,-8.268884052546042224e-06,3.081558699135882873e-01,9.513348305246798198e-01,3.708643974005989890e+02
3.148325159619066671e+00,-1.239316070500141009e+01,-6.669745048686078093e+00,-9.598144343293023506e-06,3.536935138592630645e-01,9.353603039265966368e-01,3.724657630680602551e+02
3.403724353562106231e+00,-1.262917714314697726e+01,-6.348026809147230942e+00,-1.090505197880413927e-05,3.984074576529799128e-01,9.172074452201836037e-01,3.740671287355215213e+02
3.650682777051319494e+00,-1.286042269371500346e+01,-6.016022508391385415e+00,-1.218656336226641495e-05,4.421935690347786330e-01,8.969185288282288671e-01,3.756684944029827875e+02
3.888589912635205703e+00,-1.308594437034672886e+01,-5.674187465928489438e+00,-1.343969403568235863e-05,4.849498763441216220e-01,8.745408036522104300e-01,3.772698600704440537e+02
4.116842135193371277e+00,-1.330478451682678198e+01,-5.322977071115964520e+00,-1.466152562976871019e-05,5.265768059815530977e-01,8.501263830670016119e-01,3.788712257379053199e+02
4.334842725274526742e+00,-1.351598084587429938e+01,-4.962846779925234486e+00,-1.584921266007864742e-05,5.669774142903172276e-01,8.237321235890635585e-01,3.804725914053665861e+02
4.542001882349912201e+00,-1.371856647799288531e+01,-4.594252111707711528e+00,-1.699998915352857377e-05,6.060576133181894143e-01,7.954194924999823391e-01,3.820739570728278522e+02
4.737793388257144578e+00,-1.391165054439158411e+01,-4.217712445874428617e+00,-1.079476870995449121e-05,6.580670211098091915e-01,7.529580304416703118e-01,3.836753227402891184e+02
4.958573491637939590e+00,-1.413117653729562129e+01,-3.757022330698191137e+00,-4.540889644353970971e-06,7.071098581352692758e-01,7.071022899858621091e-01,3.855974869278406914e+02
5.164565466002629890e+00,-1.433764237428209931e+01,-3.288593298998787162e+00,1.733457279194359904e-06,7.529650576593011069e-01,6.580589805916416957e-01,3.875196511153922643e+02
5.355280258033892515e+00,-1.453009677787750675e+01,-2.813450064539193551e+00,7.999989140413108610e-06,7.954259202489223357e-01,6.060491773184206732e-01,3.894418153029438372e+02
5.500286419879520494e+00,-1.467721088277273900e+01,-2.415166171490204849e+00,6.403024029217899400e-06,8.060669220623603026e-01,5.918227074869062410e-01,3.910340298006260582e+02
5.632062228330896758e+00,-1.481162763618126554e+01,-2.013061264847671339e+00,4.804037914103918422e-06,8.164535101763906733e-01,5.774094437040970806e-01,3.926262442983082792e+02
5.750325037787651361e+00,-1.493316304726789667e+01,-1.608025111580100308e+00,3.203535217060066142e-06,8.265824079014316705e-01,5.628139327685812709e-01,3.942184587959905002e+02
5.854793120554750097e+00,-1.504163082300983412e+01,-1.200947499256158846e+00,1.602020838721043431e-06,8.364504197167073052e-01,5.480407788965814264e-01,3.958106732936727212e+02
5.941509120520946041e+00,-1.513295471721994545e+01,-8.093549891954422426e-01,0.000000000000000000e+00,8.460544322668346329e-01,5.330946422741880131e-01,3.973379658955657874e+02
6.014539084332595209e+00,-1.521145774403551698e+01,-4.175029882125534386e-01,-4.500198171441815304e-02,8.801156381497284853e-01,4.726195987540224297e-01,3.988652584974588535e+02
6.073807227422807209e+00,-1.527721688620858309e+01,-2.628928189375639296e-02,-8.969602795022582620e-02,9.081545716738015361e-01,4.089106216747104838e-01,4.003925510993519197e+02
6.119297140245668842e+00,-1.533039321166133284e+01,3.633619777700469178e-01,-1.337763153254973303e-01,9.299793759668724125e-01,3.424036473737024910e-01,4.019198437012449858e+02
6.150990811573338490e+00,-1.537114749995115837e+01,7.505266488886442877e-01,-1.769412205600329746e-01,9.454407153936259522e-01,2.735537573192554639e-01,4.034471363031380520e+02
6.168868629579074003e+00,-1.539964023331301313e+01,1.134280605647586704e+00,-2.188953843816090761e-01,9.544327972627357770e-01,2.028320640495047678e-01,4.049744289050311181e+02
6.172909382939592682e+00,-1.541603158770675464e+01,1.513699744281306714e+00,-2.593517325437196819e-01,9.568940955529622316e-01,1.307224874439460449e-01,4.065017215069241843e+02
6.163090261956961413e+00,-1.542048142387030296e+01,1.887859989049047726e+00,-2.980334401259320809e-01,9.528077717250643675e-01,5.771844339773678223e-02,4.080290141088172504e+02
6.139386859700311838e+00,-1.541314927837813542e+01,2.255837298214725894e+00,-3.346758256776921070e-01,9.422017897514121110e-01,-1.568053243916106912e-02,4.095563067107103166e+02
6.101773173167101660e+00,-1.539419435470350273e+01,2.616707670024063237e+00,-3.690281622479809620e-01,9.251487245878124988e-01,-8.897220275423541047e-02,4.110835993126033827e+02
6.050221604463597913e+00,-1.536377551428479293e+01,2.969547148679158255e+00,-4.008553929132623317e-01,9.017652654092868092e-01,-1.616550651087414747e-01,4.126108919144964489e+02
5.984702962004892157e+00,-1.532205126759686387e+01,3.313431830312493886e+00,-4.299397390706680144e-01,8.722114170190106153e-01,-2.332317834071389040e-01,4.141381845163895150e+02
5.899645062229092574e+00,-1.526548365192263645e+01,3.670728880674741124e+00,-4.560821904978357155e-01,8.366894049031949887e-01,-3.032125908257297664e-01,4.157720594580900979e+02
5.799592370783093642e+00,-1.519715200971932134e+01,4.016399808588872133e+00,-4.791038669901376834e-01,7.954422914302474723e-01,-3.711186409238522721e-01,4.174059343997906808e+02
5.684505844737303804e+00,-1.511723650008156739e+01,4.349387401942023779e+00,-4.988472422646924587e-01,7.487523126664734630e-01,-4.364852840170240222e-01,4.190398093414912637e+02
5.554344496270294584e+00,-1.502591680730449752e+01,4.668634542470279314e+00,-5.151772217625080197e-01,6.969389471894419374e-01,-4.988652464037193202e-01,4.206736842831918466e+02
5.409257799494813668e+00,-1.492345846293926392e+01,4.973185311342847470e+00,-5.681957126161853999e-01,6.230661302499580501e-01,-5.375316079085770138e-01,4.223075592248924295e+02
5.249777212589041397e+00,-1.481030114062028069e+01,5.262286093996979552e+00,-6.156667642967724730e-01,5.431101497251955568e-01,-5.709499107684880004e-01,4.239414341665930124e+02
5.076622440156863370e+00,-1.468697526374878493e+01,5.535284487950606902e+00,-6.571269065469317328e-01,4.578516275391598667e-01,-5.987938842809896745e-01,4.255753091082935953e+02
4.890508572451241598e+00,-1.455401663300018100e+01,5.791528209867752075e+00,-6.921713524692629793e-01,3.681229551241498865e-01,-6.207916790129798246e-01,4.272091840499941782e+02
4.674682640545837486e+00,-1.439940656870790825e+01,6.051428961723804179e+00,-7.204579504794573763e-01,2.748001677240154428e-01,-6.367285209645100474e-01,4.289872703554020745e+02
4.446537811908997995e+00,-1.423544369934550247e+01,6.291826373915442083e+00,-7.417105250026219121e-01,1.787943925582588245e-01,-6.464488087153568152e-01,4.307653566608099709e+02
4.207261733156529182e+00,-1.406267733245953799e+01,6.512591017904819424e+00,-7.557215732818343135e-01,8.104295423909811669e-02,-6.498576330579053373e-01,4.325434429662178673e+02
3.964476254370466357e+00,-1.388624694450045105e+01,6.708688194881269773e+00,-7.892990921432009588e-03,0.000000000000000000e+00,-9.999678498306658891e-01,4.342762899229354048e+02
3.713451544980363561e+00,-1.370221688011221062e+01,6.885916511954179420e+00,-0.000000000000000000e+00,2.371197228088373077e-02,-9.997178313374158742e-01,4.360091368796529423e+02
3.455874566064350617e+00,-1.351087196738905050e+01,7.044682231715864162e+00,1.017160160702960947e-01,2.348664000973806412e-02,-9.945351827950433821e-01,4.377419838363704798e+02
3.215945014081262432e+00,-1.332929262469794018e+01,7.173545343345807623e+00,2.023769254888511948e-01,2.301767894880241486e-02,-9.790361415631155806e-01,4.393273710104307952e+02
2.973454638311234355e+00,-1.314134074324245915e+01,7.286516254389396430e+00,3.009385665035297364e-01,2.230995364090008690e-02,-9.533814793463308845e-01,4.409127581844911106e+02
2.730106432233035729e+00,-1.294713016786590920e+01,7.384082553747689737e+00,3.963785527424660837e-01,2.137080533217772596e-02,-9.178373121672681600e-01,4.424981453585514259e+02
2.487602454392121576e+00,-1.274678737852288712e+01,7.466731937619512038e+00,4.877068782996384355e-01,2.020997582644189564e-02,-8.727723401537370584e-01,4.440835325326117413e+02
2.247643793171191895e+00,-1.254045148492961559e+01,7.534952206101657168e+00,5.739761870034990610e-01,1.883950643865978103e-02,-8.186540232302628173e-01,4.456689197066720567e+02
2.011930531572638348e+00,-1.232827422106058890e+01,7.589231259788593142e+00,6.542915993586569945e-01,1.727361309614600798e-02,-7.560437323992711400e-01,4.472543068807323721e+02
1.782161712013291766e+00,-1.211041993949196716e+01,7.630057096371428038e+00,7.278199952312541798e-01,1.552853888238920135e-02,-6.855909268817509394e-01,4.488396940547926874e+02
1.560035301131217800e+00,-1.188706560559199410e+01,7.657917807236051644e+00,7.937986559860376046e-01,1.362238555245318464e-02,-6.080264174913307951e-01,4.504250812288530028e+02
1.501890090323318772e+00,-1.182483948131294405e+01,7.662082695123122456e+00,8.515431764195373621e-01,1.157492576706866533e-02,-5.241547860960874550e-01,4.508570014242857837e+02
1.271956006863598887e+00,-1.156133296483464079e+01,7.665394571113001376e+00,9.004545644010584216e-01,9.407397992644049925e-03,-4.348460397805677946e-01,4.526471057173492909e+02
1.054980289703643326e+00,-1.129204323847668512e+01,7.654987375723676379e+00,9.400254545536140816e-01,7.142286194382637884e-03,-3.410265862651288282e-01,4.544372100104127981e+02
8.527239133345410060e-01,-1.101724055781489220e+01,7.631089216101150541e+00,9.698453714936062786e-01,4.803086607617760607e-03,-2.436696241878874569e-01,4.562273143034763052e+02
6.668115173006839980e-01,-1.073723234862527676e+01,7.593783457459576169e+00,9.896049880060168169e-01,2.414064006711860288e-03,-1.437850479324520037e-01,4.580174185965398124e+02
4.987984701909035090e-01,-1.045235075823802617e+01,7.543081153188007093e+00,9.990993339589759881e-01,0.000000000000000000e+00,-4.240897172842179180e-02,4.598075228896033195e+02
3.337289659057395275e-01,-1.013050717318538751e+01,7.471816415228107466e+00,9.990993332535061944e-01,-0.000000000000000000e+00,-4.240897169847657883e-02,4.617980492884489081e+02
1.921958098057142961e-01,-9.804054809492967593e+00,7.385777917198144138e+00,5.299993955616641179e-04,-0.000000000000000000e+00,-9.999988595503095379e-01,4.637885756872944967e+02
7.535466890363459735e-02,-9.473736460168433737e+00,7.285295266857001906e+00,7.566728811008494038e-01,8.225587836747591530e-02,-6.485970409135887182e-01,4.657791020861400852e+02
-6.247090063681784086e-03,-9.177525472105385163e+00,7.183522274099507499e+00,7.561826312730529631e-01,5.392490214792167169e-02,-6.521333706066914093e-01,4.675486979039659445e+02
-6.551162385331542326e-02,-8.879667009453555693e+00,7.069693593238087104e+00,7.550757964904738495e-01,2.554995927611568990e-02,-6.551379557806323861e-01,4.693182937217918038e+02
