3.479963152423925177e+00,1.290457998045555144e+01,-1.007790374555295010e+01,-4.013273965962690371e-01,1.015009832736075285e-01,9.102921899792500993e-01,9.193093756150679496e+01
3.815420535411190972e+00,1.278684744439285659e+01,-9.489365327512883752e+00,-4.541757867598858467e-01,1.209187072024037607e-01,8.826669932488763193e-01,9.351973800189742292e+01
4.136327593773479805e+00,1.266804848740630440e+01,-8.867412877252016656e+00,-5.052378313063671245e-01,1.398608386512625312e-01,8.515701260789159122e-01,9.510853844228805087e+01
4.439016869117834219e+00,1.254557781530920835e+01,-8.216768262464880124e+00,-5.543126961982601797e-01,1.582528756244896972e-01,8.171238964755642709e-01,9.669733888267867883e+01
4.719792061894181323e+00,1.241685120778625162e+01,-7.542153551571488812e+00,-6.012073630482207554e-01,1.760224796629284438e-01,7.794637857343128529e-01,9.828613932306930678e+01
4.974928084590003685e+00,1.227930566384291211e+01,-6.848290980672651962e+00,-6.457373882407045906e-01,1.930997603428957488e-01,7.387379156269492375e-01,9.987493976345993474e+01
5.200671115232785802e+00,1.213039954702961332e+01,-6.139902920504417771e+00,-6.877276283389794909e-01,2.094175501501162051e-01,6.951064658809584795e-01,1.014637402038505627e+02
5.393238651199905753e+00,1.196761273043930984e+01,-5.421711843391793906e+00,-7.270129289257662997e-01,2.249116686481305305e-01,6.487410442400828314e-01,1.030525406442411906e+02
5.572645820657633031e+00,1.174353269239556496e+01,-4.534620970133733664e+00,-9.246034767262547582e-01,-1.743419773614379165e-01,3.386905457147098009e-01,1.050000257257920424e+02
5.679380175078409643e+00,1.148839296490534068e+01,-3.648073751513598584e+00,-8.498265231567917466e-01,-5.222387069684532035e-01,-7.113096008795406766e-02,1.069475108073428942e+02
5.713292795703262428e+00,1.123314931445408327e+01,-2.856406380721219218e+00,-9.225027107052581332e-01,-3.820525499434559435e-01,-5.497815768559451838e-02,1.087028936583431147e+02
5.690179931215132214e+00,1.095734506986738666e+01,-2.076919625293923932e+00,-9.719364694593536358e-01,-2.322406754257876627e-01,-3.744019247301075964e-02,1.104582765093433352e+02
5.609857430499743280e+00,1.066398930587883953e+01,-1.314152478773219723e+00,-9.968823582192178900e-01,-7.657756097871246115e-02,-1.895892997445768405e-02,1.122136593603435557e+02
5.472173708345820842e+00,1.035609199903649191e+01,-5.726437918045276243e-01,-9.967118863751273095e-01,8.101490948214877530e-02,-0.000000000000000000e+00,1.139690422113437762e+02
5.278103595929936276e+00,1.003700720718269146e+01,1.439003648689700099e-01,-9.932567570293234782e-01,8.139880434615835714e-02,-8.254240890503737604e-02,1.157244250623439967e+02
5.070498201788739223e+00,9.756343811321492865e+00,7.412674285018081566e-01,-9.830223045673989191e-01,8.122712403018601812e-02,-1.645214364331784862e-01,1.172373069545191839e+02
4.831104256680535336e+00,9.473597477973671133e+00,1.320677958822736420e+00,-9.660783830276251649e-01,8.050104033451617458e-02,-2.453775465544107415e-01,1.187501888466943711e+02
4.562338260360908393e+00,9.191158184704960377e+00,1.881465325205613714e+00,-9.425406411065262446e-01,7.922550907238744278e-02,-3.245588676588880839e-01,1.202630707388695583e+02
4.266639935584493948e+00,8.911402659915330204e+00,2.422963015205956250e+00,-9.125697327805535330e-01,7.740923624233604639e-02,-4.015249593220102109e-01,1.217759526310447455e+02
3.946472196196214810e+00,8.636694271752194396e+00,2.944504638785424788e+00,-8.763702207390996479e-01,7.506461860316120116e-02,-4.757505010370863263e-01,1.232888345232199327e+02
3.604321115000130860e+00,8.369382917152380585e+00,3.445423932535730760e+00,-8.341891801169368792e-01,7.220765905738532608e-02,-5.467288777362185881e-01,1.248017164153951200e+02
3.242695891406086162e+00,8.111804911013761554e+00,3.925054763901939303e+00,-7.863145120595614879e-01,6.885785742101434292e-02,-6.139756376252964998e-01,1.263145983075703072e+02
2.864128818854336345e+00,7.866282875497378591e+00,4.382731135405151690e+00,-7.330729786357232936e-01,6.503807732543331888e-02,-6.770317987314022901e-01,1.278274801997454944e+02
2.471175252018340096e+00,7.635125629461003705e+00,4.817787188864541825e+00,-6.748279725133988771e-01,6.077439016019298840e-02,-7.354669815944707700e-01,1.293403620919206674e+02
2.066413573785887525e+00,7.420628078024971153e+00,5.229557209618731051e+00,-6.119770366256332972e-01,5.609589712214067131e-02,-7.888823467226213637e-01,1.308532439840958546e+02
1.652445162018762792e+00,7.225071102271176215e+00,5.617375630746475501e+00,-5.449491507587007622e-01,5.103453058575693757e-02,-8.369133167640062654e-01,1.323661258762710418e+02
1.231894356091114195e+00,7.050721449076121417e+00,5.980577037286654019e+00,-4.742018035852761937e-01,4.562483615065762027e-02,-8.792320648181624065e-01,1.338790077684462290e+02
8.074084232067220146e-01,6.899831621078881483e+00,6.318496170457530425e+00,-4.002178701289689777e-01,3.990373685404841747e-02,-9.155497519066165824e-01,1.353918896606214162e+02
3.816575244953567259e-01,6.774639766784869899e+00,6.630467931875267951e+00,-3.235023159736916676e-01,3.391028115758249611e-02,-9.456184983349567030e-01,1.369047715527966034e+02
-4.266531911158875229e-02,6.677369570806281018e+00,6.915827387771686041e+00,-2.445787507129186800e-01,2.768537642874062746e-02,-9.692330754950132521e-01,1.384176534449717906e+02
-4.628442612260021405e-01,6.610230144240076378e+00,7.173909773211241792e+00,-1.639858541619299004e-01,2.127150973578075324e-02,-9.862323065638125552e-01,1.399305353371469778e+02
-8.761406645683008643e-01,6.575415915184406934e+00,7.404050496307193363e+00,-8.227369972366822826e-02,1.471245786181720958e-02,-9.965001665425308186e-01,1.414434172293221650e+02
-1.293799306237240820e+00,6.576432528997026239e+00,7.611701828785021995e+00,-0.000000000000000000e+00,8.052988517103476865e-03,-9.999665741302532496e-01,1.430104589938938489e+02
-1.697257006904361765e+00,6.617788728539132137e+00,7.788208458133305534e+00,1.984795552643255426e-02,-2.502312411574146231e-02,-9.994888203086398359e-01,1.445775007584655327e+02
-2.082460836299347307e+00,6.700635240725971720e+00,7.937029711249317998e+00,3.966637210066471797e-02,-5.806199530753911042e-02,-9.975236255981020372e-01,1.461445425230372166e+02
-2.445070791238224128e+00,6.825659383368984479e+00,8.063032986181097428e+00,5.942575608357240219e-02,-9.101445682225073330e-02,-9.940739148395347780e-01,1.477115842876089005e+02
-2.780738649701559151e+00,6.993524223998514699e+00,8.171085836257097057e+00,7.909670170042037984e-02,-1.238314690392284950e-01,-9.891448220846599249e-01,1.492786260521805843e+02
-3.085108030271885404e+00,7.204868538881563644e+00,8.266055936940544413e+00,9.864993479936944032e-02,-1.564641939287245986e-01,-9.827436829527518292e-01,1.508456678167522682e+02
-3.355216130533841490e+00,7.459474349608287369e+00,8.351714447168802735e+00,1.180563564139884697e-01,-1.888640677271934687e-01,-9.748800237121687529e-01,1.524127095813239521e+02
-3.590907289958572779e+00,7.755445040259979272e+00,8.429639378159302865e+00,1.372870860649880176e-01,-2.209828732043121191e-01,-9.655655471025326175e-01,1.539797513458956360e+02
-3.793449074876798388e+00,8.090053682373085309e+00,8.500312188177911565e+00,1.563135047367802954e-01,-2.527728114142484550e-01,-9.548141149186625265e-01,1.555467931104673198e+02
-3.964136501732167694e+00,8.460580863033150933e+00,8.564214384774052391e+00,1.751072974649543479e-01,-2.841865728244751810e-01,-9.426417273821817711e-01,1.571138348750390037e+02
-4.104292017452201513e+00,8.864314820911861403e+00,8.621827521501188585e+00,1.936404954713352999e-01,-3.151774077163534971e-01,-9.290664993314886599e-01,1.586808766396106876e+02
-4.215973478841664956e+00,9.302487416142152910e+00,8.674026963251916911e+00,2.118855177839669979e-01,-3.456991957527928983e-01,-9.141086332655016244e-01,1.602612433546739510e+02
-4.299160115476448496e+00,9.769154711349761655e+00,8.720768041855562203e+00,2.298152122801234709e-01,-3.757065146095286412e-01,-8.977903892812639786e-01,1.618416100697372144e+02
-4.355305293565130853e+00,1.026153627648662159e+01,8.762549022019364031e+00,2.474028960913110531e-01,-4.051547075679520216e-01,-8.801360519501076896e-01,1.634219767848004778e+02
-4.385890910706935486e+00,1.077686023319333941e+01,8.799868202697208375e+00,2.646223953101696225e-01,-4.339999499689659035e-01,-8.611718941816207673e-01,1.650023434998637413e+02
-4.392427373750810382e+00,1.131236339747701081e+01,8.833223913638173386e+00,2.814480839402158652e-01,-4.621993144290285072e-01,-8.409261381291346371e-01,1.665827102149270047e+02
-4.376453576355872954e+00,1.186529142229526812e+01,8.863114511934888640e+00,2.978549220304967937e-01,-4.897108347213858237e-01,-8.194289131948488958e-01,1.681630769299902681e+02
-4.339536876253337283e+00,1.243289894004530005e+01,8.890038378571762934e+00,3.138184929384293942e-01,-5.164935682274721662e-01,-7.967122111970159626e-01,1.697434436450535316e+02
-4.283273072210089794e+00,1.301244970495662301e+01,8.914493914973093069e+00,3.293150396653934386e-01,-5.425076568655753384e-01,-7.728098387658244306e-01,1.713238103601167950e+02
-4.209286380694022611e+00,1.360121673538634468e+01,8.936979539551057172e+00,3.443215002110234235e-01,-5.677143864061273693e-01,-7.477573670387459570e-01,1.729041770751800584e+02
-4.119229412241290689e+00,1.419648245601571723e+01,8.957993684253622746e+00,3.588155418935968788e-01,-5.920762440853672981e-01,-7.215920787301187689e-01,1.744845437902433218e+02
-4.014828427370006558e+00,1.479555082649919306e+01,8.977781199172516935e+00,3.246281171674334498e-01,-5.986529165201547320e-01,-7.322767721886745962e-01,1.760649105053065853e+02
-3.897928421376620545e+00,1.539575981378967207e+01,8.996079758907374213e+00,2.900101731225198654e-01,-6.044356563979763619e-01,-7.419903212044393070e-01,1.776452772203698487e+02
-3.770447562674865249e+00,1.599447006209400435e+01,9.012373456322128717e+00,2.550076198428287699e-01,-6.094167948162900750e-01,-7.507198438957448650e-01,1.792256439354331121e+02
-3.634331800441449101e+00,1.658905321772568087e+01,9.026146398057559139e+00,2.196668774511796596e-01,-6.135897259369349488e-01,-7.584537633741678109e-01,1.808060106504963755e+02
-3.491554836919045446e+00,1.717689206820232783e+01,9.036882708103934903e+00,1.840348145503888921e-01,-6.169489157450080974e-01,-7.651818230952986966e-01,1.823863773655596390e+02
-3.350758469963763808e+00,1.773013115788857874e+01,9.043909834431264727e+00,1.481586860699484753e-01,-6.194899093865237072e-01,-7.708951004587510925e-01,1.838965192883133568e+02
-3.207500576162507944e+00,1.827302597333980572e+01,9.047405874357133726e+00,1.120860706006303470e-01,-6.212093370751726740e-01,-7.755860186394252231e-01,1.854066612110670746e+02
-3.063494529113452991e+00,1.880342198417946165e+01,9.046940759754784622e+00,7.586480730007495732e-02,-6.221049185603583220e-01,-7.792483566343660906e-01,1.869168031338207925e+02
-2.920475725531033628e+00,1.931917396903803308e+01,9.042084447456169016e+00,3.954293245298649839e-02,-6.221754661505991546e-01,-7.818772575119012913e-01,1.884269450565745103e+02
-2.780201563075021642e+00,1.981814612100697204e+01,9.032406921971428915e+00,3.168615770015761716e-03,-6.214208862882928397e-01,-7.834692348521394845e-01,1.899370869793282282e+02
-2.644451417967965234e+00,2.029821215300327708e+01,9.017478198208213058e+00,-3.320990349024550287e-02,-6.198421796737618727e-01,-7.840221773702942265e-01,1.914472289020819460e+02
-2.515026622401108636e+00,2.075725540304389938e+01,8.996868324190872457e+00,-6.954438049149828938e-02,-6.174414399384111629e-01,-7.835353517167061854e-01,1.929573708248356638e+02
-2.393750441728916822e+00,2.119316893942911761e+01,8.970147383779501382e+00,-1.057866287974185415e-01,-6.142218508687596890e-01,-7.820094034498509261e-01,1.944675127475893817e+02
-2.282468051452329671e+00,2.160385566583402905e+01,8.936885499388793619e+00,-1.418885842719944945e-01,-6.101876821850156229e-01,-7.794463561810346386e-01,1.959776546703430995e+02
-2.183046513990883231e+00,2.198722842630736096e+01,8.896652834706729962e+00,-1.778023688178317352e-01,-6.053442838797847836e-01,-7.758496088919047962e-01,1.974877965930968173e+02
-2.097374755243809119e+00,2.234121011017671421e+01,8.849019597413057880e+00,-2.134803538679444779e-01,-5.996980791244060915e-01,-7.712239314283174663e-01,1.989979385158505352e+02
-2.027363540940260833e+00,2.266373375685947167e+01,8.793556041897575781e+00,-2.488752235468845997e-01,-5.932565557523028499e-01,-7.655754581765170652e-01,2.005080804386042530e+02
-1.974945452778780197e+00,2.295274266057844414e+01,8.729832471978181019e+00,-2.839400374174871344e-01,-5.860282563306241643e-01,-7.589116799299936433e-01,2.020182223613579708e+02
-1.942074864356151842e+00,2.320619047498152554e+01,8.657419243618699412e+00,-3.186282927300625456e-01,-5.780227668333187685e-01,-7.512414339577758726e-01,2.035283642841116887e+02
-1.930727916885764062e+00,2.342204131766442288e+01,8.575886767646453634e+00,-3.528939860915203397e-01,-5.692507039306371475e-01,-7.425748922873004476e-01,2.050385062068654065e+02
-1.942902494705618155e+00,2.359826987459568315e+01,8.484805512469586475e+00,-3.866916744726696109e-01,-5.597237009118894990e-01,-7.329235482173624971e-01,2.065486481296191243e+02
-1.980618200576123256e+00,2.373286150444320342e+01,8.383746006794089212e+00,-4.199765354728211553e-01,-5.494543922600975128e-01,-7.223002010789976168e-01,2.080587900523728422e+02
-2.050926334128932549e+00,2.382717789948032916e+01,8.264040055044098665e+00,-2.042315232335925046e-01,-5.918490498460435845e-01,-7.797449500413348167e-01,2.096707596792464301e+02
-2.151179628711937575e+00,2.386821882132272066e+01,8.131422022993634258e+00,2.206062339442155240e-02,-6.036787175315465603e-01,-7.969211597742492659e-01,2.112827293061200180e+02
-2.277755122061281501e+00,2.385578387373023546e+01,7.985635557032336962e+00,2.472134941618859549e-01,-5.843324823401598866e-01,-7.729418078919988444e-01,2.128946989329936059e+02
-2.427033445289885183e+00,2.378965119919737958e+01,7.826424398326200738e+00,4.595995113955018141e-01,-5.348094314391391713e-01,-7.090452462074303686e-01,2.145066685598671938e+02
-2.595398878980602841e+00,2.366957749777137110e+01,7.653532384665877153e+00,4.898930715208476006e-01,-5.554896580358100744e-01,-6.718883972000754268e-01,2.161186381867407817e+02
-2.779871786143703449e+00,2.349589822736647449e+01,7.467047438464341269e+00,5.188511784169956842e-01,-5.746556147585337726e-01,-6.328999755749415979e-01,2.177306078136143697e+02
-2.978732298297442238e+00,2.327013269076406843e+01,7.267745552275512999e+00,5.463948923180587114e-01,-5.922550552637985133e-01,-5.921862639104329418e-01,2.193425774404879576e+02
-3.190874858912026824e+00,2.299439114871542955e+01,7.056746797055579279e+00,5.724491290741240412e-01,-6.082400035056096943e-01,-5.498582478773602622e-01,2.209545470673615455e+02
-3.415171496152449304e+00,2.267077698327121738e+01,6.835171327945301023e+00,5.969428648232683043e-01,-6.225668845130326590e-01,-5.060313137003565886e-01,2.225665166942351334e+02
-3.636777204552561038e+00,2.232442218302478665e+01,6.617551873818852570e+00,6.198093295961850657e-01,-6.351966431714870520e-01,-4.608249336246611483e-01,2.240880029226550221e+02
-3.866773576291051118e+00,2.194127714423400022e+01,6.392868385524243635e+00,6.409861893259185539e-01,-6.460948506841963646e-01,-4.143623402455346438e-01,2.256094891510749108e+02
-4.104213517693994007e+00,2.152299510078479372e+01,6.162010133358799990e+00,6.604157157666824540e-01,-6.552317984236558646e-01,-3.667701905877965296e-01,2.271309753794947994e+02
-4.348133198684910106e+00,2.107122380042238063e+01,5.925866427190205066e+00,6.780449438586830802e-01,-6.625825789173264146e-01,-3.181782208508845966e-01,2.286524616079146881e+02
-4.597552066801393167e+00,2.058760542407503991e+01,5.685326610750344400e+00,6.938258161100365751e-01,-6.681271537467924349e-01,-2.687188927602726651e-01,2.301739478363345768e+02
-4.851472861374634071e+00,2.007377650523505253e+01,5.441280055928987558e+00,7.077153136022346080e-01,-6.718504081752655344e-01,-2.185270324889586613e-01,2.316954340647544655e+02
-5.108881627871782349e+00,1.953136784939751536e+01,5.194616157067337703e+00,7.196755732620272461e-01,-6.737421923544560931e-01,-1.677394631329913177e-01,2.332169202931743541e+02
-5.368747732401038419e+00,1.896200445355764330e+01,4.946224325251462162e+00,7.296739910799986406e-01,-6.737973489983849484e-01,-1.164946317425855221e-01,2.347384065215942428e+02
-5.630023876379404157e+00,1.836730542576724190e+01,4.696993982605653706e+00,7.376833109943747857e-01,-6.720157274485697441e-01,-6.493223192523900344e-02,2.362598927500141315e+02
-5.891646111363013638e+00,1.774888390475096145e+01,4.447814556585736767e+00,7.436816991976447078e-01,-6.684021840920901791e-01,-1.319282304935810723e-02,2.377813789784340202e+02
-6.152533854039961447e+00,1.710834697958299344e+01,4.199575474272339903e+00,7.476528036632843488e-01,-6.629665691312067732e-01,3.858255291379712737e-02,2.393028652068539088e+02
-6.411589901385521983e+00,1.644729560942488789e+01,3.953166156664182029e+00,7.495857987301239866e-01,-6.557236997404047862e-01,9.025275586556300023e-02,2.408243514352737975e+02
-6.667700445979701129e+00,1.576732454332508304e+01,3.709476012971375525e+00,7.494754146226160207e-01,-6.466933196838168252e-01,1.416769323247953627e-01,2.423458376636936862e+02
-6.919735091487020817e+00,1.507002224008085989e+01,3.469394434908796399e+00,7.473219518262993466e-01,-6.359000455028863685e-01,1.927148993935589305e-01,2.438673238921135749e+02
-7.166546868298437012e+00,1.435697078816331640e+01,3.233810790989534834e+00,7.431312802790274175e-01,-6.233732994207302758e-01,2.432275268969542326e-01,2.453888101205334635e+02
-7.406972249335326275e+00,1.362974582570603133e+01,3.003614420818456754e+00,7.369148233799113212e-01,-6.091472291458790433e-01,2.930771166553703955e-01,2.469102963489533522e+02
-7.639831166015435215e+00,1.288991646055805695e+01,2.779694629385908389e+00,7.286895268593145403e-01,-5.932606147937857788e-01,3.421277778552244686e-01,2.484317825773732409e+02
-7.863927024380709341e+00,1.213904519040191410e+01,2.562940681361586925e+00,9.955207354021456956e-01,9.453287991603503970e-02,0.000000000000000000e+00,2.499532688057931296e+02
-8.085148747243406930e+00,1.135277196592333659e+01,2.346983470377897341e+00,9.913008634114531814e-01,1.316077436555698199e-01,0.000000000000000000e+00,2.515261591115538238e+02
-8.295065896590717358e+00,1.055808875911413303e+01,2.138871012448979592e+00,9.857007492619630495e-01,1.684993557698928335e-01,0.000000000000000000e+00,2.530990494173145180e+02
-8.493473985802193482e+00,9.757092100362058318e+00,1.937548492346734985e+00,9.787281891584446170e-01,2.051563592407236736e-01,0.000000000000000000e+00,2.546719397230752122e+02
-8.680145586309087946e+00,8.951877245001414352e+00,1.741961048238078291e+00,9.703928888839234990e-01,2.415277234467198553e-01,0.000000000000000000e+00,2.562448300288359064e+02
-8.854830331043217484e+00,8.144538058705240502e+00,1.551053778923790372e+00,9.769128538952149832e-01,2.136335083477470254e-01,0.000000000000000000e+00,2.578177203345965722e+02
-9.017254918125972907e+00,7.337166902892438003e+00,1.363771751077576422e+00,9.826311646046371751e-01,1.855639898862600778e-01,0.000000000000000000e+00,2.593906106403572380e+02
-9.167123114797387728e+00,6.531854520150853105e+00,1.179060006485288303e+00,9.875431292009232420e-01,1.573422001971287454e-01,0.000000000000000000e+00,2.609635009461179038e+02
-9.304115761585254774e+00,5.730689919677292465e+00,9.958635692842765508e-01,9.916447173610906107e-01,1.289912963135745883e-01,0.000000000000000000e+00,2.625363912518785696e+02
-9.427890776714296095e+00,4.935760262735454873e+00,8.131274532028315294e-01,9.949325635558181613e-01,1.005345411835595754e-01,0.000000000000000000e+00,2.641092815576392354e+02
-9.538083160755336465e+00,4.149150748132777622e+00,6.297966687996828794e-01,9.974039698086810679e-01,7.199528459899393051e-02,0.000000000000000000e+00,2.656821718633999012e+02
-9.632988238432218964e+00,3.385397543703172030e+00,4.478671931940583772e-01,9.990569079092538329e-01,4.339694405382944764e-02,0.000000000000000000e+00,2.672294485174402894e+02
-9.714256906228962762e+00,2.633502522193437834e+00,2.633793850142244763e-01,9.998900210782709630e-01,1.476298554660309542e-02,0.000000000000000000e+00,2.687767251714806775e+02
-9.781612713869190401e+00,1.895447520180026935e+00,7.554836999052083613e-02,8.808491902946983254e-01,2.673097542801564433e-02,-4.726395655342977564e-01,2.703240018255210657e+02
-9.835016002214080899e+00,1.173283319350326925e+00,-1.160046551796913294e-01,8.586017000741579253e-01,2.421703666549421610e-02,-5.120689951201196077e-01,2.718712784795614539e+02
-9.874533984032114020e+00,4.690958747839646392e-01,-3.114554447032421569e-01,8.345889668483753576e-01,2.165330910737599257e-02,-5.504456291208008611e-01,2.734185551336018420e+02
-9.900211311553420046e+00,-2.150284204541016708e-01,-5.109797269102690498e-01,8.088603593861364294e-01,1.904506358068168773e-02,-5.876905687226433583e-01,2.749658317876422302e+02
-9.912070075143599723e+00,-8.770028462116711276e-01,-7.147532030854862883e-01,7.814687739147881951e-01,1.639766242822902897e-02,-6.237272417184045459e-01,2.765131084416826184e+02
-9.910109802206166663e+00,-1.514740466152485698e+00,-9.229515462995903086e-01,7.524705253870281885e-01,1.371654848636694700e-02,-6.584815598936918368e-01,2.780603850957230065e+02
-9.893971263095158619e+00,-2.132459582224440542e+00,-1.138103771971560985e+00,7.219252317248031625e-01,1.100723389739487364e-02,-6.918820713095650277e-01,2.796243950274525218e+02
-9.863462666475657059e+00,-2.720812531145623492e+00,-1.358190731970873033e+00,6.898956912776850192e-01,8.275288779613358681e-03,-7.238601071689310107e-01,2.811884049591820371e+02
-9.818757408322017710e+00,-3.277831444203788802e+00,-1.583534086859263779e+00,6.564477537470857493e-01,5.526329778247112551e-03,-7.543499229654547777e-01,2.827524148909115524e+02
-9.760497940461375421e+00,-3.801968246431508103e+00,-1.814732168570863946e+00,6.216501848410274089e-01,2.766008520725274887e-03,-7.832888336253912565e-01,2.843164248226410677e+02
-9.692105888260400093e+00,-4.277919472055084604e+00,-2.045035294180455487e+00,5.855745249369939120e-01,0.000000000000000000e+00,-8.106173423649849497e-01,2.858325664139024411e+02
-9.612972824498454472e+00,-4.721511418604706911e+00,-2.281993315151784163e+00,8.010230466218279943e-01,1.680977087608944570e-02,-5.983957807208056812e-01,2.873487080051638145e+02
-9.523842287623459413e+00,-5.131550317985979603e+00,-2.526256658139229394e+00,9.429866597446359133e-01,3.207743219650309452e-02,-3.312781276935125585e-01,2.888648495964251879e+02
-9.425445062310979338e+00,-5.506838143057919410e+00,-2.778475703209555281e+00,9.984418138771008477e-01,4.440234749862993768e-02,-3.376945127337916547e-02,2.903809911876865613e+02
-9.318792408674950067e+00,-5.846471139417618978e+00,-3.039258060757045854e+00,9.623011475947070847e-01,5.265384537069009441e-02,2.668371674009193950e-01,2.918971327789479346e+02
-9.205473390761756747e+00,-6.150136213072554092e+00,-3.309125848691178096e+00,8.378801759393996740e-01,5.607494484992718575e-02,5.429644659909178550e-01,2.934132743702093080e+02
-9.087367768300232740e+00,-6.417809281285911105e+00,-3.588558408042790582e+00,9.053473691449666072e-01,4.153717105648690455e-01,-8.837693841807206518e-02,2.949294159614706814e+02
-8.966354782054226646e+00,-6.649455739680624866e+00,-3.878035018842873161e+00,9.360722153546453539e-01,3.202522752089287938e-01,1.456203552547300495e-01,2.964455575527320548e+02
-8.836965003954242448e+00,-6.854418433286928902e+00,-4.196817771008124254e+00,9.061895982315796294e-01,2.043976334009164064e-01,3.701891672065157901e-01,2.980530021474328919e+02
-8.708664861681674196e+00,-7.016292490239862012e+00,-4.528747599719030070e+00,8.176343202152047684e-01,7.530893738781591074e-02,5.707895254430604970e-01,2.996604467421337290e+02
-8.582974071118847803e+00,-7.135770685712913064e+00,-4.874912738387055633e+00,7.843785636195371724e-01,1.014329603648742861e-01,6.119310610452609600e-01,3.012678913368345661e+02
-8.459717908878113590e+00,-7.215092970666985295e+00,-5.237367049401389529e+00,7.483923528909645073e-01,1.272038900111869819e-01,6.509424371525430741e-01,3.028753359315354032e+02
-8.291841771263646521e+00,-7.252970375807959336e+00,-5.773575526810234670e+00,0.000000000000000000e+00,9.983844631533018710e-01,-5.680196945670642344e-02,3.050836114631876512e+02
-8.120965887560242180e+00,-7.209275717981411091e+00,-6.365837160375896531e+00,4.081438505715209025e-02,9.978246683405279649e-01,5.175052872767943457e-02,3.072918869948398992e+02
-7.993606809874483687e+00,-7.139805624149220264e+00,-6.825026512366215492e+00,8.107982391399500000e-02,9.838443326184724835e-01,1.596069902250729367e-01,3.088811760806968891e+02
-7.861236734855428843e+00,-7.049484766544058978e+00,-7.306486757330599602e+00,1.202547528576992514e-01,9.566314911224695905e-01,2.653167627726186195e-01,3.104704651665538790e+02
-7.714306508436054699e+00,-6.934833044999674456e+00,-7.836823329639702962e+00,1.578122758224531907e-01,9.165521556103991552e-01,3.674580678744239770e-01,3.121493063977750353e+02
-7.558749193584769266e+00,-6.803349536497759864e+00,-8.383806575535452055e+00,1.932472512690127098e-01,8.641453910704877117e-01,4.646571240916265721e-01,3.138281476289961915e+02
-7.393587153572504178e+00,-6.658316690079366218e+00,-8.939392461298851345e+00,2.260830863773561072e-01,8.001160645898474089e-01,5.556066245465611786e-01,3.155069888602173478e+02
-7.217879686782706194e+00,-6.503022645164666216e+00,-9.495536885849388042e+00,2.558781471538286167e-01,7.253253641091970128e-01,6.390833200685656079e-01,3.171858300914385040e+02
-7.030723041276718099e+00,-6.340761034959919051e+00,-1.004419574360495737e+01,2.822316982334162616e-01,6.407792146972540737e-01,7.139644714727254593e-01,3.188646713226596603e+02
-6.831410827442339517e+00,-6.175046917192099194e+00,-1.057746739540180236e+01,3.047892924972596673e-01,5.476147482561699587e-01,7.792429497099214730e-01,3.205435125538808165e+02
-6.619607655254736933e+00,-6.009851840375464604e+00,-1.108807114323693810e+01,3.232475380382590080e-01,4.470850087367330139e-01,8.340407808473885298e-01,3.222223537851019728e+02
-6.395203923572158722e+00,-5.849405902746315888e+00,-1.156954088403791836e+01,3.373581783923914057e-01,3.405420986485929169e-01,8.776209537843587816e-01,3.239011950163231290e+02
-6.168437699567516752e+00,-5.703773244728899350e+00,-1.199882817484547104e+01,3.469314311961577135e-01,2.294189935806829062e-01,9.093973319920788390e-01,3.255105737869507720e+02
-5.930499428232392845e+00,-5.569694256153045586e+00,-1.239187096827169476e+01,3.518385404063183453e-01,1.152102693228961444e-01,9.289425360747919358e-01,3.271199525575784151e+02
-5.681396056528581262e+00,-5.450493746070437240e+00,-1.274346233774408077e+01,3.520135077923879363e-01,-5.479992337527160454e-04,9.359936912342581294e-01,3.287293313282060581e+02
-5.421114667029321765e+00,-5.348965572312313732e+00,-1.304833447313507655e+01,2.667117791109648306e-01,2.447389377469652225e-02,9.634645065623386184e-01,3.303387100988337011e+02
-5.149644017350599512e+00,-5.267638279659553113e+00,-1.330118930914348852e+01,1.791010901817740864e-01,4.928391228887925996e-02,9.825944715311299982e-01,3.319480888694613441e+02
-4.806782872696881093e+00,-5.203672450445658626e+00,-1.351979996186220667e+01,8.993987732009491032e-02,7.366727837904697707e-02,9.932179773654231658e-01,3.338834695940711299e+02
-4.444954278659268176e+00,-5.184454019753321319e+00,-1.363078220802833052e+01,0.000000000000000000e+00,9.741290686787916486e-02,9.952430484926604315e-01,3.358188503186809157e+02
-4.065507579470332367e+00,-5.215192578690694525e+00,-1.363534277028817421e+01,-0.000000000000000000e+00,-9.695091807975529663e-02,9.952881590151888558e-01,3.377542310432907016e+02
-3.750686141439210086e+00,-5.275165939730467102e+00,-1.357430219327124732e+01,-4.291282096655081070e-03,-2.252196961352708748e-01,9.742975281538440724e-01,3.393072186219453101e+02
-3.429045343257478784e+00,-5.364427215739403287e+00,-1.346908256201397336e+01,-8.509987894250357898e-03,-3.496795025689147796e-01,9.368296673276681474e-01,3.408602062005999187e+02
-3.101670492702109705e+00,-5.484231663204675478e+00,-1.332519067077555519e+01,-7.525276839494735026e-03,-2.888018937096377692e-01,9.573582591684978160e-01,3.424131937792545273e+02
-2.769659834890003669e+00,-5.635828635186771685e+00,-1.314813357228990931e+01,-6.509497914867861529e-03,-2.267319778936881802e-01,9.739344108497848262e-01,3.439661813579091358e+02
-2.434004272211278685e+00,-5.819776921693333271e+00,-1.294305268420051647e+01,-5.466844694432428445e-03,-1.637260063597008319e-01,9.864896899869861624e-01,3.455191689365637444e+02
-2.095457460589103427e+00,-6.035261003798878754e+00,-1.271435789794083426e+01,-4.401621693856015705e-03,-1.000440944872977578e-01,9.949722633745504696e-01,3.470721565152183530e+02
-1.719151813277627783e+00,-6.309526705774126221e+00,-1.243847901717155935e+01,-3.318226602569682160e-03,-3.594914811486257106e-02,9.993471109288953880e-01,3.487856200276899585e+02
-1.340586075484242690e+00,-6.621739048225490087e+00,-1.214231524102109994e+01,-2.221132131458964602e-03,2.829422165749335971e-02,9.995961702570690388e-01,3.504990835401615641e+02
-9.606311105444034215e-01,-6.969659714354883739e+00,-1.183185965582804755e+01,-1.114867550911389929e-03,9.242079070677156061e-02,9.957184112564252398e-01,3.522125470526331696e+02
-5.801316270605892944e-01,-7.351045386155143468e+00,-1.151310546408151225e+01,-3.999995304131439757e-06,1.561658166662475977e-01,9.877298404362626627e-01,3.539260105651047752e+02
-1.994356890530215587e-01,-7.763152090036550490e+00,-1.119053097135229713e+01,-3.431258075468773590e-06,1.373532654656963448e-01,9.905211155965775172e-01,3.556394740775763808e+02
1.820834695152842297e-01,-8.202243432375327714e+00,-1.086558458555722595e+01,-2.861279878233495316e-06,1.184910373819077628e-01,9.929541147710270188e-01,3.573529375900479863e+02
5.628518154817558905e-01,-8.660721405499389292e+00,-1.054051378754808788e+01,-2.290266830177746974e-06,9.958595345257659215e-02,9.950279583300892794e-01,3.590543796104893772e+02
9.466909014638643649e-01,-9.137389571279204148e+00,-1.021299054416346586e+01,-1.718425422772605465e-06,8.064485019431115453e-02,9.967418964421337346e-01,3.607558216309307682e+02
1.334806889694134080e+00,-9.628152834044755082e+00,-9.882950213247076121e+00,-1.145962446714471925e-06,6.167457713616028570e-02,9.980953093380336982e-01,3.624572636513721591e+02
1.728453447407971799e+00,-1.012892375464900141e+01,-9.550328172683673955e+00,-5.730849173465950719e-07,4.268199434934798892e-02,9.990877075345891978e-01,3.641587056718135500e+02
2.128931725540137432e+00,-1.063562280688243078e+01,-9.215059820923094946e+00,-0.000000000000000000e+00,2.367396997322678345e-02,9.997187320112477238e-01,3.658601476922549409e+02
2.536724821654156692e+00,-1.114438116707856707e+01,-8.876333255716666315e+00,-1.815685972366613410e-06,8.631051170094888869e-02,9.962672811885360247e-01,3.675615897126963318e+02
2.950629109871165667e+00,-1.165173641749865041e+01,-8.531841958852487195e+00,-3.624226711587903945e-06,1.486073979362688424e-01,9.888952630413665457e-01,3.692630317331377228e+02
3.343837245905466382e+00,-1.212527537413095047e+01,-8.199905581927492193e+00,-5.418505219052842428e-06,2.103194769713875589e-01,9.776316881000031156e-01,3.708643974005989890e+02
3.738780439466139693e+00,-1.259243129009886886e+01,-7.858218722561693959e+00,-7.191460618315129887e-06,2.712038983333718289e-01,9.625208805408472790e-01,3.724657630680602551e+02
4.133923169900370453e+00,-1.305062022343449968e+01,-7.504385221052553234e+00,-8.936115937843508848e-06,3.310210683394158027e-01,9.436223038035528310e-01,3.740671287355215213e+02
4.527758079058063601e+00,-1.349724937021954929e+01,-7.136009003970209541e+00,-1.064560556384511033e-05,3.895355928452018390e-01,9.210103266485138995e-01,3.756684944029827875e+02
4.918805993875841942e+00,-1.392971720770083266e+01,-6.750694101199853137e+00,-1.231320225525063741e-05,4.465172034807274315e-01,8.947739305789715880e-01,3.772698600704440537e+02
5.305615948656354774e+00,-1.434541363750131815e+01,-6.346044662983557849e+00,-1.393234361465973069e-05,5.017416637323274253e-01,8.650163597761567624e-01,3.788712257379053199e+02
5.686765207042733472e+00,-1.474172012892547912e+01,-5.919664976961482417e+00,-1.549665791116819078e-05,5.549916513083045233e-01,8.318547149214672309e-01,3.804725914053665861e+02
6.060859283688086130e+00,-1.511600986235763067e+01,-5.469159485212331084e+00,-1.699998915352857377e-05,6.060576133181894143e-01,7.954194924999823391e-01,3.820739570728278522e+02
6.426737419910340421e+00,-1.546590369457277703e+01,-4.992914728039441030e+00,-8.714160024713584786e-06,6.747554542646525544e-01,7.380400238874712526e-01,3.836753227402891184e+02
6.852869798194579865e+00,-1.584686117894587376e+01,-4.383653279986826412e+00,-3.585205410199641569e-07,7.380472384462178903e-01,6.747475630322210538e-01,3.855974869278406914e+02
7.262854107827577899e+00,-1.617862906924452915e+01,-3.731323778136435898e+00,7.999989140413108610e-06,7.954259202489223357e-01,6.060491773184206732e-01,3.875196511153922643e+02
7.654933679682345726e+00,-1.645875019302141240e+01,-3.038398442720081860e+00,6.003447275242286630e-06,8.086875497486893938e-01,5.882367268597092913e-01,3.894418153029438372e+02
7.965236572264847936e+00,-1.665434803274805731e+01,-2.438644557234018517e+00,4.003944591395868871e-06,8.215503719717091036e-01,5.701341826957058156e-01,3.910340298006260582e+02
8.261496503308343620e+00,-1.682055158979014919e+01,-1.820808553725691947e+00,2.002466653143350101e-06,8.340080464920200942e-01,5.517504674787980790e-01,3.926262442983082792e+02
8.541819203952366379e+00,-1.695746955032006298e+01,-1.187399612745978494e+00,0.000000000000000000e+00,8.460544322668346329e-01,5.330946422741880131e-01,3.942184587959905002e+02
8.804344274673354676e+00,-1.706546052476216602e+01,-5.412827950923048137e-01,-4.820826492293019128e-02,8.823206484469500177e-01,4.681711615612655364e-01,3.958106732936727212e+02
9.038168129577762500e+00,-1.714319546208679412e+01,8.700867445003968026e-02,-9.603787901766490387e-02,9.116568066446733010e-01,3.995705102891313198e-01,3.973379658955657874e+02
9.253191923817142950e+00,-1.719715147892029350e+01,7.200300861846152811e-01,-1.431131713361313007e-01,9.338324929755451587e-01,3.278315043644232096e-01,3.988652584974588535e+02
9.447906718673392490e+00,-1.722826879560775382e+01,1.354451935828184128e+00,-1.890643961725632649e-01,9.486735350473675110e-01,2.535176088587287602e-01,4.003925510993519197e+02
9.620792984307708906e+00,-1.723747913207701998e+01,1.986944710031746331e+00,-2.335306372001663133e-01,9.560633697694566058e-01,1.772125121850524065e-01,4.019198437012449858e+02
9.770320620864520578e+00,-1.722570565635999884e+01,2.614178907909693983e+00,-2.761626422186226892e-01,9.559439586337196149e-01,9.951554147806541961e-02,4.034471363031380520e+02
9.894948979680547652e+00,-1.719386293320005166e+01,3.232825062568897234e+00,-3.166255662481883837e-01,9.483162433044955986e-01,2.103695520210341341e-02,4.049744289050311181e+02
9.993126884598920512e+00,-1.714285687274576020e+01,3.839553762637625933e+00,-3.546016014287784457e-01,9.332401379573836975e-01,-5.760685003445976254e-02,4.065017215069241843e+02
1.006329265338820456e+01,-1.707358467933157797e+01,4.431035673794207597e+00,-3.897924730740328636e-01,9.108340584458703981e-01,-1.357981808105405142e-01,4.080290141088172504e+02
1.010387411926621759e+01,-1.698693480034576453e+01,5.003941560295306346e+00,-4.219217822837038057e-01,8.812739920112185876e-01,-2.129228983478907711e-01,4.095563067107103166e+02
1.011328865252851728e+01,-1.688378687518599719e+01,5.554942306503721561e+00,-4.507371767244026106e-01,8.447921148573285244e-01,-2.883752419941771894e-01,4.110835993126033827e+02
1.008994318228143072e+01,-1.676501168430312205e+01,6.080708938415607001e+00,-4.760123325391987792e-01,8.016749684599806525e-01,-3.615625868603486448e-01,4.126108919144964489e+02
1.003223421827951611e+01,-1.663147109833341730e+01,6.577912645187001139e+00,-4.975487318301110573e-01,7.522612089413860392e-01,-4.319100982591105309e-01,4.141381845163895150e+02
9.929108496083822288e+00,-1.647271734330148618e+01,7.073034795173996692e+00,-5.151772217625080197e-01,6.969389471894419374e-01,-4.988652464037193202e-01,4.157720594580900979e+02
9.780642002697907955e+00,-1.629834022652310210e+01,7.525526828506332144e+00,-4.711698250525133691e-01,6.409557283566804653e-01,-6.059478114891631018e-01,4.174059343997906808e+02
9.587333709231321777e+00,-1.611028922626831417e+01,7.933341967785175974e+00,-4.193704694032804325e-01,5.743727203469485287e-01,-7.030095216392946433e-01,4.190398093414912637e+02
9.350539467725868192e+00,-1.591080184436589740e+01,8.295204420836723713e+00,-3.606357834583678867e-01,4.982910355864810792e-01,-7.884452267249042468e-01,4.206736842831918466e+02
9.071588085271617530e+00,-1.570212340641153403e+01,8.609838735539051768e+00,-2.959370872987276413e-01,4.139688686939323459e-01,-8.608420390031479297e-01,4.223075592248924295e+02
8.751781304147682405e+00,-1.548650692099609927e+01,8.875969809258579701e+00,-2.263443299816221832e-01,3.228006900576384508e-01,-9.190026979204383162e-01,4.239414341665930124e+02
8.392393782270714198e+00,-1.526621293884837272e+01,9.092322898284598054e+00,-1.530083961310036433e-01,2.262941859352027851e-01,-9.619653695049218411e-01,4.255753091082935953e+02
7.994673073951216402e+00,-1.504350941189356661e+01,9.257623627261782673e+00,-7.714207405483466951e-02,1.260453262576606281e-01,-9.890195529615819492e-01,4.272091840499941782e+02
7.517783210294333607e+00,-1.480125629010092148e+01,9.375225269375931703e+00,-0.000000000000000000e+00,2.371197228180339442e-02,-9.997178313761895252e-01,4.289872703554020745e+02
6.995067564413300687e+00,-1.456187536211338696e+01,9.426205639415460524e+00,-7.892990921127130202e-03,0.000000000000000000e+00,-9.999678497920404530e-01,4.307653566608099709e+02
6.430025027430743556e+00,-1.432701873804765391e+01,9.417114196903092704e+00,-2.872728885472881633e-01,3.020151847007489232e-02,-9.573714826484192031e-01,4.325434429662178673e+02
5.843842403813082065e+00,-1.410257238069289087e+01,9.360703843692700588e+00,-5.434469747315679999e-01,5.796336819077416852e-02,-8.374387342386809818e-01,4.342762899229354048e+02
5.228220368783014216e+00,-1.388205694244663491e+01,9.267873406170616946e+00,-7.557215732820177223e-01,8.104295423911778151e-02,-6.498576330580629890e-01,4.360091368796529423e+02
4.588594705469640544e+00,-1.366483960393636998e+01,9.147423914362029507e+00,-6.115149142376264946e-01,9.641599621263295672e-02,-7.853352566502768140e-01,4.377419838363704798e+02
3.988125436473646701e+00,-1.346783713028450435e+01,9.019546532172546094e+00,-4.432229302732431653e-01,1.079915881966053010e-01,-8.898815937847283086e-01,4.393273710104307952e+02
3.378725291274653486e+00,-1.327118843707794227e+01,8.880096708640046188e+00,-2.574739619737981822e-01,1.153138048074176941e-01,-9.593789060240146549e-01,4.409127581844911106e+02
2.765034707820066995e+00,-1.307387299370837042e+01,8.733318198405960686e+00,-6.158395249877657296e-02,1.180942434069155444e-01,-9.910898881866269106e-01,4.424981453585514259e+02
2.151704752909748830e+00,-1.287489683713881305e+01,8.583454807081768223e+00,1.367316977029822134e-01,1.162233860325112417e-01,-9.837655042636471725e-01,4.440835325326117413e+02
1.543397055314763788e+00,-1.267329262515778332e+01,8.434750361673264862e+00,3.296620231152499469e-01,1.097749153141582001e-01,-9.376942030747426049e-01,4.456689197066720567e+02
9.447837387842242807e-01,-1.246811968935135262e+01,8.291448681004737864e+00,5.096081590780147108e-01,9.900281355549056528e-02,-8.546905680455579857e-01,4.472543068807323721e+02
3.605473549406223444e-01,-1.225846408779264252e+01,8.157793546143183860e+00,6.694826561777903473e-01,8.433135883447590020e-02,-7.380238444599726000e-01,4.488396940547926874e+02
-2.046191839359274567e-01,-1.204343865744829678e+01,8.038028670822715327e+00,8.029886460050812413e-01,6.633841231103834724e-02,-5.922891603235169722e-01,4.504250812288530028e+02
-3.554066543016821678e-01,-1.198394817802732071e+01,8.007762608808214111e+00,9.048678568021243374e-01,4.573265567638402918e-02,-4.232265184620244147e-01,4.508570014242857837e+02
-9.599258955809233385e-01,-1.173194881166135950e+01,7.895549989691289738e+00,9.711077085916172136e-01,2.332567623659526079e-02,-2.374946970797414125e-01,4.526471057173492909e+02
-1.522730478698408163e+00,-1.146930083268303591e+01,7.807504796328291974e+00,9.990993339585199084e-01,0.000000000000000000e+00,-4.240897172840243229e-02,4.544372100104127981e+02
-2.037506487497807051e+00,-1.119448381387256752e+01,7.740294159453131151e+00,9.990993332535061944e-01,-0.000000000000000000e+00,-4.240897169847657883e-02,4.562273143034763052e+02
-2.497634852155484975e+00,-1.090610290773489766e+01,7.687045199117119587e+00,6.921409340576635261e-01,-0.000000000000000000e+00,-7.217609904965988088e-01,4.580174185965398124e+02
-2.896334603106953232e+00,-1.060284852455521687e+01,7.639114998460142303e+00,5.299993955616641179e-04,-0.000000000000000000e+00,-9.999988595503095379e-01,4.598075228896033195e+02
-3.254893728322052482e+00,-1.024594283112647908e+01,7.583460260650523921e+00,4.169530785743756907e-01,4.529412474209571632e-02,-9.077976495522456224e-01,4.617980492884489081e+02
-3.512108170972073840e+00,-9.866795828088646303e+00,7.520720145135212142e+00,7.566728811008494038e-01,8.225587836747591530e-02,-6.485970409135887182e-01,4.637885756872944967e+02
-3.662299793785583901e+00,-9.465932632525305479e+00,7.448633602406116161e+00,7.550757964904738495e-01,2.554995927611568990e-02,-6.551379557806323861e-01,4.657791020861400852e+02
-3.709283889265290401e+00,-9.093703566315795683e+00,7.375818750319806938e+00,6.378742543269592113e-01,1.240828798227212038e-01,-7.600775451250559867e-01,4.675486979039659445e+02
-3.680116597100473896e+00,-8.709334950063254865e+00,7.294280835339369773e+00,4.986932446768944094e-01,2.183402531658568124e-01,-8.388269079866401690e-01,4.693182937217918038e+02
-3.597576541300515185e+00,-8.367295410520695143e+00,7.216160933836815339e+00,3.423285350037110764e-01,3.050742323934313438e-01,-8.886725419706992257e-01,4.708566169981860412e+02
-3.468391473093805910e+00,-8.020011123810435905e+00,7.131402582275008228e+00,1.741680032913324183e-01,3.812961925762965443e-01,-9.078968664758643170e-01,4.723949402745802786e+02
-3.295896465884607718e+00,-7.669032835070284548e+00,7.039710489911684022e+00,5.999996079955432846e-06,4.443797096684325432e-01,-8.958374147125192088e-01,4.739332635509745160e+02
-3.083404370109150694e+00,-7.315893546972201733e+00,6.940655310636765662e+00,-2.306513462730577085e-02,3.985177464148167426e-01,-9.168694592773080076e-01,4.754715868273687533e+02
-2.834169370634190610e+00,-6.962109546428433049e+00,6.833539545000908433e+00,-4.606527057889397980e-02,3.514291765664014910e-01,-9.350794216016892202e-01,4.770099101037629907e+02
-2.529307653170931758e+00,-6.584620586974451406e+00,6.708684207810751587e+00,-6.892361564629416459e-02,3.032589350963585395e-01,-9.504112549255870901e-01,4.786557788078009708e+02
-2.187759293613048328e+00,-6.210039675012475335e+00,6.571851056142779868e+00,-9.156981413887105292e-02,2.541552858707411544e-01,-9.628177708172112048e-01,4.803016475118389508e+02
-1.813797843294999046e+00,-5.840281070449362844e+00,6.421950646985172817e+00,-1.139341633962921291e-01,2.042693653700792256e-01,-9.722607843482423684e-01,4.819475162158769308e+02
-1.411716466241368595e+00,-5.477233641106758810e+00,6.257893635388041886e+00,-1.359478282856954878e-01,1.537547175801981247e-01,-9.787112315720272182e-01,4.835933849199149108e+02
-9.858278728671707736e-01,-5.122760760887349996e+00,6.078590782648142898e+00,-1.575430530285201469e-01,1.027668214811527370e-01,-9.821492589439214660e-01,4.852392536239528908e+02
-4.769045951202089406e-01,-4.733384662570172985e+00,5.853288515809566661e+00,-1.786533697062624437e-01,5.146261258608860606e-02,-9.825642844095885398e-01,4.871106136734319989e+02
5.312978093645120276e-02,-4.362035996145183780e+00,5.602161903323639613e+00,-1.992138028046138709e-01,0.000000000000000000e+00,-9.799550299737879167e-01,4.889819737229111070e+02
5.971859476849630255e-01,-4.011605509889029086e+00,5.323799487281475784e+00,-2.153716596713729781e-01,-2.002182468751991197e-06,-9.765311301671198985e-01,4.908533337723902150e+02
1.148582771257093960e+00,-3.684767479382342170e+00,5.017606612459951876e+00,-2.314707588939864946e-01,-4.003818211357638265e-06,-9.728408337134496486e-01,4.927246938218693231e+02
1.645917797697070917e+00,-3.411881379141405546e+00,4.719264919598866292e+00,-2.475067112427223326e-01,-6.004361501903186632e-06,-9.688851468740005135e-01,4.944086970505193221e+02
2.139707697252437146e+00,-3.159883610725178205e+00,4.400381795870482726e+00,-2.634751446801240626e-01,-8.003266912316206219e-06,-9.646651481477370726e-01,4.960927002791693212e+02
2.625655921811502758e+00,-2.930390624228158547e+00,4.060835629037251593e+00,-2.793717055426080398e-01,-9.999989460024915751e-06,-9.601819879695102644e-01,4.977767035078193203e+02
3.100012449401138515e+00,-2.724761427678145331e+00,3.702024767127645610e+00,-3.494556241305994404e-01,-2.443312769487512512e-02,-9.366332201216425180e-01,4.994607067364693194e+02
3.560142672883709114e+00,-2.543870600608625576e+00,3.328387305293454279e+00,-4.174208601670152397e-01,-4.870812129515212502e-02,-9.074058322593331338e-01,5.011447099651193184e+02
4.003967475514867758e+00,-2.388346561784010280e+00,2.945881253067840433e+00,-4.828553552711289942e-01,-7.268780675199004726e-02,-8.726770242400776478e-01,5.028287131937693175e+02
4.429399752826925329e+00,-2.258805280680239225e+00,2.560464689671628769e+00,-5.453623943448625555e-01,-9.622680042936179734e-02,-8.326573495229006028e-01,5.045127164224193166e+02
4.834344445292735770e+00,-2.155850234655128705e+00,2.178095717167267242e+00,-6.045630106881725307e-01,-1.191823904930030958e-01,-7.875894386702629868e-01,5.061967196510693157e+02
5.177980748251560961e+00,-2.085750201398024917e+00,1.843484405714653995e+00,-6.600982835175851493e-01,-1.414154021128204430e-01,-7.377465283844331090e-01,5.077005367194950054e+02
5.504222191474804404e+00,-2.035506128975401285e+00,1.519075214569830079e+00,-7.116315139661164579e-01,-1.627910412244116256e-01,-6.834308050038333526e-01,5.092043537879206951e+02
5.811722045827368177e+00,-2.005479212222388785e+00,1.208657325501920177e+00,-7.588502663756157007e-01,-1.831797117357061577e-01,-6.249715724981701470e-01,5.107081708563463849e+02
6.099337933054690630e+00,-1.995896695888546457e+00,9.151525717205071242e-01,-8.014682625082101275e-01,-2.024578012254629467e-01,-5.627232560643787851e-01,5.122119879247720746e+02
6.366342368397674534e+00,-2.006726601685176803e+00,6.397481587488634824e-01,-8.392271171940380858e-01,-2.205084303710583560e-01,-4.970632534215943532e-01,5.137158049931977075e+02
6.612216566776922377e+00,-2.037806749745341595e+00,3.827639177895484357e-01,-8.718979048925122877e-01,-2.372221615625097479e-01,-4.283896468265105950e-01,5.152196220616233404e+02
6.848292135363872823e+00,-2.093261209281123136e+00,1.316467123808368334e-01,-8.992825476681939323e-01,-2.524976624067060693e-01,-3.571187896749914437e-01,5.168124249110093160e+02
7.057999746748365055e+00,-2.172315246661052690e+00,-9.680167047584399553e-02,-9.212150161638527068e-01,-2.662423200988813798e-01,-2.836827823165650742e-01,5.184052277603952916e+02
7.240689580003263792e+00,-2.274754368716915831e+00,-3.021792345406217883e-01,-9.375623362859477616e-01,-2.783728029358326639e-01,-2.085268523807997931e-01,5.199980306097812672e+02
7.395712869501236852e+00,-2.400360523572378835e+00,-4.840841458738739944e-01,-8.851352005091986941e-01,2.537197708297864521e-02,4.646395803182720718e-01,5.215908334591672428e+02
7.522737960313153671e+00,-2.548066348078346977e+00,-6.435135742056594665e-01,-9.326402006502990671e-01,1.780777216001360949e-02,3.603652860383348977e-01,5.231836363085532184e+02
