-2.514001615212251739e+00,1.730328804482957494e+01,-9.474351268247223956e+00,-0.000000000000000000e+00,6.377917058116652424e-03,9.999786608528554721e-01,5.354761220382746956e+01
-2.438743673597552064e+00,1.722155504718893226e+01,-9.898874350316113180e+00,-0.000000000000000000e+00,-2.444652874761686981e-03,9.999960118218210736e-01,5.507743962590410547e+01
-2.346752021972926094e+00,1.711312568282354718e+01,-1.031122743674915476e+01,-0.000000000000000000e+00,-1.126703122667802731e-02,9.999355249188323080e-01,5.660726704798074138e+01
-2.238430841014237505e+00,1.698062103635303899e+01,-1.070836622064162924e+01,-0.000000000000000000e+00,-2.008853143510555203e-02,9.997972048832026726e-01,5.813709447005737729e+01
-2.110494097267640701e+00,1.682214233456205932e+01,-1.109654049661418007e+01,-0.000000000000000000e+00,-2.890846700660624005e-02,9.995810625071457345e-01,5.970669106181776442e+01
-1.965697734583312428e+00,1.664341471377772308e+01,-1.146162279778508442e+01,-0.000000000000000000e+00,-3.772615157010862641e-02,9.992871146349184830e-01,6.127628765357815155e+01
-1.804395474321202952e+00,1.644734879420724027e+01,-1.180024013687274476e+01,-0.000000000000000000e+00,-4.654089893017572532e-02,9.989153841614963891e-01,6.284588424533853868e+01
-1.626909244966334711e+00,1.623685698530831800e+01,-1.210901970725536003e+01,-0.000000000000000000e+00,-5.535202312025905291e-02,9.984659000307835042e-01,6.441548083709892580e+01
-1.433529178202151089e+00,1.601485332730391420e+01,-1.238458890600804807e+01,-0.000000000000000000e+00,-6.415883845593449430e-02,9.979386972333547101e-01,6.598507742885931293e+01
-1.224513605315139309e+00,1.578425333268140918e+01,-1.262357535693893951e+01,-0.000000000000000000e+00,-7.296065958811630281e-02,9.973338168037325646e-01,6.755467402061970006e+01
-1.000089053930755645e+00,1.554797382767752367e+01,-1.282260693362410997e+01,-0.000000000000000000e+00,-8.175680155624505396e-02,9.966513058171966311e-01,6.912427061238008719e+01
-7.604502450806659430e-01,1.530893279375035654e+01,-1.297831178244122263e+01,-0.000000000000000000e+00,-9.054657984144540150e-02,9.958912173861287354e-01,7.069386720414047431e+01
-5.057600906013235420e-01,1.507004920903990808e+01,-1.308731834560178875e+01,-0.000000000000000000e+00,-9.932931041964995766e-02,9.950536106558915961e-01,7.226346379590086144e+01
-2.361496908638975600e-01,1.483424288981846217e+01,-1.314625538418189521e+01,-0.000000000000000000e+00,-1.081043098146848153e-01,9.941385508002410498e-01,7.383306038766124857e+01
4.972180111479983927e-02,1.460337236365191771e+01,-1.315150763706593473e+01,-0.000000000000000000e+00,-1.168708951513131450e-01,9.931461090162760907e-01,7.541019847128949039e+01
3.504012119644428491e-01,1.438145787391730046e+01,-1.309944372971025039e+01,-0.000000000000000000e+00,-5.842598549233594951e-02,9.982907413244255235e-01,7.698733655491773220e+01
6.653610804290974734e-01,1.417114525102812550e+01,-1.298762975872401171e+01,-0.000000000000000000e+00,2.200131365709311819e-04,9.999989757941887270e-01,7.856447463854597402e+01
9.939393121369419770e-01,1.397497253458830535e+01,-1.281396605877295869e+01,-0.000000000000000000e+00,5.886523909786058745e-02,9.982649365881264281e-01,8.014161272217421583e+01
1.130881541675087698e+00,1.389870659751535698e+01,-1.272825160909497910e+01,-0.000000000000000000e+00,1.173078338869206483e-01,9.930945937341473240e-01,8.078403856062790567e+01
1.477754425232318924e+00,1.371864440041569821e+01,-1.247701131704737421e+01,1.270998419732385096e-03,1.158168560016881454e-01,9.932687650413736247e-01,8.238127097373336483e+01
1.833747308260917697e+00,1.355423187330284840e+01,-1.216125518163839025e+01,-1.177648228227752558e-01,0.000000000000000000e+00,9.930405059701471471e-01,8.397850338683882399e+01
2.195320825008868493e+00,1.340337283718152506e+01,-1.178373838953503672e+01,-1.816074833447078318e-01,2.249536404289151706e-02,9.831127507010541944e-01,8.557573579994428314e+01
2.556931071603556038e+00,1.326421917564999298e+01,-1.135135441412435675e+01,-2.446001233135345621e-01,4.488543598003069679e-02,9.685835417315357132e-01,8.716453624033491110e+01
2.916849781763755978e+00,1.313321499592309749e+01,-1.086742155206833615e+01,-3.064479078803077350e-01,6.706541980010792547e-02,9.495208840379535387e-01,8.875333668072553905e+01
3.271436965806770125e+00,1.300769372601965301e+01,-1.033693070223654509e+01,-3.668613608084618227e-01,8.893150287289935951e-02,9.260140008358307417e-01,9.034213712111616701e+01
3.617023739013473183e+00,1.288500977841863104e+01,-9.764873089253418570e+00,-4.255577192520839658e-01,1.103813418047569217e-01,8.981729159620766012e-01,9.193093756150679496e+01
3.949912374801945791e+00,1.276253869562387422e+01,-9.156240228568107042e+00,-4.822622571119882240e-01,1.313145414164163249e-01,8.661279389208698110e-01,9.351973800189742292e+01
4.266376358208603392e+00,1.263767729550357899e+01,-8.516023891522785050e+00,-5.367095707810943805e-01,1.516331246029972435e-01,8.300290550074360674e-01,9.510853844228805087e+01
4.562660439676490931e+00,1.250784381640323062e+01,-7.849216070419631208e+00,-5.886448212658882406e-01,1.712419908787092826e-01,7.900452233626342746e-01,9.669733888267867883e+01
4.834980689150418343e+00,1.237047806203074707e+01,-7.160808943586659758e+00,-6.378249268744961009e-01,1.900493614616348692e-01,7.463635862412140165e-01,9.828613932306930678e+01
5.079524550478605072e+00,1.222304154611251725e+01,-6.455794840442566240e+00,-6.840197008926774958e-01,2.079672088167840993e-01,6.991885931912854568e-01,9.987493976345993474e+01
5.292450896120491244e+00,1.206301763681910266e+01,-5.739166206560781802e+00,-7.270129289257662997e-01,2.249116686481305305e-01,6.487410442400828314e-01,1.014637402038505627e+02
5.470344938037532856e+00,1.188839352241156710e+01,-5.015697461672566249e+00,-9.246034767262547582e-01,-1.743419773614379165e-01,3.386905457147098009e-01,1.030525406442411906e+02
5.630369252434253013e+00,1.165032386223596284e+01,-4.126127879718457514e+00,-8.498265231567917466e-01,-5.222387069684532035e-01,-7.113096008795406766e-02,1.050000257257920424e+02
5.716729226833883182e+00,1.138246576106014274e+01,-3.241256646046776435e+00,-9.225027107052581332e-01,-3.820525499434559435e-01,-5.497815768559451838e-02,1.069475108073428942e+02
5.731495451828671150e+00,1.111675067117718996e+01,-2.454311755408486118e+00,-9.719364694593536358e-01,-2.322406754257876627e-01,-3.744019247301075964e-02,1.087028936583431147e+02
5.688527586058264696e+00,1.083135967907118058e+01,-1.682830801693958822e+00,-9.968823582192178900e-01,-7.657756097871246115e-02,-1.895892997445768405e-02,1.104582765093433352e+02
5.587617741602253219e+00,1.052931314994639678e+01,-9.320278869933459331e-01,-9.967118863751273095e-01,8.101490948214877530e-02,-0.000000000000000000e+00,1.122136593603435557e+02
5.429639550219270028e+00,1.021394162072462208e+01,-2.060722537356327044e-01,-9.935909064848896799e-01,8.139279809092614393e-02,-7.842399486575242495e-02,1.139690422113437762e+02
5.217601950763806506e+00,9.889185870581522764e+00,4.929564338711866500e-01,-9.843491894992110192e-01,8.126928927329975239e-02,-1.563648801825682499e-01,1.157244250623439967e+02
4.996951139891234739e+00,9.605151526956348107e+00,1.074496705231227534e+00,-9.690436666902570995e-01,8.064514388862012439e-02,-2.333425225199094455e-01,1.172373069545191839e+02
4.746473588582834857e+00,9.320238260038275158e+00,1.637565275872741921e+00,-9.477686238613035608e-01,7.952420684081119850e-02,-3.088827223262657351e-01,1.187501888466943711e+02
4.468479852909035266e+00,9.036753527864741287e+00,2.181591214514293053e+00,-9.206551204992963200e-01,7.791338339109914191e-02,-3.825201351410187911e-01,1.202630707388695583e+02
4.165302949661219500e+00,8.756992127448468111e+00,2.706003710715131572e+00,-8.878701823842151120e-01,7.582259661745806290e-02,-4.538011382495300561e-01,1.217759526310447455e+02
3.839298325879568541e+00,8.483236087329760977e+00,3.210232078492467167e+00,-8.496157726316143632e-01,7.326472628303362655e-02,-5.222866251204036914e-01,1.232888345232199327e+02
3.492843828165764997e+00,8.217754560251771423e+00,3.693705759938143096e+00,-8.061275475093008236e-01,7.025552949030966499e-02,-5.875547104092730955e-01,1.248017164153951200e+02
3.128339671780757669e+00,7.962803715959585915e+00,4.155854328834704070e+00,-7.576734046951907331e-01,6.681354361001122510e-02,-6.492033288649762257e-01,1.263145983075703072e+02
2.748208409527737928e+00,7.720626634123976650e+00,4.596107494270833982e+00,-7.045518329220857856e-01,6.295997208294094871e-02,-7.068527121281976688e-01,1.278274801997454944e+02
2.354894900420508641e+00,7.493453197390669729e+00,5.013895104256151924e+00,-6.470900731785629301e-01,5.871855379845413586e-02,-7.601477281655009133e-01,1.293403620919206674e+02
1.950866278137422194e+00,7.283499984555995788e+00,5.408647149335347848e+00,-5.856421027958264025e-01,5.411541685443719413e-02,-8.087600689284755173e-01,1.308532439840958546e+02
1.538611919261061223e+00,7.092970163869760647e+00,5.779793766201632543e+00,-5.205864548410971127e-01,4.917891759984553690e-02,-8.523902727632276521e-01,1.323661258762710418e+02
1.120643411303837045e+00,6.924053386466181514e+00,6.126765241309497512e+00,-4.523238862522119264e-01,4.393946595148573442e-02,-8.907695691138756144e-01,1.338790077684462290e+02
6.994945205196847482e-01,6.778925679923760050e+00,6.448992014486756297e+00,-3.812749090793531859e-01,3.842933806123980528e-02,-9.236615341587349759e-01,1.353918896606214162e+02
2.777211595020372403e-01,6.659749341954918300e+00,6.745904682545864617e+00,-3.078772000425074040e-01,3.268247748780536005e-02,-9.508635471827900920e-01,1.369047715527966034e+02
-1.420986454317433589e-01,6.568672834226249257e+00,7.016934002894485545e+00,-2.325829043622278658e-01,2.673428609778935594e-02,-9.722080387175837668e-01,1.384176534449717906e+02
-5.573647870692989281e-01,6.507830676310241813e+00,7.261510897145301513e+00,-1.558558504719395055e-01,2.062140598421018101e-02,-9.875635227623282830e-01,1.399305353371469778e+02
-9.654551103453875571e-01,6.479343339769317645e+00,7.479066454725035840e+00,-7.816869276843597947e-02,1.438149374574877910e-02,-9.968354067298987875e-01,1.414434172293221650e+02
-1.377536035466683684e+00,6.486864819460161691e+00,7.674775248491341628e+00,-0.000000000000000000e+00,8.052988517103476865e-03,-9.999665741302532496e-01,1.430104589938938489e+02
-1.775338351249574620e+00,6.534606885366121887e+00,7.840526422089284964e+00,1.984795552643255426e-02,-2.502312411574146231e-02,-9.994888203086398359e-01,1.445775007584655327e+02
-2.154890079630904509e+00,6.623673952694844047e+00,7.979734979003229256e+00,3.966637210066471797e-02,-5.806199530753911042e-02,-9.975236255981020372e-01,1.461445425230372166e+02
-2.511914109347396007e+00,6.754719679114577602e+00,8.097172512620579354e+00,5.942575608357240219e-02,-9.101445682225073330e-02,-9.940739148395347780e-01,1.477115842876089005e+02
-2.842125468877231054e+00,6.928373828428560977e+00,8.197610764479716039e+00,7.909670170042037984e-02,-1.238314690392284950e-01,-9.891448220846599249e-01,1.492786260521805843e+02
-3.141231384992096753e+00,7.145242231375320330e+00,8.285821591776862505e+00,9.864993479936944032e-02,-1.564641939287245986e-01,-9.827436829527518292e-01,1.508456678167522682e+02
-3.406316101565941779e+00,7.405084087924394431e+00,8.365492728479656748e+00,1.180563564139884697e-01,-1.888640677271934687e-01,-9.748800237121687529e-01,1.524127095813239521e+02
-3.637237385424731517e+00,7.705999721852821338e+00,8.438143553822884613e+00,1.372870860649880176e-01,-2.209828732043121191e-01,-9.655655471025326175e-01,1.539797513458956360e+02
-3.835259323360475037e+00,8.045268950266070362e+00,8.504209288354489971e+00,1.563135047367802954e-01,-2.527728114142484550e-01,-9.548141149186625265e-01,1.555467931104673198e+02
-4.001673395315708426e+00,8.420179083572353562e+00,8.564125197363917863e+00,1.751072974649543479e-01,-2.841865728244751810e-01,-9.426417273821817711e-01,1.571138348750390037e+02
-4.137798454816349114e+00,8.828025061235885929e+00,8.618326587917531256e+00,1.936404954713352999e-01,-3.151774077163534971e-01,-9.290664993314886599e-01,1.586808766396106876e+02
-4.245658528624847605e+00,9.270075989716691112e+00,8.667622291193348261e+00,2.118855177839669979e-01,-3.456991957527928983e-01,-9.141086332655016244e-01,1.602612433546739510e+02
-4.325265394865684065e+00,9.740357615434222183e+00,8.711953639212982381e+00,2.298152122801234709e-01,-3.757065146095286412e-01,-8.977903892812639786e-01,1.618416100697372144e+02
-4.378068529693912581e+00,1.023609636419505442e+01,8.751771048218765614e+00,2.474028960913110531e-01,-4.051547075679520216e-01,-8.801360519501076896e-01,1.634219767848004778e+02
-4.405545881625898552e+00,1.075452718882343639e+01,8.787524965609911476e+00,2.646223953101696225e-01,-4.339999499689659035e-01,-8.611718941816207673e-01,1.650023434998637413e+02
-4.409203849466570624e+00,1.129289371154226274e+01,8.819665866822461453e+00,2.814480839402158652e-01,-4.621993144290285072e-01,-8.409261381291346371e-01,1.665827102149270047e+02
-4.390577259938650556e+00,1.184844836626055553e+01,8.848644252209080463e+00,2.978549220304967937e-01,-4.897108347213858237e-01,-8.194289131948488958e-01,1.681630769299902681e+02
-4.351229345013986283e+00,1.241845254076622140e+01,8.874910643918742181e+00,3.138184929384293942e-01,-5.164935682274721662e-01,-7.967122111970159626e-01,1.697434436450535316e+02
-4.292751718947142692e+00,1.300017671882284098e+01,8.898915582776284694e+00,3.293150396653934386e-01,-5.425076568655753384e-01,-7.728098387658244306e-01,1.713238103601167950e+02
-4.216764355011374477e+00,1.359090062216926498e+01,8.921109625161875556e+00,3.443215002110234235e-01,-5.677143864061273693e-01,-7.477573670387459570e-01,1.729041770751800584e+02
-4.124915561937128494e+00,1.418791335242077878e+01,8.941943339890396913e+00,3.588155418935968788e-01,-5.920762440853672981e-01,-7.215920787301187689e-01,1.744845437902433218e+02
-4.018925754934744354e+00,1.478852656333200244e+01,8.961625090752468381e+00,3.246281171674334498e-01,-5.986529165201547320e-01,-7.322767721886745962e-01,1.760649105053065853e+02
-3.900631040629246371e+00,1.539008796540869284e+01,8.979878820732904998e+00,2.900101731225198654e-01,-6.044356563979763619e-01,-7.419903212044393070e-01,1.776452772203698487e+02
-3.771939118013492465e+00,1.598996893457657542e+01,8.996186268260583319e+00,2.550076198428287699e-01,-6.094167948162900750e-01,-7.507198438957448650e-01,1.792256439354331121e+02
-3.634785363720360429e+00,1.658555178696900256e+01,9.010029185135730145e+00,2.196668774511796596e-01,-6.135897259369349488e-01,-7.584537633741678109e-01,1.808060106504963755e+02
-3.491132804486075880e+00,1.717422991750615680e+01,9.020889340118859678e+00,1.840348145503888921e-01,-6.169489157450080974e-01,-7.651818230952986966e-01,1.823863773655596390e+02
-3.349638623854259034e+00,1.772813366246232647e+01,9.028082009706666966e+00,1.481586860699484753e-01,-6.194899093865237072e-01,-7.708951004587510925e-01,1.838965192883133568e+02
-3.205806031109167176e+00,1.827157106088335681e+01,9.031786668461011303e+00,1.120860706006303470e-01,-6.212093370751726740e-01,-7.755860186394252231e-01,1.854066612110670746e+02
-3.061339223623905426e+00,1.880239628734405954e+01,9.031571294722661847e+00,7.586480730007495732e-02,-6.221049185603583220e-01,-7.792483566343660906e-01,1.869168031338207925e+02
-2.917964340098208265e+00,1.931847277397631046e+01,9.027003891531208524e+00,3.954293245298649839e-02,-6.221754661505991546e-01,-7.818772575119012913e-01,1.884269450565745103e+02
-2.777429438513860038e+00,1.981767331552980238e+01,9.017652489356891010e+00,3.168615770015761716e-03,-6.214208862882928397e-01,-7.834692348521394845e-01,1.899370869793282282e+02
-2.641504473879260129e+00,2.029788017434395897e+01,9.003085148832269624e+00,-3.320990349024550287e-02,-6.198421796737618727e-01,-7.840221773702942265e-01,1.914472289020819460e+02
-2.511981275763254029e+00,2.075698518523015679e+01,8.982869963483787856e+00,-6.954438049149828938e-02,-6.174414399384111629e-01,-7.835353517167061854e-01,1.929573708248356638e+02
-2.390673525618355999e+00,2.119288986026344546e+01,8.956575062463151937e+00,-1.057866287974185415e-01,-6.142218508687596890e-01,-7.820094034498509261e-01,1.944675127475893817e+02
-2.279416733893489422e+00,2.160350549348291693e+01,8.923768613278559414e+00,-1.418885842719944945e-01,-6.101876821850156229e-01,-7.794463561810346386e-01,1.959776546703430995e+02
-2.180068216936371428e+00,2.198675326549990316e+01,8.884018824525730551e+00,-1.778023688178317352e-01,-6.053442838797847836e-01,-7.758496088919047962e-01,1.974877965930968173e+02
-2.094507073685667908e+00,2.234056434801313173e+01,8.836893948618758543e+00,-2.134803538679444779e-01,-5.996980791244060915e-01,-7.712239314283174663e-01,1.989979385158505352e+02
-2.024634162153049477e+00,2.266288000823007920e+01,8.781962284520748341e+00,-2.488752235468845997e-01,-5.932565557523028499e-01,-7.655754581765170652e-01,2.005080804386042530e+02
-1.972372075695277838e+00,2.295165171319359487e+01,8.718792180474224551e+00,-2.839400374174871344e-01,-5.860282563306241643e-01,-7.589116799299936433e-01,2.020182223613579708e+02
-1.939665119076454891e+00,2.320484123401306320e+01,8.646952036731327951e+00,-3.186282927300625456e-01,-5.780227668333187685e-01,-7.512414339577758726e-01,2.035283642841116887e+02
-1.928479284320561371e+00,2.342042074999918455e+01,8.566010308283734886e+00,-3.528939860915203397e-01,-5.692507039306371475e-01,-7.425748922873004476e-01,2.050385062068654065e+02
-1.940802226354426230e+00,2.359637295270159285e+01,8.475535507592351081e+00,-3.866916744726696109e-01,-5.597237009118894990e-01,-7.329235482173624971e-01,2.065486481296191243e+02
-1.978643238441255114e+00,2.373069114984850003e+01,8.375096207316703456e+00,-4.199765354728211553e-01,-5.494543922600975128e-01,-7.223002010789976168e-01,2.080587900523728422e+02
-2.049051647493722594e+00,2.382472663859476825e+01,8.256067890517400087e+00,-2.042315232335925046e-01,-5.918490498460435845e-01,-7.797449500413348167e-01,2.096707596792464301e+02
-2.149371568379847552e+00,2.386550328861359205e+01,8.124148795494111397e+00,2.206062339442155240e-02,-6.036787175315465603e-01,-7.969211597742492659e-01,2.112827293061200180e+02
-2.275986366520077908e+00,2.385282483682133048e+01,7.979090002744670507e+00,2.472134941618859549e-01,-5.843324823401598866e-01,-7.729418078919988444e-01,2.128946989329936059e+02
-2.425282954309607941e+00,2.378647359698005914e+01,7.820642687336313514e+00,4.595995113955018141e-01,-5.348094314391391713e-01,-7.090452462074303686e-01,2.145066685598671938e+02
-2.593651847112264264e+00,2.366621047827724666e+01,7.648558120700397644e+00,4.898930715208476006e-01,-5.554896580358100744e-01,-6.718883972000754268e-01,2.161186381867407817e+02
-2.778118250529455491e+00,2.349237384287738450e+01,7.462927521482932036e+00,5.188511784169956842e-01,-5.746556147585337726e-01,-6.328999755749415979e-01,2.177306078136143697e+02
-2.976964419393222538e+00,2.326648323947371821e+01,7.264521903945877490e+00,5.463948923180587114e-01,-5.922550552637985133e-01,-5.921862639104329418e-01,2.193425774404879576e+02
-3.189085574637130271e+00,2.299064784276521323e+01,7.054452223357885465e+00,5.724491290741240412e-01,-6.082400035056096943e-01,-5.498582478773602622e-01,2.209545470673615455e+02
-3.413354530904721518e+00,2.266696995398229930e+01,6.833829518935846892e+00,5.969428648232683043e-01,-6.225668845130326590e-01,-5.060313137003565886e-01,2.225665166942351334e+02
-3.634929122583670402e+00,2.232058116573831441e+01,6.617122822155040218e+00,6.198093295961850657e-01,-6.351966431714870520e-01,-4.608249336246611483e-01,2.240880029226550221e+02
-3.864890281385437998e+00,2.193742609291033219e+01,6.393357347334423402e+00,6.409861893259185539e-01,-6.460948506841963646e-01,-4.143623402455346438e-01,2.256094891510749108e+02
-4.102291577699447522e+00,2.151915710716034980e+01,6.163415099408898534e+00,6.604157157666824540e-01,-6.552317984236558646e-01,-3.667701905877965296e-01,2.271309753794947994e+02
-4.346169852487421714e+00,2.106742109816168451e+01,5.928178122896611946e+00,6.780449438586830802e-01,-6.625825789173264146e-01,-3.181782208508845966e-01,2.286524616079146881e+02
-4.595545231289116295e+00,2.058385939295849099e+01,5.688528496239431576e+00,6.938258161100365751e-01,-6.681271537467924349e-01,-2.687188927602726651e-01,2.301739478363345768e+02
-4.849421138390876962e+00,2.007010767538244878e+01,5.445348326143253814e+00,7.077153136022346080e-01,-6.718504081752655344e-01,-2.185270324889586613e-01,2.316954340647544655e+02
-5.106784311156951972e+00,1.952779590552724542e+01,5.199519741918176230e+00,7.196755732620272461e-01,-6.737421923544560931e-01,-1.677394631329913177e-01,2.332169202931743541e+02
-5.366604814523470601e+00,1.895854823928154431e+01,4.951924889818555720e+00,7.296739910799986406e-01,-6.737973489983849484e-01,-1.164946317425855221e-01,2.347384065215942428e+02
-5.627836055655009773e+00,1.836398294792101993e+01,4.703445927382998271e+00,7.376833109943747857e-01,-6.720157274485697441e-01,-6.493223192523900344e-02,2.362598927500141315e+02
-5.889414798763657366e+00,1.774571233776016754e+01,4.454965017774284775e+00,7.436816991976447078e-01,-6.684021840920901791e-01,-1.319282304935810723e-02,2.377813789784340202e+02
-6.150261180090496715e+00,1.710534266986450902e+01,4.207364324119267529e+00,7.476528036632843488e-01,-6.629665691312067732e-01,3.858255291379712737e-02,2.393028652068539088e+02
-6.409278723049434134e+00,1.644447407982385201e+01,3.961526003848774291e+00,7.495857987301239866e-01,-6.557236997404047862e-01,9.025275586556300023e-02,2.408243514352737975e+02
-6.665354353533251341e+00,1.576470049758723668e+01,3.718332203037536310e+00,7.494754146226160207e-01,-6.466933196838168252e-01,1.416769323247953627e-01,2.423458376636936862e+02
-6.917358415381841041e+00,1.506760956736023616e+01,3.478665050744170095e+00,7.473219518262993466e-01,-6.359000455028863685e-01,1.927148993935589305e-01,2.438673238921135749e+02
-7.164144686012495988e+00,1.435478256756525184e+01,3.243406653351242230e+00,7.431312802790274175e-01,-6.233732994207302758e-01,2.432275268969542326e-01,2.453888101205334635e+02
-7.404550392212192911e+00,1.362779433086543968e+01,3.013439088905445651e+00,7.369148233799113212e-01,-6.091472291458790433e-01,2.930771166553703955e-01,2.469102963489533522e+02
-7.637396226091767382e+00,1.288821316425292274e+01,2.789644401457913148e+00,7.286895268593145403e-01,-5.932606147937857788e-01,3.421277778552244686e-01,2.484317825773732409e+02
-7.861486361201893480e+00,1.213760076920193498e+01,2.572904595404688965e+00,9.955207354021456956e-01,9.453287991603503970e-02,0.000000000000000000e+00,2.499532688057931296e+02
-8.082710524074105507e+00,1.135160561866128681e+01,2.356841017749822687e+00,9.913008634114531814e-01,1.316077436555698199e-01,0.000000000000000000e+00,2.515261591115538238e+02
-8.292638658056267431e+00,1.055721018611475159e+01,2.148505619366442687e+00,9.857007492619630495e-01,1.684993557698928335e-01,0.000000000000000000e+00,2.530990494173145180e+02
-8.491065958956854232e+00,9.756509844230485839e+00,1.946857456535176167e+00,9.787281891584446170e-01,2.051563592407236736e-01,0.000000000000000000e+00,2.546719397230752122e+02
-8.677764690928679414e+00,8.951598688991911246e+00,1.750855539636098079e+00,9.703928888839234990e-01,2.415277234467198553e-01,0.000000000000000000e+00,2.562448300288359064e+02
-8.852484189921526081e+00,8.144569425144585040e+00,1.559458840292424320e+00,9.769128538952149832e-01,2.136335083477470254e-01,0.000000000000000000e+00,2.578177203345965722e+02
-9.014950867374741605e+00,7.337513251658025482e+00,1.371626298514405429e+00,9.826311646046371751e-01,1.855639898862600778e-01,0.000000000000000000e+00,2.593906106403572380e+02
-9.164868214149821668e+00,6.532519747203520133e+00,1.186316829843381715e+00,9.875431292009232420e-01,1.573422001971287454e-01,0.000000000000000000e+00,2.609635009461179038e+02
-9.301916804702919706e+00,5.731676755648853927e+00,1.002489332495965169e+00,9.916447173610906107e-01,1.289912963135745883e-01,0.000000000000000000e+00,2.625363912518785696e+02
-9.425754301497258680e+00,4.937070271570987323e+00,8.191026945083111910e-01,9.949325635558181613e-01,1.005345411835595754e-01,0.000000000000000000e+00,2.641092815576392354e+02
-9.536015459655455828e+00,4.150784325787665985e+00,6.351158008804448363e-01,9.974039698086810679e-01,7.199528459899393051e-02,0.000000000000000000e+00,2.656821718633999012e+02
-9.630994090509718220e+00,3.387348673781053865e+00,4.525487665999487485e-01,9.990569079092538329e-01,4.339694405382944764e-02,0.000000000000000000e+00,2.672294485174402894e+02
-9.712341935768000312e+00,2.635769344353854571e+00,2.674443050652789422e-01,9.998900210782709630e-01,1.476298554660309542e-02,0.000000000000000000e+00,2.687767251714806775e+02
-9.779782397306256314e+00,1.898026703517706304e+00,7.902522264870866231e-02,8.808491902946983254e-01,2.673097542801564433e-02,-4.726395655342977564e-01,2.703240018255210657e+02
-9.833275785255338519e+00,1.176169325554886180e+00,-1.130902457436266106e-01,8.586017000741579253e-01,2.421703666549421610e-02,-5.120689951201196077e-01,2.718712784795614539e+02
-9.872889355223218644e+00,4.722805899749717429e-01,-3.090861374016016794e-01,8.345889668483753576e-01,2.165330910737599257e-02,-5.504456291208008611e-01,2.734185551336018420e+02
-9.898667827196941715e+00,-2.115556855158350624e-01,-5.091464638535524445e-01,8.088603593861364294e-01,1.904506358068168773e-02,-5.876905687226433583e-01,2.749658317876422302e+02
-9.910633384216012587e+00,-8.732553557873616867e-01,-7.134552096425512691e-01,7.814687739147881951e-01,1.639766242822902897e-02,-6.237272417184045459e-01,2.765131084416826184e+02
-9.908785671274142004e+00,-1.510734059063222112e+00,-9.221963311028175125e-01,7.524705253870281885e-01,1.371654848636694700e-02,-6.584815598936918368e-01,2.780603850957230065e+02
-9.892766924600900680e+00,-2.128210270289619288e+00,-1.137913424760219172e+00,7.219252317248031625e-01,1.100723389739487364e-02,-6.918820713095650277e-01,2.796243950274525218e+02
-9.862384350415782208e+00,-2.716341967947756508e+00,-1.358590240217038669e+00,6.898956912776850192e-01,8.275288779613358681e-03,-7.238601071689310107e-01,2.811884049591820371e+02
-9.817811096448819441e+00,-3.273163871702123195e+00,-1.584554360026000586e+00,6.564477537470857493e-01,5.526329778247112551e-03,-7.543499229654547777e-01,2.827524148909115524e+02
-9.759688492710226981e+00,-3.797130311051236884e+00,-1.816404585357293211e+00,6.216501848410274089e-01,2.766008520725274887e-03,-7.832888336253912565e-01,2.843164248226410677e+02
-9.691432318961291870e+00,-4.272943646333868806e+00,-2.047367267629019771e+00,5.855745249369939120e-01,0.000000000000000000e+00,-8.106173423649849497e-01,2.858325664139024411e+02
-9.612436910963081615e+00,-4.716426299680874124e+00,-2.285009263798807755e+00,8.010230466218279943e-01,1.680977087608944570e-02,-5.983957807208056812e-01,2.873487080051638145e+02
-9.523444472853631382e+00,-5.126386572556311805e+00,-2.529978995424517318e+00,9.429866597446359133e-01,3.207743219650309452e-02,-3.312781276935125585e-01,2.888648495964251879e+02
-9.425184475034841469e+00,-5.501628515088377469e+00,-2.782924837333499823e+00,9.984418138771008477e-01,4.440234749862993768e-02,-3.376945127337916547e-02,2.903809911876865613e+02
-9.318666100118131013e+00,-5.841250114840502938e+00,-3.044451620697528504e+00,9.623011475947070847e-01,5.265384537069009441e-02,2.668371674009193950e-01,2.918971327789479346e+02
-9.205474783866746336e+00,-6.144939347305299115e+00,-3.315077136385196965e+00,8.378801759393996740e-01,5.607494484992718575e-02,5.429644659909178550e-01,2.934132743702093080e+02
-9.087485883836926348e+00,-6.412672878345777150e+00,-3.595275624448646123e+00,9.053473691449666072e-01,4.153717105648690455e-01,-8.837693841807206518e-02,2.949294159614706814e+02
-8.966574245927994014e+00,-6.644416877089962981e+00,-3.885521263887831367e+00,9.360722153546453539e-01,3.202522752089287938e-01,1.456203552547300495e-01,2.964455575527320548e+02
-8.837269419443366303e+00,-6.849525464581604162e+00,-4.205117061570796899e+00,9.061895982315796294e-01,2.043976334009164064e-01,3.701891672065157901e-01,2.980530021474328919e+02
-8.709025119673668769e+00,-7.011591178582576411e+00,-4.537851551923386850e+00,8.176343202152047684e-01,7.530893738781591074e-02,5.707895254430604970e-01,2.996604467421337290e+02
-8.583357914367406138e+00,-7.131306167018028219e+00,-4.884793540890520980e+00,7.843785636195371724e-01,1.014329603648742861e-01,6.119310610452609600e-01,3.012678913368345661e+02
-8.460094577255556914e+00,-7.210906366602304551e+00,-5.247951457823760713e+00,7.483923528909645073e-01,1.272038900111869819e-01,6.509424371525430741e-01,3.028753359315354032e+02
-8.292158541581050812e+00,-7.249227747605511141e+00,-5.784832070984289309e+00,0.000000000000000000e+00,9.983844631533018710e-01,-5.680196945670642344e-02,3.050836114631876512e+02
-8.121172138766715065e+00,-7.206036881701718855e+00,-6.377197625231850964e+00,4.081438505715209025e-02,9.978246683405279649e-01,5.175052872767943457e-02,3.072918869948398992e+02
-7.993714686018793536e+00,-7.136953216328052463e+00,-6.836054228742386663e+00,8.107982391399500000e-02,9.838443326184724835e-01,1.596069902250729367e-01,3.088811760806968891e+02
-7.861240339160310064e+00,-7.047029853303589775e+00,-7.316850148302801671e+00,1.202547528576992514e-01,9.566314911224695905e-01,2.653167627726186195e-01,3.104704651665538790e+02
-7.714198257620259902e+00,-6.932806594070005879e+00,-7.846111351869653916e+00,1.578122758224531907e-01,9.165521556103991552e-01,3.674580678744239770e-01,3.121493063977750353e+02
-7.558531237658887569e+00,-6.801759593104301338e+00,-8.391668208529274864e+00,1.932472512690127098e-01,8.641453910704877117e-01,4.646571240916265721e-01,3.138281476289961915e+02
-7.393265370061160802e+00,-6.657171776766659832e+00,-8.945543557203013307e+00,2.260830863773561072e-01,8.001160645898474089e-01,5.556066245465611786e-01,3.155069888602173478e+02
-7.217463690589372760e+00,-6.502331738934595151e+00,-9.499760171671315589e+00,2.558781471538286167e-01,7.253253641091970128e-01,6.390833200685656079e-01,3.171858300914385040e+02
-7.030226194487379843e+00,-6.340533544363265328e+00,-1.004634082291101471e+01,2.822316982334162616e-01,6.407792146972540737e-01,7.139644714727254593e-01,3.188646713226596603e+02
-6.830848662131787208e+00,-6.175290483344974213e+00,-1.057744712232396900e+01,3.047892924972596673e-01,5.476147482561699587e-01,7.792429497099214730e-01,3.205435125538808165e+02
-6.618994960309210640e+00,-6.010568554542452979e+00,-1.108585852391929194e+01,3.232475380382590080e-01,4.470850087367330139e-01,8.340407808473885298e-01,3.222223537851019728e+02
-6.394553661936486222e+00,-5.850591296934262608e+00,-1.156517375988446794e+01,3.373581783923914057e-01,3.405420986485929169e-01,8.776209537843587816e-01,3.239011950163231290e+02
-6.167762032051995469e+00,-5.705398463403679621e+00,-1.199249243716107571e+01,3.469314311961577135e-01,2.294189935806829062e-01,9.093973319920788390e-01,3.255105737869507720e+02
-5.929807180848491122e+00,-5.571744989811840298e+00,-1.238371996990034241e+01,3.518385404063183453e-01,1.152102693228961444e-01,9.289425360747919358e-01,3.271199525575784151e+02
-5.680694849152369663e+00,-5.452951150307562500e+00,-1.273371204371774645e+01,3.520135077923879363e-01,-5.479992337527160454e-04,9.359936912342581294e-01,3.287293313282060581e+02
-5.420411377345225823e+00,-5.351807312451025922e+00,-1.303727188364715950e+01,2.667117791109648306e-01,2.447389377469652225e-02,9.634645065623386184e-01,3.303387100988337011e+02
-5.148945001841596536e+00,-5.270839053546498398e+00,-1.328917666974987988e+01,1.791010901817740864e-01,4.928391228887925996e-02,9.825944715311299982e-01,3.319480888694613441e+02
-4.806096491872255960e+00,-5.207263583096113813e+00,-1.350729781809499208e+01,8.993987732009491032e-02,7.366727837904697707e-02,9.932179773654231658e-01,3.338834695940711299e+02
-4.444287088517213213e+00,-5.188380199680607596e+00,-1.361864829462587423e+01,0.000000000000000000e+00,9.741290686787916486e-02,9.952430484926604315e-01,3.358188503186809157e+02
-4.064862997877601636e+00,-5.219388577262664697e+00,-1.362441105532984587e+01,-0.000000000000000000e+00,-9.695091807975529663e-02,9.952881590151888558e-01,3.377542310432907016e+02
-3.750059836308263783e+00,-5.279529499746399956e+00,-1.356480509532509160e+01,-4.291282096655081070e-03,-2.252196961352708748e-01,9.742975281538440724e-01,3.393072186219453101e+02
-3.428435398247990928e+00,-5.368915296777429624e+00,-1.346129410083719868e+01,-8.509987894250357898e-03,-3.496795025689147796e-01,9.368296673276681474e-01,3.408602062005999187e+02
-3.101072769178869315e+00,-5.488797908899083033e+00,-1.331930100279221740e+01,-7.525276839494735026e-03,-2.888018937096377692e-01,9.573582591684978160e-01,3.424131937792545273e+02
-2.769067938228122472e+00,-5.640423385750644947e+00,-1.314424898931930308e+01,-6.509497914867861529e-03,-2.267319778936881802e-01,9.739344108497848262e-01,3.439661813579091358e+02
-2.433409990269479017e+00,-5.824348747301725915e+00,-1.294120390831414191e+01,-5.466844694432428445e-03,-1.637260063597008319e-01,9.864896899869861624e-01,3.455191689365637444e+02
-2.094851694703840916e+00,-6.039759755222954496e+00,-1.271451667239250760e+01,-4.401621693856015705e-03,-1.000440944872977578e-01,9.949722633745504696e-01,3.470721565152183530e+02
-1.718521687355089478e+00,-6.313887528356989520e+00,-1.244075070996808030e+01,-3.318226602569682160e-03,-3.594914811486257106e-02,9.993471109288953880e-01,3.487856200276899585e+02
-1.339918218318840726e+00,-6.625903181490461868e+00,-1.214651746244184238e+01,-2.221132131458964602e-03,2.829422165749335971e-02,9.995961702570690388e-01,3.504990835401615641e+02
-9.599116781357275308e-01,-6.973572519474669384e+00,-1.183773528266217490e+01,-1.114867550911389929e-03,9.242079070677156061e-02,9.957184112564252398e-01,3.522125470526331696e+02
-5.793463467457271587e-01,-7.354656348540297373e+00,-1.152032264172116882e+01,-3.999995304131439757e-06,1.561658166662475977e-01,9.877298404362626627e-01,3.539260105651047752e+02
-1.985714833976075233e-01,-7.766415675180613043e+00,-1.119870699077006471e+01,-3.431258075468773590e-06,1.373532654656963448e-01,9.905211155965775172e-01,3.556394740775763808e+02
1.830352667114976684e-01,-8.205120781678116870e+00,-1.087433363497344097e+01,-2.861279878233495316e-06,1.184910373819077628e-01,9.929541147710270188e-01,3.573529375900479863e+02
5.638931854000795996e-01,-8.663184254792962946e+00,-1.054947180260718120e+01,-2.290266830177746974e-06,9.958595345257659215e-02,9.950279583300892794e-01,3.590543796104893772e+02
9.478184120236711196e-01,-9.139414446272699166e+00,-1.022182032923945449e+01,-1.718425422772605465e-06,8.064485019431115453e-02,9.967418964421337346e-01,3.607558216309307682e+02
1.336011051179355036e+00,-9.629723481302599808e+00,-9.891334776370584336e+00,-1.145962446714471925e-06,6.167457713616028570e-02,9.980953093380336982e-01,3.624572636513721591e+02
1.729718634289446610e+00,-1.013003110355788827e+01,-9.557970728086363721e+00,-5.730849173465950719e-07,4.268199434934798892e-02,9.990877075345891978e-01,3.641587056718135500e+02
2.130236098402168210e+00,-1.063626493118873206e+01,-9.221683791419906129e+00,-0.000000000000000000e+00,2.367396997322678345e-02,9.997187320112477238e-01,3.658601476922549409e+02
2.538042270958813962e+00,-1.114456252932565405e+01,-8.881692400706333146e+00,-1.815685972366613410e-06,8.631051170094888869e-02,9.962672811885360247e-01,3.675615897126963318e+02
2.951933232263307616e+00,-1.165146641336120226e+01,-8.535740627855012974e+00,-3.624226711587903945e-06,1.486073979362688424e-01,9.888952630413665457e-01,3.692630317331377228e+02
3.345106816567297692e+00,-1.212459250400225841e+01,-8.202307722523627831e+00,-5.418505219052842428e-06,2.103194769713875589e-01,9.776316881000031156e-01,3.708643974005989890e+02
3.739996142148485525e+00,-1.259135031072713140e+01,-7.859059863068639906e+00,-7.191460618315129887e-06,2.712038983333718289e-01,9.625208805408472790e-01,3.724657630680602551e+02
4.135066969700945450e+00,-1.304915924915769843e+01,-7.503648629115424740e+00,-8.936115937843508848e-06,3.310210683394158027e-01,9.436223038035528310e-01,3.740671287355215213e+02
4.528813188092483344e+00,-1.349542988092989759e+01,-7.133725686680993050e+00,-1.064560556384511033e-05,3.895355928452018390e-01,9.210103266485138995e-01,3.756684944029827875e+02
4.919756836927546395e+00,-1.392756405663049435e+01,-6.746942804876926658e+00,-1.231320225525063741e-05,4.465172034807274315e-01,8.947739305789715880e-01,3.772698600704440537e+02
5.306448128805801190e+00,-1.434295505882935728e+01,-6.340951872611768181e+00,-1.393234361465973069e-05,5.017416637323274253e-01,8.650163597761567624e-01,3.788712257379053199e+02
5.687465471276275331e+00,-1.473898774520590393e+01,-5.913404915292780117e+00,-1.549665791116819078e-05,5.549916513083045233e-01,8.318547149214672309e-01,3.804725914053665861e+02
6.061415488486890268e+00,-1.511303869176848735e+01,-5.461954111526972966e+00,-1.699998915352857377e-05,6.060576133181894143e-01,7.954194924999823391e-01,3.820739570728278522e+02
6.427137772732232968e+00,-1.546273178423804318e+01,-4.985022398593742743e+00,-8.714160024713584786e-06,6.747554542646525544e-01,7.380400238874712526e-01,3.836753227402891184e+02
6.853063129074940640e+00,-1.584350691125739985e+01,-4.375332519001839948e+00,-3.585205410199641569e-07,7.380472384462178903e-01,6.747475630322210538e-01,3.855974869278406914e+02
7.262812887891968217e+00,-1.617516426117275330e+01,-3.723044285362865136e+00,7.999989140413108610e-06,7.954259202489223357e-01,6.060491773184206732e-01,3.875196511153922643e+02
7.654628486361117368e+00,-1.645524868137617958e+01,-3.030625071406892967e+00,6.003447275242286630e-06,8.086875497486893938e-01,5.882367268597092913e-01,3.894418153029438372e+02
7.964693878834232521e+00,-1.665086747071006457e+01,-2.431602172078649371e+00,4.003944591395868871e-06,8.215503719717091036e-01,5.701341826957058156e-01,3.910340298006260582e+02
8.260704072753188854e+00,-1.681713266377443006e+01,-1.814733359663952772e+00,2.002466653143350101e-06,8.340080464920200942e-01,5.517504674787980790e-01,3.926262442983082792e+02
8.540767084012774291e+00,-1.695415142735227576e+01,-1.182511082637923705e+00,0.000000000000000000e+00,8.460544322668346329e-01,5.330946422741880131e-01,3.942184587959905002e+02
8.803024968323091670e+00,-1.706228051384768563e+01,-5.377791655492413225e-01,-4.820826492293019128e-02,8.823206484469500177e-01,4.681711615612655364e-01,3.958106732936727212e+02
9.036588216615653479e+00,-1.714018009565762313e+01,8.902810987612963523e-02,-9.603787901766490387e-02,9.116568066446733010e-01,3.995705102891313198e-01,3.973379658955657874e+02
9.251349985417236965e+00,-1.719432913399656115e+01,7.204463599968564669e-01,-1.431131713361313007e-01,9.338324929755451587e-01,3.278315043644232096e-01,3.988652584974588535e+02
9.445803892545123759e+00,-1.722566541578845545e+01,1.353175578142551849e+00,-1.890643961725632649e-01,9.486735350473675110e-01,2.535176088587287602e-01,4.003925510993519197e+02
9.618432988804059391e+00,-1.723511824236140200e+01,1.983915749155765740e+00,-2.335306372001663133e-01,9.560633697694566058e-01,1.772125121850524065e-01,4.019198437012449858e+02
9.767709779053049601e+00,-1.722360837808714962e+01,2.609366870730356780e+00,-2.761626422186226892e-01,9.559439586337196149e-01,9.951554147806541961e-02,4.034471363031380520e+02
9.892096243377073606e+00,-1.719204799910645676e+01,3.226228974749796308e+00,-3.166255662481883837e-01,9.483162433044955986e-01,2.103695520210341341e-02,4.049744289050311181e+02
9.990043858363577556e+00,-1.714134064214075437e+01,3.831202148625307835e+00,-3.546016014287784457e-01,9.332401379573836975e-01,-5.760685003445976254e-02,4.065017215069241843e+02
1.005999361848367002e+01,-1.707238115339049145e+01,4.420986556633737408e+00,-3.897924730740328636e-01,9.108340584458703981e-01,-1.357981808105405142e-01,4.080290141088172504e+02
1.010037605757783474e+01,-1.698605563752062864e+01,4.992282461255047821e+00,-4.219217822837038057e-01,8.812739920112185876e-01,-2.129228983478907711e-01,4.095563067107103166e+02
1.010961127044610564e+01,-1.688324140673363871e+01,5.541790244509343211e+00,-4.507371767244026106e-01,8.447921148573285244e-01,-2.883752419941771894e-01,4.110835993126033827e+02
1.008610893454252455e+01,-1.676480692993050425e+01,6.066210429293304784e+00,-4.760123325391987792e-01,8.016749684599806525e-01,-3.615625868603486448e-01,4.126108919144964489e+02
1.002826833177379839e+01,-1.663161178196004641e+01,6.562243700715946204e+00,-4.975487318301110573e-01,7.522612089413860392e-01,-4.319100982591105309e-01,4.141381845163895150e+02
9.925033633222634322e+00,-1.647323015729513784e+01,7.056350407040430817e+00,-5.151772217625080197e-01,6.969389471894419374e-01,-4.988652464037193202e-01,4.157720594580900979e+02
9.776493825770021573e+00,-1.629922412245917940e+01,7.508109141348418447e+00,-4.711698250525133691e-01,6.409557283566804653e-01,-6.059478114891631018e-01,4.174059343997906808e+02
9.583147403271700782e+00,-1.611153744467684490e+01,7.915492522836781397e+00,-4.193704694032804325e-01,5.743727203469485287e-01,-7.030095216392946433e-01,4.190398093414912637e+02
9.346348416662527470e+00,-1.591240098594819408e+01,8.277237801696625041e+00,-3.606357834583678867e-01,4.982910355864810792e-01,-7.884452267249042468e-01,4.206736842831918466e+02
9.067423944322444029e+00,-1.570405342108053759e+01,8.592082565842499520e+00,-2.959370872987276413e-01,4.139688686939323459e-01,-8.608420390031479297e-01,4.223075592248924295e+02
8.747674072246125476e+00,-1.548874109729657178e+01,8.858764750252333897e+00,-2.263443299816221832e-01,3.228006900576384508e-01,-9.190026979204383162e-01,4.239414341665930124e+02
8.388371874519529925e+00,-1.526871789375710975e+01,9.076022646305448305e+00,-1.530083961310036433e-01,2.262941859352027851e-01,-9.619653695049218411e-01,4.255753091082935953e+02
7.990763394103431949e+00,-1.504624508099972324e+01,9.242594911118580114e+00,-7.714207405483466951e-02,1.260453262576606281e-01,-9.890195529615819492e-01,4.272091840499941782e+02
7.514025070822654584e+00,-1.480418694191075879e+01,9.362030715325692753e+00,-0.000000000000000000e+00,2.371197228180339442e-02,-9.997178313761895252e-01,4.289872703554020745e+02
6.991490632290773277e+00,-1.456493174977462779e+01,9.415309738390897465e+00,-7.892990921127130202e-03,0.000000000000000000e+00,-9.999678497920404530e-01,4.307653566608099709e+02
6.426657670480863338e+00,-1.433012454063445418e+01,9.408879289866554529e+00,-2.872728885472881633e-01,3.020151847007489232e-02,-9.573714826484192031e-01,4.325434429662178673e+02
5.840705100362891145e+00,-1.410564970141316721e+01,9.355270105907464995e+00,-5.434469747315679999e-01,5.796336819077416852e-02,-8.374387342386809818e-01,4.342762899229354048e+02
5.225336964589549105e+00,-1.388502811209299814e+01,9.265306143266833772e+00,-7.557215732820177223e-01,8.104295423911778151e-02,-6.498576330580629890e-01,4.360091368796529423e+02
4.585987524012545613e+00,-1.366762439481556868e+01,9.147671826671590622e+00,-6.115149142376264946e-01,9.641599621263295672e-02,-7.853352566502768140e-01,4.377419838363704798e+02
3.985788663008579036e+00,-1.347038257185034560e+01,9.022263658574265932e+00,-4.432229302732431653e-01,1.079915881966053010e-01,-8.898815937847283086e-01,4.393273710104307952e+02
3.376673922263762950e+00,-1.327343077294331586e+01,8.885140512108215205e+00,-2.574739619737981822e-01,1.153138048074176941e-01,-9.593789060240146549e-01,4.409127581844911106e+02
2.763282393394249858e+00,-1.307574748936460907e+01,8.740503001009320982e+00,-6.158395249877657296e-02,1.180942434069155444e-01,-9.910898881866269106e-01,4.424981453585514259e+02
2.150263809241388824e+00,-1.287633777026972126e+01,8.592551791277536211e+00,1.367316977029822134e-01,1.162233860325112417e-01,-9.837655042636471725e-01,4.440835325326117413e+02
1.542278477018092842e+00,-1.267423327601461303e+01,8.445487571901802326e+00,3.296620231152499469e-01,1.097749153141582001e-01,-9.376942030747426049e-01,4.456689197066720567e+02
9.439972113431613909e-01,-1.246849233118883404e+01,8.303511025584842997e+00,5.096081590780147108e-01,9.900281355549056528e-02,-8.546905680455579857e-01,4.472543068807323721e+02
3.601012671639697293e-01,-1.225819997736619271e+01,8.170822799468007602e+00,6.694826561777903473e-01,8.433135883447590020e-02,-7.380238444599726000e-01,4.488396940547926874e+02
-2.047177274320615969e-01,-1.204246802557252849e+01,8.051623475856285239e+00,8.029886460050812413e-01,6.633841231103834724e-02,-5.922891603235169722e-01,4.504250812288530028e+02
-3.554095277932694530e-01,-1.198277481204788764e+01,8.021449378146199294e+00,9.048678568021243374e-01,4.573265567638402918e-02,-4.232265184620244147e-01,4.508570014242857837e+02
-9.595261983324608890e-01,-1.172988119724831968e+01,7.909298712884944571e+00,9.711077085916172136e-01,2.332567623659526079e-02,-2.374946970797414125e-01,4.526471057173492909e+02
-1.521915479992552500e+00,-1.146623649519806953e+01,7.820739141212192713e+00,9.990993339585199084e-01,0.000000000000000000e+00,-4.240897172840243229e-02,4.544372100104127981e+02
-2.036261471189210415e+00,-1.119032065701179945e+01,7.752510873206463593e+00,9.990993332535061944e-01,-0.000000000000000000e+00,-4.240897169847657883e-02,4.562273143034763052e+02
-2.495944558135957170e+00,-1.090074024208368009e+01,7.697861357702545426e+00,6.921409340576635261e-01,-0.000000000000000000e+00,-7.217609904965988088e-01,4.580174185965398124e+02
-2.894183962283161549e+00,-1.059618757621374563e+01,7.648291632509789828e+00,5.299993955616641179e-04,-0.000000000000000000e+00,-9.999988595503095379e-01,4.598075228896033195e+02
-3.252210144649155144e+00,-1.023771850720832433e+01,7.590651444556881344e+00,4.169530785743756907e-01,4.529412474209571632e-02,-9.077976495522456224e-01,4.617980492884489081e+02
-3.508864973841936408e+00,-9.856880730064579765e+00,7.525778837873788873e+00,7.566728811008494038e-01,8.225587836747591530e-02,-6.485970409135887182e-01,4.637885756872944967e+02
-3.658464321454326651e+00,-9.454206934029388165e+00,7.451386703091926300e+00,7.550757964904738495e-01,2.554995927611568990e-02,-6.551379557806323861e-01,4.657791020861400852e+02
-3.704888126365847523e+00,-9.080280097843745679e+00,7.376351785648640913e+00,6.378742543269592113e-01,1.240828798227212038e-01,-7.600775451250559867e-01,4.675486979039659445e+02
-3.675121140634765471e+00,-8.694143476231134926e+00,7.292405488308978612e+00,4.986932446768944094e-01,2.183402531658568124e-01,-8.388269079866401690e-01,4.693182937217918038e+02
-3.592022213014875565e+00,-8.350519478642643989e+00,7.212024053356284270e+00,3.423285350037110764e-01,3.050742323934313438e-01,-8.886725419706992257e-01,4.708566169981860412e+02
-3.462236744477218853e+00,-8.001618346550740668e+00,7.124836532970866720e+00,1.741680032913324183e-01,3.812961925762965443e-01,-9.078968664758643170e-01,4.723949402745802786e+02
-3.289089369758340098e+00,-7.648999815973969163e+00,7.030526145667024274e+00,5.999996079955432846e-06,4.443797096684325432e-01,-8.958374147125192088e-01,4.739332635509745160e+02
-3.075884159274898444e+00,-7.294208205839818326e+00,6.928647973702146246e+00,-2.306513462730577085e-02,3.985177464148167426e-01,-9.168694592773080076e-01,4.754715868273687533e+02
-2.825869773417147623e+00,-6.938775699451900536e+00,6.818500783077277028e+00,-4.606527057889397980e-02,3.514291765664014910e-01,-9.350794216016892202e-01,4.770099101037629907e+02
-2.520093396535732833e+00,-6.559549212152054665e+00,6.690165356558927634e+00,-6.892361564629416459e-02,3.032589350963585395e-01,-9.504112549255870901e-01,4.786557788078009708e+02
-2.177539551799248407e+00,-6.183281379029364366e+00,6.549601891743924931e+00,-9.156981413887105292e-02,2.541552858707411544e-01,-9.628177708172112048e-01,4.803016475118389508e+02
-1.802477446017886065e+00,-5.811910378341172745e+00,6.395723766980154323e+00,-1.139341633962921291e-01,2.042693653700792256e-01,-9.722607843482423684e-01,4.819475162158769308e+02
