-4.075445544193370573e+00,-4.330529569682258995e+00,-1.031150245956235345e+01,-8.173038077216304709e-01,-3.573045374637991156e-02,5.750963576253622644e-01,1.984780225039535253e+02
-4.408925696081535506e+00,-4.758424334752929141e+00,-1.060847419106558398e+01,-7.482074175238778713e-01,6.226665131195815994e-02,6.605350289686646725e-01,2.050234078042236376e+02
-4.650722155829591919e+00,-5.147450227805533629e+00,-1.077214602631259588e+01,-6.628917414051280765e-01,1.589139466398737099e-01,7.316549027637381242e-01,2.115687931044937500e+02
-4.687476229200150613e+00,-5.229625883916199314e+00,-1.078238415154018881e+01,-5.632061787510307393e-01,2.521163963415398723e-01,7.869143046799975671e-01,2.131970330455634439e+02
-4.689422624022840047e+00,-5.239393011408286505e+00,-1.077971972400088774e+01,-4.748223618461419604e-01,1.848089313282144652e-01,8.604576593763456627e-01,2.134401989332307039e+02
-4.654324264431038749e+00,-5.428281340262868682e+00,-1.059850384503063836e+01,-4.445012155827395839e-01,1.574590119655686626e-01,8.818295350488434270e-01,2.199855842335008163e+02
-4.553936513819170528e+00,-5.532283410898402032e+00,-1.032259024760534949e+01,-4.132358867198887564e-01,1.297746304366778347e-01,9.013282682851796457e-01,2.265309695337709286e+02
-4.535018333077334596e+00,-5.533686286039698921e+00,-1.027661114705881573e+01,-3.810927735678861783e-01,1.018145802630166519e-01,9.189124491309351717e-01,2.274044568476214181e+02
-4.369458098791916711e+00,-5.448905662580671105e+00,-9.889321424022334384e+00,-6.793200022317749665e-02,8.770201470337389560e-02,9.938267454451704674e-01,2.339498421478915304e+02
-4.257430500129360418e+00,-5.329581673154176080e+00,-9.621409876680200313e+00,2.522855514872625049e-01,6.447886596683415072e-02,9.655011529530614922e-01,2.383110764775583164e+02
-4.111341352300826202e+00,-5.060748465383596795e+00,-9.228431394702633739e+00,4.081566866706607954e-01,7.069236255246762538e-03,9.128834235662488528e-01,2.448564617778284287e+02
-4.012042080446655667e+00,-4.725770529341702719e+00,-8.872727302103303515e+00,5.516360373195055011e-01,-5.055501821829908732e-02,8.325502221849037099e-01,2.511634238544540949e+02
-3.970258155007447165e+00,-4.313584799141739978e+00,-8.533732675600159467e+00,1.339133180515719168e-01,-1.387891100051988069e-01,9.812251557071572927e-01,2.577088091547242357e+02
-3.992573182461021997e+00,-3.991760894512095259e+00,-8.316774713563464871e+00,-3.111790340748397665e-01,-1.986571955942668943e-01,9.293551137161415454e-01,2.622794179026915344e+02
-4.098509912789488396e+00,-3.501352688534547841e+00,-8.025555374725716007e+00,4.139513537541432420e-02,-4.896861183825720193e-02,9.979411394574667638e-01,2.688248032029616752e+02
-4.256321840090922848e+00,-3.043858501007585371e+00,-7.758749125297342175e+00,3.877012025203740997e-01,1.081347452947566262e-01,9.154193871793750992e-01,2.748759631991309789e+02
-4.478125514626623449e+00,-2.574929276942041767e+00,-7.448659451497112727e+00,3.326886287477228143e-01,1.743619859801288641e-01,9.267762265737017335e-01,2.814213484994011196e+02
-4.732673126020630505e+00,-2.163968842625933142e+00,-7.087200147834409769e+00,2.751671270483348475e-01,2.392742694687037819e-01,9.311438536324209148e-01,2.879667337996712604e+02
-4.998164342386272274e+00,-1.842161105287982270e+00,-6.640355218226569711e+00,2.155704667946786168e-01,3.023820936182659569e-01,9.284893339720493577e-01,2.945109145187357740e+02
-5.253509109021561763e+00,-1.637570607878961138e+00,-6.101755116112308919e+00,4.079551134544994184e-01,3.647962002668361098e-02,9.122718140602673609e-01,3.010562998190059147e+02
-5.393279485918441196e+00,-1.593626561783395568e+00,-5.751821833179741716e+00,5.562891010910339107e-01,-2.333619121530597085e-01,7.975479007325291247e-01,3.049459099440690011e+02
-5.615410560224237457e+00,-1.634277193819592355e+00,-5.165911447218835661e+00,5.830342663162519923e-01,-2.795638691996332748e-01,7.628322799452416092e-01,3.114912952443391418e+02
-5.635887852201175718e+00,-1.646301580129258646e+00,-5.115429666880317860e+00,6.074151657871824650e-01,-3.246321660647664142e-01,7.250232914290111186e-01,3.120989834406892101e+02
-5.860711528842203144e+00,-1.841650420324514981e+00,-4.637156714112077971e+00,6.252783339357170789e-01,-4.074831514344907091e-01,6.655692949654723467e-01,3.186443687409593508e+02
-5.948328163054581452e+00,-1.930507684883876252e+00,-4.485775611548582731e+00,6.364396577657712717e-01,-4.859666596822586615e-01,5.989816088103300240e-01,3.211354544923415233e+02
-6.181486119197367124e+00,-2.172343597662978354e+00,-4.176437659390796142e+00,5.108752829613931734e-01,-6.527789015635320213e-01,5.593604838836885307e-01,3.276808397926116641e+02
-6.365899774575319192e+00,-2.347601363639206351e+00,-3.996800758728535463e+00,3.622383980619957589e-01,-7.901099295437227221e-01,4.944771402231247781e-01,3.329351214666612009e+02
-6.515486275917823811e+00,-2.465482487335237227e+00,-3.892698980178685542e+00,5.100986585967973719e-01,-8.458089506815114067e-01,1.562196448635234380e-01,3.374566577261890643e+02
-6.588708372962081228e+00,-2.507412544498823337e+00,-3.857423933555956364e+00,4.839660102476455728e-01,-8.722903509155588431e-01,-6.988880180578091461e-02,3.398844513119835824e+02
-6.711544614599747050e+00,-2.545456069047941305e+00,-3.818331321147710344e+00,5.139586019362609726e-01,-7.141474805830581030e-01,-4.752240855322343305e-01,3.443790851872035432e+02
-6.879232350262197926e+00,-2.544584201468824247e+00,-3.774966629790925676e+00,5.096266615671168898e-01,-6.263482423260319232e-01,-5.898868918308778353e-01,3.509244704874736840e+02
-7.049039587621464875e+00,-2.484900450457080190e+00,-3.712068786604362902e+00,4.946562345804970673e-01,-5.254739762141926729e-01,-6.922357329056187947e-01,3.574698557877438247e+02
-7.238678250439833484e+00,-2.365032812653487859e+00,-3.596455972909638810e+00,4.693598336776590996e-01,-4.136304248608043688e-01,-7.801341026763589648e-01,3.640152410880139655e+02
-7.250494217439760192e+00,-2.355666625782493639e+00,-3.586351915566764248e+00,4.342655170122947106e-01,-2.931523029169125771e-01,-8.517471385495974934e-01,3.643601103569671409e+02
-7.401335688378357425e+00,-2.221268421105732749e+00,-3.428731188650873563e+00,5.820678967487896704e-01,-3.510441665466324523e-01,-7.334595808225451430e-01,3.680920722421590199e+02
-7.702848766791088764e+00,-1.921730426690903881e+00,-3.070921425692560547e+00,7.809320662466888718e-01,-3.189130041666086157e-01,-5.370638729987016191e-01,3.746374575424291606e+02
-7.837033614720333219e+00,-1.771851051979161928e+00,-2.897041047413092318e+00,9.179848339286261760e-01,-2.615396235117836143e-01,-2.981591353776934517e-01,3.772939840628650927e+02
-8.181325718684384185e+00,-1.327761330602485579e+00,-2.415875009447540300e+00,8.802264804239211538e-01,-4.101555619735258174e-01,-2.386875743340305389e-01,3.838393693631352335e+02
-8.520630028711586590e+00,-8.042752102147752158e-01,-1.907027296741406586e+00,8.186586226389297449e-01,-5.476770470565768267e-01,-1.727596935198975614e-01,3.903847546634053742e+02
-8.535085218093016124e+00,-7.780113193603425126e-01,-1.884447586593070545e+00,7.349466032713866115e-01,-6.703842750362389857e-01,-1.021587691896634620e-01,3.906701809640483702e+02
-8.853500845638455630e+00,-9.817945934782713879e-02,-1.367806539675857413e+00,6.255129458152365318e-01,-7.793522000682479023e-01,-3.662926244039212131e-02,3.972155662643185110e+02
-9.137625360905145655e+00,6.561035305069726764e-01,-8.677787151143389055e-01,4.984749143282936057e-01,-8.663861073839110860e-01,2.993113292520487023e-02,4.037609515645886518e+02
-9.365113985287798926e+00,1.477093043235920611e+00,-4.047439217394399602e-01,3.574078571087999090e-01,-9.290365247516335634e-01,9.564914717324714266e-02,4.103063368648587925e+02
-9.513839281219301114e+00,2.356374082726922836e+00,9.224294307105352720e-04,2.062819530461544870e-01,-9.655402273954388770e-01,1.586752190145889196e-01,4.168517221651289333e+02
-9.561898763689754333e+00,3.284866268090171904e+00,3.288517440766908217e-01,4.935047495891344005e-02,-9.748698614059146950e-01,2.172355494491399197e-01,4.233971074653990740e+02
-9.494856453120920747e+00,4.251871952236385255e+00,5.650432415353950910e-01,-1.089699141182395026e-01,-9.567628568053946347e-01,2.696820232336425982e-01,4.299424927656692148e+02
-9.313024387715792329e+00,5.244422087144934075e+00,7.082241955450639948e-01,-2.642234627640224209e-01,-9.117288167114869779e-01,3.145385930273392194e-01,4.364878780659393556e+02
-9.024291770870410900e+00,6.248686160578276194e+00,7.634915059308757801e-01,-4.120407328539361647e-01,-8.410351747833190172e-01,3.505428208466668250e-01,4.430332633662094963e+02
-8.871184242628389782e+00,6.649250075455862330e+00,7.522241877211823802e-01,-5.482615719417870404e-01,-7.466715246887430935e-01,3.766814077594625165e-01,4.456396917800642541e+02
-8.396873777434091579e+00,7.647222407029774516e+00,6.439430827243692868e-01,-5.231604778681552270e-01,-7.497799125050479407e-01,4.051310864391265421e-01,4.521850770803343949e+02
-7.836044596783934502e+00,8.624012388204269186e+00,4.600166689825574973e-01,-4.973012675979276986e-01,-7.518017834977922531e-01,4.329936807550417432e-01,4.587304623806045356e+02
-7.197804950205124008e+00,9.566679684611482770e+00,2.055777753554108023e-01,-4.707214137558891065e-01,-7.527342081308534549e-01,4.602288154169877910e-01,4.652758476808746764e+02
-6.491614145150520265e+00,1.046256371896233439e+01,-1.142323942251478736e-01,-4.434594331678960444e-01,-7.525758355091107799e-01,4.867970243757492321e-01,4.718212329811448171e+02
-5.727279327417370780e+00,1.129929163580685625e+01,-4.942648706253194857e-01,-4.155548310535601142e-01,-7.513268953312743914e-01,5.126598080002631175e-01,4.783666182814149579e+02
-4.914952191363894940e+00,1.206478620788659128e+01,-9.293635300988479786e-01,-3.870480437884386005e-01,-7.489891975544549219e-01,5.377796888552459631e-01,4.849120035816850987e+02
-4.065125620221126113e+00,1.274727368292878538e+01,-1.414365705515541416e+00,-3.579803803179396615e-01,-7.455661297701711154e-01,5.621202659982245109e-01,4.914573888819552394e+02
-3.188630256917733607e+00,1.333529156960421780e+01,-1.944102798221320150e+00,-3.283939623076959080e-01,-7.410626522956109685e-01,5.856462677174515408e-01,4.980027741822253802e+02
-2.296631039371370697e+00,1.381769635258183548e+01,-2.513400927988084455e+00,-2.983316631169735111e-01,-7.354852909872577893e-01,6.083236026344315261e-01,5.045481594824955209e+02
-1.399776925223920276e+00,1.418596745366803269e+01,-3.116864407164578132e+00,-2.678370456833878421e-01,-7.288421277872701998e-01,6.301194090971421469e-01,5.110935447827656617e+02
-5.070369686334471604e-01,1.443777570273228328e+01,-3.748677344261067024e+00,-2.369542994087587839e-01,-7.211427890162757093e-01,6.510021027924942638e-01,5.176389300830358025e+02
3.738703508218709781e-01,1.457592946536567169e+01,-4.402839649737710914e+00,-2.057281761373854490e-01,-7.123984314294856679e-01,6.709414225091454576e-01,5.241843153833059432e+02
1.141132346129227093e+00,1.460213503934286194e+01,-4.999981544636312947e+00,-1.742039253193294890e-01,-7.026217260562568345e-01,6.899084739844337788e-01,5.300117934853070665e+02
1.976854637310103913e+00,1.452712623854931095e+01,-5.681574153633031088e+00,-2.090346543036536164e-01,-7.798247189534929236e-01,5.900643363311177669e-01,5.365571787855772072e+02
2.779528319391310287e+00,1.435153803193410127e+01,-6.368213875912786648e+00,-2.402820359731654143e-01,-8.436596727867029522e-01,4.801050923522603986e-01,5.431025640858473480e+02
3.542115746183659208e+00,1.408026916652610261e+01,-7.053912314567297948e+00,-2.674104164799743777e-01,-8.930323044723198489e-01,3.619156978182915818e-01,5.496479493861174888e+02
4.257710015452316199e+00,1.371841275899618218e+01,-7.732681162231875405e+00,-2.899547504242254159e-01,-9.270962465726944046e-01,2.375221932736875652e-01,5.561933346863876295e+02
4.919537044357960909e+00,1.327125332340485819e+01,-8.398532910033400967e+00,-3.075285728650037909e-01,-9.452675564482219128e-01,1.090569740922541775e-01,5.627387199866577703e+02
5.520957618837670111e+00,1.274426376206180578e+01,-9.045481556478931040e+00,-3.198306244346470484e-01,-9.472347272352514835e-01,-2.127776288222356024e-02,5.692841052869279110e+02
6.055469416700961283e+00,1.214310231995771083e+01,-9.667543316211427040e+00,-3.266500159586271379e-01,-9.329640289155571864e-01,-1.512477696486332623e-01,5.758294905871980518e+02
6.516709004223555368e+00,1.147360950322132922e+01,-1.025873732858645937e+01,-3.278698439991094005e-01,-9.027000877512749710e-01,-2.786250472758998176e-01,5.823748758874681926e+02
6.898453806031798585e+00,1.074180496204924218e+01,-1.081308636602050122e+01,-3.234691952822375538e-01,-8.569616939660508192e-01,-4.012260395062008933e-01,5.889202611877383333e+02
7.194624048064738986e+00,9.953884338589189085e+00,-1.132461754201147386e+01,-3.135235055839514229e-01,-7.965329093618684908e-01,-5.169490649467409771e-01,5.954656464880084741e+02
7.399284673388757838e+00,9.116216080282168122e+00,-1.178736301874627834e+01,-2.982032668638574524e-01,-7.224496271678079173e-01,-6.238103460477466555e-01,6.020110317882786148e+02
7.506647230665921100e+00,8.235338219135593718e+00,-1.219536071425256551e+01,-2.777711047667586475e-01,-6.359818144344626667e-01,-7.199780170704421778e-01,6.085564170885487556e+02
7.510276099292551244e+00,7.862874757870172537e+00,-1.233670489342239840e+01,-2.525772765689301425e-01,-5.386117413696905887e-01,-8.038035278717989840e-01,6.112118990049212925e+02
7.416808358749871211e+00,6.912660198914452714e+00,-1.262131496862780722e+01,-3.693184461291315057e-01,-5.501816355931945512e-01,-7.489339444865324991e-01,6.177572843051914333e+02
7.215953666199540706e+00,5.936968322769571316e+00,-1.283834768492231149e+01,-4.798650131308728195e-01,-5.525232958961341367e-01,-6.815024406885042962e-01,6.243026696054615741e+02
6.913073271819844656e+00,4.944205285700737029e+00,-1.298631685384781953e+01,-5.823627684214292000e-01,-5.455974457036891767e-01,-6.026400527658268835e-01,6.308480549057317148e+02
6.517269290778704871e+00,3.943053085060209906e+00,-1.306522744954109960e+01,-6.750925078571541338e-01,-5.295202544314870918e-01,-5.136695494006811025e-01,6.373934402060018556e+02
6.037854412891162426e+00,2.941906901983066813e+00,-1.307509260446418509e+01,-7.564988692482198518e-01,-5.045613887021629385e-01,-4.160832439029168994e-01,6.439388255062719963e+02
5.484348543680225951e+00,1.948870413518089872e+00,-1.301593360757300211e+01,-8.252164207931751427e-01,-4.711394887484504079e-01,-3.115179625558595622e-01,6.504842108065421371e+02
4.866475404929452964e+00,9.717511655393894499e-01,-1.288777990176363630e+01,-8.800925633805022352e-01,-4.298151459468272373e-01,-2.017275890824067053e-01,6.570295961068122779e+02
4.194159095092101275e+00,1.805600713972753402e-02,-1.269066908060466226e+01,-9.202068626384175554e-01,-3.812814993584875967e-01,-8.855364588889018396e-02,6.635749814070824186e+02
3.477520609924901862e+00,-9.050134127990315802e-01,-1.242464688435326714e+01,-9.448864865577079053e-01,-3.263526090967842630e-01,2.610559435465093642e-02,6.701203667073525594e+02
2.726874323739747030e+00,-1.790565086148699692e+00,-1.208976719523538357e+01,-9.537174898810557577e-01,-2.659498016214503768e-01,1.403269486338117045e-01,6.766657520076227001e+02
1.952724431669339289e+00,-2.632021022502314622e+00,-1.168609203200529834e+01,-9.465517561426388671e-01,-2.010862160557629619e-01,2.521945809412867168e-01,6.832111373078928409e+02
1.165761353324750615e+00,-3.423121561886826481e+00,-1.121369154379407007e+01,-9.235094810806714349e-01,-1.328498107663177163e-01,3.598321360496062327e-01,6.897565226081629817e+02
5.851418527232250533e-01,-3.965940034764630973e+00,-1.081514079419389063e+01,-8.849771559106058838e-01,-6.238511523521667046e-02,4.614342108188944080e-01,6.945787647614342859e+02
-1.944464073851511765e-01,-4.643532617253272043e+00,-1.020568173010660828e+01,-9.209623299951690267e-01,1.496639714162715379e-02,3.893615205496704923e-01,7.011241500617044267e+02
-9.564807838584575839e-01,-5.255358735052774399e+00,-9.527732289832101742e+00,-9.454606258440978461e-01,9.213122394356648703e-02,3.124324607839243928e-01,7.076695353619745674e+02
-1.691465721533100375e+00,-5.794426862096370812e+00,-8.779298995442927023e+00,-9.581664921460458784e-01,1.681469311677606659e-01,2.316065259563848400e-01,7.142149206622447082e+02
-1.889883312620000755e+00,-5.925395440812263992e+00,-8.545822273676305869e+00,-9.589214495688767048e-01,2.420654158884817109e-01,1.478918117585866498e-01,7.160708230758001491e+02
-2.551369412727200192e+00,-6.302276117295781077e+00,-7.642096623145162582e+00,-8.646225901890951526e-01,3.685333047096726600e-01,3.414805702448838742e-01,7.226162083760702899e+02
-3.173062132135113345e+00,-6.580249463475036364e+00,-6.651114058155971343e+00,-7.164031908264354431e-01,4.720182837898045380e-01,5.137734986764590506e-01,7.291615936763404306e+02
-3.753753894728938167e+00,-6.747658500766422485e+00,-5.581881824845689621e+00,-5.235066660704514874e-01,5.460667337524325315e-01,6.540259114661288731e-01,7.357069789766105714e+02
-3.893903137103818413e+00,-6.761221818439560494e+00,-5.294151765310353142e+00,-2.979626019609393217e-01,5.860607694634016873e-01,7.534912490060799994e-01,7.373958824033109067e+02
-4.405978641236830917e+00,-6.698967995068857206e+00,-4.171427030976083472e+00,1.647902145837863708e-01,3.282598144662564610e-01,9.301008974216896652e-01,7.439412677035810475e+02
-4.702672829528155241e+00,-6.593398763573207866e+00,-3.512468234396984190e+00,5.761625612671172902e-01,-3.189026228684847808e-02,8.167115244477496372e-01,7.479009542327726194e+02
-5.183579105497071460e+00,-6.310221073156852434e+00,-2.496675578455719524e+00,6.650158750793083717e-01,-9.771249577778444440e-02,7.404080996715904917e-01,7.544463395330427602e+02
-5.666400340860967333e+00,-5.921057003113573636e+00,-1.591364304069262214e+00,7.418658189778016832e-01,-1.617710318503784439e-01,6.507405319206569505e-01,7.609917248333129010e+02
-5.938073087726490229e+00,-5.651990194507350296e+00,-1.170296393508085009e+00,8.053253054218241225e-01,-2.229096588333907558e-01,5.493272580561833207e-01,7.646008626906512973e+02
-6.439109769177427722e+00,-5.074367004685096383e+00,-5.647456938974821927e-01,8.945237295337067351e-01,-1.008309927543779017e-01,4.354978854159971546e-01,7.711462479909214380e+02
-6.937441491574326768e+00,-4.422607459513803185e+00,-1.187738697173233576e-01,9.516832097618311836e-01,2.485909823186552639e-02,3.060704061047556102e-01,7.776916332911915788e+02
-7.420305752403959509e+00,-3.718666898798915099e+00,1.758208584683983999e-01,9.747564908914513326e-01,1.496588112723474806e-01,1.656804867030411965e-01,7.842370185914617196e+02
-7.875615173921364232e+00,-2.984872695548109967e+00,3.299331461471466387e-01,9.629171658642625697e-01,2.690982355727990494e-01,1.935642777236374831e-02,7.907824038917318603e+02
-8.291961626414183328e+00,-2.243908599638491097e+00,3.544743378496753028e-01,9.165892738796896921e-01,3.788994460174663348e-01,-1.276609290926545015e-01,7.973277891920020011e+02
-8.624402286801197803e+00,-1.587501901106216806e+00,2.690837834701833020e-01,8.374321149809825782e-01,4.751297213032363298e-01,-2.701059065127164316e-01,8.032508589282145977e+02
-8.933218442598883868e+00,-8.999622309080114180e-01,6.623839766036970778e-02,8.901364737542987182e-01,4.040164154892143533e-01,-2.107742728705249424e-01,8.097962442284847384e+02
-9.168932816828176513e+00,-2.709126422965039693e-01,-2.326101758698653488e-01,9.327332187656580675e-01,3.283154763581611069e-01,-1.490492891341775594e-01,8.163416295287548792e+02
-9.201912520737213441e+00,-1.468312624445685666e-01,-3.180501816292853889e-01,9.647386789156171538e-01,2.488864645998237479e-01,-8.563182316988263154e-02,8.178054252697601214e+02
-9.244180881508794911e+00,3.237222302342953051e-01,-7.722095142492156894e-01,9.664794026278655803e-01,2.553089416006420476e-01,-2.707228526175323169e-02,8.243508105700302622e+02
-9.156408897026341975e+00,6.971238886580426453e-01,-1.283860957586134388e+00,9.648630564612161731e-01,2.608446003541081692e-01,3.158127193499749713e-02,8.308961958703004029e+02
-8.901290285658824075e+00,9.588334990923623735e-01,-1.830352835680501666e+00,9.598952559777481630e-01,2.654742145148677457e-01,9.012512953468550247e-02,8.374415811705705437e+02
-8.879716437070213075e+00,9.655697226066596306e-01,-1.856440387440297490e+00,9.515932547211961579e-01,2.691817039989296556e-01,1.483559496465636507e-01,8.377474125983546855e+02
-8.177324317218408467e+00,9.866838809240722208e-01,-2.407656228641137819e+00,9.664192873965867792e-01,1.336329501338290870e-01,2.194857525787120012e-01,8.442927978986248263e+02
-7.228044549191540824e+00,8.770134376704145085e-01,-2.897041499124600072e+00,9.583868283898776541e-01,-5.076568615144680038e-03,2.854240978237368442e-01,8.508381831988949671e+02
-6.668585815111662818e+00,7.625015548580909019e-01,-3.069040584398486260e+00,9.276858620197019345e-01,-1.436660460203070533e-01,3.446113878382577878e-01,8.540388386169396426e+02
-5.412957007798536502e+00,4.105385108053796750e-01,-3.269163246771182862e+00,8.685057772180654334e-01,-3.984329802686688571e-01,2.948675553060911003e-01,8.605842239172097834e+02
-4.369970884887881546e+00,3.328668599439209286e-02,-3.338596883079899325e+00,7.477633330333390838e-01,-6.249577764964505677e-01,2.242226022640970151e-01,8.659137601400203721e+02
-3.139177795147705563e+00,-5.311846159754853858e-01,-3.344856889140441769e+00,6.584080246160979311e-01,-6.982583694263344576e-01,2.809486120877824900e-01,8.724403359150708184e+02
-2.003757914193077916e+00,-1.196622390309779238e+00,-3.301571590320630190e+00,4.770129483713634877e-01,-8.670773344698031737e-01,1.436438064581434804e-01,8.789857212153409591e+02
-1.020069917390078462e+00,-1.935772822694975526e+00,-3.233141835556939903e+00,2.573343047631845293e-01,-9.663074694696067723e-01,-5.189415925719794397e-03,8.854289603144549119e+02
-1.740186275489941092e-01,-2.739301644626717547e+00,-3.152588338873358875e+00,3.177668722104826093e-01,-7.657100704075167075e-01,5.592050634628112915e-01,8.919743456147250527e+02
3.291880990851071553e-01,-3.334247740490580370e+00,-3.093112007763791027e+00,2.630301753805598941e-01,-2.875939777630837080e-01,9.209249865184211403e-01,8.967412072044597835e+02
8.685799825742581692e-01,-4.133491868234312250e+00,-3.018301300140925125e+00,1.258683548082079051e-01,-4.129386693651875828e-01,9.020181886195965948e-01,9.032865925047299243e+02
1.262916851915022010e+00,-4.885737867583307192e+00,-2.958160896177468135e+00,-1.568399682952072161e-02,-5.238791304415167938e-01,8.516470330666439104e-01,9.098319778050000650e+02
1.525094013227789036e+00,-5.557531676791505504e+00,-2.917376835450114836e+00,-1.566892535278754661e-01,-6.165455450737998833e-01,7.715685767826248043e-01,9.163773631052702058e+02
1.589758491665778539e+00,-5.799783948409348078e+00,-2.907341587516528048e+00,-2.922288736036636747e-01,-6.877055211956635272e-01,6.645761066641479031e-01,9.192062492679181105e+02
1.644606153113026936e+00,-6.223451279055249863e+00,-2.897042560847030046e+00,-3.831055055062327908e-01,-6.632955029701079752e-01,6.428586527273079110e-01,9.257516345681882513e+02
1.624584401296015335e+00,-6.485838437746528129e+00,-2.897185484355952578e+00,-4.704092466169914610e-01,-6.326995468893675811e-01,6.151458559229295853e-01,9.322970198684583920e+02
1.599176429997143378e+00,-6.515715243808738677e+00,-2.901643704500210585e+00,-5.533259335797837686e-01,-5.962029799901167326e-01,5.816961559736033571e-01,9.346156455443504001e+02
1.490333796387676601e+00,-6.420772034579325549e+00,-2.928182277294053115e+00,-7.359379657052018686e-01,-4.928124512234019483e-01,4.642512235345084282e-01,9.411610308446205408e+02
1.353996266654616587e+00,-6.159418669541667946e+00,-2.965921724265621506e+00,-8.759905707369737282e-01,-3.609224872936677153e-01,3.199585569195055879e-01,9.477064161448906816e+02
1.198951131839349760e+00,-5.751253128522473723e+00,-3.010550178476029792e+00,-9.653844876358063098e-01,-2.081602893257457343e-01,1.571626068126380504e-01,9.542518014451608224e+02
1.033332052377148980e+00,-5.216229237000530539e+00,-3.058203394500165651e+00,-9.989500289807582423e-01,-4.336010389709364643e-02,-1.472212584162141229e-02,9.607971867454309631e+02
1.014448145856286843e+00,-5.146363692582442972e+00,-3.063441512420263191e+00,-9.747460529127999207e-01,1.239476491921256696e-01,-1.857555183307379176e-01,9.615062579861255472e+02
8.358130596407534751e-01,-4.402916043129167178e+00,-3.111098005032609581e+00,-7.265401168775055263e-01,2.897584094122927501e-01,6.230389415936293807e-01,9.680516432863956879e+02
7.064890614395854529e-01,-3.790533143940854721e+00,-3.144459208531206418e+00,6.166612133819485836e-02,2.402064490051959433e-01,9.687601103139300562e-01,9.728923574258250255e+02
5.411037279633387209e-01,-2.895684111165441443e+00,-3.184540628797091433e+00,1.381801564026570103e-02,3.117096293114324790e-01,9.500758756199337851e-01,9.794377427260951663e+02
3.929843454230953492e-01,-1.952143092352023768e+00,-3.216344695021659650e+00,-3.413718369264191060e-02,3.807966475872563428e-01,9.240273620800907306e-01,9.859831280263653071e+02
2.682209113905969500e-01,-9.794997791991043590e-01,-3.236193133330965921e+00,-8.182777509874296362e-02,4.469320104110069969e-01,8.908164756497999326e-01,9.925285133266354478e+02
2.426621290967823918e-01,-7.339598392957150663e-01,-3.237433952310595053e+00,-1.288841079312874616e-01,5.096031007294556936e-01,8.507006326823325359e-01,9.941600517329895865e+02
1.655710752410265996e-01,2.510784162070488490e-01,-3.225245555881710580e+00,-1.061916954676413172e-01,5.925245679176550651e-01,7.985211081891863127e-01,1.000705437033259727e+03
1.229017356372979625e-01,1.221027136392013990e+00,-3.192401085071692624e+00,-8.242530484822467585e-02,6.694534369506978111e-01,7.382656465470933682e-01,1.007250822333529868e+03
1.171537132694523281e-01,1.977834980671911991e+00,-3.145424444440445111e+00,-5.782529051085986277e-02,7.396117113567531876e-01,6.705436243801723428e-01,1.012534515054157623e+03
1.470204631866535439e-01,2.867056866230316636e+00,-3.056998018489011759e+00,-1.629607649115583090e-01,7.724292353370603159e-01,6.138361878340142797e-01,1.019079900354427764e+03
2.163084579262536666e-01,3.691189227236786774e+00,-2.933182037162317179e+00,-2.655953783538719803e-01,7.933928845880283687e-01,5.477087051351966496e-01,1.025625285654697791e+03
3.251147707946222543e-01,4.433690512389640404e+00,-2.768837669859564699e+00,-3.641541034300697088e-01,8.021809573988654130e-01,4.731759720657191526e-01,1.032170670954967818e+03
4.361857726788743173e-01,4.927385207815786039e+00,-2.609333155934775661e+00,-4.571244591050245831e-01,7.986585897943757617e-01,3.913817648204302446e-01,1.037160837249594579e+03
6.165376760898858555e-01,5.468365034267769431e+00,-2.351405023908946568e+00,-3.579197323458203073e-01,8.567414184143256062e-01,3.713295129252209836e-01,1.043706222549864606e+03
8.300440167072378195e-01,5.890116669819080109e+00,-2.040650595640743248e+00,-2.538411153673879039e-01,9.031577255115553760e-01,3.462207547161635368e-01,1.050251607850134633e+03
1.067001060546554303e+00,6.184853585078216476e+00,-1.673903183119263449e+00,-1.463058545257799048e-01,9.372754575366073482e-01,3.163973982655362005e-01,1.056796993150404660e+03
1.159414139919721753e+00,6.250369267732222234e+00,-1.511236241407116987e+00,-3.677826440672136987e-02,9.586300224015013027e-01,2.822655476948174313e-01,1.059310682662409818e+03
1.384445838253189232e+00,6.307479821384777807e+00,-1.033360489722213282e+00,-1.210812323471638224e-01,6.372834920915266821e-01,7.610565589225298799e-01,1.065856067962679845e+03
1.575414366093676799e+00,6.271419492518525374e+00,-5.087037651809037664e-01,-1.642636127547042746e-01,9.950548003974259148e-02,9.813837806689472698e-01,1.072401453262949872e+03
1.653127709415720181e+00,6.214230204349291853e+00,-2.009539582790168533e-01,-1.516595111514475458e-01,-4.720679622574397438e-01,8.684176597001250775e-01,1.075989233689780121e+03
1.739569660138886587e+00,6.062447502418896406e+00,3.868509028201511657e-01,-1.476875184131975494e-01,-6.591533011337904480e-01,7.373624092009042341e-01,1.082534618990050149e+03
1.768178786703499483e+00,5.886201104415659913e+00,9.881427483274257684e-01,-1.360074107577387836e-01,-8.118356306141469858e-01,5.678229416638601590e-01,1.089080004290320176e+03
1.737296376093931727e+00,5.711867734713837130e+00,1.588404772543584809e+00,-1.172288465210918618e-01,-9.221463952284907339e-01,3.686481022710386690e-01,1.095625389590590203e+03
1.720523682929901099e+00,5.683676093074278235e+00,1.697619018568359950e+00,-9.233194566986822893e-02,-9.843285937014998321e-01,1.502332567360632476e-01,1.096841725917567601e+03
1.570767396261350424e+00,5.570507786114974991e+00,2.264170003114881702e+00,-1.325934519733802386e-01,-9.870275733740204727e-01,9.051820748418286378e-02,1.103387111217837628e+03
1.364532381195594279e+00,5.515025895654606103e+00,2.799097399215854765e+00,-1.721662266102788608e-01,-9.845997655459919340e-01,3.033301987581158571e-02,1.109932496518107655e+03
1.289084742620975943e+00,5.519917997823407418e+00,2.945861763694912483e+00,-2.108447399338706507e-01,-9.770577835121980748e-01,-3.000972031683369137e-02,1.111877068987771281e+03
9.975715861524362404e-01,5.618338168956994672e+00,3.392483400464277654e+00,-3.525429379848116218e-01,-9.095618026974974235e-01,-2.200200080698697658e-01,1.118422454288041308e+03
6.831448189705436880e-01,5.806003786788017429e+00,3.785739704958705154e+00,-4.728283356265888804e-01,-7.868207583041628705e-01,-3.966666854307384082e-01,1.124967839588311335e+03
3.654757351255257247e-01,6.077992151525260844e+00,4.122553955086650568e+00,-5.643950364960643729e-01,-6.162896993910469412e-01,-5.492205833755384736e-01,1.131513224888581362e+03
6.532431072328685751e-02,6.422352971617453221e+00,4.402150331429213637e+00,-6.216814511740321736e-01,-4.083263364457861977e-01,-6.684158707204786998e-01,1.138058610188851389e+03
3.236464161163625508e-02,6.471955881176789660e+00,4.429322529171907163e+00,-6.412080960452156697e-01,-1.755619500500206764e-01,-7.470128374135261984e-01,1.138860141434578054e+03
-1.942172732709749050e-01,6.930335627816346822e+00,4.593081544704032737e+00,-5.883039112946254479e-01,1.051025841937266309e-01,-8.017792431524533026e-01,1.145405526734848081e+03
-2.639079149769349431e-01,7.133956535725488379e+00,4.635624177139690438e+00,-4.856463024075481361e-01,3.768784844796004840e-01,-7.887384084046390464e-01,1.148053578703284984e+03
-3.753930138156454932e-01,7.669466211866855510e+00,4.681838461298791998e+00,-3.504152641235731003e-01,5.028561844586501017e-01,-7.901536562084611193e-01,1.154598964003555011e+03
-4.251514277449323087e-01,8.220920804372571666e+00,4.668779970526673928e+00,-2.032141139360506277e-01,6.116563526949850838e-01,-7.645773539046090139e-01,1.161144349303825038e+03
-4.249460615674179320e-01,8.275080642507376183e+00,4.661683171442925655e+00,-4.907116615469054449e-02,6.995624335250029135e-01,-7.128831757385791779e-01,1.161785984944732490e+03
-3.781709075956972144e-01,8.818494128688197264e+00,4.529841074852472005e+00,2.721790611804786875e-01,4.568934847325085702e-01,-8.468558922648755649e-01,1.168331370245002518e+03
-3.051077797897563393e-01,9.270773920747055641e+00,4.364988544290149264e+00,5.444264555815644391e-01,1.319658908494918126e-01,-8.283615382878496414e-01,1.173990410582729510e+03
-1.964783939694087211e-01,9.763951106161316673e+00,4.118043468540545149e+00,1.052638868590587279e-01,-1.484943344425400102e-01,-9.832939269423779383e-01,1.180535795882999537e+03
-7.428734498790014185e-02,1.022195513400578903e+01,3.818331911817295587e+00,-3.650069615245169485e-01,-3.850705856470442723e-01,-8.476370462102427172e-01,1.187081181183269564e+03
3.404402083509516785e-02,1.058201657376523031e+01,3.521060708241986248e+00,-7.274086211465395913e-01,-5.078483220748745142e-01,-4.614810718192352557e-01,1.192657969127693832e+03
1.574817748845251109e-01,1.097027899964192876e+01,3.126317629566261136e+00,-7.487642744542787332e-01,-5.346339869056285776e-01,-3.918118953478270661e-01,1.199203354427963859e+03
1.908860501806702581e-01,1.107276178253276022e+01,2.998449311366468972e+00,-7.656068675827710779e-01,-5.581972270945240178e-01,-3.197811438521946936e-01,1.201110968549146264e+03
3.065311329014654418e-01,1.138208425471399288e+01,2.523868455580611236e+00,-9.485938759320833302e-01,-1.861122560299764417e-01,-2.559880596804797181e-01,1.207656353849416291e+03
3.232714648453224870e-01,1.141509095317788081e+01,2.461880460579954910e+00,-9.646270077514718100e-01,2.187289800214806401e-01,-1.471406443291901067e-01,1.208478945707734283e+03
3.568132437398586765e-01,1.146093671946097814e+01,2.355999460072648155e+00,-9.643762149080520318e-01,2.359008842034498316e-02,-2.634767994342822051e-01,1.209865610689777441e+03
5.397057952426215222e-01,1.163552310512575616e+01,1.860564728378722332e+00,-7.950923514599574915e-01,-2.048888377842774874e-02,-6.061405433483358918e-01,1.216410995990047468e+03
6.178148675369337095e-01,1.169123874647884342e+01,1.674763984357853674e+00,-5.081201518823151853e-01,-6.153509337833647924e-02,-8.590840142462420337e-01,1.218977352460894735e+03
7.253567330576927707e-01,1.175421546841623055e+01,1.441868754169602695e+00,-4.836179695428476921e-01,-5.337856726214021408e-02,-8.736488928782873975e-01,1.222448549475186155e+03
7.874705835452791014e-01,1.178775678397737536e+01,1.310179108497620426e+00,-5.283479646727234913e-01,1.508161749413347748e-02,-8.488927924179189288e-01,1.224607003153273808e+03
9.484846743947291658e-01,1.187470902730559708e+01,9.595526060257614231e-01,-5.130299611023196871e-01,8.679939195489705384e-02,-8.539696274232744244e-01,1.231152388453543836e+03
1.085012246045110595e+00,1.194262662246710427e+01,6.804041171957492251e-01,-4.949396163055854170e-01,1.580481008049638703e-01,-8.544317257903210061e-01,1.237697773753813863e+03
1.118101349492794272e+00,1.195476923460788043e+01,6.285807329792818532e-01,-4.741746798791340312e-01,2.284427568272638653e-01,-8.502765901799326231e-01,1.239535596146444504e+03
1.216791658088076211e+00,1.197149352876309436e+01,5.518591287797214306e-01,-3.740545896209239718e-01,1.445389964019497542e-01,-9.160729460587770934e-01,1.246080981446714532e+03
1.289903304792054728e+00,1.196563856105706769e+01,5.945136007342960438e-01,-2.659323417575549242e-01,5.754311866122711200e-02,-9.622716763472911605e-01,1.252626366746984559e+03
1.313247399781975133e+00,1.195280936124791715e+01,6.946124189559808038e-01,-1.521209576232300520e-01,-3.068380384522216564e-02,-9.878844661351230405e-01,1.256439075760270043e+03
1.314396819709224173e+00,1.194143225302768130e+01,7.971336800996978722e-01,-2.183094460365336553e-01,-1.281920986012645147e-01,-9.674222302661233952e-01,1.258643091531374012e+03
1.288617061856629276e+00,1.190933323913639086e+01,1.122344529433303650e+00,-6.643207056375193265e-01,-7.660163031402394962e-02,-7.435107196889931824e-01,1.263537512859439857e+03
1.216660582542116620e+00,1.185949075470315961e+01,1.678013199426801050e+00,-9.532126441343304890e-01,-1.275410618254811390e-01,-2.740746843668203647e-01,1.270082898159709885e+03
1.178485274945890060e+00,1.183969465519596476e+01,1.913958614251259682e+00,-9.500171362052474144e-01,-1.393988251394560340e-01,2.793446052199410889e-01,1.272415143416737919e+03
1.039934801698016775e+00,1.177917053623463772e+01,2.668860854153860096e+00,-7.947298696683048336e-01,7.546771729292034436e-02,6.022516566206147504e-01,1.278960528717007946e+03
8.765981666625076718e-01,1.171426154478790771e+01,3.499367107388002385e+00,-5.007214888835666011e-01,2.771613712054834533e-01,8.200350997854476409e-01,1.285505914017277973e+03
6.971471617509054086e-01,1.164451081311508673e+01,4.385101540665553799e+00,-1.193115428700623204e-01,4.304761686220848205e-01,8.946804032642298177e-01,1.292051299317548001e+03
5.102259389467546091e-01,1.156919292820611744e+01,5.305681747999513753e+00,2.829242188655562984e-01,5.086508005498928675e-01,8.131581946204947675e-01,1.298596684617818028e+03
4.962660496333300975e-01,1.156300983132404525e+01,5.375749070245892547e+00,6.357750679713554121e-01,4.980399078877096319e-01,5.896984933819546804e-01,1.299084628259237661e+03
3.132365895289177526e-01,1.147181921703536212e+01,6.324021432573657009e+00,4.551348448250546186e-01,4.625566223431969992e-01,7.608492913530686685e-01,1.305630013559507688e+03
1.395142670279561625e-01,1.137495215409975380e+01,7.265744240339834015e+00,2.457380232569636169e-01,3.978477855464686019e-01,8.839275781768343165e-01,1.312175398859777715e+03
-1.902336488375519150e-02,1.127775242548417545e+01,8.183229864903891482e+00,2.081482120969561922e-02,3.080018699252936032e-01,9.511569751310612331e-01,1.318720784160047742e+03
-1.383300083639229516e-01,1.119944995476562966e+01,8.941848445289620528e+00,-2.054235560343860290e-01,1.986955580553664558e-01,9.582897462849834236e-01,1.324381940622837419e+03
-2.495216903741162562e-01,1.112218573512007858e+01,9.763087226981323141e+00,-2.283174264384914831e-01,4.485057680157348847e-01,8.641248340602615263e-01,1.330927325923107446e+03
-3.315436729739477673e-01,1.106590615967012425e+01,1.051513640179448572e+01,-2.348189154022198022e-01,6.661150577844628939e-01,7.079186441671243557e-01,1.337472711223377473e+03
-3.494351065408283219e-01,1.105718850959216937e+01,1.072746580493276092e+01,-2.244611811881844776e-01,8.358997542827650840e-01,5.008859939402036110e-01,1.339529752796983757e+03
-3.602299930133572303e-01,1.105858551478171492e+01,1.090267360270589414e+01,-5.003386865659294538e-03,6.930765191007546289e-01,7.208452710427772914e-01,1.341451046296087952e+03
-3.821053694143913271e-01,1.109620616656425085e+01,1.141912500752560433e+01,7.973446200957863550e-02,9.781921505164371533e-01,1.917825128456365213e-01,1.347996431596357979e+03
-3.982939474717582806e-01,1.116237552500976271e+01,1.185287581267775714e+01,1.350997626514700845e-01,9.029617970310684916e-01,-4.079289732681070646e-01,1.354541816896628006e+03
-4.024810367015000390e-01,1.118125277542283946e+01,1.192903747278232807e+01,1.406970860722458194e-01,4.950990332158863860e-01,-8.573676441746190813e-01,1.355968761765152522e+03
-4.257637869651231255e-01,1.128079100042799432e+01,1.219168295206420360e+01,9.570166697880590212e-02,4.063990135645062507e-01,-9.086688245484574322e-01,1.362514147065422549e+03
-4.487869771662859608e-01,1.138442945148411489e+01,1.236333082682154227e+01,4.950770249708360410e-02,3.126092739836691670e-01,-9.485897054092310432e-01,1.369059532365692576e+03
-4.558641786723580669e-01,1.142010541057809192e+01,1.239120447009685222e+01,2.693712065620933183e-03,2.149044132068227697e-01,-9.766303482357642229e-01,1.371438322353818876e+03
-4.689618415961704923e-01,1.150503398330762828e+01,1.236956168445759729e+01,1.341729920637577123e-02,1.585394078191000311e-01,-9.872604682857507585e-01,1.377983707654088903e+03
-4.719092325477169947e-01,1.157159050161951264e+01,1.224267447261802033e+01,2.409521043980407742e-02,1.016345185529759221e-01,-9.945289565722099656e-01,1.384529092954358930e+03
-4.660730128848722953e-01,1.159875181780744491e+01,1.210979025778357787e+01,3.469109171384835572e-02,4.438348121297486237e-02,-9.984110549957598835e-01,1.388136004714354613e+03
-4.644013723731754695e-01,1.160102897500250130e+01,1.208671992874235457e+01,1.819204528415145350e-01,-1.107101688711254750e-01,-9.770599814417902929e-01,1.388555737678094602e+03
-4.207993364184993146e-01,1.162519847909075033e+01,1.161001209329089612e+01,-3.160543977712715891e-01,-7.427283809786845437e-01,-5.903068436992987555e-01,1.395101122978364629e+03
-3.555703750191316903e-01,1.164229917234794343e+01,1.102317794660381089e+01,-5.621322914796391679e-01,-7.827860485063350415e-01,2.669293710396367647e-01,1.401646508278634656e+03
-3.236233547438628899e-01,1.164770373004896875e+01,1.077978547241563767e+01,-3.601866576128705533e-01,-1.989596676627541083e-01,9.114157241979518043e-01,1.403961155374455302e+03
-2.085862718014065698e-01,1.166499042326511137e+01,9.998614022604819240e+00,-5.643173287129594762e-01,-2.970333681742470811e-01,7.702695182230061555e-01,1.410506540674725329e+03
-7.212184951837441460e-02,1.168864454842884193e+01,9.136382298343450614e+00,-7.282627495969562492e-01,-3.739552177771092167e-01,5.742724637711200675e-01,1.417051925974995356e+03
8.195541817472690171e-02,1.172460941096168519e+01,8.207469947337285632e+00,-8.403484735778380399e-01,-4.242476670026327779e-01,3.373816236813582670e-01,1.423597311275265383e+03
2.210152722886039867e-01,1.176949717177340204e+01,7.395598672138629759e+00,-8.925930126103115425e-01,-4.443294579154419832e-01,7.646598372977449209e-02,1.429009903517570365e+03
3.994420575825832764e-01,1.184544128096213633e+01,6.373675494862367508e+00,-8.864749034374940218e-01,-4.625008492490293444e-01,-1.591257419274146045e-02,1.435555288817840392e+03
5.829188000290448368e-01,1.194200924874400371e+01,5.324130344239477175e+00,-8.724658876277069375e-01,-4.765553125017418234e-01,-1.081494754977681966e-01,1.442100674118110419e+03
7.652486718196882531e-01,1.205656775009343740e+01,4.259735110832438387e+00,-8.506906646978290576e-01,-4.863677454232947506e-01,-1.994236926892114514e-01,1.448646059418380446e+03
9.401557057193056233e-01,1.218668050514063239e+01,3.193263431113175344e+00,-8.213430599252072861e-01,-4.918508033471523655e-01,-2.889227667685225764e-01,1.455191444718650473e+03
1.019401328064918344e+00,1.225757129322262529e+01,2.674047108940317941e+00,-7.846842995908299701e-01,-4.929556766176922400e-01,-3.758500377322925301e-01,1.458405581212226934e+03
1.162515304062739174e+00,1.241468116940243149e+01,1.635331161869894023e+00,-7.048180891877140475e-01,-4.545219564415737268e-01,-5.446459880193175174e-01,1.464950966512496962e+03
1.283516193670905636e+00,1.258041475089403605e+01,6.264528650617783301e-01,-5.993332525023444823e-01,-3.995673336764443140e-01,-6.936451530163746382e-01,1.471496351812766989e+03
1.379248799961759531e+00,1.274738949882122263e+01,-3.395292112978089971e-01,-4.720639345091903194e-01,-3.300892916437774827e-01,-8.174317716343444395e-01,1.478041737113037016e+03
1.418394340046031932e+00,1.283983854234121580e+01,-8.651025483542273964e-01,-3.276360778019208331e-01,-2.486131949667573504e-01,-9.115064891761482935e-01,1.481816523951514682e+03
1.456426278470281277e+00,1.298636850521573471e+01,-1.711425612787273787e+00,-2.680190691004963877e-01,-3.396080276373680262e-01,-9.015709434976124648e-01,1.488361909251784709e+03
1.463982767981302668e+00,1.311208817483355737e+01,-2.482522426478453337e+00,-2.052038109578041558e-01,-4.265502981142092476e-01,-8.808769716274564843e-01,1.494907294552054736e+03
1.442055217394731192e+00,1.321112802660445773e+01,-3.166777073022680078e+00,-1.399398502646423403e-01,-5.084025642463037009e-01,-8.496715076850674953e-01,1.501423043705973669e+03
1.392457608222110066e+00,1.328012675498635353e+01,-3.763466915334686913e+00,-3.689641608348866453e-01,-4.501930298902518945e-01,-8.131357106025538517e-01,1.507968429006243696e+03
1.320376617972194966e+00,1.331108443066480618e+01,-4.266563282542072955e+00,-5.768927788990789729e-01,-3.662434981859901129e-01,-7.301084999435629719e-01,1.514513814306513723e+03
1.270319449526412958e+00,1.329946932598044107e+01,-4.510617416602895169e+00,-7.518373469507317886e-01,-2.613537772274931448e-01,-6.053369366375060956e-01,1.518374598924670863e+03
1.183742368715219984e+00,1.321508091217825864e+01,-4.842337405801668382e+00,-8.600083011599545246e-01,-1.727987064907247905e-01,-4.801294918747095464e-01,1.524919984224940890e+03
1.164272740339234780e+00,1.317487154029857344e+01,-4.906273776265031472e+00,-9.378898213444133436e-01,-7.815767947851133546e-02,-3.380119230935269004e-01,1.526550447678494493e+03
1.099677984002544351e+00,1.293268506685398656e+01,-5.097329363706847083e+00,-9.998837436301082349e-01,-5.811796838127678520e-03,1.402577062728038726e-02,1.533095832978764520e+03
1.049572288874390580e+00,1.261503774909569309e+01,-5.239162917323724855e+00,-9.288851969630612659e-01,6.730707788997078445e-02,3.641978145581744597e-01,1.539641218279034547e+03
1.044883057409417670e+00,1.255985471325185898e+01,-5.254617976114056788e+00,-7.343376013567326499e-01,1.314735777097422453e-01,6.659286640458284001e-01,1.540574001202621048e+03
1.022254891993231052e+00,1.211223167242538246e+01,-5.336529346478920743e+00,-8.388252066322939848e-01,1.632498671989721373e-01,5.193455050131897677e-01,1.547119386502891075e+03
9.900618980764944732e-01,1.162293879341237890e+01,-5.395860202399405559e+00,-9.152842242165478703e-01,1.895713070801771094e-01,3.554089312776799181e-01,1.553664771803161102e+03
9.271279004797442491e-01,1.111613642969469318e+01,-5.437820044919330797e+00,-9.611598734852331294e-01,2.095583985221897982e-01,1.795967015573570746e-01,1.560210157103431129e+03
9.101557493076448679e-01,1.103576041191996460e+01,-5.442407238413530912e+00,-9.749192628101189806e-01,2.225432937386233045e-01,-2.216621990215929001e-03,1.561251238058522858e+03
7.577995806600765771e-01,1.054533503843740938e+01,-5.461283207611226764e+00,-9.669865828474941694e-01,2.490183985100599684e-01,-5.408128870134897015e-02,1.567796623358792885e+03
5.719274359246974138e-01,1.008435858951444608e+01,-5.474704630860181886e+00,-9.557141166519456110e-01,2.746334395758936453e-01,-1.057591655126803448e-01,1.574342008659062913e+03
5.493905180368359176e-01,1.003620373335327898e+01,-5.476169839361322289e+00,-9.411407906742332852e-01,2.992999583301639288e-01,-1.570717895202085324e-01,1.575088175139991336e+03
3.547541976120876517e-01,9.657857156976575652e+00,-5.491936585614642929e+00,-8.383638630026001293e-01,5.142482460864469251e-01,-1.808114338400181875e-01,1.581633560440261363e+03
1.754896221601260908e-01,9.331993635860325043e+00,-5.517711283260723576e+00,-6.875238955998853596e-01,6.997149313273101079e-01,-1.941852410853597000e-01,1.588178945740531390e+03
1.589036915048405718e-01,9.302976825855212795e+00,-5.522669767435126609e+00,-4.972683841019853723e-01,8.450673271170765499e-01,-1.964264921280995113e-01,1.588887797873073396e+03
3.432154188618031371e-02,9.097308710903071471e+00,-5.597185588917169774e+00,-4.224727922433110794e-01,8.013933177265694097e-01,4.234188117184668476e-01,1.595433183173343423e+03
-4.476240135863913255e-02,8.982032050154064251e+00,-5.693033034950292226e+00,-1.821902641029819747e-01,4.438052456840531068e-01,8.774061839134319474e-01,1.600887889330697590e+03
-6.376380771516160229e-02,8.961020425126962508e+00,-5.743187058483988139e+00,-8.836597220655680041e-02,4.023246131912399104e-01,9.112213565101943136e-01,1.602857601602921704e+03
-9.628944256901665610e-02,8.955483796128108409e+00,-5.959248934206692105e+00,2.208322217930589262e-02,5.608642667242965674e-01,8.276119897692789662e-01,1.609402986903191731e+03
-1.021385018813394385e-01,9.004182088363965164e+00,-6.207553530396473285e+00,1.315535751310992763e-01,6.945438977502177424e-01,7.073191860596328429e-01,1.615948372203461759e+03
-8.641412283200357314e-02,9.094190807897708950e+00,-6.465493517536567758e+00,2.351928956592963527e-01,7.974382594135210889e-01,5.556748368017505602e-01,1.622493757503731786e+03
-7.654964789296428429e-02,9.131127288873623016e+00,-6.541590436501748762e+00,3.284074424831886496e-01,8.649866174144149600e-01,3.794004525761501823e-01,1.624493894945130023e+03
-3.135923802813326416e-02,9.274572198781976695e+00,-6.766943996804913652e+00,8.599213951766825070e-02,8.355813986419261541e-01,5.425929212433776572e-01,1.631039280245400050e+03
1.393697536011986177e-02,9.399905514317172361e+00,-6.914225328802989345e+00,-1.638410651514420335e-01,7.340973884659131032e-01,6.589803711913602147e-01,1.636281754133308368e+03
3.461823702960621640e-02,9.448703229548014448e+00,-6.952316021351207631e+00,-3.354830041506861593e-01,7.532353747403894850e-01,5.657611016650475610e-01,1.638253231754998524e+03
1.189606741900910980e-01,9.611976334897363472e+00,-7.010778805431572280e+00,-2.628774177919990795e-01,8.544078706719125949e-01,4.481971148339514155e-01,1.644798617055268551e+03
2.000995761869553691e-01,9.738928213121432975e+00,-6.995604538943231532e+00,-1.825619779975009016e-01,9.305215951555720899e-01,3.174880866035027505e-01,1.649936422859968388e+03
