-4.754105535032392638e+00,-2.212631298046062955e+00,3.177947496079596146e+00,6.426239999999999730e-01,1.961600000000000149e-02,-7.659299999999999997e-01,0.000000000000000000e+00
-4.216100852766112794e+00,-3.298001826070539710e+00,3.403271247705549118e+00,6.205424437931730264e-01,1.690690328534215081e-01,-7.657288930031648233e-01,6.545385300270125661e+00
-3.714940249883233570e+00,-4.374289387045977584e+00,3.614238071238829786e+00,7.134584366270441125e-01,2.099107279539103033e-01,-6.685151797037728327e-01,1.309077060054025132e+01
-3.269446846185907862e+00,-5.423416668798660467e+00,3.796681497286313878e+00,7.922822152417624553e-01,2.466062706219737111e-01,-5.580969796552166518e-01,1.963615590081037610e+01
-3.198257052027525305e+00,-5.608402625378939632e+00,3.823580787295931760e+00,8.554568698169040530e-01,2.784308590969612474e-01,-4.366552422495870722e-01,2.084072950094657273e+01
-2.854986677098634296e+00,-6.545636323571972781e+00,3.937696566133897846e+00,7.714627419000006370e-01,1.964533129475382056e-01,-6.051853713447382654e-01,2.738611480121669928e+01
-2.685021868613478802e+00,-6.968484861994274304e+00,3.986345169752572470e+00,6.549299862214168488e-01,1.061897865791582296e-01,-7.481901111157025497e-01,3.071559598768577359e+01
-2.315450254440912570e+00,-7.650835542463665817e+00,4.078650622589496955e+00,5.310312548369302554e-01,-1.141990873107188303e-01,-8.396203754330472391e-01,3.726098128795590014e+01
-2.100464565269331452e+00,-7.884781854586996985e+00,4.126925894438982390e+00,3.687486359759464816e-01,-3.263334448758142825e-01,-8.703613767967461889e-01,4.039310538597880651e+01
-1.653016999613183158e+00,-8.098162429747155500e+00,4.215457962751136378e+00,3.948364471578379442e-01,7.496321407901151979e-02,-9.156870079494877634e-01,4.561482447285527542e+01
-9.851282029071398716e-01,-8.142846569470750140e+00,4.318080904940803322e+00,2.291855096003326819e-01,-1.529066091636801239e-01,-9.612968173575801023e-01,5.216020977312540197e+01
-4.942379870263265418e-01,-8.026849653773210136e+00,4.361342893924715192e+00,4.486847494757649490e-02,-3.683229205504486847e-01,-9.286135074136359080e-01,5.649486779683841320e+01
2.791807653724965865e-01,-7.644349432196252181e+00,4.372030429136754215e+00,-8.323806740325064013e-02,-2.504899723618564944e-01,-9.645331502231466736e-01,6.304025309710853975e+01
1.041727452101388174e+00,-7.090079870153997987e+00,4.331263944825141543e+00,-2.087153993630109505e-01,-1.247450444397594504e-01,-9.699868844241283927e-01,6.958563839737865919e+01
1.383454799360356313e+00,-6.756966585511293921e+00,4.291986508033014402e+00,-3.276002262611136251e-01,4.940113029676765702e-03,-9.448024592659449716e-01,7.274625370557092197e+01
1.795079050532657261e+00,-6.234521350440557441e+00,4.214006266093236697e+00,-6.696080084010278544e-01,4.940070874897280889e-02,-7.410686102225763072e-01,7.703312324013224099e+01
2.343909301791467836e+00,-5.363948763598139990e+00,4.047602006385305096e+00,-6.975613512417755402e-01,1.491707871601375968e-01,-7.008239704164939132e-01,8.357850854040236754e+01
2.816464956634187278e+00,-4.464469337840062835e+00,3.817611965118655082e+00,-7.168962401461175249e-01,2.470978166845201329e-01,-6.519205855415803885e-01,9.012389384067249409e+01
3.211763181096942255e+00,-3.581904271283663732e+00,3.506921033663465082e+00,-7.273737986286787915e-01,3.419719137657233898e-01,-5.949626603936829516e-01,9.666927914094262064e+01
3.527359974007685750e+00,-2.762024789851235784e+00,3.098423677359353423e+00,-7.288645785177134684e-01,4.326209137986158915e-01,-5.306539089887023497e-01,1.032146644412127472e+02
3.545200523582340502e+00,-2.706853542590889727e+00,3.061467151155004451e+00,-7.213501588769416495e-01,5.179248510275633599e-01,-4.597888612991773427e-01,1.037005213981692293e+02
3.707577326781303029e+00,-2.064442073105670516e+00,2.465038365924111741e+00,-8.165187667602736843e-01,3.640448561158001750e-01,-4.480696890693603440e-01,1.102459066984393559e+02
3.770525897226154832e+00,-1.562917102694412863e+00,1.740578685810501902e+00,-8.848455184579656629e-01,1.981974529286305575e-01,-4.216208938326235778e-01,1.167912919987094824e+02
3.720637928977123643e+00,-1.298329086059344828e+00,1.114702189214358263e+00,-9.240842975648891899e-01,2.583456061640380594e-02,-3.813119280458950877e-01,1.215884104100929193e+02
3.484496989694098268e+00,-1.062261118776644420e+00,1.345128898993178113e-01,-9.238777485018730973e-01,-9.207381777926675059e-02,-3.714435595091915010e-01,1.281337957103630458e+02
3.041491552773597729e+00,-9.333128784453091908e-01,-9.685180909161996698e-01,-9.107370635796598890e-01,-2.086931432860223701e-01,-3.563750453750594849e-01,1.346791810106331582e+02
2.352773225247171585e+00,-8.985984137056907128e-01,-2.188197970755675570e+00,-8.848462139830911566e-01,-3.223907929405400719e-01,-3.363173415470538385e-01,1.412245663109032705e+02
1.845942266761984696e+00,-9.317829939317572308e-01,-2.897043411114085032e+00,-8.465676589481074821e-01,-4.315750448718048693e-01,-3.115512469322558875e-01,1.447512907653909053e+02
7.176351159437226457e-01,-1.095869009329747623e+00,-4.272192957646286260e+00,-8.400393659067217911e-01,-5.296884566986330700e-01,1.173115619523641268e-01,1.512966760656610177e+02
-4.929854705163926876e-01,-1.359997891213486687e+00,-5.667992300051452936e+00,-6.708857039315678783e-01,-5.252581260126154561e-01,5.234637268410330391e-01,1.578420613659311300e+02
-1.413915265944118982e+00,-1.629870265541759400e+00,-6.718552697307503152e+00,-3.718534995276308042e-01,-4.191417037052233008e-01,8.282772525575273770e-01,1.628369048658720999e+02
-2.569083379351125629e+00,-2.060356945766547376e+00,-8.032220296968590745e+00,-4.656841618225025514e-01,-7.134588611648622347e-01,5.235577473906710688e-01,1.693822901661422122e+02
-3.314835935001469114e+00,-2.408387796042132489e+00,-8.859037378099211324e+00,-4.718352740565411874e-01,-8.734451885014461459e-01,1.202621172226906870e-01,1.738774042296837194e+02
-4.322646424999817327e+00,-2.991285329282387995e+00,-9.901533974835157181e+00,-3.488673584138782813e-01,-6.763967894286636584e-01,6.486732224190996376e-01,1.804227895299538318e+02
-5.234093493522538942e+00,-3.640330922304638506e+00,-1.071797480758921850e+01,-1.096679567871839539e-01,-2.539945352933919986e-01,9.609670729504917741e-01,1.869681748302239441e+02
-5.599527854506407998e+00,-3.966311253130935466e+00,-1.096841698906502849e+01,1.660692517470526153e-01,2.530304887225583443e-01,9.530973588259863405e-01,1.899938190255517441e+02
-6.249949574181404621e+00,-4.704027487462733248e+00,-1.123432475004028674e+01,1.201029229879257559e-01,2.272000705499931661e-01,9.664126529676981825e-01,1.965392043258218564e+02
-6.395540940787810769e+00,-4.923399727259186065e+00,-1.123926650212078826e+01,7.378140185922450744e-02,2.006977282374576010e-01,9.768698616518920463e-01,1.984780225039535253e+02
-6.709700295436054951e+00,-5.629350551988394180e+00,-1.102085021534328213e+01,1.310846904525503065e-01,3.846031659886519627e-01,9.137260030444428471e-01,2.050234078042236376e+02
-6.824367100840047939e+00,-6.233442220669849654e+00,-1.056594774740047704e+01,1.830014227997700804e-01,5.527044163085467199e-01,8.130352436674602723e-01,2.115687931044937500e+02
-6.797160489643387926e+00,-6.343845912499037176e+00,-1.039974344094499159e+01,2.273982521853910865e-01,6.980939132478926057e-01,6.789351391613197562e-01,2.131970330455634439e+02
-6.786966320572231481e+00,-6.355955586562830995e+00,-1.037050896113752252e+01,2.824031409073432530e-01,6.056675139082479120e-01,7.439175549670696830e-01,2.134401989332307039e+02
-6.352353341149445498e+00,-6.568216875767192597e+00,-9.521537190337626910e+00,2.519445310895042645e-01,7.528695100246115546e-01,6.080373788907407206e-01,2.199855842335008163e+02
-5.725233403167208301e+00,-6.620479770911401829e+00,-8.660126287644393628e+00,2.111411628288291098e-01,8.691589450188029753e-01,4.471913881681656711e-01,2.265309695337709286e+02
-5.624418197050402135e+00,-6.608427630451712886e+00,-8.554592276650479832e+00,1.616683859410804891e-01,9.497610346582577856e-01,2.679837868792268596e-01,2.274044568476214181e+02
-4.795772807880897659e+00,-6.377933209836267991e+00,-7.887823608026835132e+00,3.023899738383313829e-01,7.167836969563510241e-01,6.283147583014911941e-01,2.339498421478915304e+02
-4.242228766851160238e+00,-6.127007832727851877e+00,-7.563577541820044381e+00,3.814482329866725752e-01,3.376401521574324271e-01,8.605198273150481691e-01,2.383110764775583164e+02
-3.519175352215752728e+00,-5.607847291854563210e+00,-7.274497831454886487e+00,4.961669104206081204e-01,1.716089870929702610e-01,8.510973813556043099e-01,2.448564617778284287e+02
-3.051131717029276658e+00,-4.975309325451578779e+00,-7.163673663990411278e+00,5.906342464784249957e-01,-1.426504199804705863e-03,8.069368946639502438e-01,2.511634238544540949e+02
-2.894240803961568798e+00,-4.198212556891059322e+00,-7.156300353574565953e+00,-1.919978700966614160e-01,-3.267687507086868837e-01,9.253955918624728882e-01,2.577088091547242357e+02
-3.018514131680058998e+00,-3.599003272036280343e+00,-7.157738405123674319e+00,-8.340118999262590149e-01,-4.127873298574090688e-01,3.660994005601456713e-01,2.622794179026915344e+02
-3.489334226475810929e+00,-2.724751420097041077e+00,-7.050343344061172246e+00,-2.441563155353786985e-01,-4.882775697744637378e-01,8.378369223419391831e-01,2.688248032029616752e+02
-4.141594714612436334e+00,-1.993725229491732476e+00,-6.704810776582071696e+00,4.863737021056119270e-01,-2.824390041787632755e-01,8.268414786516025128e-01,2.748759631991309789e+02
-5.009854528463159262e+00,-1.398382394657755601e+00,-5.981430738945106462e+00,5.939117289658022436e-01,-1.157416988794923995e-01,7.961599822501209678e-01,2.814213484994011196e+02
-5.973941996798507681e+00,-1.076407810994706837e+00,-5.012403731410921992e+00,6.775187403906989259e-01,5.561922912553021042e-02,7.333981577357447934e-01,2.879667337996712604e+02
-6.956322135344366941e+00,-1.038519940452647949e+00,-3.956514646576644090e+00,7.338259319631192934e-01,2.247390582254298608e-01,6.410849064557889720e-01,2.945109145187357740e+02
-7.810849584770342524e+00,-1.236119032113817573e+00,-2.897041032794785309e+00,9.377886852368736426e-01,5.456312471496858538e-03,3.471607847903006028e-01,3.010562998190059147e+02
-8.139226012653480780e+00,-1.460382702181812764e+00,-2.329372287002958508e+00,9.766279824058784476e-01,-2.147871591796837176e-01,-7.890515400715236022e-03,3.049459099440690011e+02
-8.366609705806425268e+00,-1.962344419267280760e+00,-1.633987288438105701e+00,9.783492372652075053e-01,-1.912196552973844665e-01,-7.915689079469441503e-02,3.114912952443391418e+02
-8.371471618525985647e+00,-2.014679463684140082e+00,-1.595737650682593545e+00,9.745552464112837709e-01,-1.665741892766940124e-01,-1.499770354030967312e-01,3.120989834406892101e+02
-8.357732983073820066e+00,-2.588271408662813577e+00,-1.454657219740329577e+00,9.724642889236027044e-01,-1.844432354786499639e-01,-1.424496388423996118e-01,3.186443687409593508e+02
-8.337039538299405805e+00,-2.790113399628092683e+00,-1.511658022947310887e+00,9.700034669201645920e-01,-2.022421311535546051e-01,-1.348680633088267244e-01,3.211354544923415233e+02
-8.270448838318927187e+00,-3.210776567059276498e+00,-1.927113213950055970e+00,9.586272346912123599e-01,-2.558577114467057712e-01,-1.247744220043026098e-01,3.276808397926116641e+02
-8.196890359324294550e+00,-3.405243979895802742e+00,-2.447853193023284302e+00,9.442735644149080620e-01,-3.086786214782896165e-01,-1.142932376554154777e-01,3.329351214666612009e+02
-8.076852424115861240e+00,-3.420662627865254990e+00,-3.007724037144982265e+00,9.445718610633123680e-01,-2.445115143481006448e-01,-2.190801648359263221e-01,3.374566577261890643e+02
-7.976343959796302840e+00,-3.349064673571827022e+00,-3.331045027368110034e+00,8.953522082124382164e-01,-3.680345571996988530e-01,-2.507847442400000793e-01,3.398844513119835824e+02
-7.731699806842427414e+00,-3.097873900583257623e+00,-3.910079953838413225e+00,8.471639135117486896e-01,-3.844017372616041484e-01,-3.668059541775421373e-01,3.443790851872035432e+02
-7.282255276681456557e+00,-2.673921543093527475e+00,-4.647697664094678771e+00,7.519727161032783158e-01,-4.608359969751156249e-01,-4.713440549401275437e-01,3.509244704874736840e+02
-6.770436141265343544e+00,-2.326438734265240171e+00,-5.198781887573605154e+00,6.373567177040145859e-01,-5.253660082890772021e-01,-5.637064588340922056e-01,3.574698557877438247e+02
-6.315445797405901729e+00,-2.094573704828849081e+00,-5.471039556143507454e+00,5.062766385636429112e-01,-5.763248622144888644e-01,-6.415073019361042794e-01,3.640152410880139655e+02
-6.298528863556329682e+00,-2.086098234587657085e+00,-5.472095245580661071e+00,3.621184814850512690e-01,-6.123962053924573157e-01,-7.027368589925675479e-01,3.643601103569671409e+02
-6.224706534248287682e+00,-2.024101581570220798e+00,-5.326073014649247206e+00,5.232594031109617516e-01,-7.024674794593523952e-01,-4.824282717182938884e-01,3.680920722421590199e+02
-6.360587317915932459e+00,-1.946717501557270635e+00,-4.718898457647400235e+00,7.877764570130459942e-01,-5.652931526154557629e-01,-2.446424030740359523e-01,3.746374575424291606e+02
-6.525991100409250123e+00,-1.901275135066650135e+00,-4.355597242624435594e+00,9.378071484439312044e-01,-3.459656598247322079e-01,2.869694319911492153e-02,3.772939840628650927e+02
-7.176685216804442824e+00,-1.697985906321746841e+00,-3.250308261802345999e+00,8.890101421656534386e-01,-4.576979406249712112e-01,-1.309817818606240358e-02,3.838393693631352335e+02
-7.999050175497664839e+00,-1.354179334938874657e+00,-2.041352100781447021e+00,8.254448150639794868e-01,-5.618268639738991377e-01,-5.467570025911407811e-02,3.903847546634053742e+02
-8.038421983035842544e+00,-1.334156025673120416e+00,-1.988033107133865052e+00,7.481670964434725679e-01,-6.566226741699077163e-01,-9.534495037757344249e-02,3.906701809640483702e+02
-8.973241392138728401e+00,-7.494163260554076444e-01,-7.910245224448063661e-01,6.512567377655414935e-01,-7.505666822799905713e-01,-1.118584684620472364e-01,3.972155662643185110e+02
-9.889035898502539723e+00,1.707909710259444477e-02,3.528524183768717015e-01,5.423047663882742953e-01,-8.306328342138413756e-01,-1.263037413500610329e-01,4.037609515645886518e+02
-1.069601011650465239e+01,9.572005951856874528e-01,1.419315985774810995e+00,4.233256870434177199e-01,-8.953407262417062418e-01,-1.384136793198574578e-01,4.103063368648587925e+02
-1.130459882413606465e+01,2.060094013779105282e+00,2.384093645559715036e+00,2.965194015464268085e-01,-9.434939262856061326e-01,-1.479643726356150990e-01,4.168517221651289333e+02
-1.162549813226683959e+01,3.312186110146751794e+00,3.222924938618545898e+00,1.642305331684110747e-01,-9.742020947882097381e-01,-1.547792314435332550e-01,4.233971074653990740e+02
-1.160080600520804950e+01,4.686685386061282266e+00,3.917388113737487298e+00,2.890507550215377919e-02,-9.868974461324505620e-01,-1.587322507502370861e-01,4.299424927656692148e+02
-1.123559763377038578e+01,6.134364345527094642e+00,4.460726067259271233e+00,-1.069548327120923292e-01,-9.813452463767562417e-01,-1.597503401374278376e-01,4.364878780659393556e+02
-1.056748067987620487e+01,7.596004963662890574e+00,4.852023389179302981e+00,-2.408371707318080479e-01,-9.576481532907005212e-01,-1.578146751525663360e-01,4.430332633662094963e+02
-1.019697194453058486e+01,8.165459624892124069e+00,4.947549339002489610e+00,-3.702664816908215473e-01,-9.162443184700274079e-01,-1.529610453949672988e-01,4.456396917800642541e+02
-9.032556515859811341e+00,9.523267032359841622e+00,5.035415869213506923e+00,-4.327355067102907071e-01,-8.950005876528178694e-01,-1.082216675800918709e-01,4.521850770803343949e+02
-7.662439741505153279e+00,1.075579470306386121e+01,4.969126520772415567e+00,-4.924543629578123083e-01,-8.680688622514055597e-01,-6.279451245101771995e-02,4.587304623806045356e+02
-6.129726086363674220e+00,1.180802076221162444e+01,4.747832941197672518e+00,-5.490435206698526249e-01,-8.356203024056114703e-01,-1.696828272595515136e-02,4.652758476808746764e+02
-4.479103323686605798e+00,1.262623710985067937e+01,4.370705174631289935e+00,-6.021433403238670712e-01,-7.978611289745078938e-01,2.896578284545235291e-02,4.718212329811448171e+02
-2.756827487390673070e+00,1.315808561293276391e+01,3.836931761279358533e+00,-6.514163581530068026e-01,-7.550313129189031303e-01,7.471576034127951071e-02,4.783666182814149579e+02
-1.038003664809772797e+00,1.339008221028390722e+01,3.138280019114043196e+00,-6.965494307301063337e-01,-7.074030502183095148e-01,1.199908958719704127e-01,4.849120035816850987e+02
5.536463767107964173e-01,1.339377456112345577e+01,2.260846713781479611e+00,-7.372557249971888327e-01,-6.552790320143531133e-01,1.645034533435790480e-01,4.914573888819552394e+02
1.951304000482798839e+00,1.328372981844727896e+01,1.244490315059644026e+00,-7.732765410985082966e-01,-5.989905209725785440e-01,2.079705430402813693e-01,4.980027741822253802e+02
3.198864076895750141e+00,1.313589125651590805e+01,1.807978866311623356e-01,-8.043829564369449070e-01,-5.388952460847474812e-01,2.501159194088375393e-01,5.045481594824955209e+02
4.336012137563289848e+00,1.297015626912207686e+01,-8.819965452930207395e-01,-8.303772805086876430e-01,-4.753751292863928057e-01,2.906717366232905442e-01,5.110935447827656617e+02
5.364910306576643251e+00,1.278514513759209592e+01,-1.938739030135381958e+00,-8.510943112724673743e-01,-4.088338583322869701e-01,3.293802507761698362e-01,5.176389300830358025e+02
6.287613131292919988e+00,1.257941157503424279e+01,-2.984276333156004934e+00,-8.664023850695372619e-01,-3.396943213489199698e-01,3.659954578811436265e-01,5.241843153833059432e+02
7.016385010604102135e+00,1.237715867790076629e+01,-3.900716423234690033e+00,-8.762042134212337796e-01,-2.683959193618489225e-01,4.002846572793032354e-01,5.300117934853070665e+02
7.732524170419599940e+00,1.212712717922000927e+01,-4.908992646190175613e+00,-8.964284912184864451e-01,-2.446911630895897416e-01,3.695134569088401322e-01,5.365571787855772072e+02
8.347778347020216927e+00,1.185201390184911929e+01,-5.891178965416499658e+00,-9.149335906798837792e-01,-2.205171377406742184e-01,3.380336027785309505e-01,5.431025640858473480e+02
8.863777164733511071e+00,1.155013953475778088e+01,-6.842130837023279177e+00,-9.316840232615679618e-01,-1.959202039583964328e-01,3.059054665729645239e-01,5.496479493861174888e+02
9.282039162571699364e+00,1.121977146445941820e+01,-7.756707406935528404e+00,-9.466476653855787626e-01,-1.709475333889409199e-01,2.731906631776758743e-01,5.561933346863876295e+02
9.603971154367926033e+00,1.085912652624152841e+01,-8.629772118259767311e+00,-9.597958200341677459e-01,-1.456470182284863579e-01,2.399519325307867545e-01,5.627387199866577703e+02
9.830867615497840717e+00,1.046637376669735175e+01,-9.456193318294866756e+00,-9.711032717762938526e-01,-1.200671793893861999e-01,2.062530193184591853e-01,5.692841052869279110e+02
9.963910096248477899e+00,1.003963721709566315e+01,-1.023084486512975211e+01,-9.805483351203241327e-01,-9.425707346110775986e-02,1.721585507442754404e-01,5.758294905871980518e+02
1.000416666189801695e+01,9.576998677147495087e+00,-1.094860673372112281e+01,-9.881128961003055045e-01,-6.826619864409794181e-02,1.377339126066135511e-01,5.823748758874681926e+02
9.952591359572522833e+00,9.076500508687631807e+00,-1.160436562140248640e+01,-9.937824470161008561e-01,-4.214439983671125489e-02,1.030451239213239778e-01,5.889202611877383333e+02
9.810023711930965007e+00,8.536148438788126569e+00,-1.219301555279642635e+01,-9.975461142607480181e-01,-1.594177305695852059e-02,6.815871032980055921e-02,5.954656464880084741e+02
9.577188237727915165e+00,7.953914371835752561e+00,-1.270945848408067036e+01,-9.993966791816005779e-01,1.029143061788419765e-02,3.314157653487110472e-02,6.020110317882786148e+02
9.254693999317932906e+00,7.327739210089620592e+00,-1.314860490655277481e+01,-9.993305919351143096e-01,3.650490140983309040e-02,-1.939121991191641815e-03,6.085564170885487556e+02
9.088821036474087123e+00,7.054661038652479732e+00,-1.329402233456503701e+01,-9.973479783085212880e-01,6.264836731236199385e-02,-3.701610778082767284e-02,6.112118990049212925e+02
8.595727626574026559e+00,6.335736358868373941e+00,-1.356958389744659321e+01,-9.991975836366564501e-01,3.772532106637078997e-02,1.337867722216034075e-02,6.177572843051914333e+02
8.021537692197272307e+00,5.577880157326184474e+00,-1.376126085513144837e+01,-9.978855084483672089e-01,1.268290724826555069e-02,6.373112184578276496e-02,6.243026696054615741e+02
7.374744687380990094e+00,4.788087618727081107e+00,-1.386961321062294950e+01,-9.934159057215745658e-01,-1.239963480466827958e-02,1.138819007369609865e-01,6.308480549057317148e+02
6.664012355998345072e+00,3.973080336580801397e+00,-1.389521081725497353e+01,-9.858029193291841796e-01,-3.744293887576367191e-02,1.636723268297873013e-01,6.373934402060018556e+02
5.898171481524744131e+00,3.139302524171557085e+00,-1.383863331061902002e+01,-9.750706392555559265e-01,-6.236776298372420646e-02,2.129448534285953987e-01,6.439388255062719963e+02
5.086216604040590283e+00,2.292917284348719775e+00,-1.370047003962526411e+01,-9.612530253484479204e-01,-8.709524010208716249e-02,2.615435726788940540e-01,6.504842108065421371e+02
4.237302704836897860e+00,1.439802938710554203e+00,-1.348131999670104619e+01,-9.443937998486807706e-01,-1.115471276906142839e-01,3.093147088500840525e-01,6.570295961068122779e+02
3.360741858980811347e+00,5.855494167316972476e-01,-1.318179174714191326e+01,-9.245463090379714144e-01,-1.356460552496538408e-01,3.561071048703801645e-01,6.635749814070824186e+02
2.465999856195996820e+00,-2.645452946039972830e-01,-1.280250335762465141e+01,-9.017733544428568893e-01,-1.593157691148034127e-01,4.017727005757487091e-01,6.701203667073525594e+02
1.562692790451573499e+00,-1.105478640091882125e+00,-1.234408232386145876e+01,-8.761469941287168828e-01,-1.824813737179448447e-01,4.461670011608880881e-01,6.766657520076227001e+02
6.605836186297472379e-01,-1.932546923975025477e+00,-1.180716549740334465e+01,-8.477483147122932827e-01,-2.050695685518954259e-01,4.891495343512439753e-01,6.832111373078928409e+02
-2.304213113712916539e-01,-2.741348675450236527e+00,-1.119239901162288930e+01,-8.166671748135275744e-01,-2.270088800894884684e-01,5.305842948506653833e-01,6.897565226081629817e+02
-8.705959014682754793e-01,-3.322271458936068456e+00,-1.068271397633750475e+01,-7.830019207576904838e-01,-2.482298879238161171e-01,5.703401746594616295e-01,6.945787647614342859e+02
-1.708613804219393684e+00,-4.087220332265023792e+00,-9.914429834772560568e+00,-8.992733393649068319e-01,-1.053826758951695863e-01,4.244996498571148580e-01,7.011241500617044267e+02
-2.507670705486730434e+00,-4.823579347560602137e+00,-9.070112802225077431e+00,-9.659103197351988079e-01,4.328101564739899459e-02,2.552293241648687649e-01,7.076695353619745674e+02
-3.245102317586074925e+00,-5.517458417946423666e+00,-8.138663505978335877e+00,-9.792349074101445172e-01,1.895558820761027718e-01,7.187185596330600279e-02,7.142149206622447082e+02
-3.425594069047078083e+00,-5.696107555781099840e+00,-7.843090702661193347e+00,-9.385116269452794535e-01,3.253684538211577548e-01,-1.154525675156843761e-01,7.160708230758001491e+02
-3.922084909037656164e+00,-6.234532689865173616e+00,-6.659890405060846952e+00,-8.408193638049765717e-01,5.404324180068942329e-01,3.088039860132103451e-02,7.226162083760702899e+02
-4.254850461209240819e+00,-6.646460120776766622e+00,-5.327120625855037872e+00,-6.782076734808554219e-01,7.137696767276318077e-01,1.748290599871129836e-01,7.291615936763404306e+02
-4.440172518974526916e+00,-6.914892394155216948e+00,-3.893734061264099822e+00,-4.632317743414000044e-01,8.319969547722362302e-01,3.052792008808307145e-01,7.357069789766105714e+02
-4.459803276425475360e+00,-6.949739667223123085e+00,-3.514959571255214854e+00,-2.124898651646671410e-01,8.859859818600717141e-01,4.121588251509360479e-01,7.373958824033109067e+02
-4.458644006623608824e+00,-6.965355489256819688e+00,-2.063218639291741319e+00,4.196203288398888120e-01,6.340267374283152790e-01,6.495589856592677291e-01,7.439412677035810475e+02
-4.437526363075356528e+00,-6.906261251623878827e+00,-1.230176189268743947e+00,8.337769331471379664e-01,5.274982236772958466e-02,5.495739094901189725e-01,7.479009542327726194e+02
-4.417785154523220292e+00,-6.687661617371038147e+00,1.130641702217163522e-02,9.213035753406989548e-01,-6.054985569486109193e-02,3.840982127518956513e-01,7.544463395330427602e+02
-4.445874602460512470e+00,-6.324694551905460038e+00,1.062485214691236246e+00,9.647181693994393292e-01,-1.709503871364479177e-01,2.002319124612290946e-01,7.609917248333129010e+02
-4.499862064028264719e+00,-6.031998758433059216e+00,1.510977254182971796e+00,9.619420355549822554e-01,-2.731658337347941390e-01,6.778459358643091487e-03,7.646008626906512973e+02
-4.669266897590043541e+00,-5.327401647266346352e+00,2.064620707089200202e+00,9.439107414719607458e-01,-2.040385610833551910e-01,-2.596127456907028619e-01,7.711462479909214380e+02
-4.881639348748945118e+00,-4.471090935033742220e+00,2.370395971055048623e+00,8.540779131593378981e-01,-1.193904516756000150e-01,-5.062557044638841264e-01,7.776916332911915788e+02
-5.098080703016458770e+00,-3.500045872161206884e+00,2.455485435904416480e+00,6.992769601104096289e-01,-2.566052953296776851e-02,-7.143887389110697983e-01,7.842370185914617196e+02
-5.280855550782717955e+00,-2.452399742644059355e+00,2.347097700614531934e+00,4.912833037712239781e-01,7.002134221042088935e-02,-8.681795477151053042e-01,7.907824038917318603e+02
-5.393404799491339219e+00,-1.367412828792183843e+00,2.072464340722608434e+00,2.459186419581871896e-01,1.603768185932729351e-01,-9.559295463555328443e-01,7.973277891920020011e+02
-5.401135000924894847e+00,-3.874680114028178357e-01,1.697623432081486472e+00,-1.815258379265629121e-02,2.385327252806567766e-01,-9.709637597109553875e-01,8.032508589282145977e+02
-5.273082358067227915e+00,6.538945842327485991e-01,1.169779139160508130e+00,1.501353668580050760e-01,3.525763353177151053e-03,-9.886581515422578903e-01,8.097962442284847384e+02
-4.999363488042822823e+00,1.603778738521480118e+00,5.507691761078377102e-01,3.058326136599155420e-01,-2.317768824723431265e-01,-9.234413295780622422e-01,8.163416295287548792e+02
-4.913230139967132537e+00,1.785293600000491310e+00,3.953095802283992377e-01,4.358820556475860308e-01,-4.476422452417312958e-01,-7.807824625581744060e-01,8.178054252697601214e+02
-4.444426852612044954e+00,2.418699592916816687e+00,-3.577607508222822030e-01,7.517100611620347594e-01,-4.080429687182109966e-01,-5.181031939942242204e-01,8.243508105700302622e+02
-3.901881483939873885e+00,2.826166257065978904e+00,-1.127460209888358156e+00,9.395096814079308967e-01,-2.989473842123339664e-01,-1.671825948270724560e-01,8.308961958703004029e+02
-3.302327578219572679e+00,2.959673135151224876e+00,-1.856573871304015411e+00,9.672956376512602539e-01,-1.389362607230121283e-01,2.122118395308690286e-01,8.374415811705705437e+02
-3.272732205793961402e+00,2.955934327718331200e+00,-1.888100544467558262e+00,8.303356118478428805e-01,4.473791396657642722e-02,5.554631317659510792e-01,8.377474125983546855e+02
-2.615478938619984373e+00,2.637602605958858870e+00,-2.478518592531443687e+00,6.508190551816344094e-01,-2.285169067818052513e-01,7.240252624926115654e-01,8.442927978986248263e+02
-1.938061256094017581e+00,1.991800753559778814e+00,-2.897042944677979293e+00,3.832416256493874629e-01,-4.708515547159637382e-01,7.946210856699944536e-01,8.508381831988949671e+02
-1.599463688002739747e+00,1.550750301431291556e+00,-2.991477695113799129e+00,6.380858224152796687e-02,-6.494763261853193637e-01,7.576984667775833460e-01,8.540388386169396426e+02
-8.945084190753639364e-01,4.875461915489958109e-01,-2.997649944088195184e+00,-1.611151824488941953e-01,-8.328615606936196070e-01,5.295106407836335238e-01,8.605842239172097834e+02
-3.191834443264200405e-01,-4.328907951503065954e-01,-2.942228155992451022e+00,-3.640804312459282044e-01,-9.027354263083093855e-01,2.291553832467161933e-01,8.659137601400203721e+02
3.596307825934825231e-01,-1.553081247880809368e+00,-2.897042956918930212e+00,-6.551861296042683636e-01,-7.072869697352036633e-01,2.654699192246930406e-01,8.724403359150708184e+02
9.746114259796730961e-01,-2.640315674316941585e+00,-2.901530403388884682e+00,-8.783924647629562932e-01,-4.743750755986456125e-01,5.824916735856633387e-02,8.789857212153409591e+02
1.481332745707933052e+00,-3.673981382444328592e+00,-2.928927083613199311e+00,-9.724665405330085166e-01,-1.717254264906571959e-01,-1.575347753338834644e-01,8.854289603144549119e+02
1.864535404823689735e+00,-4.700127959992626892e+00,-2.937361871939994540e+00,-8.488163753529470723e-01,1.281206321512506907e-01,5.129267633396394910e-01,8.919743456147250527e+02
2.027658487548709143e+00,-5.444699552625090533e+00,-2.897042757327980667e+00,-2.543136744539786775e-01,3.568959890525529866e-01,8.988591702732366961e-01,8.967412072044597835e+02
2.081334468566605089e+00,-6.465912727363597234e+00,-2.758264309717401108e+00,-3.260660535204935040e-01,2.946989994331745133e-01,8.982379575991760179e-01,9.032865925047299243e+02
1.983811913248507253e+00,-7.449819769273176462e+00,-2.561237385214091944e+00,-3.948781939492811976e-01,2.298446400755989050e-01,8.895170899815310062e-01,9.098319778050000650e+02
1.772736825101552061e+00,-8.342225821920671081e+00,-2.352025359939795557e+00,-4.601296151584679528e-01,1.629177050714311348e-01,8.727752050932304773e-01,9.163773631052702058e+02
1.648574615597562687e+00,-8.669546047859851612e+00,-2.273304600966314482e+00,-5.212319407620659151e-01,9.452167584374543408e-02,8.481632606531772645e-01,9.192062492679181105e+02
1.317441833829229969e+00,-9.255173723603631331e+00,-2.141908917207500096e+00,-5.764874649683827679e-01,1.796138931044466702e-01,7.971192207786482742e-01,9.257516345681882513e+02
9.843025478226132829e-01,-9.625440778523211449e+00,-2.073124869991971320e+00,-6.243066499932051761e-01,2.623891855278734364e-01,7.357928527030175303e-01,9.322970198684583920e+02
8.821812645886433213e-01,-9.668070337837061601e+00,-2.073281667113748394e+00,-6.640726786676399707e-01,3.417798390510325968e-01,6.649752018395612696e-01,9.346156455443504001e+02
6.775055438490444892e-01,-9.508147279717437783e+00,-2.148916231703284829e+00,-6.886249971470278508e-01,5.084071982002539292e-01,5.170258544043256910e-01,9.411610308446205408e+02
5.793117610683914398e-01,-9.049059254719979961e+00,-2.297035872370016385e+00,-6.785693671974120100e-01,6.494837168419316242e-01,3.430925756391795534e-01,9.477064161448906816e+02
5.673484735692404524e-01,-8.312756555793994195e+00,-2.493835817508970543e+00,-6.344111627808265430e-01,7.579193937039520046e-01,1.519166521049612195e-01,9.542518014451608224e+02
5.946142349153046291e-01,-7.341984611766854130e+00,-2.704639394450203405e+00,-5.583696229199057726e-01,8.282646369754016469e-01,-4.689408637005305219e-02,9.607971867454309631e+02
5.972247414872319249e-01,-7.217059780266396274e+00,-2.726344503048331092e+00,-4.542663217654059893e-01,8.569841337277954718e-01,-2.433481116601840522e-01,9.615062579861255472e+02
5.915709944557897559e-01,-5.903725213403065553e+00,-2.897042354770049233e+00,-2.108208223862463870e-01,9.187097181737478024e-01,3.339536413663758418e-01,9.680516432863956879e+02
5.484395912181272426e-01,-4.819163825328459438e+00,-2.988170826705739636e+00,1.161843325483435108e-01,6.163011437064329634e-01,7.788915849696661509e-01,9.728923574258250255e+02
4.227597836650222596e-01,-3.228828997664731748e+00,-3.064851171381914874e+00,8.500748606760860637e-02,4.802168202975543587e-01,8.730197780205589675e-01,9.794377427260951663e+02
2.367928037634338401e-01,-1.550789376540214981e+00,-3.108082164118196378e+00,5.142058914438616540e-02,3.305178444209739275e-01,9.423968789903355292e-01,9.859831280263653071e+02
9.557196759046432052e-03,1.621717123696057028e-01,-3.129443435987047994e+00,1.637586044991428194e-02,1.714483170118634991e-01,9.850559911941757507e-01,9.925285133266354478e+02
-5.445188463424804892e-02,5.855212255067906435e-01,-3.131473811582992539e+00,-1.913315113681145901e-02,7.517997839952927745e-03,9.997876785772613628e-01,9.941600517329895865e+02
-3.265186797311689926e-01,2.231232655616885552e+00,-3.130363690445753022e+00,9.555328623270779864e-02,-8.937884988124565611e-02,9.914025371573085277e-01,1.000705437033259727e+03
-5.887056972861863802e-01,3.774312486802906097e+00,-3.120663198092158197e+00,2.080790154009015680e-01,-1.842546118232203378e-01,9.605994802047295167e-01,1.007250822333529868e+03
-7.733956375598033395e-01,4.894605237458574010e+00,-3.105499583148877640e+00,3.158996148425591288e-01,-2.749639659206101205e-01,9.080750248658202572e-01,1.012534515054157623e+03
-9.263784019482544929e-01,6.093715392598080705e+00,-3.074974863114857460e+00,1.138227764675443371e-01,-1.744738479074060822e-01,9.780599429245293575e-01,1.019079900354427764e+03
-9.465999753344911394e-01,7.077404756878807213e+00,-3.028654270051522435e+00,-9.460889504833652763e-02,-6.424264871767000618e-02,9.934384928436760243e-01,1.025625285654697791e+03
-7.769832074576104031e-01,7.815726177401179697e+00,-2.962306184163100653e+00,-2.977584268007300583e-01,4.957529868040429916e-02,9.533520907984963655e-01,1.032170670954967818e+03
-4.835158068329905579e-01,8.177522761601414558e+00,-2.889656249078673245e+00,-4.842837522444515264e-01,1.606254119781250767e-01,8.600387923452026406e-01,1.037160837249594579e+03
7.993708773838460735e-02,8.394718589555061783e+00,-2.747486865680405899e+00,-4.700069869015748858e-01,2.157654327999683763e-01,8.558835845288359501e-01,1.043706222549864606e+03
7.490558036444653345e-01,8.376327888591170279e+00,-2.536784103088245867e+00,-4.541972863482771072e-01,2.702017235514388438e-01,8.489368961573516836e-01,1.050251607850134633e+03
1.447062600543228994e+00,8.148819309185082460e+00,-2.236505517042307378e+00,-4.369062103294253374e-01,3.237567526575990118e-01,8.392213822809360124e-01,1.056796993150404660e+03
1.703537734920170799e+00,7.993208975896456181e+00,-2.081532609868093964e+00,-4.181901487255876848e-01,3.762558617334041955e-01,8.267687258314577736e-01,1.059310682662409818e+03
2.305644961276444693e+00,7.443670925304245678e+00,-1.574298450041175190e+00,-6.442420806322460836e-01,1.972266934407699013e-01,7.389531601776523351e-01,1.065856067962679845e+03
2.809372025707656650e+00,6.795483047134815990e+00,-9.715361287174744120e-01,-8.117564300604167560e-01,2.770167077838081170e-04,5.839943677098303754e-01,1.072401453262949872e+03
3.016303109424244511e+00,6.416192010908147836e+00,-5.942567515044184789e-01,-9.055124547868914631e-01,-1.966978619540839801e-01,3.759722667001845764e-01,1.075989233689780121e+03
3.250035463960268878e+00,5.720798937870925194e+00,1.648293027821606804e-01,-9.449956053300181402e-01,-1.615451226344670477e-01,2.844019677449060590e-01,1.082534618990050149e+03
3.332735152373834886e+00,5.054179597587552308e+00,9.664723174559113339e-01,-9.739139103451354140e-01,-1.245863547498536894e-01,1.896521432616531666e-01,1.089080004290320176e+03
3.264864298368006956e+00,4.449536872338650362e+00,1.774590409128349311e+00,-9.919440811190852747e-01,-8.623474078657743236e-02,9.278205328366088966e-02,1.095625389590590203e+03
3.225799735725260131e+00,4.352748903717658990e+00,1.920891263776165925e+00,-9.988845454688105585e-01,-4.691903353102570146e-02,-5.125340280551680776e-03,1.096841725917567601e+03
2.874735523358668665e+00,3.935887271440106083e+00,2.665944828422413426e+00,-9.647975181369063957e-01,-2.356531129001888936e-01,-1.167534126967544328e-01,1.103387111217837628e+03
2.388253469202308299e+00,3.660793060217168104e+00,3.341920696156440052e+00,-8.832006077778808972e-01,-4.127827823031013366e-01,-2.226321204453852454e-01,1.109932496518107655e+03
2.211612502780778478e+00,3.631348933471826079e+00,3.516152000420055934e+00,-7.581119034087985264e-01,-5.695856497930655848e-01,-3.175476806064125301e-01,1.111877068987771281e+03
1.537995309949331535e+00,3.743990428368433765e+00,3.998302405631776413e+00,-7.508144603702761044e-01,-4.228388280659694520e-01,-5.074277993751973304e-01,1.118422454288041308e+03
8.246432784798333193e-01,4.092336878202853079e+00,4.366478418710092235e+00,-7.002382365175552348e-01,-2.517185613751493634e-01,-6.680585138879476803e-01,1.124967839588311335e+03
1.252589549551361703e-01,4.648594725424130658e+00,4.630347000503381771e+00,-6.092985766372480683e-01,-6.608863214857337021e-02,-7.901806990864334024e-01,1.131513224888581362e+03
-5.048263422835350678e-01,5.356643216370812866e+00,4.810406535724427890e+00,-4.832374570290739468e-01,1.233508143291717624e-01,-8.667549461805738042e-01,1.138058610188851389e+03
-5.697974930474353217e-01,5.455098800296457995e+00,4.824840476222737706e+00,-3.293213307001893742e-01,3.056800405355983852e-01,-8.933673230894103590e-01,1.138860141434578054e+03
-9.710385054418286810e-01,6.321737996838099782e+00,4.892033405178850103e+00,-2.199627900057938013e-01,4.269293151202703251e-01,-8.771235550936954395e-01,1.145405526734848081e+03
-1.068948114857924070e+00,6.685077899907984289e+00,4.901055435806392246e+00,-1.046818459657742201e-01,5.366836883716404882e-01,-8.372635963404613246e-01,1.148053578703284984e+03
-1.162786649339411005e+00,7.563557630393923148e+00,4.884008302853377614e+00,2.071002272767557759e-02,5.695175607110840588e-01,-8.217170090716505726e-01,1.154598964003555011e+03
-1.171240874050647252e+00,8.364033754682886013e+00,4.824248691930177024e+00,1.457489054781398174e-01,5.926451901180694870e-01,-7.921659770396518585e-01,1.161144349303825038e+03
-1.172394233627038984e+00,8.432156141814081352e+00,4.814181080488300069e+00,2.683038288621333312e-01,6.056724243324601575e-01,-7.491141233604391436e-01,1.161785984944732490e+03
-1.266312029141151818e+00,8.997207299887559628e+00,4.660851882817029335e+00,5.655583188757211666e-01,3.634654119684179729e-01,-7.402936459627992294e-01,1.168331370245002518e+03
-1.500522454293570451e+00,9.348383714261171207e+00,4.475157596944363547e+00,7.796177146721873230e-01,6.779173559446910469e-02,-6.225740916179201001e-01,1.173990410582729510e+03
-1.981203345144419758e+00,9.642985672171455747e+00,4.197205660700377372e+00,8.137516262065145334e-01,-7.942329221226562819e-02,-5.757588310210154381e-01,1.180535795882999537e+03
-2.568660834339874466e+00,9.941284430154263774e+00,3.843200050756812924e+00,8.275180609030661216e-01,-2.246504132078505078e-01,-5.145328470787032815e-01,1.187081181183269564e+03
-3.050711232270802320e+00,1.026935148584449564e+01,3.451915112588912926e+00,8.205724554394052683e-01,-3.642547809944622350e-01,-4.404285411896365354e-01,1.192657969127693832e+03
-3.531262935825383753e+00,1.073314263621812081e+01,2.843948864464698190e+00,8.099274817877006871e-01,-4.833624563905357663e-01,-3.322291528348623180e-01,1.199203354427963859e+03
-3.639806672996639403e+00,1.087827066328583392e+01,2.611863671358677585e+00,7.782186349236950296e-01,-5.898992631654096375e-01,-2.153894509260231571e-01,1.201110968549146264e+03
-3.902248601446706822e+00,1.138193371878791638e+01,1.624101527334380179e+00,9.566077672374893037e-01,-2.908703976035712513e-01,1.714617913193779153e-02,1.207656353849416291e+03
-3.924561201517383857e+00,1.144427583495348522e+01,1.481463249927849946e+00,9.672900675437460238e-01,5.915209860439320927e-02,2.466758084240076865e-01,1.208478945707734283e+03
-3.947796659212358339e+00,1.154789136635653968e+01,1.217153964704195124e+00,9.671919737109615500e-01,-1.830446166661726590e-02,2.533823842512855085e-01,1.209865610689777441e+03
-3.942539490797631885e+00,1.205767967526050555e+01,-9.936903202729906182e-02,9.852208569784747239e-01,-1.321646198030756170e-01,1.089512562766183357e-01,1.216410995990047468e+03
-3.867807775591581620e+00,1.228208208367658116e+01,-6.057612183267075956e-01,9.696048459133069786e-01,-2.415114122957311982e-01,-3.920051669546722323e-02,1.218977352460894735e+03
-3.662453741222581272e+00,1.262706579805176155e+01,-1.233469462648156822e+00,8.047283354645389242e-01,-4.002080736803015348e-01,-4.384561595637452291e-01,1.222448549475186155e+03
-3.477771717928478168e+00,1.286016010725157699e+01,-1.567699276019663079e+00,7.846590678325120471e-01,-4.305658941209280499e-01,-4.460057825145526400e-01,1.224607003153273808e+03
-2.729333514379835623e+00,1.353705247183921045e+01,-2.307839314269804376e+00,7.470317859335804389e-01,-5.985966890608913626e-01,-2.891773065948933796e-01,1.231152388453543836e+03
-1.785598533900818907e+00,1.399905629603533441e+01,-2.682155480069465359e+00,6.688814376415942453e-01,-7.341563417335634778e-01,-1.166622829794218275e-01,1.237697773753813863e+03
-1.485090425253898339e+00,1.402299595425006551e+01,-2.691139863244433439e+00,5.544472734412112525e-01,-8.298913897399473605e-01,6.218120461698693063e-02,1.239535596146444504e+03
-3.914284803197249363e-01,1.372500891554736668e+01,-2.409478897471103220e+00,3.553338286960833203e-01,-8.916981417268238230e-01,-2.803752739184867115e-01,1.246080981446714532e+03
6.108298459170347083e-01,1.318260609562920571e+01,-1.816787290920324871e+00,9.907866654289630703e-02,-8.101096042258250085e-01,-5.778441372697142864e-01,1.252626366746984559e+03
1.087900090767143890e+00,1.282814758943973210e+01,-1.327494599687518262e+00,-1.731094951975562790e-01,-5.982461553076016125e-01,-7.823890594402249654e-01,1.256439075760270043e+03
1.288376433581840619e+00,1.264023497636354421e+01,-9.855152561533463418e-01,-3.569903732310728550e-01,-5.703105088382094401e-01,-7.397984839944604651e-01,1.258643091531374012e+03
1.559604434409070706e+00,1.229928190156264556e+01,-1.281316542886705989e-01,-9.339078700377438924e-01,-3.065020225343355609e-01,-1.840396708951697324e-01,1.263537512859439857e+03
1.705899489787765511e+00,1.195865170353454410e+01,1.103621917940993402e+00,-9.703186891620673160e-01,-2.207470270745174046e-01,9.874407070512200568e-02,1.270082898159709885e+03
1.692628709143645382e+00,1.187545447325685366e+01,1.556970391966029377e+00,-9.207141690011650947e-01,-1.154235895035625181e-01,3.727744814027125764e-01,1.272415143416737919e+03
1.503994829397687250e+00,1.173077284928640651e+01,2.841339052684333399e+00,-7.722724945966539245e-01,3.149637274711211132e-01,5.517164529575102616e-01,1.278960528717007946e+03
1.204220419485933391e+00,1.164412528487593335e+01,4.115005759373729255e+00,-4.390338567232985878e-01,6.699842554486611368e-01,5.986387642785683250e-01,1.285505914017277973e+03
8.433343685575216409e-01,1.157346961040404665e+01,5.353540175494920561e+00,-7.384837542838198219e-04,8.646845109507347305e-01,5.023128021053672176e-01,1.292051299317548001e+03
4.700091037233108948e-01,1.147524588494165521e+01,6.532516124008959757e+00,4.377332792475219780e-01,8.524743381304733525e-01,2.857885215768686815e-01,1.298596684617818028e+03
4.436469871059106618e-01,1.146417883609006871e+01,6.615746752097090955e+00,7.714594647894473800e-01,6.362762940894166608e-01,8.785017304644176421e-04,1.299084628259237661e+03
1.228117755969408836e-01,1.126370481453180972e+01,7.659785235056589592e+00,6.322959673654106050e-01,7.462535472454941976e-01,2.080996224810088557e-01,1.305630013559507688e+03
-1.606930499344517704e-01,1.103246566309035614e+01,8.606305818715449973e+00,4.460882588953083427e-01,8.007078808059570063e-01,3.998376606708370917e-01,1.312175398859777715e+03
-4.028788082383981117e-01,1.081438155976952586e+01,9.444076533337488755e+00,2.266905689375450228e-01,7.955877745887507402e-01,5.618269118502811077e-01,1.318720784160047742e+03
-5.576481262288404128e-01,1.066435240573303744e+01,1.006756106668799156e+01,-9.573469060480047435e-03,7.312741401891418302e-01,6.820150149226875680e-01,1.324381940622837419e+03
-6.257874021821402399e-01,1.054690624884674932e+01,1.066770971729301110e+01,1.620129626685060803e-02,9.259137427562572631e-01,3.773847625086360624e-01,1.330927325923107446e+03
-5.597663541282108524e-01,1.050831076183240320e+01,1.115397609842240634e+01,3.984804249390740821e-02,9.989357174682109708e-01,2.318546688729864261e-02,1.337472711223377473e+03
-5.079224742461754261e-01,1.053428394267029233e+01,1.127732066646593267e+01,5.826080204966701398e-02,9.407486610033293228e-01,-3.340593297060275857e-01,1.339529752796983757e+03
-4.424901250830889921e-01,1.060032983644864402e+01,1.136994773075558030e+01,9.088151947014362630e-02,9.947456808475985124e-01,-4.711241712830536305e-02,1.341451046296087952e+03
-1.956911482586649875e-01,1.094847974335671204e+01,1.162389863699190862e+01,-1.669863747850404423e-01,8.832595751553882213e-01,-4.381393311848066907e-01,1.347996431596357979e+03
1.551268140403946200e-02,1.135898574350864898e+01,1.184672624406526609e+01,-3.861422752477514653e-01,5.670095054094146381e-01,-7.275935431545053067e-01,1.354541816896628006e+03
4.049177871416239499e-02,1.144816197207093644e+01,1.189544536593713886e+01,-5.157797549897413791e-01,1.193108139950774388e-01,-8.483714834932555293e-01,1.355968761765152522e+03
4.374725955094312807e-02,1.180892887729944363e+01,1.213559813225101536e+01,-4.307103107405300668e-01,5.765684261351695580e-03,-9.024707114933194774e-01,1.362514147065422549e+03
-3.025458274865605243e-02,1.206032397796676037e+01,1.240009631273351154e+01,-3.357104558402858596e-01,-1.079122880286796649e-01,-9.357624847839303150e-01,1.369059532365692576e+03
-7.133146455794518725e-02,1.209380864115978582e+01,1.250390753181872583e+01,-2.329704875878019221e-01,-2.191021877525031469e-01,-9.474792785240225834e-01,1.371438322353818876e+03
-2.048494063088891481e-01,1.203210763876588274e+01,1.277144312029696849e+01,-1.656192753741037582e-01,-1.793494993889504507e-01,-9.697432715349435517e-01,1.377983707654088903e+03
-3.451421680153793359e-01,1.186248164373836822e+01,1.294086001116994744e+01,-9.717296801344155188e-02,-1.384109270020044413e-01,-9.855951651502654620e-01,1.384529092954358930e+03
-4.170937248579454359e-01,1.173652762821545537e+01,1.293419468368327685e+01,-2.808411326590380327e-02,-9.655714472619165989e-02,-9.949301484915916705e-01,1.388136004714354613e+03
-4.243573809293529342e-01,1.172024922691151971e+01,1.292205966728633904e+01,2.571349782606501683e-02,-1.322227386054199982e-01,-9.908854441335154251e-01,1.388555737678094602e+03
-5.129514577915931239e-01,1.145839176278427907e+01,1.254752083755774450e+01,2.831535744309451527e-02,1.935110994510644833e-01,-9.806883780899634528e-01,1.395101122978364629e+03
-5.588341690969998998e-01,1.120903354332958735e+01,1.195331219774337761e+01,2.790974276664195605e-02,4.986916247222098475e-01,-8.663288692456161399e-01,1.401646508278634656e+03
-5.534644186574113611e-01,1.113438524940294982e+01,1.167464274098552579e+01,2.453972854809453527e-02,7.509045094082821281e-01,-6.599531949084503912e-01,1.403961155374455302e+03
-4.688196704947131255e-01,1.097596473209733681e+01,1.071275397392616036e+01,-4.058732058560597933e-01,6.951482410867747541e-01,-5.933244168912698013e-01,1.410506540674725329e+03
-3.160414143024396494e-01,1.087720656595773860e+01,9.601093925684015318e+00,-7.580320418901362878e-01,5.053648862086304039e-01,-4.123005642168903750e-01,1.417051925974995356e+03
-9.879094982665975744e-02,1.084358176684852282e+01,8.371572961438479510e+00,-9.640394354756584017e-01,2.181457620738065650e-01,-1.517840351835504087e-01,1.423597311275265383e+03
1.314262824922185768e-01,1.087427689744344939e+01,7.282716064022313418e+00,-9.841770898385083788e-01,-1.111322437613680852e-01,1.379966674729398435e-01,1.429009903517570365e+03
4.630207849095079875e-01,1.098238828636878672e+01,5.906104289524886752e+00,-9.707841544662941802e-01,-1.149437488700545962e-01,2.106277760167075963e-01,1.435555288817840392e+03
8.297001345846325426e-01,1.115216060481050597e+01,4.494642997803913964e+00,-9.520818238185621007e-01,-1.181266044393524117e-01,2.821069054011071664e-01,1.442100674118110419e+03
1.207730700413724989e+00,1.137060206717283606e+01,3.073015900753885976e+00,-9.281723839743408755e-01,-1.206634036281470784e-01,3.520431346430434871e-01,1.448646059418380446e+03
1.572995834504592239e+00,1.162547067635525266e+01,1.665907902614845559e+00,-8.991865963562772901e-01,-1.225402726087997385e-01,4.200539804823415491e-01,1.455191444718650473e+03
1.735986865693039727e+00,1.176349980857691691e+01,9.926346556122364051e-01,-8.652829828332110340e-01,-1.237469464175617734e-01,4.857674884841183260e-01,1.458405581212226934e+03
