1.731202541450650445e+00,-2.398085572229883500e+00,-3.542630337476011970e+00,-6.412785773105042497e-02,2.967104367852113622e-01,9.528108598051661104e-01,1.215884104100929193e+02
1.285467256879327280e+00,-2.225371430723805499e+00,-4.368469549234198723e+00,-1.408165360459238957e-01,1.992837806008687374e-01,9.697704253915234718e-01,1.281337957103630458e+02
7.682208813368084366e-01,-2.125742325186168902e+00,-5.150572470492218891e+00,-2.152999077459987476e-01,9.873620461038966345e-02,9.715426452927067302e-01,1.346791810106331582e+02
1.985541028601517100e-01,-2.099629210795465273e+00,-5.901200600299457477e+00,-2.864115243809662870e-01,-3.357662878237895141e-03,9.580997676652603934e-01,1.412245663109032705e+02
-1.277324443014016542e-01,-2.125888961336932503e+00,-6.293567513446368444e+00,-3.530377378698860147e-01,-1.053989778626659990e-01,9.296523065658797158e-01,1.447512907653909053e+02
-7.559096521812332936e-01,-2.244399396721295403e+00,-7.001143439020450998e+00,-2.788500603909651043e-01,-7.473816399983669589e-02,9.574209370264853414e-01,1.512966760656610177e+02
-1.392023983180321611e+00,-2.421738271780309759e+00,-7.685701890527262492e+00,-2.026504999689506814e-01,-4.353812285628292506e-02,9.782817624362339926e-01,1.578420613659311300e+02
-1.871885915854481830e+00,-2.595507722268422413e+00,-8.187580183594240779e+00,-1.249888040137104167e-01,-1.202394939220377719e-02,9.920842824612891020e-01,1.628369048658720999e+02
-2.482543148405519151e+00,-2.863232326166684771e+00,-8.810758737758513703e+00,-5.301861679132998662e-01,-3.142637020996170150e-01,7.874890176352996596e-01,1.693822901661422122e+02
-2.882936910788029383e+00,-3.067358394465499849e+00,-9.208549300202028220e+00,-7.777096174394659833e-01,-5.230434971376378694e-01,3.486993705811542998e-01,1.738774042296837194e+02
-3.429374622783220694e+00,-3.382083704399357238e+00,-9.733385953923667344e+00,-7.785626754241027347e-01,-2.930556027677891362e-01,5.549383516414397866e-01,1.804227895299538318e+02
-3.930471925921935838e+00,-3.696752079397173318e+00,-1.019011393714734126e+01,-7.051176276586670344e-01,-3.510151690777441741e-02,7.082196090730039639e-01,1.869681748302239441e+02
-4.136221738541660642e+00,-3.835665184168868258e+00,-1.036397854007562458e+01,-5.643833159409488154e-01,2.262023236030733242e-01,7.939156009825858451e-01,1.899938190255517441e+02
-4.516994075732313263e+00,-4.108792940734748989e+00,-1.064822098703769271e+01,-6.122889562580958733e-01,6.468809363916525057e-02,7.879820331595321914e-01,1.965392043258218564e+02
-4.608141741867375352e+00,-4.177762128885027515e+00,-1.070352046331123397e+01,-6.427951414780597172e-01,-9.866436265486948354e-02,7.596563365300581516e-01,1.984780225039535253e+02
-4.833829375913490267e+00,-4.355385098508232744e+00,-1.080020941720336936e+01,-5.953977546354480843e-01,-7.844071784874491471e-02,7.995915004243040469e-01,2.050234078042236376e+02
-4.969740837145659285e+00,-4.454554689343762419e+00,-1.082790572164286402e+01,-5.454697398124445096e-01,-5.788367836704387537e-02,8.361281257797721356e-01,2.115687931044937500e+02
-4.979675274958330178e+00,-4.454574409132598944e+00,-1.082376917273404615e+01,-4.932232857521889335e-01,-3.708060943679066662e-02,8.691109358347305358e-01,2.131970330455634439e+02
-4.977530809179508076e+00,-4.450547921155913578e+00,-1.082238246001816684e+01,-3.893336769539216813e-01,-1.001999663025738840e-01,9.156294308995100995e-01,2.134401989332307039e+02
-4.829732585461184335e+00,-4.233176894347312924e+00,-1.076346533397290273e+01,-3.581737504954549678e-01,-2.347651771361328743e-01,9.036563926947105418e-01,2.199855842335008163e+02
-4.615574961891427463e+00,-3.909289356044240993e+00,-1.066591373457180403e+01,-3.201289717649378752e-01,-3.648176712983464687e-01,8.743131636564536180e-01,2.265309695337709286e+02
-4.581856314894082516e+00,-3.851915161813619815e+00,-1.064765948501757364e+01,-2.759306266382576256e-01,-4.878576188960281890e-01,8.281637718262595538e-01,2.274044568476214181e+02
-4.310293149059270412e+00,-3.322908654032584064e+00,-1.046099206702197648e+01,-4.382629379633470879e-02,-4.288805501042393664e-01,9.022963646791322123e-01,2.339498421478915304e+02
-4.131694712550916471e+00,-2.913878598694833677e+00,-1.028790324449719584e+01,1.910323268189534629e-01,-3.429498642971460232e-01,9.197228064407372283e-01,2.383110764775583164e+02
-3.889423642716457685e+00,-2.233459393594225517e+00,-9.926944925859885416e+00,2.926754610959527159e-01,-4.480054565516522480e-01,8.447663495719927029e-01,2.448564617778284287e+02
-3.697463097547994959e+00,-1.541420386377106100e+00,-9.439097554195884143e+00,3.864203000384706099e-01,-5.409709361259542604e-01,7.470125822110903480e-01,2.511634238544540949e+02
-3.555686907553505360e+00,-8.276048923638227306e-01,-8.728882578056214925e+00,7.513536286525332453e-02,-7.919376049162764053e-01,6.059599880907496905e-01,2.577088091547242357e+02
-3.500914717189900216e+00,-3.694704150419163002e-01,-8.045792196493311010e+00,-2.496573399425498774e-01,-9.005307033846253750e-01,3.559686290592222746e-01,2.622794179026915344e+02
-3.484908534634249655e+00,1.639197823590266556e-01,-6.730854293677088762e+00,-3.802656722812707696e-02,-9.665927590776417500e-01,2.534766622042349815e-01,2.688248032029616752e+02
-3.524866077897685912e+00,4.655350835522351072e-01,-5.129841222001765288e+00,1.758727559114365568e-01,-9.749912703233145628e-01,1.358631536494499248e-01,2.748759631991309789e+02
-3.626221284414242074e+00,4.840629483832960545e-01,-2.897042304710362171e+00,2.753976698930115097e-01,-8.249131567360987738e-01,-4.936318539769452007e-01,2.814213484994011196e+02
-3.787215384138659768e+00,8.253359946506517997e-02,-5.646961345513274999e-01,2.568613625715523430e-01,-3.211998604051646833e-01,-9.115102248976413302e-01,2.879667337996712604e+02
-4.012437536441642472e+00,-7.815392536691466718e-01,1.025919182444160915e+00,1.282102030309864582e-01,3.202097028381885035e-01,-9.386297939267428392e-01,2.945109145187357740e+02
-4.306555958625185809e+00,-1.997992122356907263e+00,1.603952203044521241e+00,2.473639591019561323e-01,1.930100054155342026e-01,-9.495031382485635829e-01,3.010562998190059147e+02
-4.520136903635496139e+00,-2.830901940506875381e+00,1.483123980147657228e+00,3.589741642797404375e-01,5.992436474486686343e-02,-9.314207534118322807e-01,3.049459099440690011e+02
-4.940053044903172541e+00,-4.265068629210115425e+00,6.957734043159679027e-01,4.090148738804534889e-01,2.383844516316769302e-01,-8.808391942701366828e-01,3.114912952443391418e+02
-4.983322883867869812e+00,-4.389082139543337036e+00,5.888820532754456272e-01,4.439585821768944340e-01,4.080456196877378372e-01,-7.977452911564348881e-01,3.120989834406892101e+02
-5.484380106640545982e+00,-5.512140561223600521e+00,-8.031267777070322245e-01,6.097740382162588624e-01,5.630024265276698525e-01,-5.578547212679938472e-01,3.186443687409593508e+02
-5.684232171047293392e+00,-5.818260423670256642e+00,-1.392704594359098547e+00,7.090911504096404361e-01,6.565615244851653598e-01,-2.571277989163185951e-01,3.211354544923415233e+02
-6.214344809488025589e+00,-6.286448746731600146e+00,-2.897040640450573523e+00,6.140880674150702712e-01,7.841035128220973371e-01,8.986393402424777688e-02,3.276808397926116641e+02
-6.629056749329370390e+00,-6.441993369076804754e+00,-3.918149254254355895e+00,4.296147379176845083e-01,7.974046761244861781e-01,4.237628575726060665e-01,3.329351214666612009e+02
-6.962800211478236356e+00,-6.429645970240457586e+00,-4.598246285697614510e+00,4.850087800677298500e-01,8.044797238063854383e-01,3.428948194761144985e-01,3.374566577261890643e+02
-7.125270938979447521e+00,-6.360326563779699960e+00,-4.868126038741848127e+00,5.762277018297710107e-01,7.516302525523190781e-01,3.209542009006517982e-01,3.398844513119835824e+02
-7.390818753002715624e+00,-6.131995879224676926e+00,-5.202976417095483974e+00,6.408210673148180270e-01,7.550869671316655651e-01,1.385280900947262472e-01,3.443790851872035432e+02
-7.720112565992257814e+00,-5.672080235808381943e+00,-5.464000852851540024e+00,7.410569276682553719e-01,6.701795114457614888e-01,-4.113456445894781571e-02,3.509244704874736840e+02
-7.985612962593275910e+00,-5.109029469669587264e+00,-5.519634548107378080e+00,8.045843211121431748e-01,5.520745621755106525e-01,-2.187595666922763638e-01,3.574698557877438247e+02
-8.184941400608808593e+00,-4.470484496673548414e+00,-5.391553897252635785e+00,8.282564295374577057e-01,4.066224682923003098e-01,-3.855482527646064694e-01,3.640152410880139655e+02
-8.192336554507946289e+00,-4.434067935470676680e+00,-5.378592196957979077e+00,8.109006466265038515e-01,2.410282032109453687e-01,-5.332387331744298242e-01,3.643601103569671409e+02
-8.244455401108963244e+00,-4.016202856475835858e+00,-5.175733136459814254e+00,9.256566933471430669e-01,9.856817634010772711e-02,-3.652971402419289970e-01,3.680920722421590199e+02
-8.301451597997338894e+00,-3.249290114158824405e+00,-4.670277653854170374e+00,9.842266585739384288e-01,4.547202406870231445e-02,-1.709625092748522646e-01,3.746374575424291606e+02
-8.320369424632039212e+00,-2.928004668608434446e+00,-4.411977948173607444e+00,9.994752195953058305e-01,-9.625606150105740430e-03,3.089713771261210634e-02,3.772939840628650927e+02
-8.363436384297935788e+00,-2.114736201497057877e+00,-3.667061668993565338e+00,9.712842252416435951e-01,-2.308173868800455497e-01,5.769131399403576443e-02,3.838393693631352335e+02
-8.390005609465717384e+00,-1.277942582869765697e+00,-2.844651188750655812e+00,8.941030671329922574e-01,-4.403670329464510202e-01,8.157561913373946594e-02,3.903847546634053742e+02
-8.390211897031777610e+00,-1.240364568518497634e+00,-2.807276053026336537e+00,7.718246200943374991e-01,-6.277052423968115802e-01,1.013453722827518111e-01,3.906701809640483702e+02
-8.363055015527368852e+00,-3.543336413290122389e-01,-1.931864751961463345e+00,6.272430061028635428e-01,-7.708258392000612025e-01,1.113181787351569391e-01,3.972155662643185110e+02
-8.280414649869065613e+00,5.526606376451942415e-01,-1.043306046556609301e+00,4.566390126844472874e-01,-8.819672803913374270e-01,1.166727406635323649e-01,4.037609515645886518e+02
-8.118931348926995639e+00,1.475817726456606804e+00,-1.663649731708294888e-01,2.670904701990703956e-01,-9.565186397904429372e-01,1.171869125051643590e-01,4.103063368648587925e+02
-7.855360094213375000e+00,2.409622857749501801e+00,6.741948156524385505e-01,6.646116711725036375e-02,-9.913870039524329547e-01,1.128393621917847672e-01,4.168517221651289333e+02
-7.466578513842544673e+00,3.347849631435309448e+00,1.453613989927476702e+00,-1.369253980449873787e-01,-9.851257912128672523e-01,1.038104563987426732e-01,4.233971074653990740e+02
-6.941010931986978605e+00,4.282523035244761189e+00,2.151235741674251578e+00,-3.346313381336897819e-01,-9.379947665981412941e-01,9.047477755552006673e-02,4.299424927656692148e+02
-6.290096185575111853e+00,5.203352141386770491e+00,2.754603497216604246e+00,-5.184544438258361643e-01,-8.519492624967415217e-01,7.338558311404048962e-02,4.364878780659393556e+02
-5.536938734521726246e+00,6.099478334567031368e+00,3.255367133427675697e+00,-6.807684702264903409e-01,-7.305590531958160438e-01,5.325185198403213638e-02,4.430332633662094963e+02
-5.205718315790626605e+00,6.444466108260304971e+00,3.411659622620931476e+00,-8.148395252451949844e-01,-5.788602506777398293e-01,3.090887063954966471e-02,4.456396917800642541e+02
-4.311857089827547007e+00,7.274133145323319560e+00,3.690055870270082750e+00,-8.302019458645915062e-01,-5.544678602676432755e-01,5.768986922932483469e-02,4.521850770803343949e+02
-3.372456758838259905e+00,8.055401962461733234e+00,3.845878778499731254e+00,-8.442790317056081406e-01,-5.292170357278254134e-01,8.438154843698127128e-02,4.587304623806045356e+02
-2.411492086477450059e+00,8.779862276643639163e+00,3.870827495091123005e+00,-8.570489890600009319e-01,-5.031468705362950322e-01,1.109425843387869398e-01,4.652758476808746764e+02
-1.453175006336785646e+00,9.439835707567750589e+00,3.756616701657578883e+00,-8.684920478436103375e-01,-4.762977265873183930e-01,1.373318552966684147e-01,4.718212329811448171e+02
-5.219462202644434834e-01,1.002838116154877923e+01,3.494977597824086679e+00,-8.785904921941135592e-01,-4.487111717106532227e-01,1.635085056113355917e-01,4.783666182814149579e+02
3.597676044516405769e-01,1.053633686364459088e+01,3.077309679969968403e+00,-8.873286878908559494e-01,-4.204299153257106680e-01,1.894320087635988636e-01,4.849120035816850987e+02
1.181447796526600813e+00,1.095309891522817125e+01,2.504305058752439805e+00,-8.946931065536096739e-01,-3.914977423295368242e-01,2.150622301461123376e-01,4.914573888819552394e+02
1.950004910721275575e+00,1.127296342037852916e+01,1.796270081181273515e+00,-9.006723465828810893e-01,-3.619594453208028750e-01,2.403594891885930118e-01,4.980027741822253802e+02
2.679949106553447535e+00,1.149374353276269112e+01,9.834996254259626980e-01,-9.052571508094159336e-01,-3.318607552645586600e-01,2.652846207805052425e-01,5.045481594824955209e+02
3.380482731598708490e+00,1.161432129124014523e+01,9.251724671610148110e-02,-9.084404208256138258e-01,-3.012482707048997899e-01,2.897990358962772572e-01,5.110935447827656617e+02
4.050347984060611140e+00,1.163639995072916555e+01,-8.577117295123712903e-01,-9.102172279766744811e-01,-2.701693856349425826e-01,3.138647813293471978e-01,5.176389300830358025e+02
4.683127932167896468e+00,1.156328913874829567e+01,-1.851998698674091948e+00,-9.105848209944429339e-01,-2.386722161355673277e-01,3.374445984427030254e-01,5.241843153833059432e+02
5.208038072490338344e+00,1.141692783034675429e+01,-2.763293853249869425e+00,-9.095426302620908121e-01,-2.068055258962965270e-01,3.605019808450916630e-01,5.300117934853070665e+02
5.748453645500833709e+00,1.116472940545981096e+01,-3.801766684442934974e+00,-9.431572792960823959e-01,-5.898164674220206238e-02,3.270680538644281654e-01,5.365571787855772072e+02
6.233571759719057859e+00,1.082796726512178154e+01,-4.840374320903900518e+00,-9.540421023077826357e-01,9.026369737099849966e-02,2.857518713170074665e-01,5.431025640858473480e+02
6.657307784464934208e+00,1.041062620853833565e+01,-5.863917770396547269e+00,-9.419347669378740351e-01,2.373337351563013231e-01,2.375491380544140219e-01,5.496479493861174888e+02
7.013666914922214168e+00,9.916859339525634809e+00,-6.857199813180336001e+00,-9.071270457970146417e-01,3.786841144017411565e-01,1.836215245638317117e-01,5.561933346863876295e+02
7.296745971580144818e+00,9.350986079443744714e+00,-7.805026803776215161e+00,-8.504577871539830136e-01,5.109083207393393389e-01,1.252686715349771163e-01,5.627387199866577703e+02
7.500735182849290084e+00,8.717490148090586644e+00,-8.692210472414609868e+00,-7.732927007186554125e-01,6.308197754954726344e-01,6.389686892715763789e-02,5.692841052869279110e+02
7.619919950660573704e+00,8.021017512852443687e+00,-9.503569726005201446e+00,-6.774914452936084963e-01,7.355286337082737047e-01,9.851643505392933004e-04,5.758294905871980518e+02
7.648682598858264292e+00,7.266374306410352979e+00,-1.022393244846807292e+01,-5.653628112836123210e-01,8.225114310033115883e-01,-6.195028237209589117e-02,5.823748758874681926e+02
7.581504104199363603e+00,6.458524713304770515e+00,-1.083813730026590427e+01,-4.396090781981853990e-01,8.896719003464164111e-01,-1.233927392492018688e-01,5.889202611877383333e+02
7.416184263489607353e+00,5.603983556895929752e+00,-1.133605283233488770e+01,-3.032608883875916317e-01,9.353914925919992740e-01,-1.818614559511786410e-01,5.954656464880084741e+02
7.157119468030129994e+00,4.712076191457164498e+00,-1.171759600285665037e+01,-1.596042069764377347e-01,9.585683830653085602e-01,-2.359473502774150633e-01,6.020110317882786148e+02
6.812170424606510011e+00,3.793340986034797524e+00,-1.198771487000872149e+01,-1.210112875346506384e-02,9.586440241339556634e-01,-2.843469670583179121e-01,6.085564170885487556e+02
6.641747665681463353e+00,3.412594721278343624e+00,-1.205438773124404506e+01,1.356935589726624980e-01,9.356166040950153473e-01,-3.258938910064531069e-01,6.112118990049212925e+02
6.152344918784243610e+00,2.461624858869319254e+00,-1.211644304938509364e+01,7.897526008251355700e-02,9.333187751230307416e-01,-3.502527263242545263e-01,6.177572843051914333e+02
5.596891578184912674e+00,1.508708185934348522e+00,-1.207903482754309010e+01,2.195562827109958509e-02,9.274597702344982153e-01,-3.732751330904727771e-01,6.243026696054615741e+02
4.984165311738270709e+00,5.634967523566573044e-01,-1.194715719659607345e+01,-3.514777298885866236e-02,9.180619459202841171e-01,-3.948732676530192220e-01,6.308480549057317148e+02
4.323205550905257155e+00,-3.646318135871386423e-01,-1.172581546744392256e+01,-9.211706075545922356e-02,9.051611611345853348e-01,-4.149647207791332670e-01,6.373934402060018556e+02
3.623310293663545067e+00,-1.266580242724309802e+00,-1.142002553686006294e+01,-1.487348639204836009e-01,8.888066404541108412e-01,-4.334728320659829715e-01,6.439388255062719963e+02
2.894032855006317462e+00,-2.133537504540677254e+00,-1.103481329240129050e+01,-2.047851525555514363e-01,8.690607862504992065e-01,-4.503269824189385928e-01,6.504842108065421371e+02
2.145178565382436453e+00,-2.956984627873524119e+00,-1.057521401642866543e+01,-2.600540621391268514e-01,8.459989405925788519e-01,-4.654628634824135580e-01,6.570295961068122779e+02
1.386801417436536843e+00,-3.728700461829565604e+00,-1.004627178929256814e+01,-3.143307095214923352e-01,8.197090977867691475e-01,-4.788227229960598241e-01,6.635749814070824186e+02
6.292006614128231590e-01,-4.440767376020887447e+00,-9.453038891734987459e+00,-3.674079975163200285e-01,7.902915686518857674e-01,-4.903555851408098465e-01,6.701203667073525594e+02
-1.170826504084535452e-01,-5.085576899217916669e+00,-8.800575206562303521e+00,-4.190834050507832864e-01,7.578585978084199093e-01,-5.000174450344957444e-01,6.766657520076227001e+02
-8.412691698676769692e-01,-5.655835295524744843e+00,-8.093947619641820523e+00,-4.691597598611109698e-01,7.225339354413158333e-01,-5.077714366352159558e-01,6.832111373078928409e+02
-1.534424523415221175e+00,-6.141806393084955573e+00,-7.338991546808197874e+00,-5.174459907868736996e-01,6.844523651686907906e-01,-5.135879734118729001e-01,6.897565226081629817e+02
-2.017932875825937167e+00,-6.428554518671927731e+00,-6.752308372468924347e+00,-5.637578567948711150e-01,6.437591898162057236e-01,-5.174448612449994434e-01,6.945787647614342859e+02
-2.634195104274899002e+00,-6.705731309613812030e+00,-5.921674402149925243e+00,-5.028082123692775296e-01,5.923777773635329202e-01,-6.295001751062603290e-01,7.011241500617044267e+02
-3.206737800040992514e+00,-6.858220372408018406e+00,-5.064381983186134306e+00,-4.323498114225338695e-01,5.297937259921704500e-01,-7.296507715759326107e-01,7.076695353619745674e+02
-3.729282026968374186e+00,-6.883706137904396449e+00,-4.189102780683819915e+00,-3.537151043325143518e-01,4.571905742737332190e-01,-8.160026983787126431e-01,7.142149206622447082e+02
-3.861823005799359443e+00,-6.856283945103949229e+00,-3.938303283526355170e+00,-2.683911582540240981e-01,3.759413256070702203e-01,-8.869229424649063276e-01,7.160708230758001491e+02
-4.273554573878879381e+00,-6.637603385316562132e+00,-3.057194910034379376e+00,-2.108248010653918925e-01,4.705729036037420432e-01,-8.568033879764386240e-01,7.226162083760702899e+02
-4.632082023719055641e+00,-6.293088952607996056e+00,-2.201166038602624386e+00,-1.504805693760208340e-01,5.590040988540205813e-01,-8.153943927344703413e-01,7.291615936763404306e+02
-4.941304231385939438e+00,-5.820908950056095321e+00,-1.396868781810272964e+00,-8.815355789849908807e-02,6.400697408007468558e-01,-7.632415588389590555e-01,7.357069789766105714e+02
-5.009870207270142650e+00,-5.666252214483795235e+00,-1.207740902958881923e+00,-2.466498648938626054e-02,7.127017002338751350e-01,-7.010320427216604200e-01,7.373958824033109067e+02
-5.234377057271783151e+00,-4.941683914378442566e+00,-5.647343554106093455e-01,8.149182688061197277e-01,1.638542333481883551e-01,-5.559298565274266579e-01,7.439412677035810475e+02
-5.346478057628880620e+00,-4.430347942521976279e+00,-2.440606832146378080e-01,8.174257098426781498e-01,-5.533023850146042699e-01,1.602176008605602220e-01,7.479009542327726194e+02
-5.492699928462256409e+00,-3.475448200465151682e+00,1.520719243872937776e-01,7.488210587080581515e-01,-6.410904155415210193e-01,1.681312021400833134e-01,7.544463395330427602e+02
-5.591184849797206091e+00,-2.431815372961697364e+00,3.906392233047348284e-01,6.708741482952743640e-01,-7.208801904057079435e-01,1.739471995368126744e-01,7.609917248333129010e+02
-5.616754625577871529e+00,-1.823591078245778485e+00,4.242310479623322972e-01,5.845574107721679402e-01,-7.916762894092532754e-01,1.775930356042574321e-01,7.646008626906512973e+02
-5.604117439965636827e+00,-7.011905785616936448e-01,2.960263986224181409e-01,4.636668914309314271e-01,-8.422473853225259655e-01,2.750097374795716920e-01,7.711462479909214380e+02
-5.521873055812751119e+00,3.844220201140275961e-01,-3.053115274064145679e-02,3.304140938718788667e-01,-8.703624619948606700e-01,3.650941129648613281e-01,7.776916332911915788e+02
-5.363898948234111508e+00,1.369774050481086913e+00,-5.646983932813783857e-01,1.883517984110691379e-01,-8.752719231826958657e-01,4.454443405453890614e-01,7.842370185914617196e+02
-5.125989992827194364e+00,2.191210239573780694e+00,-1.306464343103967529e+00,4.126765983218179390e-02,-8.568448736379238317e-01,5.139181284726609400e-01,7.907824038917318603e+02
-4.808324003542009173e+00,2.806364623837103611e+00,-2.223194274498042411e+00,-1.069167750686597085e-01,-8.155726087929466850e-01,5.686898302202051392e-01,7.973277891920020011e+02
-4.454392061360090693e+00,3.176561150609005679e+00,-3.149423076242240604e+00,-2.522506196242776944e-01,-7.525555175970393140e-01,6.082991187183367510e-01,8.032508589282145977e+02
-3.997879309112263080e+00,3.400587544147003705e+00,-4.199539000099441033e+00,-2.305262093020072345e-01,-6.610580957087440757e-01,7.140433186585258829e-01,8.097962442284847384e+02
-3.483277414703628949e+00,3.460977505320429248e+00,-5.194002312257950393e+00,-2.041853796781095409e-01,-5.563226144757003055e-01,8.054883483618969775e-01,8.163416295287548792e+02
-3.356517237118876729e+00,3.442508852890999282e+00,-5.389590079732171191e+00,-1.737556110954872057e-01,-4.404464220417551035e-01,8.808030068756679265e-01,8.178054252697601214e+02
-2.744324184154546487e+00,3.226721765933739938e+00,-6.075004200794786868e+00,-1.388439543109908914e-01,-3.090609436219174389e-01,9.408515767527912965e-01,8.243508105700302622e+02
-2.098078801397749604e+00,2.883987375161452427e+00,-6.457464980841680635e+00,-1.008656822088720012e-01,-1.708493179337184920e-01,9.801196991764025146e-01,8.308961958703004029e+02
-1.429967833364606866e+00,2.426799424931608495e+00,-6.403757836631522871e+00,-6.065960703241315283e-02,-2.886417316167489561e-02,9.977400821766047034e-01,8.374415811705705437e+02
-1.397976200989297091e+00,2.400774787114940523e+00,-6.385233345319991649e+00,-1.911374406929309752e-02,1.137585210449093137e-01,9.933235443079010407e-01,8.377474125983546855e+02
-7.032151076678676560e-01,1.750714034391387841e+00,-5.576343039582690508e+00,-2.661304752836307630e-01,-1.535633567772565385e-02,9.638136505985239744e-01,8.442927978986248263e+02
-1.507208903797638971e-02,1.015077778887317095e+00,-4.052644382194810824e+00,-4.922402818518331058e-01,-1.432648116526363813e-01,8.585876185134492244e-01,8.508381831988949671e+02
3.107746078313522453e-01,6.236427298580005107e-01,-2.897043274824351755e+00,-6.796802883236597870e-01,-2.599185976222898597e-01,6.859118225208516995e-01,8.540388386169396426e+02
9.336797201212464481e-01,-2.250241176493847084e-01,-5.647223336806870275e-01,-8.884480199141864265e-01,-4.563261110938424681e-01,4.924018932733160298e-02,8.605842239172097834e+02
1.382917582406971935e+00,-9.429319874925154998e-01,-1.006794275154222935e-02,-6.640870841292132454e-01,-4.302693652067595687e-01,-6.114365200556768354e-01,8.659137601400203721e+02
1.836971844407761623e+00,-1.836948669298062997e+00,-1.128422873389384185e+00,-8.555490231863205342e-01,-3.356229710924113485e-01,-3.941967658362593996e-01,8.724403359150708184e+02
2.178456885254719921e+00,-2.730757131446815311e+00,-2.897043209292214705e+00,-9.662356062771805254e-01,-2.572968440490538411e-01,-1.360467583547871930e-02,8.789857212153409591e+02
2.405806719361278212e+00,-3.589914891498969585e+00,-4.397669772328978155e+00,-9.191966251020416978e-01,-1.369703080025292674e-01,3.692082056595124007e-01,8.854289603144549119e+02
2.539804937160624387e+00,-4.424950153579162659e+00,-5.447317192590062085e+00,-6.493746914158420314e-01,-1.308249517107802455e-02,7.603547582998083643e-01,8.919743456147250527e+02
2.575032511408966496e+00,-4.995201850073848426e+00,-5.934177863295735378e+00,-2.229573174450098227e-01,1.139601172875186752e-01,9.681431331501683113e-01,8.967412072044597835e+02
2.546225332873351732e+00,-5.712679376453589697e+00,-6.295587833848256487e+00,-2.392630216576427105e-01,3.017830353936959767e-02,9.704846605999547515e-01,9.032865925047299243e+02
2.449379789712949229e+00,-6.348158891073363286e+00,-6.410567781422726874e+00,-2.538243119003459891e-01,-5.382351253510830186e-02,9.657506138666921425e-01,9.098319778050000650e+02
2.296872233800029139e+00,-6.883393575002923370e+00,-6.337522594029888268e+00,-2.665350294507827233e-01,-1.374329139756434170e-01,9.539755092395758584e-01,9.163773631052702058e+02
2.212550624434563851e+00,-7.065064376447554473e+00,-6.246903137059757860e+00,-2.773025058821738664e-01,-2.200403444572738565e-01,9.352451908667078762e-01,9.192062492679181105e+02
1.984710095917575412e+00,-7.357826874662628747e+00,-5.942451689988511809e+00,-3.211511952404593750e-01,-2.306340579069357799e-01,9.185139308242485923e-01,9.257516345681882513e+02
1.734143944624219502e+00,-7.509938213861551581e+00,-5.583895109166794768e+00,-3.642564512248124275e-01,-2.406938805489731992e-01,8.996564308649029895e-01,9.322970198684583920e+02
1.641312794293251720e+00,-7.511645939539286942e+00,-5.448351286188826137e+00,-4.065185096243461582e-01,-2.501965295851538151e-01,8.787163352897693347e-01,9.346156455443504001e+02
1.376814000499165580e+00,-7.365152101504957471e+00,-5.058966300182155429e+00,-5.265747765264561231e-01,-7.669004160836312423e-02,8.466614685012253672e-01,9.411610308446205408e+02
1.121174500352506875e+00,-7.061329967306967603e+00,-4.683947707340479383e+00,-6.226478715551937437e-01,1.003093408432359501e-01,7.760448854207769864e-01,9.477064161448906816e+02
8.838087829081745506e-01,-6.601940486950579334e+00,-4.342770164791503795e+00,-6.903620939840456883e-01,2.727400949674493869e-01,6.700828454656040378e-01,9.542518014451608224e+02
6.669467859992973535e-01,-6.003072463159154992e+00,-4.042665388235205270e+00,-7.266333476059161356e-01,4.327487677144361555e-01,5.336014263366810617e-01,9.607971867454309631e+02
6.450481275953435789e-01,-5.925192042077417121e+00,-4.014060418836307598e+00,-7.298096102872931867e-01,5.730476574056444505e-01,3.728167312149068269e-01,9.615062579861255472e+02
4.579589895300945623e-01,-5.098846331393644071e+00,-3.785126999323242369e+00,-3.276858208732664202e-01,5.724200945186441736e-01,7.516350432158120931e-01,9.680516432863956879e+02
3.342408923299600154e-01,-4.419265950614023275e+00,-3.643554843762088158e+00,1.744501232552560510e-01,3.970854858574549007e-01,9.010484290079333602e-01,9.728923574258250255e+02
1.878019497486968781e-01,-3.427182967885239684e+00,-3.485205976199376998e+00,1.270448276294537659e-01,4.507752632773166512e-01,8.835492480816549143e-01,9.794377427260951663e+02
6.587941456353452185e-02,-2.382736850368922354e+00,-3.354247864744570595e+00,7.894891671110618181e-02,5.020145756513247903e-01,8.612470228567792319e-01,9.859831280263653071e+02
-2.782311334934242306e-02,-1.309188425722503490e+00,-3.242687103470031307e+00,3.042383238038132848e-02,5.505248951336292329e-01,8.342629862682191533e-01,9.925285133266354478e+02
-4.480419126665902141e-02,-1.039244752826786966e+00,-3.217839648049743317e+00,-1.826665085551899478e-02,5.960425262248491007e-01,8.027438174121410697e-01,9.941600517329895865e+02
-8.494154455256057445e-02,3.825435581549643110e-02,-3.124435806688500961e+00,-1.251252804004186064e-02,6.633704555433532768e-01,7.481851878707713732e-01,1.000705437033259727e+03
-8.819487361755141974e-02,1.092293723312897535e+00,-3.030039553198820013e+00,-6.664026904532183507e-03,7.256946871292695445e-01,6.879831479133480254e-01,1.007250822333529868e+03
-6.019672327356216657e-02,1.908265605080401217e+00,-2.945655488974878722e+00,-7.652590801962539475e-04,7.825451481987698577e-01,6.225917646449261600e-01,1.012534515054157623e+03
1.430565252828037807e-02,2.858008920845502843e+00,-2.822048566784206347e+00,-1.258914983753690597e-01,8.144632813151838624e-01,5.663911140061210769e-01,1.019079900354427764e+03
1.315722996829297442e-01,3.727736312740166813e+00,-2.669925074787728114e+00,-2.485207847914928936e-01,8.302274324580843912e-01,4.989567415316024102e-01,1.025625285654697791e+03
2.922450214200416063e-01,4.498618904075030400e+00,-2.480181264516039708e+00,-3.662209324892438667e-01,8.295249489893729011e-01,4.216261230165660456e-01,1.032170670954967818e+03
4.463704818027982024e-01,4.999144303392792921e+00,-2.301469578544135253e+00,-4.766575162292748247e-01,8.123697606427445761e-01,3.359330055445430840e-01,1.037160837249594579e+03
6.885837017261967619e-01,5.527401568327888093e+00,-2.016439068216326014e+00,-3.943284760533066757e-01,8.735645050084313024e-01,2.852860118567493997e-01,1.043706222549864606e+03
9.638140253603845187e-01,5.918204412299931327e+00,-1.675561282433374544e+00,-3.068384727221388775e-01,9.233260207374855977e-01,2.309051993458007823e-01,1.050251607850134633e+03
1.251291987189244503e+00,6.174097637559382790e+00,-1.275974926981099378e+00,-2.153325556754402681e-01,9.610030411941870021e-01,1.735022918577344142e-01,1.056796993150404660e+03
1.357595319004821333e+00,6.224701625242666125e+00,-1.100280302367715679e+00,-1.210083319238944716e-01,9.861024498317202402e-01,1.138285642468878783e-01,1.059310682662409818e+03
1.608166012141348800e+00,6.247252945296311033e+00,-5.891310655463063428e-01,-4.433135712503269987e-01,8.537344107096925816e-01,-2.731458099891270197e-01,1.065856067962679845e+03
1.816681867476482859e+00,6.183588059723120978e+00,-3.214956175895944401e-02,-6.454137920561704433e-01,4.898741126888472852e-01,-5.860566446497756932e-01,1.072401453262949872e+03
1.900019442319846652e+00,6.115848544428229339e+00,2.927129643045445762e-01,-6.725083080573559524e-01,-6.817652484334016036e-03,-7.400568189028604582e-01,1.075989233689780121e+03
1.988410361714086472e+00,5.954745278604865355e+00,9.095280403848516881e-01,-6.440294910671017226e-01,-3.038235889529738443e-01,-7.020792273158981134e-01,1.082534618990050149e+03
2.008921176854097990e+00,5.781111363435178063e+00,1.535434494156662222e+00,-5.572879864456186105e-01,-5.733435558301001045e-01,-6.005874350579553100e-01,1.089080004290320176e+03
1.958032514810584379e+00,5.623658684105903305e+00,2.153271515230811950e+00,-4.201311104178530043e-01,-7.909953047086376587e-01,-4.447631706727984136e-01,1.095625389590590203e+03
1.935030900022292277e+00,5.601579837952301411e+00,2.264340843959740113e+00,-2.449669302593559528e-01,-9.370890515395273734e-01,-2.487032620684810902e-01,1.096841725917567601e+03
1.740092169017771306e+00,5.536045861696845982e+00,2.832843682132361263e+00,-2.408375235697255701e-01,-9.424381838866038308e-01,-2.319602482295011758e-01,1.103387111217837628e+03
1.480761908522123527e+00,5.539458975092890647e+00,3.360286565804595060e+00,-2.366296072870726908e-01,-9.474800843010494633e-01,-2.151416249210739429e-01,1.109932496518107655e+03
1.386954443995117581e+00,5.564794095563085463e+00,3.502089964348265916e+00,-2.323445513571716081e-01,-9.522131116234260340e-01,-1.982528675014051112e-01,1.111877068987771281e+03
1.022362545252311072e+00,5.737009647167092830e+00,3.923138351622498021e+00,-2.997035168012109896e-01,-8.798515079909220438e-01,-3.688321107268929255e-01,1.118422454288041308e+03
6.200773272123203395e-01,5.993104134735443012e+00,4.282373032623162601e+00,-3.554127646219383818e-01,-7.732893974571629636e-01,-5.250745418741569193e-01,1.124967839588311335e+03
1.925749395945504372e-01,6.324488920045081564e+00,4.575437867560175675e+00,-3.973068416350469256e-01,-6.366689253286791361e-01,-6.609069171305214097e-01,1.131513224888581362e+03
-2.479546789467423074e-01,6.722211890791347955e+00,4.797984562283308385e+00,-4.237572944940342090e-01,-4.753006147187114894e-01,-7.710493375985046915e-01,1.138058610188851389e+03
-3.026971876402510531e-01,6.777790658274878588e+00,4.817276035348792895e+00,-4.337359674711382396e-01,-2.954569520850643949e-01,-8.512204767192775856e-01,1.138860141434578054e+03
-7.494273901618934142e-01,7.282501936754786520e+00,4.907370954167096677e+00,-3.244546214264092399e-01,-4.197382509969649345e-02,-9.449684633047029658e-01,1.145405526734848081e+03
-9.272121705916406276e-01,7.504791005739226861e+00,4.912160006211984786e+00,-1.875995055005714729e-01,2.150764558187508446e-01,-9.584083386984896258e-01,1.148053578703284984e+03
-1.356797673667688775e+00,8.087729852303217726e+00,4.841766060797125348e+00,6.886897419251387931e-02,3.308463012297761519e-01,-9.411672483443115356e-01,1.154598964003555011e+03
-1.776791915379804188e+00,8.689275016915697591e+00,4.682387784433364786e+00,3.198639594796753305e-01,4.203217393210437747e-01,-8.491258345380358064e-01,1.161144349303825038e+03
-1.817911244459439857e+00,8.748244840506796294e+00,4.659041732145557724e+00,5.454374281185405682e-01,4.763916427599369507e-01,-6.895991696017358397e-01,1.161785984944732490e+03
-2.239374099661578743e+00,9.341155750706802152e+00,4.338714470768635145e+00,7.923342995712763237e-01,2.151692540251370356e-01,-5.708822556753624378e-01,1.168331370245002518e+03
-2.602295011104407418e+00,9.841702780307423737e+00,3.974203174477426881e+00,9.256982166150558022e-01,-7.688451469615742440e-02,-3.703641223920172698e-01,1.173990410582729510e+03
-3.011544446037948131e+00,1.039885480236116599e+01,3.447199280291530332e+00,9.362836892163959313e-01,-2.818391145403981168e-01,-2.096128975573054443e-01,1.180535795882999537e+03
-3.387096601637306303e+00,1.092752924386112490e+01,2.810122212649984963e+00,8.832397711381825278e-01,-4.676400373054613313e-01,-3.461650168069090039e-02,1.187081181183269564e+03
-3.659100925665894177e+00,1.134600965159698482e+01,2.175216672960680331e+00,7.701712726633015427e-01,-6.216604027960542789e-01,1.427324572727335927e-01,1.192657969127693832e+03
-3.907141089903616749e+00,1.179971760134259817e+01,1.340594311010649520e+00,7.018603100672454742e-01,-6.736567381303439905e-01,2.314664215789446478e-01,1.199203354427963859e+03
-3.956483592526893300e+00,1.192441167417771908e+01,1.078875026041212104e+00,6.228503657854018716e-01,-7.153840146198638950e-01,3.166719650704444833e-01,1.201110968549146264e+03
-4.039073630331562192e+00,1.233932663023755616e+01,1.421901702499976938e-01,7.543498052597824577e-01,-4.710826113043198871e-01,4.572040514154647739e-01,1.207656353849416291e+03
-4.037452947989593532e+00,1.239105863866012669e+01,2.286798624115249021e-02,8.128849555097880097e-01,-1.812158840798495374e-01,5.535131908654967736e-01,1.208478945707734283e+03
-4.013595505126810181e+00,1.247857079040918826e+01,-1.772821516642476003e-01,8.072069488804880510e-01,-2.373057042050254195e-01,5.404636383687310142e-01,1.209865610689777441e+03
-3.787812999595715713e+00,1.289296209426487749e+01,-1.090426481947018189e+00,8.516394419712558506e-01,-3.584375331199532444e-01,3.824013542440401481e-01,1.216410995990047468e+03
-3.649574088671805772e+00,1.305518039759340709e+01,-1.418669477251711442e+00,8.606173879244415348e-01,-4.646472785340498568e-01,2.084193324775223954e-01,1.218977352460894735e+03
-3.397732640617409761e+00,1.327106175316428249e+01,-1.804576916804339959e+00,7.250801985978396758e-01,-6.462926715550315615e-01,-2.378286952697536705e-01,1.222448549475186155e+03
-3.205086802495028753e+00,1.339930328093546308e+01,-2.001247847774143551e+00,6.843819842214005078e-01,-6.787124741663670413e-01,-2.663994689419805217e-01,1.224607003153273808e+03
-2.522731422963509385e+00,1.374438947834924818e+01,-2.431318791944609536e+00,6.596898357936070711e-01,-7.338535165637243285e-01,-1.620689259987985742e-01,1.231152388453543836e+03
-1.766890112156445980e+00,1.399459375544240203e+01,-2.664485924526419414e+00,6.254090133796282869e-01,-7.783279019115713071e-01,-5.538269663023429740e-02,1.237697773753813863e+03
-1.545239884103759120e+00,1.402459251164350640e+01,-2.678381061810719554e+00,5.820377741066119492e-01,-8.114892030809504053e-01,5.210856735763891995e-02,1.239535596146444504e+03
-7.593686008252870101e-01,1.397700489506472721e+01,-2.559476289164499541e+00,4.755231012909336696e-01,-8.770227649132852354e-01,-6.860648628713920949e-02,1.246080981446714532e+03
-1.710032991143841177e-02,1.380769685480681375e+01,-2.273380760416360058e+00,3.546418662882542261e-01,-9.160595245779992180e-01,-1.872487492716222446e-01,1.252626366746984559e+03
3.680571384148136893e-01,1.366684142400894508e+01,-2.018277673658260163e+00,2.230461113268811524e-01,-9.274201208878030123e-01,-3.002338281945888809e-01,1.256439075760270043e+03
5.560280658559788591e-01,1.357258235559670645e+01,-1.825538902624024518e+00,1.187469532881652023e-02,-9.569628784650988651e-01,-2.899638612711752383e-01,1.258643091531374012e+03
8.866779053949755962e-01,1.334773941559807930e+01,-1.302773603884732623e+00,-4.881110858953384701e-01,-7.723929114899740211e-01,4.063923696449188161e-01,1.263537512859439857e+03
1.206267570360226804e+00,1.303936206443160906e+01,-4.857967222233918747e-01,-4.913492621586153519e-01,-6.132766308120319865e-01,6.184380944563041549e-01,1.270082898159709885e+03
1.278266057842348147e+00,1.293157814235456726e+01,-1.590013610398651744e-01,-4.600495209031826849e-01,-4.110519418726296670e-01,7.870125408136203760e-01,1.272415143416737919e+03
1.372548709011755630e+00,1.264201228373654651e+01,8.428304761974987347e-01,-3.303821856956032366e-01,-2.840925859602547177e-01,9.000761156578215294e-01,1.278960528717007946e+03
1.371217694638341422e+00,1.236947855366877924e+01,1.913160462621167790e+00,-1.856111975487256815e-01,-1.441457405500878031e-01,9.719920209683484691e-01,1.285505914017277973e+03
1.291347210289579328e+00,1.211776276663652929e+01,3.030946322420847050e+00,-3.235485827506989764e-02,2.390831798848015027e-03,9.994725844512269974e-01,1.292051299317548001e+03
1.151720614227606188e+00,1.188720221195033844e+01,4.175118094004182545e+00,1.223806210916903170e-01,1.488181183213936887e-01,9.812615101188143507e-01,1.298596684617818028e+03
1.138091047707925796e+00,1.187141874486786897e+01,4.261099828044857318e+00,2.715214047298890043e-01,2.884420971682512547e-01,9.181913108686178271e-01,1.299084628259237661e+03
9.226251473368005662e-01,1.167760882679085555e+01,5.412367387266908914e+00,1.242540849874177455e-01,2.633084850266996790e-01,9.566752657385820813e-01,1.305630013559507688e+03
6.881415896539297972e-01,1.150126692437369513e+01,6.546280034129970282e+00,-2.597050042181669668e-02,2.319080270287050827e-01,9.723899424133886082e-01,1.312175398859777715e+03
4.523567857039801909e-01,1.134168046904622251e+01,7.642209613572904736e+00,-1.755769769668684421e-01,1.949880621536502767e-01,9.649613364150118056e-01,1.318720784160047742e+03
2.594897583678008046e-01,1.122057851658730065e+01,8.540818774787735990e+00,-3.210046808569327892e-01,1.534272909883112046e-01,9.345662422999770902e-01,1.324381940622837419e+03
6.125811088120330927e-02,1.110483555607486039e+01,9.504868976137606396e+00,-3.989846982295482403e-01,3.569025755279923162e-01,8.446477148248991984e-01,1.330927325923107446e+03
-1.050267846825401058e-01,1.101918302007888606e+01,1.037852053349644876e+01,-4.547937515002042907e-01,5.405454188325822251e-01,7.077932563774342878e-01,1.337472711223377473e+03
-1.475028139663303872e-01,1.100341595198987399e+01,1.062270154437324798e+01,-4.853305712480149858e-01,6.941510506912280665e-01,5.316075201058373390e-01,1.339529752796983757e+03
-1.790659378278300629e-01,1.099984964864071912e+01,1.082233535865659668e+01,-2.578417880111277261e-01,6.560570935544318694e-01,7.092987398447797576e-01,1.341451046296087952e+03
-2.635254987591022502e-01,1.102558809995503708e+01,1.140180622153201284e+01,-2.144515417896751541e-01,9.561063980593306200e-01,1.996724613259461822e-01,1.347996431596357979e+03
-3.333499255038609999e-01,1.108395895818813237e+01,1.187611250899354864e+01,-9.565327236273490907e-02,9.199581345260686716e-01,-3.801650723089027850e-01,1.354541816896628006e+03
-3.471664695742207041e-01,1.110172611660504671e+01,1.195724933701444037e+01,5.677971378849391154e-02,5.603232673715589085e-01,-8.263243310846357659e-01,1.355968761765152522e+03
-4.051385330608201496e-01,1.119832940589599346e+01,1.222507388743084711e+01,4.155970032049044471e-02,4.679067225717748468e-01,-8.827990089915349614e-01,1.362514147065422549e+03
-4.535590152776468598e-01,1.130095234730033482e+01,1.237975426183880678e+01,2.584256505544633639e-02,3.698931991251814821e-01,-9.287137250346609862e-01,1.369059532365692576e+03
-4.665557670360774845e-01,1.133674151073659964e+01,1.239407724593920612e+01,9.816308027912988912e-03,2.674550860452935552e-01,-9.635192873215679965e-01,1.371438322353818876e+03
-4.869864910566681915e-01,1.142289170794987818e+01,1.231489059327891411e+01,4.151912839537444389e-02,3.135974761892356133e-01,-9.486468177848125238e-01,1.377983707654088903e+03
-4.884732886208191238e-01,1.149132151960195536e+01,1.210864076709330206e+01,7.308270225584545532e-02,3.586877194053517681e-01,-9.305912306510641940e-01,1.384529092954358930e+03
-4.770464085072121385e-01,1.151988827067288490e+01,1.192069382476523032e+01,1.044011337311564064e-01,4.025745318535313699e-01,-9.094130797177345515e-01,1.388136004714354613e+03
-4.741674913375514833e-01,1.152239255201847712e+01,1.189230564637701448e+01,3.873379874463532824e-01,1.663413103170291174e-01,-9.068064026852671322e-01,1.388555737678094602e+03
-4.029958095781061012e-01,1.155146517815231455e+01,1.134996823153647583e+01,6.974607511625899869e-01,6.956158655108575228e-01,-1.722355019439243962e-01,1.395101122978364629e+03
-3.004853500355755824e-01,1.157558293765256785e+01,1.068029327956651464e+01,3.687558979531107561e-01,5.877575274102010416e-01,7.201098365058770101e-01,1.401646508278634656e+03
-2.514426157375682647e-01,1.158458836638751421e+01,1.040318653957594641e+01,-2.976691218611943746e-01,-5.841041302258046658e-02,9.528794874108057478e-01,1.403961155374455302e+03
-7.812060031001356875e-02,1.161565312073707545e+01,9.517269306864490019e+00,-4.874272224523008012e-01,-1.570233241486174158e-01,8.589274582203042518e-01,1.410506540674725329e+03
1.226803600375509229e-01,1.165694338881521119e+01,8.543495863999067907e+00,-6.505913424757109320e-01,-2.470690383250091771e-01,7.181126620498599067e-01,1.417051925974995356e+03
3.424476837203611068e-01,1.171516694033139849e+01,7.501430152899671633e+00,-7.782593663858394795e-01,-3.236347183979620956e-01,5.381179495984180772e-01,1.423597311275265383e+03
5.325789562841701796e-01,1.178158827510161544e+01,6.598370328295226628e+00,-8.634658342839606204e-01,-3.825429987658439113e-01,3.287637557873360206e-01,1.429009903517570365e+03
7.627291283992854165e-01,1.188487023925850750e+01,5.472562766342625729e+00,-8.572426068015398526e-01,-4.021926422939071100e-01,3.215185710856942047e-01,1.435555288817840392e+03
9.818396860786533509e-01,1.200976055955209176e+01,4.329307040303738141e+00,-8.506101922360830292e-01,-4.216503037270487031e-01,3.141199169350896714e-01,1.442100674118110419e+03
1.177958183155002558e+00,1.215552606313420370e+01,3.185724186033191963e+00,-8.435717554811360541e-01,-4.409066984808695522e-01,3.065713237950117298e-01,1.448646059418380446e+03
1.339101280410159189e+00,1.232180807429337399e+01,2.058935262973318636e+00,-8.361306549845275438e-01,-4.599526379167253043e-01,2.988763936021194279e-01,1.455191444718650473e+03
1.395743445780928349e+00,1.241340329269741716e+01,1.520907596044612786e+00,-8.282904411457856497e-01,-4.787790337058457357e-01,2.910387980559325238e-01,1.458405581212226934e+03
1.457953442477669004e+00,1.261720469357006458e+01,4.676541721896023129e-01,-8.134688939575969169e-01,-5.804852747445988781e-01,3.609992199413589870e-02,1.464950966512496962e+03
1.460013813939204708e+00,1.283258716994546766e+01,-5.306112753674344651e-01,-7.371834195260691391e-01,-6.383313114838726765e-01,-2.215665650657054064e-01,1.471496351812766989e+03
1.392730526978636529e+00,1.305363452592481721e+01,-1.459762448957313552e+00,-6.051979678874578328e-01,-6.479464326406223496e-01,-4.624919892202393190e-01,1.478041737113037016e+03
1.308646063148040772e+00,1.318129086833080166e+01,-1.948716877419474969e+00,-4.274850296911334446e-01,-6.086041181105331654e-01,-6.684725699744843430e-01,1.481816523951514682e+03
1.078348484732558399e+00,1.339968910937089319e+01,-2.705177931602117170e+00,-2.152666702398533249e-01,-6.896260452356490767e-01,-6.914290841551163913e-01,1.488361909251784709e+03
7.603609288809001221e-01,1.361355268441937838e+01,-3.360412162555060256e+00,8.173078519211649656e-03,-7.346989345522521031e-01,-6.783425951203657656e-01,1.494907294552054736e+03
3.574515350563891025e-01,1.381619630866472193e+01,-3.906890649254309622e+00,2.311867734167604160e-01,-7.414732565674102549e-01,-6.298952973245754983e-01,1.501423043705973669e+03
-1.244463613714285877e-01,1.399587110313262173e+01,-4.354160504251841424e+00,3.740442808619154347e-01,-7.531033637393266256e-01,-5.412247217907385499e-01,1.507968429006243696e+03
-6.699179764041421903e-01,1.413382181444585584e+01,-4.709141920309777518e+00,5.062766574121555507e-01,-7.433407770408743120e-01,-4.371800948649877672e-01,1.514513814306513723e+03
-1.021156647040919685e+00,1.418014988296700452e+01,-4.869977412211461854e+00,6.241277517759907800e-01,-7.124628001573696245e-01,-3.207168655570425408e-01,1.518374598924670863e+03
-1.648636017779592233e+00,1.418623576528868746e+01,-5.071999998543248900e+00,7.084204191961185337e-01,-6.588734156376884199e-01,-2.530302982371146481e-01,1.524919984224940890e+03
-1.808041066172223488e+00,1.416643827109887077e+01,-5.108109402199654703e+00,7.823994923685315683e-01,-5.956917735595326224e-01,-1.816599715086735511e-01,1.526550447678494493e+03
-2.441087381282333713e+00,1.399274017612903975e+01,-5.207485153547684043e+00,8.432695281087742023e-01,-5.269542544007950191e-01,1.058948380798670624e-01,1.533095832978764520e+03
-3.039146672907513391e+00,1.372276501922492287e+01,-5.275777456893958828e+00,8.273025828482610811e-01,-4.102017820059328801e-01,3.838006441523422185e-01,1.539641218279034547e+03
-3.115151738533296299e+00,1.366979671965071752e+01,-5.283441808772065151e+00,7.359535569902413421e-01,-2.560725775938247351e-01,6.267353484188122881e-01,1.540574001202621048e+03
-3.562684342907024515e+00,1.319885347600292036e+01,-5.329397518043473170e+00,8.437581531724678285e-01,-2.296416257863199140e-01,4.851132884809085111e-01,1.547119386502891075e+03
-3.900283273765400072e+00,1.264243769021814501e+01,-5.370375741613003129e+00,9.242441286457726557e-01,-1.957755045962475682e-01,3.277845976605921474e-01,1.553664771803161102e+03
-4.109242533281997289e+00,1.202490629793010157e+01,-5.411559637908220921e+00,9.748055876029522171e-01,-1.555707011129265072e-01,1.598431210053944673e-01,1.560210157103431129e+03
-4.121127294928874640e+00,1.192105126730899833e+01,-5.418762159839498160e+00,9.938054824946216392e-01,-1.103289269625628288e-01,-1.327368969071586122e-02,1.561251238058522858e+03
-4.065127508857585781e+00,1.125328517069076995e+01,-5.471481419299816906e+00,9.969490807304582924e-01,-7.076862311586598620e-02,-3.289882065502091474e-02,1.567796623358792885e+03
-3.891888956408978029e+00,1.059812739151097283e+01,-5.536918798313354984e+00,9.981386093304239759e-01,-3.106962030926068222e-02,-5.245946287692337950e-02,1.574342008659062913e+03
-3.859906863044901382e+00,1.052805301976945351e+01,-5.546117297579820082e+00,9.973717376122094302e-01,8.690287009428721357e-03,-7.191728520515328071e-02,1.575088175139991336e+03
-3.485926764608153761e+00,9.972001363977691213e+00,-5.645679968868808629e+00,9.951162446573399434e-01,9.056617820545305453e-02,-3.923553210295480792e-02,1.581633560440261363e+03
