-1.443246927972632987e+00,-1.337708659768893638e+00,-5.722881805044218062e+00,-1.550760901587014406e-01,-6.811624352467964272e-01,7.155187929532700331e-01,1.512966760656610177e+02
-2.097246908896836626e+00,-1.706747449682297413e+00,-6.675802373967552050e+00,-5.112249039913504406e-02,-4.907692506046519854e-01,8.697873496643062641e-01,1.578420613659311300e+02
-2.464548584081679206e+00,-1.900032276281290011e+00,-7.399514675711103884e+00,5.645338912448823188e-02,-2.656026787277462886e-01,9.624272605805068714e-01,1.628369048658720999e+02
-2.928976327919140754e+00,-2.093068790208950425e+00,-8.356256544343324322e+00,-2.193728448884102455e-01,-6.839875259057085488e-01,6.957259656870372622e-01,1.693822901661422122e+02
-3.322068859379257333e+00,-2.241006601849335311e+00,-9.038904027282804066e+00,-4.245048437752044213e-01,-8.819531519830274835e-01,2.048225459228998346e-01,1.738774042296837194e+02
-4.119323962613466783e+00,-2.606215892353058727e+00,-1.000976815625537597e+01,-2.764194181867775102e-01,-6.986107142099610146e-01,6.599495247670891240e-01,1.804227895299538318e+02
-5.116801996087273707e+00,-3.257391770903907524e+00,-1.069143874057409072e+01,-5.572281511048089719e-02,-3.317538574299518928e-01,9.417177634283725451e-01,1.869681748302239441e+02
-5.600426190498850154e+00,-3.652779431020751755e+00,-1.085979823219559748e+01,1.796113174159458814e-01,1.222496824609634603e-01,9.761110540273272296e-01,1.899938190255517441e+02
-6.616482932572147035e+00,-4.701346385826039587e+00,-1.083478120166176240e+01,2.545553186630779008e-01,2.117564311525261533e-01,9.435882595709318421e-01,1.965392043258218564e+02
-6.908176084100772663e+00,-5.061177084372934232e+00,-1.072577960558903243e+01,3.257609646806697290e-01,2.981533612964537006e-01,8.972080957234402909e-01,1.984780225039535253e+02
-7.581726965365550797e+00,-6.057668156003503057e+00,-1.007565424038137181e+01,4.491949080052606846e-01,5.632878129260960876e-01,6.934902843091385050e-01,2.050234078042236376e+02
-7.509616292352875533e+00,-6.466261573022077158e+00,-9.063174499390875383e+00,5.155660817421363618e-01,7.568658644137706837e-01,4.016760867195923179e-01,2.115687931044937500e+02
-7.378803014929785853e+00,-6.477459864864571593e+00,-8.785356327431900425e+00,5.164431520068449855e-01,8.542966966622270730e-01,5.883557441788574843e-02,2.131970330455634439e+02
-7.358644635064620410e+00,-6.478964755151271682e+00,-8.743945631881970826e+00,5.955122666850188873e-01,7.849605059425407427e-01,1.708804972112251130e-01,2.134401989332307039e+02
-6.616435663230769926e+00,-6.477595408693934687e+00,-7.744379540791284100e+00,4.477005892823028854e-01,8.757541681842262449e-01,-1.806012714913951267e-01,2.199855842335008163e+02
-5.532960086774737718e+00,-6.362752371257539785e+00,-7.070147860604176770e+00,2.311079850311335560e-01,8.320043828180386791e-01,-5.043369966860858922e-01,2.265309695337709286e+02
-5.369127929510387531e+00,-6.337778033574601011e+00,-7.008862170678817449e+00,-2.099016120001715585e-02,6.604324321333261416e-01,-7.505907111860775638e-01,2.274044568476214181e+02
-4.078333283469078197e+00,-6.116469179451056171e+00,-6.738991210675322918e+00,6.685916765445137910e-02,9.890004609313489681e-01,1.319315730871131742e-01,2.339498421478915304e+02
-3.181407789962834798e+00,-5.967248027984775050e+00,-6.694458345914943820e+00,9.490151676215916043e-02,4.328862496884268163e-01,8.964380608535450490e-01,2.383110764775583164e+02
-2.025028415982536245e+00,-5.796330634855082486e+00,-6.677534642650375218e+00,1.054554461795763898e-01,3.427433933492655127e-01,9.334902866012195766e-01,2.448564617778284287e+02
-1.494046982920584687e+00,-5.527226783343614613e+00,-6.803172956371575708e+00,1.149959481290940139e-01,2.493067700084669880e-01,9.615716646894619801e-01,2.511634238544540949e+02
-1.757727308517390563e+00,-4.882650110989925629e+00,-7.180530603357836661e+00,-4.936585384570917334e-01,1.067510433898102573e-01,8.630779003913229275e-01,2.577088091547242357e+02
-2.238181702513203142e+00,-4.182913788337836891e+00,-7.557681408023483094e+00,-9.046105380701747745e-01,-7.855677804890322247e-02,4.189350868990567855e-01,2.622794179026915344e+02
-2.882432761642297336e+00,-2.914447132235155280e+00,-7.757809215241566747e+00,-4.664292746528383438e-01,-3.343813309164997416e-01,8.189205439367430728e-01,2.688248032029616752e+02
-3.335389207775077303e+00,-1.657675951544790083e+00,-6.684026988137025782e+00,1.664574409932213783e-01,-4.506223371476915096e-01,8.770572556005641340e-01,2.748759631991309789e+02
-3.652436227864018559e+00,-5.506585750930494960e-01,-3.717608578720012602e+00,3.591977714050349491e-01,-9.082176016229348559e-01,2.147457778730389732e-01,2.814213484994011196e+02
-3.787215384240489424e+00,8.253359980226772363e-02,-5.646961345439295288e-01,3.058152324096212737e-01,-7.435006952876456188e-01,-5.947114928494836583e-01,2.879667337996712604e+02
-3.806128333216437287e+00,9.519504264750221212e-02,9.140534062567329254e-01,4.288778446878534906e-02,-6.933642503774983812e-02,-9.966700046177394690e-01,2.945109145187357740e+02
-3.890105363402239558e+00,-6.503260886492783222e-01,9.113913634901172900e-01,1.724524705741125041e-01,-2.076667949096681620e-01,-9.628772755041069553e-01,3.010562998190059147e+02
-4.038197319825167497e+00,-1.434824568731525529e+00,6.614448131450955115e-01,2.956252996140981693e-01,-3.383001113527462356e-01,-8.933961701752968221e-01,3.049459099440690011e+02
-4.537276532172533017e+00,-3.232854699421919609e+00,3.548621038146514417e-01,3.693403172918711119e-01,-8.094095645386666094e-02,-9.257614658161286147e-01,3.114912952443391418e+02
-4.600533078192538206e+00,-3.429059389914036693e+00,3.352540315473796495e-01,4.161986455241364347e-01,1.823038532756736663e-01,-8.908097398115792931e-01,3.120989834406892101e+02
-5.435970995967929653e+00,-5.194965307962208456e+00,-5.647384060347891976e-01,6.293138031950784583e-01,4.248258411439035376e-01,-6.507573601616194470e-01,3.186443687409593508e+02
-5.822815278012173579e+00,-5.673607308960907147e+00,-1.227051478491338887e+00,7.405679425833964213e-01,5.985853242392229490e-01,-3.053731029786685425e-01,3.211354544923415233e+02
-6.907389342632905382e+00,-5.865760612293416720e+00,-2.897040538121165021e+00,8.606983602522552124e-01,5.081719440345815464e-01,3.094524123256655809e-02,3.276808397926116641e+02
-7.665529563393722157e+00,-5.180955107642125412e+00,-3.699000187210788937e+00,8.640180655580687041e-01,3.487913856370030152e-01,3.630638396948415170e-01,3.329351214666612009e+02
-8.023292810668039010e+00,-4.520207006233188274e+00,-4.097274555873442914e+00,9.653523465445611462e-01,1.728380044133877025e-01,1.954990313169480132e-01,3.374566577261890643e+02
-8.092927142256336026e+00,-4.178953845080169316e+00,-4.335947417260768155e+00,9.895243781231736202e-01,-6.193292718845440359e-02,1.303986872012120601e-01,3.398844513119835824e+02
-8.033809923332034586e+00,-3.530433523399024942e+00,-4.890702180979620728e+00,9.768461283954804619e-01,-2.120918933999145495e-01,2.804764132620675421e-02,3.443790851872035432e+02
-7.445311987085991845e+00,-2.617930268989036247e+00,-5.873288808338279487e+00,8.738713514162390616e-01,-4.779799822697414213e-01,-8.878061569730838487e-02,3.509244704874736840e+02
-6.487312441409857300e+00,-1.960078628711490190e+00,-6.637523367433953325e+00,6.879231098593664440e-01,-6.984841843292809438e-01,-1.971792057076886262e-01,3.574698557877438247e+02
-5.723347317401509038e+00,-1.703131212913910453e+00,-6.533182321192192887e+00,4.366570392929585154e-01,-8.526678108024925429e-01,-2.868557729196208328e-01,3.640152410880139655e+02
-5.696760727659953893e+00,-1.700325192438080668e+00,-6.495996529257507035e+00,1.439306346832419925e-01,-9.258912258453094735e-01,-3.492955915872116290e-01,3.643601103569671409e+02
-5.488113646995180339e+00,-1.703135007530488298e+00,-5.946656869397214606e+00,2.342888739027270684e-01,-9.410468185541250863e-01,-2.440032967855786661e-01,3.680920722421590199e+02
-5.458783372914639109e+00,-1.854802283015643871e+00,-4.012105986908338195e+00,5.335070118305613729e-01,-7.314267796657565324e-01,-4.247153568158434922e-01,3.746374575424291606e+02
-5.525533304343125174e+00,-1.948237927873715192e+00,-2.897041473240959064e+00,7.440940234115104301e-01,-4.002954038092646494e-01,-5.348697729465875517e-01,3.772939840628650927e+02
-5.597677282282299771e+00,-2.072319416484609267e+00,-5.647107456874114195e-01,5.851855835773461800e-01,-4.660179479840761418e-01,-6.636136714454472507e-01,3.838393693631352335e+02
-5.715814007491530901e+00,-2.112705391388990606e+00,4.797814275346451995e-01,3.992729719910654285e-01,-5.102354192952408551e-01,-7.617341470181434593e-01,3.903847546634053742e+02
-5.726809229147325375e+00,-2.114955466610122237e+00,4.915176584530283610e-01,1.949353213370924875e-01,-5.309073619431708968e-01,-8.247033366786187258e-01,3.906701809640483702e+02
-6.311973767996291507e+00,-2.196924432901650182e+00,7.867163339577625258e-01,1.530753916342989795e-01,-6.245556135286720600e-01,-7.658304055638460728e-01,3.972155662643185110e+02
-7.448983007263769274e+00,-2.279397582284794943e+00,1.128713542895268818e+00,1.090742023775206071e-01,-7.094673861263189885e-01,-6.962448178616083005e-01,4.037609515645886518e+02
-8.910416125756922767e+00,-2.249742665819268517e+00,1.507069900977500598e+00,6.354725452615092585e-02,-7.844549136276232071e-01,-6.169199582831451645e-01,4.103063368648587925e+02
-1.046585910728173019e+01,-2.002783746669175358e+00,1.911341700658732767e+00,1.713139118471124905e-02,-8.484692527934797335e-01,-5.289654454693528685e-01,4.168517221651289333e+02
-1.188199269963760152e+01,-1.440870240446390227e+00,2.331082150455300539e+00,-2.952411051391846258e-02,-9.006149555097298087e-01,-4.336116105583473490e-01,4.233971074653990740e+02
-1.292268098854518144e+01,-4.739443602946789014e-01,2.755842614546464731e+00,-7.576662140692620728e-02,-9.401625940586347818e-01,-3.321922874088318878e-01,4.299424927656692148e+02
-1.334906057679947899e+01,9.803930440822689052e-01,3.175173852548822673e+00,-1.209492891760568373e-01,-9.665589642657613778e-01,-2.261261551559781979e-01,4.364878780659393556e+02
-1.291963035889746614e+01,2.996818264072087956e+00,3.578627259348698519e+00,-1.644400864385922867e-01,-9.794348238366451520e-01,-1.168968940064990109e-01,4.430332633662094963e+02
-1.251905499816236400e+01,3.934772134796805876e+00,3.733695200102707279e+00,-2.056306515221874853e-01,-9.786100576437951615e-01,-6.032431770236584140e-03,4.456396917800642541e+02
-1.099484175192123203e+01,6.461129022360161400e+00,4.067391561983005666e+00,-2.378417109387471196e-01,-9.655148032258237256e-01,1.058795791922320512e-01,4.521850770803343949e+02
-8.742712151633371676e+00,9.037464588305425650e+00,4.253132325116357748e+00,-2.667864030201331782e-01,-9.391597836005871613e-01,2.163375049114235615e-01,4.587304623806045356e+02
-6.039454071538984614e+00,1.125565939125251980e+01,4.203946292988989697e+00,-2.920672198371562778e-01,-8.999069430958124283e-01,3.238243858405388531e-01,4.652758476808746764e+02
-3.173378854642884050e+00,1.271674140588750035e+01,3.832890162597289763e+00,-3.133369710026194799e-01,-8.482953567579154530e-01,4.268640653725295775e-01,4.718212329811448171e+02
-6.288103289783557592e-01,1.318752718572523541e+01,3.029272279306844506e+00,-3.303035517442072799e-01,-7.850338268325011137e-01,5.240414625145832783e-01,4.783666182814149579e+02
8.353318777197020761e-01,1.288785127989342172e+01,1.651870442988016885e+00,-3.427339544409824801e-01,-7.109911483069518701e-01,6.140220057155905131e-01,4.849120035816850987e+02
1.130288502141212792e+00,1.232473952448326848e+01,-1.755423664138672790e-01,-3.504574685369342135e-01,-6.271841772292092720e-01,6.955699609533436689e-01,4.914573888819552394e+02
1.077542858085589694e+00,1.179845954545532294e+01,-2.031563518820649783e+00,-3.533680248938210200e-01,-5.347638656902714560e-01,7.675654023829565631e-01,4.980027741822253802e+02
1.159154997741729476e+00,1.135234175981855032e+01,-3.697810480089689378e+00,-3.514256523968353196e-01,-4.349994552776448309e-01,8.290195924984633535e-01,5.045481594824955209e+02
1.361895191328300614e+00,1.097508310257890862e+01,-5.184800572637106697e+00,-3.446570268187836850e-01,-3.292610460900121105e-01,8.790885606085890869e-01,5.110935447827656617e+02
1.672280537451977356e+00,1.065583582820126018e+01,-6.503072400984291512e+00,-3.331551044140323437e-01,-2.190007807034033693e-01,9.170846931744778274e-01,5.176389300830358025e+02
2.076580483521551113e+00,1.038421315953377544e+01,-7.663184594555081830e+00,-3.170778452813201032e-01,-1.057329014910160930e-01,9.424861768613927993e-01,5.241843153833059432e+02
2.501121254686063722e+00,1.017277441809840077e+01,-8.577562914161244834e+00,-2.966460440323132053e-01,8.987044837401973740e-03,9.549441646430559816e-01,5.300117934853070665e+02
3.037025968456172453e+00,9.960583702419286922e+00,-9.481512956256985092e+00,-3.877249063279161190e-01,8.707611175308931084e-03,9.217329193000074472e-01,5.365571787855772072e+02
3.625757777252030856e+00,9.768755553012219650e+00,-1.025792102009416418e+01,-4.751597565710765081e-01,8.346339535070565474e-03,8.798588206936249767e-01,5.431025640858473480e+02
4.252676545970355271e+00,9.588749288741761134e+00,-1.091741082191460066e+01,-5.581288451552788299e-01,7.906625302841833666e-03,8.297154195762794782e-01,5.496479493861174888e+02
4.902922172934643719e+00,9.412511353611675347e+00,-1.147061993129306146e+01,-6.358523933337170142e-01,7.392601096887015284e-03,7.717739846233894196e-01,5.561933346863876295e+02
5.561420385971764802e+00,9.232480362384128725e+00,-1.192819850510300483e+01,-7.075999217418689202e-01,6.809097928619924078e-03,7.065790733788469558e-01,5.627387199866577703e+02
6.212888583108650664e+00,9.041592040983310596e+00,-1.230080802036120780e+01,-7.726971156308332089e-01,6.161599800299710425e-03,6.347434144473173001e-01,5.692841052869279110e+02
6.841841717249994126e+00,8.833284060897705459e+00,-1.259912000606603222e+01,-8.305321623007921872e-01,5.456192165948086335e-03,5.569421490168332545e-01,5.758294905871980518e+02
7.432598224191024450e+00,8.601500766812282706e+00,-1.283381477414127225e+01,-8.805615011793818114e-01,4.699504739703269304e-03,4.739064858137059799e-01,5.823748758874681926e+02
7.969285993313684813e+00,8.340697796710395906e+00,-1.301558014959851661e+01,-9.223149325043171753e-01,3.898649188938370716e-03,3.864168291034221214e-01,5.889202611877383333e+02
8.435848380312870987e+00,8.045846593693761761e+00,-1.315511020003144615e+01,-9.554000365919759208e-01,3.061152297550153063e-03,2.952954443042543065e-01,5.954656464880084741e+02
8.816050261295584889e+00,7.712438808780545330e+00,-1.326310396455535212e+01,-9.795058621476885330e-01,2.194885227415407404e-03,2.013987301281600084e-01,6.020110317882786148e+02
9.093484127588993715e+00,7.336490593954135164e+00,-1.335026418230542866e+01,-9.944058489388181155e-01,1.307989542715400251e-03,1.056091698651721866e-01,6.085564170885487556e+02
9.179180977683589759e+00,7.173291678528946669e+00,-1.338218025329427974e+01,-9.999599573441855238e-01,4.088006922958373180e-04,8.827037447773617915e-03,6.112118990049212925e+02
9.316524829219980930e+00,6.742428757412555207e+00,-1.345452881289974556e+01,-9.990256574056530781e-01,-2.881911666478957287e-02,3.339452586635725112e-02,6.177572843051914333e+02
9.326569073176759872e+00,6.262572875240882908e+00,-1.351038394745598126e+01,-9.966340707991264702e-01,-5.800499044274331356e-02,5.791329730063643488e-02,6.243026696054615741e+02
9.207848882215966313e+00,5.732533235156206608e+00,-1.353903900696291451e+01,-9.927886867931623449e-01,-8.710624757256826833e-02,8.234758653176062204e-02,6.308480549057317148e+02
8.958793098851973724e+00,5.151155129373649721e+00,-1.352979052505824420e+01,-9.874951152010761346e-01,-1.160804384661220517e-01,1.066617516165692947e-01,6.373934402060018556e+02
8.577724578658852295e+00,4.517322702888758812e+00,-1.347193949045160011e+01,-9.807610781904188002e-01,-1.448852989258639645e-01,1.308203258687837267e-01,6.439388255062719963e+02
8.062860561019538963e+00,3.829961710861303548e+00,-1.335479261796366401e+01,-9.725963990140440441e-01,-1.734788117836861820e-01,1.547880695841686027e-01,6.504842108065421371e+02
7.412313067380213560e+00,3.088042269185248934e+00,-1.316766361905639293e+01,-9.630129876782156373e-01,-2.018192681790820509e-01,1.785300214343427672e-01,6.570295961068122779e+02
6.624089326968895186e+00,2.290581597754349996e+00,-1.289987447174119062e+01,-9.520248235686938898e-01,-2.298653283874349806e-01,2.020115494544132695e-01,6.635749814070824186e+02
5.696092229933324980e+00,1.436646755933612463e+00,-1.254075668975226598e+01,-9.396479350601523173e-01,-2.575760821098698194e-01,2.251984015502024594e-01,6.701203667073525594e+02
4.626120807851504146e+00,5.253573697461406677e-01,-1.207965259087159460e+01,-9.259003761386498388e-01,-2.849111081368915777e-01,2.480567554515359097e-01,6.766657520076227001e+02
3.411870741564979603e+00,-4.441116497149402154e-01,-1.150591656429234355e+01,-9.108022000712169275e-01,-3.118305332989509959e-01,2.705532680388665345e-01,6.832111373078928409e+02
2.050934896277236685e+00,-1.472527397134985261e+00,-1.080891633691216391e+01,-8.943754301608949353e-01,-3.382950906181074746e-01,2.926551239714186847e-01,6.897565226081629817e+02
9.625911734714642787e-01,-2.262362229470176178e+00,-1.022044907590743534e+01,-8.766440276297943202e-01,-3.642661765761219250e-01,3.143300835460504650e-01,6.945787647614342859e+02
-6.329728275554249439e-01,-3.379075894950027248e+00,-9.310745480714672340e+00,-9.889671480654039781e-01,-1.470825850073022023e-01,-1.756966805042492821e-02,7.011241500617044267e+02
-2.382085838453235294e+00,-4.556922299530020481e+00,-8.248756154132697915e+00,-9.332222045803635346e-01,9.509672681128299165e-02,-3.464836640132561985e-01,7.076695353619745674e+02
-4.055748891191285566e+00,-5.652419671988052841e+00,-7.093623380646335796e+00,-7.188825151556933468e-01,3.211150773244674794e-01,-6.165152362416869147e-01,7.142149206622447082e+02
-4.476928759965945304e+00,-5.923888506250064800e+00,-6.763647811997770987e+00,-3.823735736806839203e-01,4.925621314366795955e-01,-7.817742620635408368e-01,7.160708230758001491e+02
-5.473506183243960876e+00,-6.576351622776116734e+00,-5.662021570021258832e+00,-3.077348368695497771e-01,7.581030329039875060e-01,-5.749583129919719759e-01,7.226162083760702899e+02
-5.687256168139843915e+00,-6.783383411794686069e+00,-4.604507174211191156e+00,-1.965199951141198276e-01,9.335388290449551096e-01,-2.998051803852197494e-01,7.291615936763404306e+02
-5.375215967183025967e+00,-6.760508416659706477e+00,-3.453697038625656468e+00,-6.194760193022532530e-02,9.980179860143258974e-01,1.098153938097697763e-02,7.357069789766105714e+02
-5.241648189020045479e+00,-6.738893052191174071e+00,-3.133716132850140834e+00,7.998762762311796559e-02,9.438768054517392425e-01,3.204630330593097876e-01,7.373958824033109067e+02
-4.686069443094198483e+00,-6.720071961109867154e+00,-1.717910814647028772e+00,6.315940852107950754e-01,6.091727629238600228e-01,4.795784153178603848e-01,7.439412677035810475e+02
-4.372549955187541748e+00,-6.761973366562286536e+00,-7.292930757916120665e-01,9.042790731035642571e-01,5.448887700766881503e-03,4.269047523394379762e-01,7.479009542327726194e+02
-4.077135129487795773e+00,-6.823549214480920888e+00,9.090994897543641651e-01,9.938113374091798180e-01,-1.778222882837447033e-02,1.096394909466624351e-01,7.544463395330427602e+02
-4.041108023931285764e+00,-6.740114374060015123e+00,2.269767712806190829e+00,9.748063198626242265e-01,-3.907128894767555177e-02,-2.195998022221386514e-01,7.609917248333129010e+02
-4.112500377459221923e+00,-6.606462100187636466e+00,2.845746993642214395e+00,8.493396061305793499e-01,-5.609325329638454455e-02,-5.248559615669805556e-01,7.646008626906512973e+02
-4.450603545663049054e+00,-6.180174973386077575e+00,3.557991542778362160e+00,7.889037168601372718e-01,2.019454797875082364e-02,-6.141832835203520080e-01,7.711462479909214380e+02
-5.006010735558341196e+00,-5.492050178623612666e+00,3.818130407824076311e+00,7.147001095270485438e-01,9.612990343873420440e-02,-6.927920287551692091e-01,7.776916332911915788e+02
-5.628369062662036626e+00,-4.575340928751204572e+00,3.710719498330821597e+00,6.280237654482950793e-01,1.703876171112596594e-01,-7.593103515475027043e-01,7.842370185914617196e+02
-6.168406498687179607e+00,-3.468138016400876378e+00,3.320358374115156330e+00,5.303873306695905399e-01,2.416717716464655830e-01,-8.125774020081601989e-01,7.907824038917318603e+02
-6.477988320293024849e+00,-2.213343680084399523e+00,2.731680195502126374e+00,4.234947190511150761e-01,3.087383426739471748e-01,-8.516635830529202256e-01,7.973277891920020011e+02
-6.455324774143840649e+00,-9.926669317482952337e-01,2.100465773511242862e+00,3.092113781874649692e-01,3.704169076719812659e-01,-8.758867724253606157e-01,8.032508589282145977e+02
-5.956931562649955048e+00,4.012339142193367958e-01,1.374719726521469010e+00,3.672189350471560254e-01,5.787627812279502043e-02,-9.283310778884582559e-01,8.097962442284847384e+02
-5.050282688295471445e+00,1.695172543488429273e+00,5.710141034934614890e-01,3.871102186807123813e-01,-2.606717718660144234e-01,-8.844172691354399429e-01,8.163416295287548792e+02
-4.822636105046538724e+00,1.956272193239543267e+00,3.709175110632476069e-01,3.668205466465050968e-01,-5.521629467091949683e-01,-7.487033904281623631e-01,8.178054252697601214e+02
-3.947143909317858856e+00,2.821065843833956865e+00,-6.852927497936812662e-01,7.426809876099101926e-01,-5.771324509290945981e-01,-3.396190288032752136e-01,8.243508105700302622e+02
-3.247667179623221045e+00,3.069914728319319774e+00,-1.882204750909009627e+00,8.888709199132488470e-01,-4.236263381331322742e-01,1.744912988378748142e-01,8.308961958703004029e+02
-2.527171306799695483e+00,2.621843951299106301e+00,-2.897042898201953154e+00,7.601814573411469489e-01,-1.391157246159150651e-01,6.346408173745391457e-01,8.374415811705705437e+02
-2.490776351942989741e+00,2.583577134638427530e+00,-2.936410495469808257e+00,3.964098229098312887e-01,1.884154474202038576e-01,8.985303954088896816e-01,8.377474125983546855e+02
-1.510221658328456451e+00,1.554361579706709628e+00,-3.466375045308557556e+00,-4.461954903898078528e-02,1.491731438368033291e-01,9.878028492577558550e-01,8.442927978986248263e+02
4.770843211241350412e-02,4.355681571254653717e-01,-3.263305392970089258e+00,-4.765457275876402443e-01,7.949701710348629213e-02,8.755469112446334634e-01,8.508381831988949671e+02
1.012554573704311123e+00,-2.747338112549581671e-02,-2.897043343870345122e+00,-8.112485823472272983e-01,-6.397837851451217660e-03,5.846646947702052177e-01,8.540388386169396426e+02
2.268812105304149451e+00,-8.056059302473829176e-01,-2.015679478795554314e+00,-9.598476192367514370e-01,-1.829748566538979826e-01,2.126281958683697293e-01,8.605842239172097834e+02
2.399622996547110532e+00,-1.352927013803000511e+00,-1.608658013211523352e+00,-9.244701225371394493e-01,-3.244805894945779756e-01,-2.001632822905209108e-01,8.659137601400203721e+02
2.289136598495373320e+00,-2.098985477160117519e+00,-2.057441087045821959e+00,-9.642760190158126132e-01,-2.452761167489967420e-01,-1.000469174485354440e-01,8.724403359150708184e+02
2.171737933069035176e+00,-2.908131538851862707e+00,-2.897043180425337816e+00,-9.751195466088850017e-01,-1.980178128279024286e-01,-9.964344236478833716e-02,8.789857212153409591e+02
2.152012858868183276e+00,-3.617843474605443532e+00,-2.980860718262359654e+00,-9.836704742271586976e-01,-1.502939463402272746e-01,-9.900569584016054303e-02,8.854289603144549119e+02
2.423328427010859265e+00,-4.256302777814448213e+00,-2.333170770982689657e+00,-9.218845406155252720e-01,3.741091053812538314e-02,3.856518086915284305e-01,8.919743456147250527e+02
2.649828405985371838e+00,-4.806750091823897897e+00,-1.819915073061060262e+00,-6.075537922574028027e-01,2.148672786515092858e-01,7.646623059092199082e-01,8.967412072044597835e+02
2.680818674278147462e+00,-5.893615905470678484e+00,-1.457079202770431126e+00,-5.788651580364665428e-01,2.242925097398723866e-01,7.839681108785419017e-01,9.032865925047299243e+02
2.336938728950245459e+00,-7.229907643542832218e+00,-1.491342225842892333e+00,-5.494329251600421626e-01,2.334296154277892554e-01,8.022668355228415038e-01,9.098319778050000650e+02
1.684732754899283647e+00,-8.454974620134034780e+00,-1.720576640375587996e+00,-5.192948947487426858e-01,2.422668606106203604e-01,8.195349782200229694e-01,9.163773631052702058e+02
1.336567048732819618e+00,-8.903457013147306753e+00,-1.838782056269129050e+00,-4.884897739080787393e-01,2.507928950771798893e-01,8.357503601877339650e-01,9.192062492679181105e+02
5.355694834027096007e-01,-9.754154801322354018e+00,-2.059846152588570067e+00,-3.954809112862243681e-01,4.013481280518279015e-01,8.261431649029976620e-01,9.257516345681882513e+02
-7.112991053574795053e-02,-1.028569093608086504e+01,-2.197991646486663342e+00,-2.900500694878090924e-01,5.392970238945208328e-01,7.905869194510763975e-01,9.322970198684583920e+02
-2.135495712983568051e-01,-1.039979968450814063e+01,-2.236439556579373100e+00,-1.755087778741580562e-01,6.603066845845526611e-01,7.301984327429466015e-01,9.346156455443504001e+02
-3.512190979868090035e-01,-1.038917115998075147e+01,-2.386183232881557092e+00,-2.693093723506305714e-01,7.624585370555291286e-01,5.883259651207189966e-01,9.411610308446205408e+02
-1.174718631164387156e-01,-9.828895929445955915e+00,-2.589062412263984925e+00,-3.525095502322244112e-01,8.345989215085581892e-01,4.232961814284967317e-01,9.477064161448906816e+02
2.986272655399446752e-01,-8.799372772248457153e+00,-2.800746733526331855e+00,-4.218344486474893129e-01,8.738883112142685761e-01,2.416048787948892052e-01,9.542518014451608224e+02
7.058617351651420568e-01,-7.374659803653849544e+00,-2.976904780699475506e+00,-4.745553514622867786e-01,8.787802280439803715e-01,5.040366254088363834e-02,9.607971867454309631e+02
7.443315271511231623e-01,-7.200627627552493415e+00,-2.992810033102013989e+00,-5.085970908812688096e-01,8.490821107135241297e-01,-1.427815408700972288e-01,9.615062579861255472e+02
9.384976869969166025e-01,-5.448632663993199898e+00,-3.085731341837484987e+00,-3.479399592012665798e-01,7.837992602694109356e-01,5.143875041177029539e-01,9.680516432863956879e+02
9.005091161147711354e-01,-4.056823126077754971e+00,-3.099165617158676334e+00,-2.655379591271254253e-02,3.564444917566247373e-01,9.339380173325493306e-01,9.728923574258250255e+02
6.853319004652194124e-01,-2.329181021805262652e+00,-3.086453430200687631e+00,-4.484105167914777257e-02,2.119605466951817452e-01,9.762479227777673962e-01,9.794377427260951663e+02
3.836729509729278065e-01,-7.949661257033836526e-01,-3.062629328872056966e+00,-6.209695036472778068e-02,6.260149719353978737e-02,9.961039209357362978e-01,9.859831280263653071e+02
1.404192172677661554e-01,7.148349669490506875e-01,-3.043588419460489192e+00,-7.792460707869734715e-02,-8.819740121835280278e-02,9.930493311154539038e-01,9.925285133266354478e+02
9.816360272223235983e-02,1.099467262609935103e+00,-3.040558194840798034e+00,-9.195998545302708216e-02,-2.369677770751419943e-01,9.671544001358252096e-01,9.941600517329895865e+02
-7.194353617644085042e-02,2.665509909805979127e+00,-3.028930299050424324e+00,6.007265371896235856e-02,-3.236900242354541768e-01,9.442531675796217439e-01,1.000705437033259727e+03
-4.084088181950739083e-01,4.203949428180480119e+00,-3.003536901585522667e+00,2.102334414420005404e-01,-4.003263320343390386e-01,8.919297774925758482e-01,1.007250822333529868e+03
-8.922405424478645486e-01,5.365021855713923316e+00,-2.965641813011287375e+00,3.538435505342895082e-01,-4.644888074149943202e-01,8.118145659753072119e-01,1.012534515054157623e+03
-1.599443084194725584e+00,6.646977115881083087e+00,-2.918619095235530647e+00,2.817337164592501608e-01,-3.877115362178331637e-01,8.776695720440368387e-01,1.019079900354427764e+03
-2.138132396014928993e+00,7.699291338904617810e+00,-2.908686855475850042e+00,2.052763291161167902e-01,-3.049513176776140200e-01,9.299808183772964032e-01,1.025625285654697791e+03
-2.158565748850316712e+00,8.465376803857662225e+00,-2.981388748822009216e+00,1.256512229399009972e-01,-2.174852473276259190e-01,9.679410815575655302e-01,1.032170670954967818e+03
-1.744458865535615910e+00,8.849835626928820531e+00,-3.075241489659260807e+00,4.408711209407008974e-02,-1.266630346768183868e-01,9.909645817039017812e-01,1.037160837249594579e+03
-7.565766480086535406e-01,9.070420668314829626e+00,-3.110400181319262991e+00,-1.121961801195122121e-01,-2.693929218737590656e-02,9.933198335392648959e-01,1.043706222549864606e+03
5.107184240273847653e-01,8.913261345617367937e+00,-2.957050224936843108e+00,-2.646227127618981378e-01,7.371046840433788383e-02,9.615298158339425916e-01,1.050251607850134633e+03
1.708608005994146639e+00,8.355454559906934975e+00,-2.578605561227082177e+00,-4.079528728092803869e-01,1.718264432596986746e-01,8.966873072385571630e-01,1.056796993150404660e+03
2.109578678979907806e+00,8.052030241791060305e+00,-2.379308817283410260e+00,-5.372597246352046607e-01,2.640359238056203539e-01,8.010212351891958793e-01,1.059310682662409818e+03
2.943522892581728723e+00,7.161073887722669618e+00,-1.726352189496601852e+00,-7.450045435439361929e-01,2.334190870493459968e-01,6.248853974126457045e-01,1.065856067962679845e+03
3.456513167923883856e+00,6.277876898511677517e+00,-8.607125124204946243e-01,-8.967851300021806304e-01,1.852679870265806217e-01,4.018086653990088353e-01,1.072401453262949872e+03
3.639110059898000404e+00,5.859572796315211995e+00,-3.203497724593518670e-01,-9.811998947483647759e-01,1.231996832303546563e-01,1.485483241138812471e-01,1.075989233689780121e+03
3.805531157713268886e+00,5.211176133862519322e+00,7.264812234187394413e-01,-9.876524825973101995e-01,1.538515024780455487e-01,-2.950065768654581630e-02,1.082534618990050149e+03
3.708019898700578132e+00,4.637054047823016667e+00,1.801966217748439902e+00,-9.618259539364000243e-01,1.794750382415628565e-01,-2.065854423282255936e-01,1.089080004290320176e+03
3.328600219540788885e+00,3.985208502000127329e+00,2.810102046236908180e+00,-9.045643927413142826e-01,1.992328521939435437e-01,-3.769184659717689234e-01,1.095625389590590203e+03
3.229789549932241766e+00,3.849363814048971655e+00,2.986179267240995916e+00,-8.177392368936824418e-01,2.124792083843286550e-01,-5.349328242386061083e-01,1.096841725917567601e+03
2.556435833748548880e+00,3.123891720567321340e+00,3.825502084355842491e+00,-7.030474009735246943e-01,1.350925882137310463e-01,-6.981921974593536806e-01,1.103387111217837628e+03
1.638362230371894546e+00,2.595391615095283822e+00,4.419960827350837285e+00,-5.561583970741386107e-01,5.151919846215753662e-02,-8.294767082641583134e-01,1.109932496518107655e+03
1.331186025862965749e+00,2.502060611844154625e+00,4.551126445030502232e+00,-3.837991844879790615e-01,-3.441361546863426490e-02,-9.227740184115063027e-01,1.111877068987771281e+03
2.599013709796851868e-01,2.468964853555181804e+00,4.854526808272347616e+00,-2.327351265798268676e-01,6.468377869999261676e-02,-9.703856808654289789e-01,1.118422454288041308e+03
-7.878862257286407544e-01,2.916697036463332449e+00,4.948604073916124335e+00,-7.354688407901879832e-02,1.615231972431353802e-01,-9.841235250691326986e-01,1.124967839588311335e+03
-1.650153856957401688e+00,3.782708984693877508e+00,4.913763110023244174e+00,8.820868284183108754e-02,2.527242238652465112e-01,-9.635080149863537446e-01,1.131513224888581362e+03
-2.166675037920205771e+00,4.999294573672353970e+00,4.830424082319220602e+00,2.468851017198806230e-01,3.351032654451069903e-01,-9.092587904643212315e-01,1.138058610188851389e+03
-2.203227900429002073e+00,5.167791410952013997e+00,4.819743304244744841e+00,3.969433835559267321e-01,4.057846781970661509e-01,-8.232695458908537711e-01,1.138860141434578054e+03
-2.196326754032059458e+00,6.662384590452816724e+00,4.773778345347183816e+00,3.745364765318601186e-01,3.567251222265879762e-01,-8.558432186482554105e-01,1.145405526734848081e+03
-2.047849099173318699e+00,7.310750364533954659e+00,4.775292504613930511e+00,3.506426728535724235e-01,3.062493786772573778e-01,-8.850192280510231768e-01,1.148053578703284984e+03
-1.365101185704920006e+00,8.729479608858358830e+00,4.790525043072411115e+00,1.812785412741443059e-01,2.119448693413552021e-01,-9.603205000583625583e-01,1.154598964003555011e+03
-3.495374875233104306e-01,9.782265904867056605e+00,4.725330857267816320e+00,4.074512685749715445e-03,1.084741991322739768e-01,-9.940899086440103671e-01,1.161144349303825038e+03
-2.424944611862435428e-01,9.866797095064425704e+00,4.710668209540690654e+00,-1.733057784811865287e-01,3.122166966546239424e-04,-9.848670010027584798e-01,1.161785984944732490e+03
6.248208600410245506e-01,1.069866412023966262e+01,4.493911599962406633e+00,-8.772874822109032189e-02,-4.228375693179772798e-01,-9.019479235014947749e-01,1.168331370245002518e+03
8.243564253383163232e-01,1.154495971440586288e+01,4.267416725114420828e+00,1.480228965100624690e-02,-7.642717653196121619e-01,-6.447228559280200333e-01,1.173990410582729510e+03
1.271518877453400864e-01,1.276953064582835218e+01,4.076218159372597682e+00,9.311070399033186118e-02,-8.371012610361469042e-01,-5.390638882101801421e-01,1.180535795882999537e+03
-1.245878945770972246e+00,1.355826867475142983e+01,3.942260193877108243e+00,1.693147743648064918e-01,-8.910120824198261014e-01,-4.212220034161756610e-01,1.187081181183269564e+03
-2.432480834042426654e+00,1.335618432458332272e+01,3.794960940019858509e+00,2.416923064719570247e-01,-9.247858623794251720e-01,-2.938604051813334395e-01,1.192657969127693832e+03
-3.242397045137617173e+00,1.245585966018578539e+01,3.365670259401064790e+00,3.522946636209728921e-01,-8.814347801700245233e-01,-3.145778095882957315e-01,1.199203354427963859e+03
-3.337172909403918197e+00,1.215822428998505700e+01,3.171969429836307253e+00,4.577741574592616991e-01,-8.252663644385056507e-01,-3.307208014064315083e-01,1.201110968549146264e+03
-3.575984778191895863e+00,1.150874310254382316e+01,2.184156338281376453e+00,8.753331051875236080e-01,-4.626157960653917156e-01,-1.406292295150979310e-01,1.207656353849416291e+03
-3.601225231000687810e+00,1.147140989764789509e+01,2.021976893025746236e+00,9.935225279802344378e-01,5.825234932232987300e-02,9.755844501813341896e-02,1.208478945707734283e+03
-3.650351369597782725e+00,1.141294467647474242e+01,1.745368854290027416e+00,9.934304922262899851e-01,2.379724849827758934e-02,1.119265295974901792e-01,1.209865610689777441e+03
-3.845834138566913918e+00,1.147386326330105000e+01,3.727568436222368220e-01,9.993891129793688322e-01,-1.039681512270034837e-02,-3.333627288197493765e-02,1.216410995990047468e+03
-3.853121258381146053e+00,1.165658979609992763e+01,-1.780204556499595803e-01,9.830552948419761794e-01,-4.435896646870712834e-02,-1.778554732712732123e-01,1.218977352460894735e+03
-3.716216082978745838e+00,1.205576145216125461e+01,-8.788133068643360080e-01,8.090487059771560574e-01,-1.907970708425138495e-01,-5.559088676323222789e-01,1.222448549475186155e+03
-3.570294390890017322e+00,1.239419248513829785e+01,-1.288482302090937726e+00,8.033803375803355573e-01,-2.246274000970297502e-01,-5.514712723790188287e-01,1.224607003153273808e+03
-2.770716733648410646e+00,1.349081502501710439e+01,-2.281503598665399313e+00,7.085426053822617698e-01,-5.722596277992232361e-01,-4.128974385355103083e-01,1.231152388453543836e+03
-1.400399299834649947e+00,1.399183140036368478e+01,-2.642993815973913474e+00,5.080998321582483879e-01,-8.345992501989732970e-01,-2.127831105320183158e-01,1.237697773753813863e+03
-9.523904970734833331e-01,1.395194508695867341e+01,-2.623309129771915771e+00,2.319269649857603754e-01,-9.725457033797408890e-01,1.904567534115274990e-02,1.239535596146444504e+03
4.397474519208837140e-01,1.341224390642856079e+01,-2.312747848532091144e+00,-3.938041013155393899e-02,-9.075306997726964031e-01,-4.181330078663676453e-01,1.246080981446714532e+03
1.356907051722193280e+00,1.253083123391416009e+01,-1.607572414131442917e+00,-3.000959580135981186e-01,-5.984259939260458960e-01,-7.428504195174497893e-01,1.252626366746984559e+03
1.661568301825898208e+00,1.207932568034197018e+01,-1.058013120887119740e+00,-4.800975913080082758e-01,-1.283686100558835141e-01,-8.677705934015326195e-01,1.256439075760270043e+03
1.786059982763868348e+00,1.186697696579984296e+01,-7.158488236629025891e-01,-5.624846808029743128e-01,-1.661793869152413394e-01,-8.099341919007317925e-01,1.258643091531374012e+03
1.938763118861500656e+00,1.156876051858274401e+01,1.197331204615916522e-01,-9.594422544986229706e-01,8.251974116014713923e-02,-2.695534318099803706e-01,1.263537512859439857e+03
1.851174949002405867e+00,1.154467828753612046e+01,1.444751129865170292e+00,-9.975395613283543073e-01,5.098737394872153439e-02,-4.809481552714842123e-02,1.270082898159709885e+03
1.754592537352667625e+00,1.160985592935020527e+01,1.965982153632683582e+00,-9.842738368665282511e-01,1.682967959012603501e-02,1.758402000179648539e-01,1.272415143416737919e+03
1.326987052426852109e+00,1.190265610818903319e+01,3.515496302603503764e+00,-9.264615176391535201e-01,-1.732285926686202293e-01,-3.341540228784555255e-01,1.278960528717007946e+03
6.694524412059944529e-01,1.233156576770647561e+01,5.150961174017985478e+00,-5.911160036349403235e-01,-3.113953515220524992e-01,-7.440516146617216497e-01,1.285505914017277973e+03
-1.337726220892847817e-01,1.279559963051953275e+01,6.752084846321156242e+00,-7.869203682629145880e-02,-3.562794617070435543e-01,-9.310588104357903072e-01,1.292051299317548001e+03
-1.014423302326734611e+00,1.309316308997698641e+01,8.205624129681943657e+00,4.573032199221289118e-01,-2.944351224314968318e-01,-8.391541716030859188e-01,1.298596684617818028e+03
-1.082014918080569599e+00,1.310345261636235037e+01,8.306448454092649314e+00,8.563054776813110447e-01,-1.443902788710642870e-01,-4.958733469923491399e-01,1.299084628259237661e+03
-1.942507036964418843e+00,1.297560161212078000e+01,9.521540203518371825e+00,9.037318339616755569e-01,8.616151820499127686e-03,-4.280099697572630202e-01,1.305630013559507688e+03
-2.582203086502129263e+00,1.238912966432820895e+01,1.044350177132632140e+01,9.238060897061597387e-01,1.613617879992585158e-01,-3.471925719180367631e-01,1.312175398859777715e+03
-2.760145549307330803e+00,1.149894335301764059e+01,1.103501916319383547e+01,9.159206894158836709e-01,3.092237067624272751e-01,-2.558671332457537750e-01,1.318720784160047742e+03
-2.484148123557124777e+00,1.064362709295102505e+01,1.129704799186587039e+01,8.803142724839022604e-01,4.477267866741171942e-01,-1.567976599142063554e-01,1.324381940622837419e+03
-1.775151638147779876e+00,9.846766719489037811e+00,1.139397584965544397e+01,6.630433225977502287e-01,7.203546147423686152e-01,-2.036192068001860533e-01,1.330927325923107446e+03
-8.135932866545418918e-01,9.590866572719082939e+00,1.137407626621167189e+01,3.637372991889515905e-01,9.038564820617331907e-01,-2.252479456369740063e-01,1.337472711223377473e+03
-4.877671039373122630e-01,9.638096113531892328e+00,1.136038955442506904e+01,1.942777491161307504e-02,9.755286355796115583e-01,-2.190078599634952827e-01,1.339529752796983757e+03
-1.836396219118045792e-01,9.707963272576376923e+00,1.134849692672491983e+01,-1.014619171070842846e-01,9.947763898704859997e-01,-1.110916408723098062e-02,1.341451046296087952e+03
6.988392327570646101e-01,1.035791929344552109e+01,1.131334985877863630e+01,-6.036923673143056446e-01,7.971731560962047602e-01,8.275557128062039497e-03,1.347996431596357979e+03
1.035902262548977770e+00,1.148666080133652834e+01,1.128669190505860520e+01,-9.298506554025939286e-01,3.670672495947033820e-01,2.524664179397934083e-02,1.354541816896628006e+03
1.018758912296178876e+00,1.175631261184477871e+01,1.128202250068398804e+01,-9.848096940890048723e-01,-1.700971572214485528e-01,3.485431871387806302e-02,1.355968761765152522e+03
6.645335766687404666e-01,1.281581993162499700e+01,1.135374856735147731e+01,-8.613949533963305427e-01,-4.711518698981911335e-01,-1.897699917123336077e-01,1.362514147065422549e+03
1.637365430551975809e-01,1.330274087765022273e+01,1.173231398030333850e+01,-6.033257262918081398e-01,-6.985553484438856708e-01,-3.847291165935070034e-01,1.369059532365692576e+03
3.240506388175086461e-02,1.331220123100754726e+01,1.195883382182121046e+01,-2.509437693832492489e-01,-8.167596457605076354e-01,-5.195468272107045538e-01,1.371438322353818876e+03
-2.018415499492347831e-01,1.295572669921051734e+01,1.266884900636264533e+01,-1.195897787755784564e-01,-6.282595019263557123e-01,-7.687563222839435273e-01,1.377983707654088903e+03
-4.697614453078101104e-01,1.218610779888152607e+01,1.323815871507829378e+01,2.550407838103468591e-02,-3.675775380801845071e-01,-9.296420254510170400e-01,1.384529092954358930e+03
-7.374954933291475445e-01,1.172704931992854682e+01,1.337722597785109002e+01,1.676677552186136844e-01,-6.466388187508970153e-02,-9.837195262066708024e-01,1.388136004714354613e+03
-7.745906436417926422e-01,1.167550322719355549e+01,1.338560620953591673e+01,2.206451828355397160e-01,-6.824255747259093396e-02,-9.729628238560806830e-01,1.388555737678094602e+03
-1.491273645630260658e+00,1.103002994946405124e+01,1.311503439601081134e+01,5.205681996241152687e-01,1.503523465010766502e-01,-8.404766037443768267e-01,1.395101122978364629e+03
-2.055208374905970636e+00,1.068384718888926166e+01,1.218211827058950725e+01,7.396519161142113274e-01,3.455989381432710839e-01,-5.774724382538208856e-01,1.401646508278634656e+03
-2.129529353058763341e+00,1.061054568682520305e+01,1.175209717588501235e+01,8.438747883502752956e-01,4.871773393088161264e-01,-2.247923078099965943e-01,1.403961155374455302e+03
-1.872964736571462119e+00,1.035553264981568411e+01,1.040918388677769357e+01,5.305247733475996208e-01,8.262228581058206345e-01,1.894657056133996764e-01,1.410506540674725329e+03
-1.085787072582896196e+00,1.020785554465227030e+01,8.888875572702676919e+00,1.305369989614347387e-02,8.473782952414636860e-01,5.308273030534368386e-01,1.417051925974995356e+03
-2.180529291711666706e-01,1.033652019688399193e+01,7.283604789538714819e+00,-5.094396473725824048e-01,5.425030836951089119e-01,6.679518319927665315e-01,1.423597311275265383e+03
4.077652592173772184e-01,1.053874962871891263e+01,5.962342848615508117e+00,-8.359245507800344699e-01,2.890014656625860059e-02,5.480811317045372055e-01,1.429009903517570365e+03
1.012997580751898496e+00,1.079922613830391676e+01,4.436731619663213166e+00,-8.193722727005406936e-01,-4.721433253021028315e-02,5.713124237497833047e-01,1.435555288817840392e+03
1.443955129363558187e+00,1.113146440614135280e+01,3.031801723522375536e+00,-7.974063273938066798e-01,-1.230168445533196542e-01,5.907689946046542628e-01,1.442100674118110419e+03
1.709055705675452730e+00,1.159475403552738015e+01,1.787630555483707528e+00,-7.701718450702580432e-01,-1.980065668661781797e-01,6.063222975750375277e-01,1.448646059418380446e+03
1.836910320412620257e+00,1.218952517792092216e+01,7.127133610627565119e-01,-7.378487623218304980e-01,-2.716880468555721295e-01,6.178695729144791926e-01,1.455191444718650473e+03
1.869487845136285298e+00,1.250493210673821132e+01,2.291268826273316628e-01,-7.006506336224408438e-01,-3.435744744459564015e-01,6.253345265623236893e-01,1.458405581212226934e+03
1.934750651397927124e+00,1.306179128009912560e+01,-7.298330340375149827e-01,-7.650069198128215398e-01,-3.504732823434716926e-01,5.403062936887459422e-01,1.464950966512496962e+03
2.044681831541163675e+00,1.336461812840642871e+01,-1.702760235743919104e+00,-8.206274706286363907e-01,-3.533699837024747992e-01,4.491082375837369689e-01,1.471496351812766989e+03
2.271010050868820240e+00,1.323092663817598336e+01,-2.775882217913900440e+00,-8.668771611023624590e-01,-3.522315017657380309e-01,3.527817409115240332e-01,1.478041737113037016e+03
2.454678220281461876e+00,1.295766193010551248e+01,-3.446460402231205311e+00,-9.032278641340102388e-01,-3.470708342807507507e-01,2.524267447017907173e-01,1.481816523951514682e+03
2.746271324738483788e+00,1.241477944276098633e+01,-4.574647282545374338e+00,-8.917467146542128464e-01,-4.010977853067634324e-01,2.095384535550016969e-01,1.488361909251784709e+03
2.830089632808643341e+00,1.218365232380736529e+01,-5.462290056663355209e+00,-8.759047991398760669e-01,-4.531633009912807708e-01,1.656254976481025265e-01,1.494907294552054736e+03
2.568122336054001309e+00,1.259374219190768507e+01,-5.935872602060949355e+00,-8.557795794549017954e-01,-5.030127961764085942e-01,1.209025982478198896e-01,1.501423043705973669e+03
2.000284144433151834e+00,1.345386281021707653e+01,-6.021196511954995501e+00,-7.189839856268690488e-01,-6.845512620050330233e-01,1.202064811004416034e-01,1.507968429006243696e+03
1.248268087300983042e+00,1.430095052036641867e+01,-5.833233072883353465e+00,-5.450386477965897258e-01,-8.307190483025811423e-01,1.132993168314474636e-01,1.514513814306513723e+03
7.612097271472054727e-01,1.468119359443968897e+01,-5.641084651363326152e+00,-3.429312267778676926e-01,-9.339637494195252021e-01,1.005379951542521716e-01,1.518374598924670863e+03
-9.499356693264114637e-02,1.503603680698994083e+01,-5.163221269826662407e+00,-1.828594181493106152e-01,-9.814872249989076147e-01,-5.694962999002461251e-02,1.524919984224940890e+03
-3.137513329026987985e-01,1.506934423232972264e+01,-5.011744012379311108e+00,-1.315386497184308293e-02,-9.773021052790966667e-01,-2.114369193184479634e-01,1.526550447678494493e+03
-1.207302225398006357e+00,1.500460246004437082e+01,-4.377210572732648686e+00,2.238855922938991216e-01,-9.727243297710657099e-01,-6.066811217072614476e-02,1.533095832978764520e+03
-2.142641559631263348e+00,1.456934009388881712e+01,-3.976294799584521478e+00,4.432514708577415807e-01,-8.913596679010934443e-01,9.488980989246309505e-02,1.539641218279034547e+03
-2.279930429599223096e+00,1.448088621458992264e+01,-3.956004353036688403e+00,6.276270966419806863e-01,-7.396310225773266023e-01,2.429571526038231954e-01,1.540574001202621048e+03
-3.194351153291365097e+00,1.371175430647325122e+01,-4.113228016138444687e+00,8.006948714344156448e-01,-5.596989644579777323e-01,2.135949251345816702e-01,1.547119386502891075e+03
-3.882055844146444112e+00,1.270181717257010234e+01,-4.709609953374952696e+00,9.231665054911843971e-01,-3.443994230443810367e-01,1.707355866419055512e-01,1.553664771803161102e+03
-4.102613237271421909e+00,1.155537856673379338e+01,-5.455496569178949429e+00,9.873030232624180336e-01,-1.073372021571562945e-01,1.170874258404764889e-01,1.560210157103431129e+03
-4.090424752194815383e+00,1.136628512763447141e+01,-5.574188502943872692e+00,9.890516201359118575e-01,1.365077221606459668e-01,5.604047195359686956e-02,1.561251238058522858e+03
-3.690721955010250799e+00,1.025457703704921109e+01,-6.178515787820471949e+00,9.412481291104336512e-01,3.050487133782752713e-01,1.448973495660607624e-01,1.567796623358792885e+03
-2.782707552233238069e+00,9.353836774188645009e+00,-6.398063492368034844e+00,8.571248462449541083e-01,4.618188039690355184e-01,2.281630781898351668e-01,1.574342008659062913e+03
-2.657188781841337999e+00,9.266535326694004482e+00,-6.394724709483986302e+00,7.399277894762679164e-01,6.007687910443599844e-01,3.026247281144322510e-01,1.575088175139991336e+03
-1.603559823371169646e+00,8.609018185794736766e+00,-6.087977768335478324e+00,6.098091333623092414e-01,7.828138175941581345e-01,1.238278960951120777e-01,1.581633560440261363e+03
-8.384204738263577594e-01,8.196203470735650143e+00,-5.304561101543795232e+00,4.296619363622735110e-01,9.006369977787133108e-01,-6.512771048740906288e-02,1.588178945740531390e+03
-7.820530835252333945e-01,8.166592220374619515e+00,-5.197526831253326485e+00,2.142653606625917473e-01,9.445721900966936868e-01,-2.487402921029768232e-01,1.588887797873073396e+03
-4.295152316129667303e-01,8.032017720572678599e+00,-4.261147798704475242e+00,3.657475742611808467e-02,9.979832837280175895e-01,-5.186185994823490353e-02,1.595433183173343423e+03
-2.148827402111395946e-01,8.098219281118948842e+00,-3.750003435292688980e+00,-1.437926786296176984e-01,9.783540175719644960e-01,1.488122369681859625e-01,1.600887889330697590e+03
-1.107395467220911311e-01,8.147171843976389383e+00,-3.661781420620896288e+00,-1.011725490312029990e-01,9.569492649431796671e-01,2.720481935872826607e-01,1.602857601602921704e+03
