1.311687531656558603e+00,2.505440802469018458e+00,4.428428466369635608e+00,-3.992959886740303221e-01,-3.878166904647502994e-02,-9.160003796797184794e-01,1.111877068987771281e+03
2.632208686958320554e-01,2.461457450708613770e+00,4.769004621417114897e+00,-2.553807511678254372e-01,6.083589463782542589e-02,-9.649236580456345136e-01,1.118422454288041308e+03
-7.537753068614257979e-01,2.891188433593046447e+00,4.922604933645991387e+00,-1.030306299240175000e-01,1.584440978128133226e-01,-9.819766581571754971e-01,1.124967839588311335e+03
-1.585630014590479808e+00,3.747626782671606538e+00,4.946532382973360065e+00,5.272244754936499661e-02,2.508190719433600613e-01,-9.665961600760364369e-01,1.131513224888581362e+03
-2.079819131113532116e+00,4.977660810107450651e+00,4.898105336664663412e+00,2.067341657892146634e-01,3.349097969287208598e-01,-9.192901678014420153e-01,1.138058610188851389e+03
-2.114357489448452032e+00,5.149688207618001279e+00,4.889487359237977060e+00,3.539177237126498454e-01,4.079388673097413820e-01,-8.416211293567441576e-01,1.138860141434578054e+03
-2.100784940840323411e+00,6.695787317853024945e+00,4.829338156506340241e+00,3.322357286435418944e-01,3.436042357935917280e-01,-8.783812098098332521e-01,1.145405526734848081e+03
-1.954386703379683787e+00,7.376411255171521297e+00,4.810675572142459444e+00,3.085734845144649796e-01,2.772215921668242378e-01,-9.099058157194761520e-01,1.148053578703284984e+03
-1.307627549057096994e+00,8.881903228458588373e+00,4.771942364060828723e+00,1.634496062044284159e-01,1.606385122363222506e-01,-9.733845563891446728e-01,1.154598964003555011e+03
-3.946226044848958892e-01,9.936474394377427188e+00,4.706725927259679310e+00,1.200315981287977500e-02,3.784159987184249063e-02,-9.992106572051466795e-01,1.161144349303825038e+03
-3.014363848533553880e-01,1.001260615021292821e+01,4.697329209324772492e+00,-1.399076369382458718e-01,-8.641914234917759396e-02,-9.863851098633886760e-01,1.161785984944732490e+03
4.309585175665707202e-01,1.047043444482904917e+01,4.574401785886768046e+00,1.327533928895085948e-03,-2.541911957806444189e-01,-9.671520426690860539e-01,1.168331370245002518e+03
5.686429521083223859e-01,1.039986038446766692e+01,4.448567428853440475e+00,1.424983504602470585e-01,-4.096438962670317929e-01,-9.010461133397233979e-01,1.173990410582729510e+03
-6.367113174402976028e-02,9.974201461023769255e+00,4.300680894670876775e+00,2.951650433080206803e-01,-3.407405223619746071e-01,-8.926205765204185960e-01,1.180535795882999537e+03
-1.264055192796565308e+00,9.644098827742862312e+00,4.087009855683423787e+00,4.395299597628570254e-01,-2.622535419672781254e-01,-8.590893400540668967e-01,1.187081181183269564e+03
-2.293561244362104290e+00,9.817611218402024775e+00,3.785347349506683390e+00,5.715327706063297875e-01,-1.763904319851103686e-01,-8.013954751710780089e-01,1.192657969127693832e+03
-3.082991298677935976e+00,1.056502052132485403e+01,3.179292097278477947e+00,6.445684792382745387e-01,-4.277809623106195169e-01,-6.336662558917922627e-01,1.199203354427963859e+03
-3.218993226220888904e+00,1.084490699930563018e+01,2.947445414692464460e+00,6.552971744533245824e-01,-6.378201423122527025e-01,-4.046839250734547422e-01,1.201110968549146264e+03
-3.588802594998698137e+00,1.139470669322819063e+01,1.945143952937378407e+00,9.375266836299325224e-01,-3.212055086305815044e-01,-1.336740016136129527e-01,1.207656353849416291e+03
-3.626900131835232521e+00,1.141232550170314930e+01,1.795216251778323890e+00,9.822383153470302108e-01,7.678492983627369095e-02,1.712015374178895988e-01,1.208478945707734283e+03
-3.693536144336774463e+00,1.143590743246794972e+01,1.540802293719606197e+00,9.844084520768262569e-01,1.585860550570414654e-02,1.751756378059887154e-01,1.209865610689777441e+03
-3.873056482654977817e+00,1.156657599106663348e+01,3.035575432901608250e-01,9.998642141217832791e-01,-1.641481584363841881e-02,3.273172330155023303e-04,1.216410995990047468e+03
-3.853172594002229001e+00,1.166833417227430125e+01,-1.885497169708927057e-01,9.834718480229354132e-01,-4.816538506336025954e-02,-1.745314293320507082e-01,1.218977352460894735e+03
-3.720392788658316796e+00,1.195920490159490868e+01,-8.282057283431412120e-01,8.062042819985286712e-01,-1.558045500037819053e-01,-5.707517830748001231e-01,1.222448549475186155e+03
-3.595274393544801494e+00,1.222757397789611744e+01,-1.208883052592346630e+00,8.025606023197349170e-01,-1.527659427457132013e-01,-5.766775928405414309e-01,1.224607003153273808e+03
-3.018116682834754982e+00,1.323041308453979070e+01,-2.155769775937130373e+00,8.214267670146364608e-01,-3.982357665752662146e-01,-4.082454416792666296e-01,1.231152388453543836e+03
-2.021370346817633390e+00,1.393091799540686715e+01,-2.601583622666552742e+00,7.672016109822504815e-01,-6.082701990574523876e-01,-2.034872306668735198e-01,1.237697773753813863e+03
-1.671555584888762214e+00,1.399419307090601805e+01,-2.630901761425863405e+00,6.447100866832423671e-01,-7.641802241654112038e-01,1.937754170494375427e-02,1.239535596146444504e+03
-3.522543347076908526e-01,1.367521609344012923e+01,-2.388821218113436284e+00,4.003875318310587961e-01,-7.929600339960353184e-01,-4.592409050148933414e-01,1.246080981446714532e+03
8.441055919945260611e-01,1.275690025154234952e+01,-1.645584740083849251e+00,4.011355965412000124e-02,-5.921002197983463722e-01,-8.048641078134498583e-01,1.252626366746984559e+03
1.359959472716591788e+00,1.221792424822831613e+01,-1.071671627658034476e+00,-3.317771914770440422e-01,-2.197694129070880409e-01,-9.174002945093701067e-01,1.256439075760270043e+03
1.596943512512091656e+00,1.195661853759256310e+01,-7.155003952546934443e-01,-4.931815909414951626e-01,-2.163854055325755699e-01,-8.425836899796141921e-01,1.258643091531374012e+03
1.935659544659307008e+00,1.157663405245780375e+01,1.463305119547727018e-01,-9.563460718549964268e-01,7.872384595094961135e-02,-2.814298259344799047e-01,1.263537512859439857e+03
1.940419284958773583e+00,1.151292750606398485e+01,1.486966914033203135e+00,-9.960662125618912066e-01,5.636082692544384237e-02,-6.836342135001488574e-02,1.270082898159709885e+03
1.844993590023361385e+00,1.157899893894639298e+01,2.008060130442946623e+00,-9.884979277443689538e-01,3.132206665096312626e-02,1.479485551909442143e-01,1.272415143416737919e+03
1.397970944470546817e+00,1.188796724853206577e+01,3.537248578021789491e+00,-9.166388966339131805e-01,-1.783011735031746758e-01,-3.577426794415053957e-01,1.278960528717007946e+03
6.920057945227050533e-01,1.234810075151754738e+01,5.123524600315773725e+00,-5.653571267683464852e-01,-3.335738076962174170e-01,-7.543857329062666484e-01,1.285505914017277973e+03
-1.748241729503265396e-01,1.284448180015988150e+01,6.659073843509463408e+00,-4.173265428777531844e-02,-3.871615165387137236e-01,-9.210658747665146917e-01,1.292051299317548001e+03
-1.103806121368051230e+00,1.314907168351378708e+01,8.048272787395109873e+00,4.946110951978456294e-01,-3.227286153612303754e-01,-8.069721837363532657e-01,1.298596684617818028e+03
-1.173545741723662550e+00,1.315820287786745624e+01,8.144777033776287922e+00,8.801782989576794058e-01,-1.599186116984386008e-01,-4.468894714276740454e-01,1.299084628259237661e+03
-2.031869429129192550e+00,1.299716433921919112e+01,9.319016432070347022e+00,9.266255304796171544e-01,4.348247844799778137e-05,-3.759828777647725162e-01,1.305630013559507688e+03
-2.635987005363990221e+00,1.236966007120104827e+01,1.023601682542520841e+01,9.427044379614041292e-01,1.600041309742137319e-01,-2.927541984647137330e-01,1.312175398859777715e+03
-2.779525690442365082e+00,1.146738149115612693e+01,1.085998384219609925e+01,9.278880722689337723e-01,3.147209748888846748e-01,-1.999310713858341859e-01,1.318720784160047742e+03
-2.477751521519409916e+00,1.062483014044003760e+01,1.117345313404631924e+01,8.826619894829947910e-01,4.591235020624547802e-01,-1.005555675976596564e-01,1.324381940622837419e+03
-1.753378507624161919e+00,9.850695610889513176e+00,1.133750513079421651e+01,6.679828597870003382e-01,7.259706051422400996e-01,-1.635957808141779157e-01,1.330927325923107446e+03
-8.174613659583630509e-01,9.609268275823186656e+00,1.136978125507525483e+01,3.722982690353912605e-01,9.047801008452864835e-01,-2.067969245119188615e-01,1.337472711223377473e+03
-5.094339512137521231e-01,9.658279877747647291e+00,1.136734908457417070e+01,3.146544132861421594e-02,9.738680067866967160e-01,-2.249200554839485555e-01,1.339529752796983757e+03
-2.240711266887166486e-01,9.729650156528744986e+00,1.136498647366579462e+01,-7.974069264601667262e-02,9.965992688745876071e-01,-2.072001950300358941e-02,1.341451046296087952e+03
5.851239647110374476e-01,1.037319399279816245e+01,1.137328018532323171e+01,-5.897616382046001471e-01,8.040103218754797165e-01,-7.580641410566667238e-02,1.347996431596357979e+03
9.143667624489274504e-01,1.148107612885246631e+01,1.143906890270020149e+01,-9.227084844685099485e-01,3.700195769725674877e-01,-1.081321661036555304e-01,1.354541816896628006e+03
9.120090315449792540e-01,1.174538153286439091e+01,1.146302379909410085e+01,-9.786147479733218191e-01,-1.750685623970875959e-01,-1.079915436907464554e-01,1.355968761765152522e+03
6.652608420596364258e-01,1.278615843727324197e+01,1.165494546124380726e+01,-8.415188358468124186e-01,-4.306952922907498760e-01,-3.261067526335844624e-01,1.362514147065422549e+03
2.390335709050147583e-01,1.327379054966315053e+01,1.204077722739586065e+01,-5.935825324017118820e-01,-6.295930068337020069e-01,-5.012688130868905301e-01,1.369059532365692576e+03
1.052120488365728551e-01,1.328888005883274381e+01,1.222759106519705163e+01,-2.674627035012823173e-01,-7.455640469306901164e-01,-6.104063844357351387e-01,1.371438322353818876e+03
-1.895547578784474441e-01,1.294954487837643242e+01,1.275017222992381072e+01,-1.163253370318189373e-01,-5.637769853616493299e-01,-8.176930516647110680e-01,1.377983707654088903e+03
-5.082764664590921910e-01,1.217833042676974742e+01,1.310362735703696657e+01,4.631159798214966317e-02,-3.262566309515027574e-01,-9.441450347548054900e-01,1.384529092954358930e+03
-7.568230031765095234e-01,1.170117728634905063e+01,1.315968844727342280e+01,2.043703534124239884e-01,-5.648344275460500524e-02,-9.772616739337852687e-01,1.388136004714354613e+03
-7.893653811238806606e-01,1.164679468053295963e+01,1.316050056641040911e+01,2.619105393079469435e-01,-5.903326396277112920e-02,-9.632839369122956352e-01,1.388555737678094602e+03
-1.366223595895138310e+00,1.094346832497674704e+01,1.287187881335883688e+01,5.260740485518331511e-01,2.043030346995201307e-01,-8.255327767282535367e-01,1.395101122978364629e+03
-1.802487899415027961e+00,1.057098448908215182e+01,1.205178671585860251e+01,7.070630896892572403e-01,4.353381571364710600e-01,-5.572615868153619756e-01,1.401646508278634656e+03
-1.865964924278859183e+00,1.050762392292398317e+01,1.167182093724648695e+01,7.762626227256571587e-01,5.975445798632869066e-01,-2.008850806674685741e-01,1.403961155374455302e+03
-1.678639356291597107e+00,1.032008893260630877e+01,1.043768158327774032e+01,4.062975841081819528e-01,9.001321542701558043e-01,1.571062633811038112e-01,1.410506540674725329e+03
-1.041769933416709426e+00,1.023977084101446877e+01,8.984685888942943066e+00,-1.085507339252477776e-01,8.817396025106094548e-01,4.590751697975603562e-01,1.417051925974995356e+03
-2.839708265828750910e-01,1.037731975170153120e+01,7.428287573848199266e+00,-5.846904721336617650e-01,5.489250417811419869e-01,5.973410669785609306e-01,1.423597311275265383e+03
3.001185850040903880e-01,1.056786484450542218e+01,6.134065955202380849e+00,-8.523335925870945129e-01,2.036885745198254230e-02,5.225998053892805251e-01,1.429009903517570365e+03
8.989287135762846770e-01,1.082136909657695512e+01,4.615464505347372182e+00,-8.314795241135473081e-01,-5.059346545339368784e-02,5.532450652566138771e-01,1.435555288817840392e+03
1.361114549601978307e+00,1.114845213540497326e+01,3.181004125325458620e+00,-8.052959381254719551e-01,-1.212314829433497054e-01,5.803441906141643125e-01,1.442100674118110419e+03
1.677610211288896203e+00,1.160144449101199093e+01,1.863873719713066812e+00,-7.739506618104088354e-01,-1.910924385537249304e-01,6.037234905223342052e-01,1.448646059418380446e+03
1.860402570804585487e+00,1.217832353368321208e+01,6.783749166728197943e-01,-7.376446038506461189e-01,-2.597285564284790849e-01,6.232331147998391163e-01,1.455191444718650473e+03
1.918039667709883433e+00,1.248324148110881993e+01,1.338006912264862736e-01,-6.966104670513357799e-01,-3.266999105251053304e-01,6.387480142079677847e-01,1.458405581212226934e+03
2.021308494055070959e+00,1.302228801040105743e+01,-9.302590528058926056e-01,-7.578173626435972254e-01,-3.326870692672949104e-01,5.612754749814721222e-01,1.464950966512496962e+03
2.141294985909659498e+00,1.331929129863268635e+01,-1.949290746719369416e+00,-8.116096560978566243e-01,-3.354191696302291081e-01,4.783113491971106024e-01,1.471496351812766989e+03
2.339281679400469827e+00,1.320092265754664673e+01,-2.965649607527541587e+00,-8.574610497890617911e-01,-3.348694813785167423e-01,3.906673502267531961e-01,1.478041737113037016e+03
2.490896502254059008e+00,1.294545882227564526e+01,-3.556485324469094600e+00,-8.949229330135533012e-01,-3.310433806117257238e-01,2.992009761287705571e-01,1.481816523951514682e+03
2.721471591686828173e+00,1.243614665167862299e+01,-4.513424260920593234e+00,-8.925750257837136159e-01,-4.063117152392537457e-01,1.954958142866571325e-01,1.488361909251784709e+03
2.765438719264428968e+00,1.222499897269852909e+01,-5.257342850179821170e+00,-8.755660168885623929e-01,-4.749061141023513399e-01,8.857952842002571325e-02,1.494907294552054736e+03
2.506631093792423215e+00,1.262708194939474282e+01,-5.682626878789412750e+00,-8.441752804624725881e-01,-5.356998992682647787e-01,-1.979176032117803408e-02,1.501423043705973669e+03
1.969841548539402742e+00,1.346221724396582786e+01,-5.798073444632739992e+00,-7.097036904263167578e-01,-7.044811838223368206e-01,-4.993339015431062962e-03,1.507968429006243696e+03
1.245482723083477516e+00,1.429130814210975231e+01,-5.660329890702102240e+00,-5.420259453181726084e-01,-8.403006003067001739e-01,1.003871132900650658e-02,1.514513814306513723e+03
7.660260231436789580e-01,1.466845362996257052e+01,-5.495332933515330254e+00,-3.489874239501401521e-01,-9.368033761310228247e-01,2.460106487131041159e-02,1.518374598924670863e+03
-9.611907307780735710e-02,1.502524525980429537e+01,-5.123425375686812444e+00,-1.836107122808684489e-01,-9.783709550083760087e-01,-9.526479270560998802e-02,1.524919984224940890e+03
-3.198399474354617911e-01,1.505996015647784958e+01,-5.014747969528240645e+00,-1.025699822409959806e-02,-9.774329826140406574e-01,-2.109918445882395244e-01,1.526550447678494493e+03
-1.237188251322518528e+00,1.499658300958345158e+01,-4.606803623518555213e+00,2.240475117962682228e-01,-9.745537951536560328e-01,6.753725597637286367e-03,1.533095832978764520e+03
-2.186311438854081857e+00,1.455500402171838736e+01,-4.398435711676415671e+00,4.354273903107113153e-01,-8.719580679689848957e-01,2.238082113573487131e-01,1.539641218279034547e+03
-2.323632727105926055e+00,1.446507186581519555e+01,-4.393438174448555777e+00,6.022542735162877969e-01,-6.801433944820290955e-01,4.179626215028289238e-01,1.540574001202621048e+03
-3.225839172315873249e+00,1.368567962931935433e+01,-4.540547851391288248e+00,7.852689512598360899e-01,-5.117264556774447914e-01,3.485494351553553583e-01,1.547119386502891075e+03
-3.891779204617209498e+00,1.267215237790621352e+01,-4.949329258117456831e+00,9.159242644180500825e-01,-3.091891880854368835e-01,2.558960488586100590e-01,1.553664771803161102e+03
-4.100804696710523167e+00,1.153810309286750879e+01,-5.433202488815228826e+00,9.855085514713594064e-01,-8.603613081521832573e-02,1.461802967954313470e-01,1.560210157103431129e+03
-4.088019098080371450e+00,1.135253419128462404e+01,-5.508465036655351810e+00,9.893821391812800403e-01,1.428535924079090969e-01,2.671766840518764036e-02,1.561251238058522858e+03
-3.705299095786871000e+00,1.026667768747871179e+01,-5.875008886756876159e+00,9.509396314485025759e-01,3.051229150716603389e-01,5.110600783795146013e-02,1.567796623358792885e+03
-2.854279013681816135e+00,9.384300856869078444e+00,-5.957066623221889401e+00,8.854866421564456802e-01,4.587254963858431456e-01,7.404272770784270374e-02,1.574342008659062913e+03
-2.737473619709656969e+00,9.297828133084156121e+00,-5.945635283200668475e+00,7.948822696918319552e-01,5.992984706538055928e-01,9.487634267556416257e-02,1.575088175139991336e+03
-1.743070359355237242e+00,8.638619129727691970e+00,-5.657835609281300471e+00,6.559383994544820684e-01,7.529522441586130599e-01,-5.296918101253188238e-02,1.581633560440261363e+03
-9.643229548218236191e-01,8.214156534097606155e+00,-5.081180501563329344e+00,4.745072678343980610e-01,8.578347932963267253e-01,-1.973836877306008875e-01,1.588178945740531390e+03
-9.003736619820050802e-01,8.183143384333741110e+00,-5.007374646172222832e+00,2.623407022380382370e-01,9.071525694143627305e-01,-3.290130267228942862e-01,1.588887797873073396e+03
-4.536447514925496249e-01,8.037609404364664201e+00,-4.400266482093059039e+00,5.689980079353763875e-02,9.983472876716192879e-01,-7.943920193809543215e-03,1.595433183173343423e+03
-1.721681812146630131e-01,8.097077604221279756e+00,-4.121799979434968897e+00,-1.572813718785795734e-01,9.361877570481105248e-01,3.143454367610192257e-01,1.600887889330697590e+03
-5.750590075552997754e-02,8.144003251411563227e+00,-4.091515369709208372e+00,-1.175636771542560299e-01,8.880981537662475667e-01,4.443629722188296993e-01,1.602857601602921704e+03
3.951922038864060793e-01,8.383538307151376046e+00,-4.357795380426345844e+00,-1.305607775308697538e-01,8.899192506274805625e-01,4.370304459672269548e-01,1.609402986903191731e+03
8.263612959198944896e-01,8.748398496864334462e+00,-5.144115150485139232e+00,-1.435283676860784063e-01,8.915392188609069235e-01,4.295991490581407279e-01,1.615948372203461759e+03
9.531017650965591947e-01,9.193682376924089183e+00,-6.165163740785498447e+00,-1.564635200936890791e-01,8.929576927799163233e-01,4.220707591791985069e-01,1.622493757503731786e+03
9.147874894528522649e-01,9.339925836757540623e+00,-6.489877540396127742e+00,-1.693633145259539619e-01,8.941743520442179127e-01,4.144469758698938189e-01,1.624493894945130023e+03
5.502508712659206491e-01,9.897082418246208491e+00,-7.427256368243288165e+00,-1.956842017807443046e-01,5.064566257787761483e-01,8.397662647298086425e-01,1.631039280245400050e+03
1.018790906517212380e-01,1.049866971464624932e+01,-7.971005535913953111e+00,-1.570545741477831769e-01,-4.936160909414701037e-02,9.863545469488712580e-01,1.636281754133308368e+03
-5.803351904758954904e-02,1.076552842318843872e+01,-8.127304157418015151e+00,-2.088219597974560471e-01,-5.125786663615838901e-02,9.766084272513620990e-01,1.638253231754998524e+03
-5.130434083300542403e-01,1.156520202701137556e+01,-8.422632699199569473e+00,-1.146419795894724775e-03,1.152316916801546937e-01,9.933369735154616853e-01,1.644798617055268551e+03
-8.697026822215377928e-01,1.183125835860354691e+01,-8.424937577863918392e+00,2.066106471899025188e-01,2.735250515233802471e-01,9.394115640416553781e-01,1.649936422859968388e+03
-1.503746844144291828e+00,1.121123500785777161e+01,-8.202075468139391035e+00,1.778721465696132542e-01,3.452994015989434007e-01,9.214813197890254770e-01,1.656481808160238415e+03
-1.933532519390416482e+00,1.046713662324499516e+01,-7.974896328303586301e+00,1.480132335934813137e-01,4.148987271761614970e-01,8.977466952644477249e-01,1.660148686695825063e+03
-2.623680076949422624e+00,9.388944269840122203e+00,-7.372218414680231646e+00,4.127575641983429189e-01,5.990487501670708204e-01,6.861266560337364595e-01,1.666694071996095090e+03
-3.067045517811492150e+00,9.177819792529930965e+00,-6.707448529511252922e+00,6.160901076703055868e-01,6.940698226551255123e-01,3.724218851110175921e-01,1.671978387122397407e+03
-3.570765965960474464e+00,9.698272776157699226e+00,-5.769003806516610489e+00,7.347416315570203249e-01,6.373860345034960684e-01,2.321460270480006083e-01,1.678523772422667435e+03
-3.637121180534238274e+00,9.808763732920924738e+00,-5.640442531834049866e+00,8.262307703015937532e-01,5.571389559558901361e-01,8.328804211904101973e-02,1.679380621676957617e+03
-4.043638996073442016e+00,1.078200226815195606e+01,-4.694247058566898723e+00,9.403981822149841685e-01,3.198534478553289317e-01,1.155120373879165302e-01,1.685926006977227644e+03
-4.097360032486418113e+00,1.195958758431171098e+01,-3.890776596104156049e+00,9.883830600938351418e-01,6.005761748880504569e-02,1.396066226967891954e-01,1.692471392277497671e+03
-4.067821343568368775e+00,1.213807977275216743e+01,-3.792146066593143683e+00,9.668083820577377807e-01,-2.039649445089982416e-01,1.538760988381910333e-01,1.693401776851197610e+03
-3.516854697745772640e+00,1.328031746768089150e+01,-3.223491696113794713e+00,8.538320987483337676e-01,-2.527936993573437485e-01,4.550429569968836296e-01,1.699947162151467637e+03
-2.365985364558361059e+00,1.394844345892204096e+01,-2.869248352798694501e+00,6.504780867618965567e-01,-2.748643471320366127e-01,7.080436775500491553e-01,1.706492547451737664e+03
-8.861407356141355329e-01,1.418916937954572255e+01,-2.615580954430613225e+00,3.782712830091873868e-01,-2.678407303451044164e-01,8.860982900441227716e-01,1.713037932752007691e+03
-7.572561725560761348e-01,1.420374129719325040e+01,-2.595092095588666048e+00,6.602462120935052858e-02,-2.324662946294760724e-01,9.703598153549130023e-01,1.713584268264123693e+03
6.643771817876265029e-01,1.471024550420364818e+01,-2.324593604968801852e+00,-1.445520414942294829e-01,-2.518662698858465387e-01,9.569044306478774464e-01,1.720129653564393720e+03
1.816602258678727599e+00,1.574204315970620094e+01,-2.042686675010643604e+00,-3.486382782803771896e-01,-2.599574423945266166e-01,9.004840248784914403e-01,1.726675038864663748e+03
2.640383796415002315e+00,1.702919670937291841e+01,-1.825202426757167373e+00,-5.370706570320684659e-01,-2.563765226128483787e-01,8.036318734395330177e-01,1.733220424164933775e+03
3.089307760095685307e+00,1.820394655980969389e+01,-1.707169051563089512e+00,-7.013885898021010590e-01,-2.412842888805241393e-01,6.706966065475306049e-01,1.738973867391777048e+03
3.342981036593177802e+00,1.949667822100059311e+01,-1.584977967223994977e+00,-8.008485834666304592e-01,-2.599266213436355888e-01,5.395161701706290280e-01,1.745519252692047075e+03
3.401088332532410163e+00,2.070383406214181932e+01,-1.357582144249885880e+00,-8.783267242571421995e-01,-2.714344376887137256e-01,3.935270149450688648e-01,1.752064637992317103e+03
3.367233913088483632e+00,2.178096559732273363e+01,-8.943652740504115517e-01,-9.316963977302887834e-01,-2.754918726216597502e-01,2.367362468547479781e-01,1.758610023292587130e+03
3.336551771922544596e+00,2.233611245072664531e+01,-5.125000561048765890e-01,-9.594927007471305558e-01,-2.719875536129142679e-01,7.344744986248211149e-02,1.762352992655723710e+03
3.254352095632100816e+00,2.318658936746864896e+01,3.224237631838099971e-01,-9.233364371094154865e-01,-3.735244654287496191e-01,-8.903537292634879086e-02,1.768898377955993737e+03
3.080767711840420198e+00,2.385567823408273469e+01,1.318277983750336668e+00,-8.520769969437699265e-01,-4.608608035604735420e-01,-2.481332525495962005e-01,1.775443763256263765e+03
2.750393447716620976e+00,2.434437242429653026e+01,2.344310850594740092e+00,-7.484235082575273479e-01,-5.306762454424953646e-01,-3.977976556121585738e-01,1.781989148556533792e+03
2.197800841047349074e+00,2.465627160528510586e+01,3.269767018952611792e+00,-6.163166383330012099e-01,-5.803165705152890652e-01,-5.323386885237710864e-01,1.788534533856803819e+03
1.357570381651110658e+00,2.479758258560105588e+01,3.963903083959794404e+00,-4.607787812309861453e-01,-6.078945651631385561e-01,-6.466414094474770557e-01,1.795079919157073846e+03
1.243734387168221600e+00,2.480417769994981114e+01,4.025591587602220578e+00,-2.877231230290049346e-01,-6.123617698551800936e-01,-7.363602836206775137e-01,1.795822939813491757e+03
1.245512748756270882e-01,2.481736582018498538e+01,4.377735869583783135e+00,-2.707072918240641113e-02,-6.529436878171436254e-01,-7.569212086873379208e-01,1.802368325113761784e+03
-1.121419095192072390e+00,2.479952150528777821e+01,4.339198246368026091e+00,2.354768161781310154e-01,-6.478133806738385347e-01,-7.244905057086621358e-01,1.808913710414031812e+03
-2.261237569255664770e+00,2.485549551492953668e+01,3.909519620350798252e+00,4.815388016267074245e-01,-5.973300204648832601e-01,-6.413386228650582721e-01,1.815269220276476744e+03
-3.167869754967745699e+00,2.507668936233086043e+01,3.062928034101753294e+00,5.668392518970335470e-01,-6.460430346800764001e-01,-5.111943464538554194e-01,1.821814605576746771e+03
-3.305506611648364235e+00,2.513968948509867829e+01,2.859647428557807292e+00,6.370693077470898080e-01,-6.775798885798158810e-01,-3.674591020978945077e-01,1.823075599560264436e+03
-3.760788302591316690e+00,2.546283594316088994e+01,1.663296472443337004e+00,6.951781833665531263e-01,-7.029404940719319317e-01,-1.503328146642698426e-01,1.829620984860534463e+03
-3.728798255477745016e+00,2.565455386619108680e+01,2.874661589294599806e-01,7.177191499888889714e-01,-6.923360494485760741e-01,7.448500770694210793e-02,1.836166370160804490e+03
-3.263766706025683195e+00,2.563084287620477042e+01,-1.082197706086006628e+00,7.035389471576525278e-01,-6.463091301740723216e-01,2.954918917429308900e-01,1.842711755461074517e+03
-2.623430543595655529e+00,2.552174974844852429e+01,-2.102819767386379990e+00,6.533630778481821499e-01,-5.672146294686647439e-01,5.013803472625436575e-01,1.848176137346606993e+03
-1.692223940333215548e+00,2.521926768639579564e+01,-3.000252641871870907e+00,5.477850187956222472e-01,-4.168446046287341833e-01,7.253758672404810870e-01,1.854721522646877020e+03
-8.069332901251755619e-01,2.445936481092206449e+01,-3.445161827875909744e+00,3.962302765014302786e-01,-2.314879957605546490e-01,8.884890971769000556e-01,1.861266907947147047e+03
-6.082017052656921718e-01,2.417993830012240508e+01,-3.500145318466425515e+00,2.114190927829299460e-01,-2.670209307362141071e-02,9.770296645608187447e-01,1.862969455417602603e+03
-5.613507719546605157e-02,2.295016176966017696e+01,-3.607328726847864431e+00,6.005923394055472792e-02,-2.171498716021081146e-02,9.979575881504556545e-01,1.869514840717872630e+03
2.522876434801605075e-02,2.262775304358700623e+01,-3.609813534854461103e+00,-9.270436979310577030e-02,-1.622034337011424646e-02,9.955605457618892373e-01,1.871052893727382980e+03
2.193806249457644908e-01,2.123370637137849215e+01,-3.590598333132160036e+00,-9.369055133081287401e-02,6.072076706126991116e-03,9.955818451782255663e-01,1.877598279027653007e+03
1.018325116785653850e-01,1.986477010549882039e+01,-3.534954404693448460e+00,-9.463008171014941627e-02,2.836146851333848015e-02,9.951074186799980792e-01,1.884143664327923034e+03
8.358812953245513960e-03,1.946270031377988374e+01,-3.515235501896602610e+00,-9.552249352979008679e-02,5.063674347991733993e-02,9.941375022660710048e-01,1.886141432716269264e+03
-5.689232198707406818e-01,1.832223983698996861e+01,-3.440908670213998821e+00,5.444072023939121319e-02,-5.439522320783166977e-03,9.985011865622893668e-01,1.892621027517892571e+03
-9.602092232967268659e-01,1.791478454088345629e+01,-3.400446171436567244e+00,3.257296375799833554e-01,-5.142146843656546923e-02,9.440625168815701684e-01,1.895443756594243041e+03
-2.129618671011264119e+00,1.725921263326421595e+01,-3.186346485392303141e+00,4.733585842001344912e-01,2.766118465181519048e-02,8.804342733142526134e-01,1.901989141894513068e+03
-3.341051148856924335e+00,1.701882237034555345e+01,-2.640779070853335408e+00,6.057941120896619402e-01,1.058559762694243622e-01,7.885467684572060598e-01,1.908534527194783095e+03
-3.441319472320418349e+00,1.701264054787622015e+01,-2.567969776867221832e+00,7.187854979363759167e-01,1.806531220079926059e-01,6.713492812713284241e-01,1.909155685568748140e+03
-4.271009087601377985e+00,1.704032480085077239e+01,-1.664664649038475996e+00,7.786779382229174207e-01,1.666037399702030852e-01,6.048982247725982475e-01,1.915410774006160409e+03
-4.743190421926306577e+00,1.722393876852195049e+01,-4.433281932840201778e-01,9.168035769116656963e-01,1.594928766847577561e-01,3.661027501250089244e-01,1.921956159306430436e+03
-4.701955996753635958e+00,1.750724314366425105e+01,9.162864128427201660e-01,9.851121597053894563e-01,1.402362019154715644e-01,9.942756395058480190e-02,1.928501544606700463e+03
-4.114715495792139244e+00,1.782431344181690847e+01,2.279593845555625276e+00,9.784017979970783818e-01,1.103001598693739010e-01,-1.748193250444106672e-01,1.935046929906970490e+03
-3.133946402834931089e+00,1.809418426470311303e+01,3.507777504417674219e+00,8.971834757512880953e-01,7.196445598098975827e-02,-4.357532878982539604e-01,1.941592315207240517e+03
-2.351892283669696937e+00,1.822078492765261970e+01,4.216766103792571663e+00,7.476421551866896387e-01,2.814845500430791098e-02,-6.635034832376237590e-01,1.945986311538626524e+03
-1.139182479868335207e+00,1.820584663980957529e+01,5.037316864444761677e+00,4.345272971098340098e-01,8.644085886208438541e-02,-8.964998639069312603e-01,1.952531696838896551e+03
-3.353351844032231854e-01,1.799577375072015784e+01,5.431802880615149043e+00,5.374504984188919338e-02,1.312721225136278536e-01,-9.898874175720663304e-01,1.956877363433620303e+03
8.083124074837588768e-01,1.722646123515783145e+01,5.843263012474711360e+00,-5.602327089209254395e-03,2.306205638381828849e-01,-9.730266026508043176e-01,1.963422748733890330e+03
1.851236297651122964e+00,1.588077536077463492e+01,6.030680905973925476e+00,-6.487308360123129891e-02,3.268149142069270985e-01,-9.428581520441019492e-01,1.969968134034160357e+03
2.801929458284877050e+00,1.407848613327489140e+01,6.029618715094254178e+00,-1.232565996758624022e-01,4.185395659735089424e-01,-8.997946667718780267e-01,1.976513519334430384e+03
3.671797015734497460e+00,1.193878106137280071e+01,5.875660963332575371e+00,-1.799543898971990297e-01,5.045400421074112129e-01,-8.444251082642519890e-01,1.983058904634700411e+03
4.475147713894180868e+00,9.580192604069130979e+00,5.604410316387047786e+00,-2.341910241604284737e-01,5.836401533641435435e-01,-7.775067431115637584e-01,1.989604289934970438e+03
5.229184713401636486e+00,7.120525781770276730e+00,5.251483353226441331e+00,-2.852247330108830803e-01,6.547580846356652051e-01,-6.999547858850374560e-01,1.996149675235240466e+03
5.953995727695489570e+00,4.676785963126090628e+00,4.852506335920702796e+00,-3.323575525512055817e-01,7.169211904554572135e-01,-6.128298817277556543e-01,2.002695060535510493e+03
6.672542497051643373e+00,2.365106839439808262e+00,4.443110978610440576e+00,-3.749448701601619249e-01,7.692792973033442117e-01,-5.173235999657250783e-01,2.009240445835780520e+03
7.401112062160210670e+00,2.675156218230756444e-01,4.050009113007541295e+00,-4.124042404712653931e-01,8.111163307938676903e-01,-4.147421371905057330e-01,2.015785831136050547e+03
8.138674449448208392e+00,-1.600775839903698428e+00,3.682068413581892408e+00,-4.442233510494442150e-01,8.418601087570981578e-01,-3.064884527457942265e-01,2.022331216436320574e+03
8.874776785951075553e+00,-3.257458848366689086e+00,3.339232448480338622e+00,-4.699670288416723518e-01,8.610901663168267772e-01,-1.940430809765872344e-01,2.028876601736590601e+03
9.598539121461545420e+00,-4.719701358583328066e+00,3.021441790510908554e+00,-4.892831916025953687e-01,8.685435059934513147e-01,-7.894388267963775574e-02,2.035421987036860628e+03
1.029866147819176270e+01,-6.004137423169223275e+00,2.728634025411917019e+00,-5.019076629284459079e-01,8.641181942384857928e-01,3.723498731730237599e-02,2.041967372337130655e+03
1.048533967236899223e+01,-6.330820154087590801e+00,2.652219657685332965e+00,-5.076677850741894149e-01,8.478747552562266865e-01,1.529046088182975938e-01,2.043757430129056502e+03
1.114210021761670788e+01,-7.445570793268443843e+00,2.386160514421789447e+00,-5.464983000720510242e-01,8.285200515977109159e-01,1.220333238039257445e-01,2.050302815429326529e+03
1.174748910209647335e+01,-8.418344367661147132e+00,2.144931632284844625e+00,-5.837792417052837246e-01,8.068161174682196846e-01,9.081602032295646443e-02,2.056848200729596556e+03
1.228888168872840581e+01,-9.263947042788325703e+00,1.928461175290753671e+00,-6.194049025581952472e-01,7.828244931843214571e-01,5.934121297536073397e-02,2.063393586029866583e+03
1.275326454396412679e+01,-9.996607470044489574e+00,1.736674358677149366e+00,-6.532742685663169846e-01,7.566132054833697440e-01,2.769814645643013662e-02,2.069938971330136610e+03
1.312724298544045354e+01,-1.062996694218220917e+01,1.569493458549402698e+00,-6.852913054050973063e-01,7.282565746534395146e-01,-4.023457466648978388e-03,2.076484356630406637e+03
1.339704872142813663e+01,-1.117706968863566530e+01,1.426837821790379657e+00,-7.153652307634508212e-01,6.978350038244528486e-01,-3.573365433031393951e-02,2.083029741930676664e+03
1.354854758122658431e+01,-1.165035331233002225e+01,1.308623876231405747e+00,-7.434107717305815655e-01,6.654347510168618918e-01,-6.734253198175006727e-02,2.089575127230946691e+03
1.356724733563387097e+01,-1.206163936960000349e+01,1.214765141083391509e+00,-7.693484065668637628e-01,6.311476845935021229e-01,-9.876046549525477336e-02,2.096120512531216718e+03
1.343830560661277396e+01,-1.242212409482826097e+01,1.145172237627392731e+00,-7.931045901736959447e-01,5.950710228071673935e-01,-1.298983712757095788e-01,2.102665897831486745e+03
1.314653786526456614e+01,-1.274236927140044173e+01,1.099752900163630365e+00,-8.146119626233019329e-01,5.573070581814620894e-01,-1.606679596292942269e-01,2.109211283131756772e+03
1.267642551721302802e+01,-1.303229325055418109e+01,1.078411987217887447e+00,-8.338095401573275556e-01,5.179628675054236409e-01,-1.909819850858686385e-01,2.115756668432026800e+03
1.201212407449209074e+01,-1.330116211968768880e+01,1.081051493004287378e+00,-8.506428881126139041e-01,4.771500082631550677e-01,-2.207544937637533899e-01,2.122302053732296827e+03
1.118959917977075058e+01,-1.354518004145886323e+01,1.105222353425597381e+00,-8.650642752836095184e-01,4.349842023581539929e-01,-2.499010670759418962e-01,2.128530846178800857e+03
1.016008605731725467e+01,-1.380257388419431841e+01,1.103653675505949616e+00,-7.484711517520442614e-01,6.618345384778399065e-01,4.199974610493022176e-02,2.135076231479070884e+03
9.276586223469371006e+00,-1.409082726354484549e+01,9.273981789302018219e-01,-5.194117519974356112e-01,7.892366641250109227e-01,3.275895601022119630e-01,2.141621616779340911e+03
9.206171545069846474e+00,-1.412415067838375293e+01,8.940691317446622932e-01,-2.123048254964072790e-01,7.980470188175469159e-01,5.639553322980197514e-01,2.142313443644631661e+03
8.946593497078971780e+00,-1.428095556735096494e+01,7.161904472818124701e-01,-2.792986147725590174e-01,4.291554350476770585e-01,8.589621041426329651e-01,2.145499142418664633e+03
8.983265468722843039e+00,-1.450985771097148280e+01,1.580453334787962627e-01,-4.143782318704166134e-01,5.891948564673764599e-01,6.936411911529735130e-01,2.152044527718934660e+03
9.639087492346458674e+00,-1.431406286438060960e+01,-5.631765280741108937e-01,-5.199581447002972201e-01,7.072893310922118149e-01,4.789397977644311299e-01,2.158589913019204687e+03
1.016055035964035369e+01,-1.388752505753862287e+01,-1.013712104249281820e+00,-5.885221189932319241e-01,7.750317103665801399e-01,2.301424849548581730e-01,2.162754429491485098e+03
1.075902210933858250e+01,-1.287908784846281307e+01,-1.606286687518985401e+00,-6.653138474013925441e-01,5.369440537823636506e-01,5.186969901241014202e-01,2.169299814791755125e+03
1.077086966093473386e+01,-1.168913217499609658e+01,-2.083662928723970076e+00,-6.450717595389846570e-01,2.205449310737084279e-01,7.316012291016669167e-01,2.175845200092025152e+03
1.066231353141150429e+01,-1.137023009096181347e+01,-2.204398664825535814e+00,-5.307480953988635841e-01,-1.280199734656940480e-01,8.378038825549672941e-01,2.177622345709097772e+03
9.885975450599158165e+00,-1.042287023144771396e+01,-2.554348206769343932e+00,-3.847547063830131786e-01,-3.293081026875140371e-01,8.622748920272210738e-01,2.184167731009367799e+03
8.575480396513196268e+00,-9.911333964377272210e+00,-2.669415062825091667e+00,-2.147411268146926511e-01,-5.100375285769522815e-01,8.329141419724123141e-01,2.190713116309637826e+03
7.046802782685237965e+00,-9.694924601530017227e+00,-2.518912050741619169e+00,-3.132128391960642411e-02,-6.589253460237409765e-01,7.515546324395134814e-01,2.197258501609907853e+03
5.621599445358965497e+00,-9.496685620982088238e+00,-2.138383864790695643e+00,1.540539513719415832e-01,-7.666765131111883402e-01,6.232756246721448123e-01,2.203803886910177880e+03
4.572278877569827316e+00,-9.180984940802506600e+00,-1.615063035221109722e+00,3.298116298588140149e-01,-8.265641303318637112e-01,4.560855481798889999e-01,2.209961793825262248e+03
3.798580969558191800e+00,-8.750320414425237558e+00,-9.490992780132158080e-01,3.199434207791193030e-01,-8.753818311498587912e-01,3.624097917950836467e-01,2.216507179125532275e+03
3.317520665946249725e+00,-8.360584491063741908e+00,-2.425550672655401030e-01,3.064740214032764531e-01,-9.143464730179121647e-01,2.646548723917087065e-01,2.223052564425802302e+03
3.076226423438032320e+00,-8.154433122993014038e+00,3.285172679175308863e-01,2.895550334893457478e-01,-9.430194972299632550e-01,1.639210493522560708e-01,2.228535470921359774e+03
3.046205351115729876e+00,-8.121031514464522871e+00,9.175051792434214537e-01,-2.987840230117818074e-01,-9.457400663408453978e-01,-1.276786376388140964e-01,2.234736411398093878e+03
3.521117603039666477e+00,-8.291767210221781426e+00,1.466922141982425432e+00,-2.106296366829452094e-01,-9.371959071408776376e-01,-2.780233583457166757e-01,2.241281796698363905e+03
4.417256498325520475e+00,-8.516622463610806548e+00,1.882513027580073439e+00,-1.160620395794081106e-01,-9.001161980972726129e-01,-4.199028850671287505e-01,2.247170543447848104e+03
5.748504500121513594e+00,-8.736496444538047967e+00,2.251134588131266323e+00,-1.364809755383987189e-01,-8.431368890722229503e-01,-5.200876172322318469e-01,2.253715928748118131e+03
7.148621948694707129e+00,-8.933889609843312485e+00,2.592452534803379560e+00,-1.550300384807093979e-01,-7.746061309798630834e-01,-6.131468250049876278e-01,2.260261314048388158e+03
7.769417275179625548e+00,-9.032213559518325496e+00,2.769306176452925428e+00,-1.714551035730293160e-01,-6.954628062023614499e-01,-6.978055837008676487e-01,2.263384574859697750e+03
8.840180536480227502e+00,-9.203997985458727271e+00,3.249620474554229421e+00,-1.560865543027915026e-01,-6.827468446867960283e-01,-7.137868964891526113e-01,2.269929960159967777e+03
9.349540159156411789e+00,-9.262974760855295031e+00,3.661546081908086503e+00,-1.406160367728286065e-01,-6.695848519054216075e-01,-7.293018965176373269e-01,2.274173040800676063e+03
9.819116968400370737e+00,-9.273234539699577894e+00,4.460279264899592810e+00,-2.548541706823665431e-01,-6.999339109169495643e-01,-6.671880334895896603e-01,2.280718426100946090e+03
9.857334054416881486e+00,-9.374030069852167912e+00,5.365015257708546592e+00,-3.645483544556679112e-01,-7.178034386039500170e-01,-5.931784898234692127e-01,2.287263811401216117e+03
9.828099194871892763e+00,-9.413190537150128989e+00,5.514603190097095542e+00,-4.677428301028455082e-01,-7.228748303794805263e-01,-5.085927884741209271e-01,2.288346293910029544e+03
9.523211594830138793e+00,-9.891296148233427843e+00,6.314216187311690653e+00,-4.423128851562197483e-01,-3.463645667532086470e-01,-8.272780055836229662e-01,2.294891679210299571e+03
9.174143513587869947e+00,-1.062618288660984511e+01,6.799823613285137291e+00,-3.089730109911388856e-01,1.146473586414658991e-01,-9.441343451199306624e-01,2.300417285006516522e+03
8.795132446063197662e+00,-1.175269954292718388e+01,7.060425286600844785e+00,-1.427420232794462118e-01,5.173363856841944192e-02,-9.884059618542264669e-01,2.306962670306786549e+03
8.322812668858043494e+00,-1.283653218350287162e+01,6.947140390625817119e+00,2.827805212276492813e-02,-1.291577812182415075e-02,-9.995156499235445802e-01,2.313508055607056576e+03
8.298011853193679954e+00,-1.287644870801872621e+01,6.934680709899372353e+00,1.983494047001629068e-01,-7.713187062099664815e-02,-9.770906755197507065e-01,2.313785461999990275e+03
7.565821160442983029e+00,-1.353760085120998546e+01,6.502929269881242647e+00,3.909829765606260277e-01,2.616119317137189926e-01,-8.824338554389158373e-01,2.320330847300260302e+03
6.600959476749390653e+00,-1.360560841247454711e+01,5.863351921512638398e+00,5.207404938915767278e-01,5.582844975222273076e-01,-6.458682201873056083e-01,2.326876232600530329e+03
6.076056524834571704e+00,-1.344216079109870243e+01,5.509614891366615197e+00,5.667550006288930575e-01,7.651764189709524544e-01,-3.054370919072045276e-01,2.330114591040249707e+03
4.992864663107082102e+00,-1.275563259523649684e+01,4.800880453462405661e+00,6.689066822456355421e-01,6.088105901863662961e-01,-4.265108623752489336e-01,2.336659976340519734e+03
3.899108758364385974e+00,-1.168431601505743700e+01,4.145999289992512438e+00,7.379179134108435623e-01,4.222817578912993475e-01,-5.264534832440281864e-01,2.343205361640789761e+03
2.796532575048430225e+00,-1.055380463887923170e+01,3.609106726615958216e+00,7.703696035976096423e-01,2.148313481203266706e-01,-6.003133895874084303e-01,2.349750746941059788e+03
1.659144571145360070e+00,-9.701632821002087681e+00,3.255808078641038605e+00,7.646539736816709842e-01,-3.262683251694663972e-03,-6.444312650943856413e-01,2.356296132241329815e+03
4.772933363833924414e-01,-9.302448628539297104e+00,3.094727697104310948e+00,7.210542062175135936e-01,-2.211950607628585530e-01,-6.566213344009389496e-01,2.362841517541599842e+03
4.306266149784585551e-01,-9.295856690775449849e+00,3.091737645630900033e+00,6.417304126676826037e-01,-4.281685209222211297e-01,-6.362796516854111184e-01,2.363095694385508978e+03
-7.575048494188042492e-01,-9.194598285889481915e+00,3.014527801638195559e+00,4.369860919409472300e-01,-5.968817771715824172e-01,-6.728843136308713113e-01,2.369641079685779005e+03
-1.884054672202949643e+00,-9.077013927814341798e+00,2.855631347742367598e+00,2.008992070764706594e-01,-7.227840111266693457e-01,-6.612267250008869723e-01,2.376186464986049032e+03
-2.694752052523383234e+00,-8.864421786861010233e+00,2.613496886726174750e+00,-4.959713166568490567e-02,-7.968449852466551464e-01,-6.021430013020594441e-01,2.381263921751987255e+03
-3.706699281705970073e+00,-8.506616664028642916e+00,2.132639939570543763e+00,1.205627136911780056e-01,-8.750881993315055007e-01,-4.687038248808810259e-01,2.387809307052257282e+03
-4.798779438753783211e+00,-8.239074215505732823e+00,1.496601206897820502e+00,2.843468703863868963e-01,-9.070545661370129631e-01,-3.104784555349660025e-01,2.394354692352527309e+03
-6.135573472573709886e+00,-8.287242789592360381e+00,7.825940723548062694e-01,4.330940601820252867e-01,-8.910536458127573667e-01,-1.358342199840238407e-01,2.400900077652797336e+03
-6.508792529556691520e+00,-8.355175957483924165e+00,6.015917822257460523e-01,5.589381864093514451e-01,-8.279315915728895359e-01,4.599329786572189938e-02,2.402515144762348427e+03
-8.001808198394806837e+00,-8.892011717112600522e+00,-1.162542838563358771e-01,7.551672760904302173e-01,-6.324789275353510654e-01,1.723101603100476720e-01,2.409060530062618454e+03
-9.118869751437706839e+00,-9.881583245619543376e+00,-7.813169928552594623e-01,8.814197277481967685e-01,-3.784184612205836462e-01,2.826600993137914908e-01,2.415605915362888481e+03
-9.422093423102751331e+00,-1.122757543922336332e+01,-1.350122234159542911e+00,9.259965691430737111e-01,-8.929236910422952422e-02,3.668177023473280229e-01,2.422151300663158509e+03
-9.119626317875892951e+00,-1.241341971363829266e+01,-1.703836866749553147e+00,8.847671566938912768e-01,2.081078986767802841e-01,4.169846291464192056e-01,2.427138108118117088e+03
-8.212123338162358621e+00,-1.375595400602079899e+01,-1.986133961468895981e+00,7.034887513191576680e-01,4.210285214149407929e-01,5.725701362470718703e-01,2.433683493418387116e+03
-7.092068544277700504e+00,-1.445027634839552100e+01,-2.035261067765838927e+00,4.501701967931160397e-01,5.908341006043641430e-01,6.695221127649353399e-01,2.439487471183304933e+03
-5.743215159153793437e+00,-1.481184017052788526e+01,-1.999263714853989127e+00,2.924170021777951489e-01,6.390087347922797090e-01,7.114479135503181118e-01,2.446032856483574960e+03
-4.387243023280252174e+00,-1.484695321036786453e+01,-2.045820434306166558e+00,1.261940686410473467e-01,6.686746712599572762e-01,7.327668394883598557e-01,2.452578241783844987e+03
-4.362067553427645628e+00,-1.484404078716455011e+01,-2.048237443884545872e+00,-4.368407638818611743e-02,6.789726559796335215e-01,7.328614015625246614e-01,2.452699812519981151e+03
-3.042108066495892604e+00,-1.448376680114535020e+01,-2.241842203302879977e+00,1.553910266977597820e-01,5.752335121130905948e-01,8.030927937443348430e-01,2.459245197820251178e+03
-1.849483960338990318e+00,-1.374811995714439483e+01,-2.442053866176630450e+00,3.458690512003343431e-01,4.396694447940844297e-01,8.288928632438511412e-01,2.465790583120521205e+03
-9.323716577179865794e-01,-1.275196264017143832e+01,-2.467858982934692857e+00,5.172117722311492249e-01,2.797805693553454542e-01,8.088342325081763207e-01,2.472335968420791232e+03
-4.515408769225490726e-01,-1.171358650299624493e+01,-2.360797615269136340e+00,6.599396303093523208e-01,1.044127633686496026e-01,7.440266522062150001e-01,2.478881353721061259e+03
-4.068362369250014265e-01,-1.151058903082260976e+01,-2.336576921489818215e+00,7.661561782429692213e-01,-7.673172419415863477e-02,6.380556034096700468e-01,2.480227996267119124e+03
-3.465064126230591457e-01,-1.119572649154528499e+01,-2.303835561341826210e+00,8.280182782754399451e-01,-8.815457711604683666e-02,5.537260165086335117e-01,2.482378294293382169e+03
-3.274289290366793059e-01,-1.066138754652176779e+01,-2.291287368554015824e+00,1.529547396609331755e-01,8.879405662047250292e-02,9.842349633718687762e-01,2.487493360058910184e+03
-4.589905837828304191e-01,-1.056726467283484006e+01,-2.354453046091947055e+00,-5.036063731230892154e-02,2.853046751300166162e-01,9.571118265665404801e-01,2.491842497033928794e+03
-8.350492371941612424e-01,-1.129315315834271161e+01,-2.495571031968521147e+00,-1.318536261831262657e-01,4.098858602823532427e-01,9.025553738148986982e-01,2.498387882334198821e+03
-1.301426859724009066e+00,-1.285233755418465762e+01,-2.509152494094890162e+00,-2.100320537516714992e-01,5.241632913241043301e-01,8.253104751694902985e-01,2.504933267634468848e+03
-1.638782450090923826e+00,-1.460968191247465420e+01,-2.242261458442198485e+00,-2.829306878728649055e-01,6.252642898001924410e-01,7.273189078799814355e-01,2.511478652934738875e+03
-1.693242192551559056e+00,-1.507102495081360161e+01,-2.126651644224049065e+00,-3.487170159924111168e-01,7.106473960311826543e-01,6.110439601783449470e-01,2.513272847419664231e+03
-1.726504105494220953e+00,-1.650757260885709243e+01,-1.611056218245365601e+00,-2.070438527260355932e-01,8.208334922030287029e-01,5.323187213746302104e-01,2.519818232719934258e+03
-1.510032710408334200e+00,-1.746236385086173115e+01,-9.313677408630198773e-01,-5.741815735531304032e-02,8.994913639390461624e-01,4.331471359766999596e-01,2.526363618020204285e+03
-1.159553741580392705e+00,-1.788614760333734210e+01,-1.066588723361135138e-01,9.441297890871326592e-02,9.435997834194577161e-01,3.173383653830478823e-01,2.532909003320474312e+03
-9.177206118073417684e-01,-1.790243902265856235e+01,4.675693697863471110e-01,2.426177523566606375e-01,9.514645373061667577e-01,1.893405938763559893e-01,2.537011840204739656e+03
-5.909423917604500476e-01,-1.748338357922967035e+01,1.459497444737374749e+00,1.481799319340008081e-01,9.674618031437497434e-01,-2.050813673398561021e-01,2.543557225505009683e+03
-3.678571194514995146e-01,-1.650610782880359295e+01,2.487158181071753571e+00,2.933043891779080203e-02,8.240760908759160452e-01,-5.657175282767082924e-01,2.550102610805279710e+03
-3.339852150913963369e-01,-1.627222953792065852e+01,2.681378633269642542e+00,-9.435108188337834600e-02,5.449291676988324840e-01,-8.331554930132284431e-01,2.551364126798558573e+03
