-1.025855236227201850e+01,-1.432563922220994890e+01,8.844891338944382841e-01,9.129675774300135549e-01,4.080296587386074147e-01,-1.234035464108914147e-05,4.414121265286156017e+02
-1.042589987487546033e+01,-1.420873869243190590e+01,1.148515949820260840e+00,9.385587296048929495e-01,3.451166628091041355e-01,-1.162379940394821617e-05,4.434706400513396716e+02
-1.069771562018523881e+01,-1.396612857115617601e+01,1.622641770525311333e+00,9.598203448352384815e-01,2.806116631998885058e-01,-1.085362410442264649e-05,4.476953639317372335e+02
-1.087035925895772692e+01,-1.371348613862384092e+01,1.990403446201228110e+00,9.766543455320892964e-01,2.148122185862317846e-01,-1.003338153588732290e-05,4.519200878121347955e+02
-1.095691769004100635e+01,-1.344078589999176110e+01,2.253351933701875698e+00,9.889830783686873739e-01,1.480218585809156273e-01,-9.166855444901533595e-06,4.561448116925323575e+02
-1.097006296144726178e+01,-1.313782718465875909e+01,2.413043380054355591e+00,9.967496724368470895e-01,8.054868360362263391e-02,-8.258043077105333470e-06,4.603695355729299195e+02
-1.092205117285495319e+01,-1.279423938775485148e+01,2.471039046019804175e+00,9.999183015442295597e-01,1.270394367579020384e-02,-7.311136738468823676e-06,4.645942594533274814e+02
-1.082472140908265601e+01,-1.239948722379683765e+01,2.428905228938381011e+00,9.984743494444646705e-01,-5.519939730524148908e-02,-6.330504456934688005e-06,4.688189833337250434e+02
-1.070052544226125057e+01,-1.198002033895602381e+01,2.304031713456883068e+00,9.924244772393685521e-01,-1.228481051923119294e-01,-5.320669833636073344e-06,4.727377794290534894e+02
-1.054072924706269276e+01,-1.145988275807202150e+01,2.078440318370105011e+00,9.817965926432400403e-01,-1.899301204580788882e-01,-4.286291176603038450e-06,4.769625033094510513e+02
-1.036390323098992816e+01,-1.085683332790462252e+01,1.757332950952086748e+00,9.666397212513645476e-01,-2.561359976459269827e-01,-3.232140013174804866e-06,4.811872271898486133e+02
-1.018023886392085409e+01,-1.015974067212380128e+01,1.342294813412866050e+00,9.470237804063151854e-01,-3.211603327648693829e-01,-2.163079080196699700e-06,4.854119510702461753e+02
-9.999505790853620013e+00,-9.357334785036933056e+00,8.349157616567275397e-01,9.230392567043829155e-01,-3.847031720466725369e-01,-1.084039893487120489e-06,4.896366749506437372e+02
-9.831050948190673822e+00,-8.438212349583144700e+00,2.367902269729354747e-01,8.947967886284332595e-01,-4.464713955691830272e-01,-0.000000000000000000e+00,4.938613988310412992e+02
-9.666852568763538045e+00,-7.411041985969629486e+00,-4.420907548668072673e-01,8.776034726425014920e-01,-4.378926469884168449e-01,1.950901702315634145e-01,4.980861227114388612e+02
-9.465580282758541131e+00,-6.325071276612573179e+00,-1.174947930166253096e+00,8.266843287199037160e-01,-4.124859202518781354e-01,3.826831407894623616e-01,5.023108465918364232e+02
-9.171050837344088436e+00,-5.250369048967476360e+00,-1.926607260755136108e+00,7.439961426212635676e-01,-3.712275774362143732e-01,5.555698205599449713e-01,5.065355704722339851e+02
-8.729680371328184307e+00,-4.257748083130398875e+00,-2.661893773199377033e+00,6.327165649194258501e-01,-3.157031485048629738e-01,7.071062653533994879e-01,5.107602943526315471e+02
-8.090489057890900781e+00,-3.418732366155269986e+00,-3.345633295397258067e+00,4.971220001342504524e-01,-2.480464025082384782e-01,8.314690007369257563e-01,5.149850182330291091e+02
-7.397372630046802122e+00,-2.884645020926018599e+00,-3.846276378304490429e+00,3.424232707974098622e-01,-1.708573499778549276e-01,9.238788175816416981e-01,5.184288607475059507e+02
-6.408861060923604747e+00,-2.419651941475287504e+00,-4.344646469882173179e+00,1.745653704175594012e-01,-8.710232695408205716e-02,9.807844391563272923e-01,5.226535846279034558e+02
-5.570057499094341225e+00,-2.005226334198082494e+00,-4.627670911071379400e+00,-9.999989999995001777e-07,0.000000000000000000e+00,9.999989999995001488e-01,5.268783085083009610e+02
-5.070679630434525187e+00,-1.456297888148210484e+00,-4.630711579103356179e+00,3.215765662152491045e-01,-6.562280006189041837e-01,6.826062725069085291e-01,5.311030323886984661e+02
-4.891931592623605773e+00,-1.083319956145182283e+00,-4.523896381761469243e+00,4.390215922881107180e-01,-8.958911680011025780e-01,-6.809593676046117594e-02,5.335538792580680365e+02
-4.756592301968352032e+00,-3.795735531554477737e-01,-4.234389036365407755e+00,4.390215919782133325e-01,-8.958911673687092181e-01,-6.809593671239350110e-02,5.377786031384655416e+02
-4.771133642896860927e+00,4.202975253279780943e-01,-3.895135238082592100e+00,4.390215919782133325e-01,-8.958911673687092181e-01,-6.809593671239348722e-02,5.420033270188630468e+02
-4.704078143347826924e+00,1.303791658561260336e+00,-3.661182260903139252e+00,4.390215919781156884e-01,-8.958911673685100441e-01,-6.809593671237834656e-02,5.462280508992605519e+02
-4.437143379035871860e+00,2.166583917572823204e+00,-3.619685299983297799e+00,4.322114266795321069e-01,-8.779927299029977039e-01,2.057183727475393464e-01,5.500948565851313106e+02
-3.908225169923140285e+00,3.134732808542020965e+00,-3.750905528395939825e+00,3.928379443616650257e-01,-7.939452874529395743e-01,4.640336517986380360e-01,5.543195804655288157e+02
-3.189336345032177000e+00,4.091456735561472158e+00,-4.004925530489281904e+00,3.238675736331195210e-01,-6.500810408300087273e-01,6.873881255177330951e-01,5.585443043459263208e+02
-2.346519907624406542e+00,4.996186031424148410e+00,-4.309921416867029897e+00,2.304966102504227010e-01,-4.572388653201363562e-01,8.589539758939723768e-01,5.627690282263238259e+02
-1.447269608920619621e+00,5.809254034713794645e+00,-4.594066803694881962e+00,1.197597320626400258e-01,-2.299477171938824338e-01,9.658051842549588706e-01,5.669937521067213311e+02
-5.605242151104194992e-01,6.491915313701890788e+00,-4.785536355164676792e+00,0.000000000000000000e+00,1.466799147870492814e-02,9.998914191181639266e-01,5.712184759871188362e+02
2.575006584753353200e-01,7.024192379903963612e+00,-4.844078901867054476e+00,-7.351928671568183637e-02,1.750692440086411977e-02,9.971391187174981630e-01,5.754431998675163413e+02
9.783729750431799932e-01,7.422462636638715416e+00,-4.792589003725696628e+00,-1.466400206543134188e-01,2.025095608839404607e-02,9.889815989785478711e-01,5.796679237479138465e+02
1.588624211017942933e+00,7.721244308431758796e+00,-4.685536249226246674e+00,-2.189658420393358063e-01,2.288521225448095914e-02,9.754630834011162044e-01,5.838926476283113516e+02
1.918989993406746919e+00,7.877283413856670080e+00,-4.610731044364270836e+00,-2.901047006062330569e-01,2.539541366127249025e-02,9.566568536573389903e-01,5.865778203509069044e+02
2.339253108575257922e+00,8.097758604739700772e+00,-4.526941037938261303e+00,-3.596709802402653922e-01,2.776795350115766545e-02,9.326648523074896335e-01,5.908025442313044095e+02
2.619479955210107569e+00,8.310330750496184748e+00,-4.531153775245708282e+00,-4.272875887415334417e-01,2.998997113506250700e-02,9.036171302808574390e-01,5.950272681117019147e+02
2.750746756880160238e+00,8.550062214378922221e+00,-4.677836054280405165e+00,-3.988253834284189447e-01,1.941522903598137673e-02,9.168202454207206031e-01,5.992519919920994198e+02
2.733478689589776689e+00,8.841096187921788641e+00,-4.997875103064094660e+00,-3.699259727779736218e-01,8.819205128159503942e-03,9.290182970663279916e-01,6.034767158724969249e+02
2.679582079016667784e+00,9.002262316422019239e+00,-5.208918616910514388e+00,-3.406210374303244026e-01,-1.786484899560965506e-03,9.401979139152600862e-01,6.055587724482752492e+02
2.496954715656438228e+00,9.358141763321835782e+00,-5.715601746723234733e+00,-3.109427025020332636e-01,-1.239021478126484110e-02,9.503468410730754323e-01,6.097834963286727543e+02
2.220619596898717241e+00,9.753181787281622661e+00,-6.319889793780819609e+00,-2.809235023742524540e-01,-2.298036041665539944e-02,9.594539534798980362e-01,6.140082202090702594e+02
1.875277611563002100e+00,1.017760996494270387e+01,-6.981928970774891496e+00,-2.505963450329299902e-01,-3.354531261120925062e-02,9.675092680989532123e-01,6.182329440894677646e+02
1.485228095939427062e+00,1.062132289954838349e+01,-7.661862640295336924e+00,-2.199944760001416866e-01,-4.407348979985276777e-02,9.745039548538538821e-01,6.224576679698652697e+02
1.074366783695463123e+00,1.107389129615448553e+01,-8.319833287724959447e+00,-1.891514418960220933e-01,-5.455335074024099395e-02,9.804303463027154164e-01,6.266823918502627748e+02
6.661837700967708775e-01,1.152456506167657402e+01,-8.915984506154174483e+00,-1.581010536711659198e-01,-6.497340716175400988e-02,9.852819460385502381e-01,6.309071157306602800e+02
2.837614813018100035e-01,1.196227843041489081e+01,-9.410462985587981777e+00,-1.268773495497270698e-01,-7.532223635637520787e-02,9.890534358067823995e-01,6.351318396110577851e+02
-5.022731790840542082e-02,1.237565510931539237e+01,-9.763420480592012396e+00,-9.551455772375642972e-02,-8.558849369768023463e-02,9.917406813321237857e-01,6.393565634914552902e+02
-3.135214719383637161e-01,1.275301344313027485e+01,-9.935015770349968633e+00,-6.404705883958609902e-02,-9.576092507424410760e-02,9.933407368484532540e-01,6.435812873718527953e+02
-3.739670146338192613e-01,1.285182569742436343e+01,-9.952026040373981530e+00,-3.250934831729387908e-02,-1.058283792238678689e-01,9.938518483267588799e-01,6.447593772604591322e+02
-4.649387388547648881e-01,1.301487199685858442e+01,-9.962539486571065694e+00,-9.359985444636862188e-04,-1.157798199551341861e-01,9.932734553976153569e-01,6.467409287698892513e+02
-5.643113777589889857e-01,1.335304818157650963e+01,-9.833898646647355690e+00,-0.000000000000000000e+00,-1.168708950943586483e-01,9.931461085322876858e-01,6.509656526502867564e+02
-5.007593304244347676e-01,1.369194335949474528e+01,-9.469564225490218590e+00,-9.847125165670110591e-02,-2.652147242428529728e-01,9.591467888925164775e-01,6.551903765306842615e+02
-2.797392996815005750e-01,1.404124438080206971e+01,-8.903480876690148094e+00,-1.937068744972015311e-01,-4.048439793291908062e-01,8.936313552995180931e-01,6.594151004110817667e+02
7.185661872580256793e-02,1.440002069916360661e+01,-8.185228920209777215e+00,-2.825775678951796266e-01,-5.311706528951587458e-01,7.987525622034508110e-01,6.636398242914792718e+02
5.271631704391624984e-01,1.476770638059660179e+01,-7.364396224397273372e+00,-3.621631782867938965e-01,-6.400438480094067240e-01,6.776279989196939413e-01,6.678645481718767769e+02
1.059344255539602653e+00,1.514409974289669769e+01,-6.490575745986235212e+00,-4.298486505462508767e-01,-7.278861692321167975e-01,5.342376458709390263e-01,6.720892720522742820e+02
1.641595232741833277e+00,1.552936296140861749e+01,-5.613363071659613013e+00,-4.834099528984043825e-01,-7.918112671430018734e-01,3.732930948542328986e-01,6.763139959326717872e+02
2.247145213017698762e+00,1.592402164582328083e+01,-4.782353963114116979e+00,-5.210871525268132576e-01,-8.297186750857447057e-01,2.000827321065659914e-01,6.805387198130692923e+02
2.494964874502543672e+00,1.608649071847709067e+01,-4.463045631955685266e+00,-5.416422414975148314e-01,-8.403628231765527534e-01,2.029797157521938747e-02,6.822554503958920122e+02
3.106356832141025315e+00,1.649584340327628951e+01,-3.744096031498756361e+00,-7.605537263013550930e-01,-4.014205601721889116e-01,5.103112415782558031e-01,6.864801742762895174e+02
3.201808889590734175e+00,1.656087735196689792e+01,-3.641506562601070307e+00,-6.138617165755229088e-01,2.304878935820414421e-01,7.550146514041730095e-01,6.871365691795111843e+02
3.811858211296486054e+00,1.700610030176969190e+01,-3.045192762738989423e+00,-6.785946173538845994e-01,2.002660975265954379e-01,7.066829808868603235e-01,6.913612930599086894e+02
4.373394846703933858e+00,1.752955072528504843e+01,-2.586647765732096094e+00,-7.382789397638717110e-01,1.685544205531281925e-01,6.530938787106099763e-01,6.955860169403061946e+02
4.810365825913826221e+00,1.818164775424791202e+01,-2.291616481762939639e+00,-7.924706915035423238e-01,1.355887761211422016e-01,5.946460181438675274e-01,6.998107408207036997e+02
4.850346934915884312e+00,1.826401983387560080e+01,-2.268443220654478232e+00,-7.993516410396379612e-01,1.117157410205352613e-01,5.903850837918133143e-01,7.002871871487596991e+02
5.109770148643971943e+00,1.905395256804009207e+01,-2.153437043481764235e+00,-8.057246621553161292e-01,8.777171695975018173e-02,5.857490029738654513e-01,7.045119110291572042e+02
5.191053697219755847e+00,1.990998093067939578e+01,-2.207672717284937303e+00,-8.115857060412333679e-01,6.377191473707664870e-02,5.807407206561634450e-01,7.087366349095547093e+02
5.109627846319984457e+00,2.072978176622065050e+01,-2.413160510759139843e+00,-8.169310488795781255e-01,3.973158059120388691e-02,5.753634180825895061e-01,7.129613587899522145e+02
4.877018288447955818e+00,2.141084802148754918e+01,-2.751903207247163863e+00,-8.217572942021558191e-01,1.566598654466518428e-02,5.696205107595255779e-01,7.171860826703497196e+02
4.619951989777855594e+00,2.179268524359590842e+01,-3.064159997893344922e+00,-7.497031885508489424e-01,1.106119941833053413e-02,6.616802694224708237e-01,7.202712785080751701e+02
4.145182393015179656e+00,2.215991619650798228e+01,-3.541196026785035311e+00,-6.673871690563557557e-01,6.305008638316999918e-03,7.446828945559711421e-01,7.244960023884726752e+02
3.513304465293435097e+00,2.236565545122007848e+01,-4.035313085806008004e+00,-5.759359703482965775e-01,1.462516051971979097e-03,8.174922746455409728e-01,7.287207262688701803e+02
2.718014349462527512e+00,2.245626546199189733e+01,-4.489772401767930354e+00,-4.766013582140177784e-01,-3.399995421604735772e-03,8.791118161980012724e-01,7.329454501492676854e+02
2.427077380393663830e+00,2.247020573590233639e+01,-4.625219745432601393e+00,-3.640367091240751529e-01,1.353977081619116762e-03,9.313825428660489347e-01,7.343277757035457398e+02
1.513839811338633101e+00,2.251987339847878289e+01,-4.955708153916255299e+00,-2.458565321580128138e-01,6.087064425798782187e-03,9.692860843120876257e-01,7.385524995839432449e+02
6.611403626201365347e-01,2.264013038201644434e+01,-5.097421001294636156e+00,-1.238838021355382207e-01,1.072625669138746810e-02,9.922377492236620355e-01,7.427772234643407501e+02
4.539004777209430797e-02,2.293366034943247200e+01,-4.980762694270906898e+00,-0.000000000000000000e+00,1.519999199370844663e-02,9.998834733313931578e-01,7.470019473447382552e+02
-2.000011986516659346e-01,2.330110676242597378e+01,-4.709508273539848133e+00,-1.854781610176970200e-02,-2.090256597808095307e-01,9.777332213191601840e-01,7.502232324820287204e+02
-2.355851691473029863e-01,2.395543227332521496e+01,-4.140260801249825207e+00,-3.614761671645073254e-02,-4.225675963411769098e-01,9.056091741631003833e-01,7.544479563624262255e+02
-2.802418857405313511e-03,2.476908826456943657e+01,-3.363100203279402400e+00,-5.189984198860039810e-02,-6.145112759349742326e-01,7.871977503465843462e-01,7.586726802428237306e+02
4.114879901599644563e-01,2.567835413696853664e+01,-2.446150517052506856e+00,-6.499936667170513882e-02,-7.750461030903665893e-01,6.285512074742327648e-01,7.628974041232212357e+02
9.181391636716491611e-01,2.662070517936071923e+01,-1.457542729030357753e+00,-7.477665148366928471e-02,-8.959668654741250737e-01,4.377782867687153301e-01,7.671221280036187409e+02
1.425724016272640782e+00,2.753484132742532964e+01,-4.654113911597736464e-01,-8.073196373761178102e-02,-9.710931084435485694e-01,2.246297504014971025e-01,7.713468518840162460e+02
1.840543062086773984e+00,2.836071581629334659e+01,4.621087660614644488e-01,-8.256091850746105631e-02,-9.965850163112920379e-01,0.000000000000000000e+00,7.755715757644137511e+02
2.095778023103886056e+00,2.905597645049248001e+01,1.276703981415012734e+00,-4.874552536219688842e-02,-9.976701887715968553e-01,-4.770815647613734639e-02,7.797962996448112563e+02
2.181469233642729488e+00,2.961187671348493566e+01,1.969701626370417236e+00,-1.476338907360749166e-02,-9.953425977198335772e-01,-9.525311285308489528e-02,7.840210235252087614e+02
2.116609644107038779e+00,3.003608341870488729e+01,2.552252862501860342e+00,1.926924668525565806e-02,-9.896102058801969914e-01,-1.424722308058826159e-01,7.882457474056062665e+02
1.920410468113135538e+00,3.033599986455730857e+01,3.035514317625233716e+00,5.323596556287937820e-02,-9.804926228116984666e-01,-1.892039867004557674e-01,7.924704712860037716e+02
1.832518112459933013e+00,3.041308140898665613e+01,3.178247334788515399e+00,8.702057674992590142e-02,-9.680210378115973180e-01,-2.352885241086732915e-01,7.938692576050638081e+02
1.511134487934460147e+00,3.058314393480902282e+01,3.564604715002596791e+00,1.205075124265569675e-01,-9.522381132109941637e-01,-2.805682006182070864e-01,7.980939814854613132e+02
1.104277261661252174e+00,3.064494083469678287e+01,3.877697093851184995e+00,1.535822230772233288e-01,-9.331978384278749594e-01,-3.248881270672127064e-01,8.023187053658588184e+02
6.318717556668613788e-01,3.060497568193480689e+01,4.128694878842495974e+00,1.861315693210257860e-01,-9.109653452771702131e-01,-3.680966973598148173e-01,8.065434292462563235e+02
1.140540110712291444e-01,3.046947690362833683e+01,4.328771549921602180e+00,2.180442089177051790e-01,-8.856166851698048514e-01,-4.100461070506318251e-01,8.107681531266538286e+02
-4.288309912026536108e-01,3.024439514601187895e+01,4.489103106421832301e+00,2.492109776258438769e-01,-8.572385689629477001e-01,-4.505928589250103311e-01,8.149928770070513337e+02
-9.762311240644159227e-01,2.993540065951686557e+01,4.620867513911387725e+00,2.795252626108968297e-01,-8.259280703513032229e-01,-4.895982538461136069e-01,8.192176008874488389e+02
-1.507388922216294391e+00,2.954788070373508901e+01,4.735244151012253155e+00,3.088833671261526637e-01,-7.917922938138799438e-01,-5.269288651903919485e-01,8.234423247678463440e+02
-2.001343404313284946e+00,2.908693697242773624e+01,4.843413256245538534e+00,3.371848652195542639e-01,-7.549480082517796564e-01,-5.624569952490504621e-01,8.276670486482438491e+02
-2.429988248777868343e+00,2.856797431957368971e+01,4.954300926222205526e+00,3.643329452534022628e-01,-7.155212475698186081e-01,-5.960611120347735215e-01,8.318155236432169204e+02
-2.787902071101220347e+00,2.797640731807376469e+01,5.083062818553639062e+00,3.902347410621835877e-01,-6.736468795677533761e-01,-6.276262649999123644e-01,8.360402475236144255e+02
-3.044908365569964026e+00,2.732491323032722619e+01,5.238955768052204753e+00,4.148016496160054079e-01,-6.294681446152134985e-01,-6.570444782444007092e-01,8.402649714040119306e+02
-3.179254105819163900e+00,2.661743140773173621e+01,5.433157954828714331e+00,4.379496341032096396e-01,-5.831361656877326327e-01,-6.842151198685666458e-01,8.444896952844094358e+02
-3.168992040157407430e+00,2.585760310989677180e+01,5.676845665811529607e+00,4.595995113955546052e-01,-5.348094314392005666e-01,-7.090452462075117479e-01,8.487144191648069409e+02
-3.004931150121432637e+00,2.505289165047726740e+01,5.970120920619640614e+00,4.055577206542250179e-01,-4.692593036844794341e-01,-7.844212140959595514e-01,8.529391430452044460e+02
-2.703383160345358860e+00,2.421893560199745465e+01,6.290939644816939236e+00,3.462846897346598674e-01,-3.976562570469961977e-01,-8.496790069710412618e-01,8.571638669256019512e+02
-2.292908202264057227e+00,2.337577013786326674e+01,6.606184583531949706e+00,2.825449722357101789e-01,-3.209238880164134167e-01,-9.039768784461851281e-01,8.613885908059994563e+02
-1.855539717268456457e+00,2.262702744259232901e+01,6.859297856766422896e+00,2.151607355078595796e-01,-2.400519538533143205e-01,-9.466144502105479086e-01,8.651793028177307860e+02
-1.316750415792397488e+00,2.182099715747140323e+01,7.076825053313496205e+00,1.450011563486639232e-01,-1.560836067126596949e-01,-9.770417454610013097e-01,8.694040266981282912e+02
-7.472509270977271134e-01,2.106594834565720475e+01,7.192836168643930606e+00,7.297121043575184596e-02,-7.010193915257521835e-02,-9.948662827610340598e-01,8.736287505785257963e+02
-1.724546084839485294e-01,2.038334494817449638e+01,7.174224198481042869e+00,0.000000000000000000e+00,1.678398554445860447e-02,-9.998581388522901348e-01,8.778534744589233014e+02
3.886918667507237579e-01,1.978266771546186575e+01,7.011883574735584546e+00,-8.895903910950431204e-02,4.602127533859258490e-02,-9.949705179435817115e-01,8.820781983393208066e+02
9.287498667718354639e-01,1.924897970576375528e+01,6.744705385666823538e+00,-1.771358953432038419e-01,7.485392072247384898e-02,-9.813346855857046913e-01,8.863029222197183117e+02
1.445214649031597354e+00,1.875510120277769488e+01,6.435580682268599695e+00,-2.637552842220871052e-01,1.030284141767663780e-01,-9.590705375088003359e-01,8.905276461001158168e+02
1.596370642915612370e+00,1.861024631890412806e+01,6.341329829463093759e+00,-3.480556158414810364e-01,1.302970351205289812e-01,-9.283738314495623145e-01,8.918004599719630505e+02
2.080574335039492961e+00,1.812482253159829426e+01,6.065699250566543022e+00,-4.292956905447996574e-01,1.564200277934346683e-01,-8.895144658661284787e-01,8.960251838523605556e+02
2.531494627298890965e+00,1.761680434787755445e+01,5.892854906446038932e+00,-5.067612153138740805e-01,1.811677091095194314e-01,-8.428341069450754341e-01,9.002499077327580608e+02
2.943238901349920500e+00,1.705920165257078835e+01,5.885683051882077521e+00,-5.797710836260323575e-01,2.043224879640576641e-01,-7.887431847588033396e-01,9.044746316131555659e+02
3.308889266587001554e+00,1.642510947076048211e+01,6.107061746181964956e+00,-6.476833636044839748e-01,2.256807782523939376e-01,-7.277172849653964493e-01,9.086993554935530710e+02
3.619113630009409110e+00,1.570558352925939793e+01,6.576932062967070003e+00,-7.306758652161281509e-01,1.992703047688640094e-01,-6.529947362945501821e-01,9.129240793739505762e+02
3.861668461954386178e+00,1.492753706135523117e+01,7.229371424958102921e+00,-8.040462632172861168e-01,1.702356953445614274e-01,-5.696730769813809214e-01,9.171488032543480813e+02
4.024126555933293048e+00,1.413590894261789899e+01,7.955522545251989541e+00,-8.668283703867148970e-01,1.389592988955980490e-01,-4.788495479206529293e-01,9.213735271347455864e+02
4.093710383694765476e+00,1.347000988939570831e+01,8.566282240074201582e+00,-9.181954323794290218e-01,1.058529848475115442e-01,-3.817201770369364477e-01,9.250397566458357232e+02
4.082948192979024782e+00,1.276913065851570650e+01,9.146066891978698266e+00,-9.574710139719074808e-01,7.135271961559647158e-02,-2.795640298888706354e-01,9.292644805262332284e+02
3.965571828171607915e+00,1.218430402467363294e+01,9.487380095388719070e+00,-9.841379061507881110e-01,3.591282585022587820e-02,-1.737263670751262312e-01,9.334892044066307335e+02
3.735550662401880828e+00,1.176096023533406054e+01,9.481380166601352855e+00,-9.978449368362465322e-01,0.000000000000000000e+00,-6.560093010484044362e-02,9.377139282870282386e+02
3.407913774461067025e+00,1.152065746279142289e+01,9.066790986634851279e+00,-9.598835568757689840e-01,-1.482980642393069426e-01,-2.379689924834572368e-01,9.419386521674257438e+02
3.036961727288368440e+00,1.143676726356041051e+01,8.277453405769378492e+00,-8.709099236745272421e-01,-2.887149096555273742e-01,-3.976903390695245011e-01,9.461633760478232489e+02
2.815812463202585825e+00,1.143676586178840893e+01,7.660262858367988592e+00,-7.356524945740232635e-01,-4.137882090790382383e-01,-5.362767245142245898e-01,9.487435166074565132e+02
2.519386631199442395e+00,1.147873375029944043e+01,6.493993471587286237e+00,-5.612994190085585089e-01,-5.168710611140440170e-01,-6.463631087902798056e-01,9.529682404878540183e+02
2.364363789600475663e+00,1.154101195017596559e+01,5.165536013600930509e+00,-3.571165318403879407e-01,-5.924852232853211609e-01,-7.220990533689073398e-01,9.571929643682515234e+02
2.397916057224191544e+00,1.160902278690159051e+01,3.787762474911321675e+00,-4.518226779220836375e-01,-4.105131966796778942e-01,-7.920436749748035465e-01,9.614176882486490285e+02
2.626922066093571484e+00,1.174618946664512187e+01,2.536419563665460952e+00,-5.253042711513535856e-01,-2.092571224852543821e-01,-8.247817162131315660e-01,9.656424121290465337e+02
3.041053805166344937e+00,1.205519053127616402e+01,1.618683874309334136e+00,-5.741094903284769124e-01,1.828998376288140269e-03,-8.187752731239464898e-01,9.698671360094440388e+02
3.344225767243782066e+00,1.231911519087901219e+01,1.271161970138615205e+00,-7.507783937129661744e-01,3.734467702318027688e-02,-6.594961551309901360e-01,9.722779632674273671e+02
3.888129220043542666e+00,1.289608398696359792e+01,9.615912017349986796e-01,-8.840198211175444021e-01,7.070020841232871334e-02,-4.620697311042780697e-01,9.765026871478248722e+02
4.306602453751969151e+00,1.355851100333345549e+01,1.013507106075341779e+00,-9.661267226356589077e-01,9.996621019841898936e-02,-2.379157679283797899e-01,9.807274110282223774e+02
4.401440543399433025e+00,1.418898012591506053e+01,1.312741432016472531e+00,-9.923498043656551193e-01,1.234498512612373505e-01,-0.000000000000000000e+00,9.849521349086198825e+02
4.052536862443384180e+00,1.470935469767127657e+01,1.761513889940028443e+00,-9.874027004479607461e-01,-1.576536780784093539e-01,1.338749183901889739e-02,9.891768587890173876e+02
3.893085402388056782e+00,1.482936416066145036e+01,1.896001178111868857e+00,-9.042305310886793457e-01,-4.262674242347564979e-01,2.571438672368975970e-02,9.902990691568544435e+02
3.120672823299187826e+00,1.523220709754946078e+01,2.429075986490214945e+00,-7.494224313036753626e-01,-6.611109767157430372e-01,3.600410984863493258e-02,9.945237930372519486e+02
2.105719349078195801e+00,1.556064700408389889e+01,2.985203088441238162e+00,-5.352427652605280528e-01,-8.435792910708518333e-01,4.344147688295747767e-02,9.987485169176494537e+02
9.746873873336489025e-01,1.584439855981531942e+01,3.515789732548265878e+00,-2.786595111257013091e-01,-9.592166500358599857e-01,4.743727599990494453e-02,1.002973240798046959e+03
-1.449293120277124203e-01,1.611145414723569047e+01,3.972244440611492067e+00,-0.000000000000000000e+00,-9.988619020529923009e-01,4.767494759579282704e-02,1.007197964678444464e+03
-1.158304889511174718e+00,1.637858579598312758e+01,4.322027576388584258e+00,1.142724338256458638e-01,-9.923006575980343191e-01,-4.774113319928507265e-02,1.011422688558841969e+03
-2.037459122872292472e+00,1.664245790182829410e+01,4.564701119994376555e+00,2.260073968839733383e-01,-9.637048664721570290e-01,-1.420971037447027741e-01,1.015647412439239474e+03
-2.704789524788662636e+00,1.686218605230743961e+01,4.704597044965862729e+00,3.327237547192830602e-01,-9.137095095031971814e-01,-2.332977395730735926e-01,1.019352225004376919e+03
-3.353487004706792174e+00,1.708735009420135498e+01,4.795638396626310751e+00,4.320518127865448643e-01,-8.434247576110220912e-01,-3.193178812994988958e-01,1.023576948884774424e+03
-3.886083828351592828e+00,1.727199590086051018e+01,4.824506257834732637e+00,5.217859374270525930e-01,-7.544113201725796136e-01,-3.982474048876986639e-01,1.027801672765172043e+03
-4.309725513830231058e+00,1.740332681544610693e+01,4.806826898711686447e+00,5.999335338016192898e-01,-6.486457885322165495e-01,-4.683336375285126474e-01,1.032026396645569548e+03
-4.631989092743601155e+00,1.746864390079305451e+01,4.758228903209730909e+00,6.647592930602990169e-01,-5.284767442506987933e-01,-5.280202771458306632e-01,1.036251120525967053e+03
-4.860882505034916257e+00,1.745535135468796994e+01,4.694342393351587539e+00,7.148237261018716149e-01,-3.965726068370019619e-01,-5.759819512010800890e-01,1.040475844406364558e+03
-4.976419233702855216e+00,1.739513081697854346e+01,4.646276169006017476e+00,7.490151281935626404e-01,-2.558623791921288415e-01,-6.111536473362931821e-01,1.043555864160539841e+03
-5.071920612344866797e+00,1.723262157216769452e+01,4.591815356530562831e+00,7.665742646539652760e-01,-1.094706067284816481e-01,-6.327543623191655975e-01,1.047780588040937346e+03
-5.097933500886635549e+00,1.695777406890163519e+01,4.564723020718390423e+00,7.671112294972977086e-01,3.935200539565420624e-02,-6.403044441917927765e-01,1.052005311921334851e+03
-5.064066671851372270e+00,1.655842314661625636e+01,4.580628219853223548e+00,7.506141027920847364e-01,1.873007761196621990e-01,-6.336362426155461858e-01,1.056230035801732356e+03
-4.971408564529158802e+00,1.604167512329348000e+01,4.649100202209494270e+00,7.273638204817944874e-01,6.966619957438641153e-02,-6.827052755706825016e-01,1.060454759682129861e+03
-4.802621509535948796e+00,1.545289021983012567e+01,4.767590244579532843e+00,6.919038179274737965e-01,-4.913779195308407705e-02,-7.203142259740277220e-01,1.064679483562527366e+03
-4.529454637994535737e+00,1.485628141084961129e+01,4.927489467245110610e+00,6.448293396119246790e-01,-1.671169291737086005e-01,-7.458317871748910699e-01,1.068904207442924871e+03
-4.406829783291326130e+00,1.464997120956503274e+01,4.991725042753019537e+00,5.869305902678837450e-01,-2.822907909702482843e-01,-7.588296195737914696e-01,1.070406437877591088e+03
-3.968542390004383247e+00,1.412957271598853914e+01,5.187288853089166984e+00,5.191794704629998369e-01,-3.927260466307259668e-01,-7.590895400075278188e-01,1.074631161757988593e+03
-3.349832901102943961e+00,1.375123316294030751e+01,5.403975833498365411e+00,4.427132627172336576e-01,-4.965689075744992853e-01,-7.466071838963956875e-01,1.078855885638386098e+03
-2.514267166631970696e+00,1.357770497309357616e+01,5.633172126854083750e+00,3.588155418936562757e-01,-5.920762440854652198e-01,-7.215920787302380068e-01,1.083080609518783604e+03
-1.526843862604437829e+00,1.350225870034790887e+01,5.850063682224801553e+00,4.131783114546708768e-01,-3.531958792252336554e-01,-8.393654471339936363e-01,1.087305333399181109e+03
-6.187496340600632250e-01,1.322648764406025812e+01,6.016303880950138350e+00,4.370113996516452604e-01,-8.821779889907482852e-02,-8.951182360627765178e-01,1.091530057279578614e+03
3.625897229875167833e-03,1.259792108889943130e+01,6.118593093491660362e+00,4.285537407611644811e-01,1.832787916827144925e-01,-8.847307928397468713e-01,1.095754781159976119e+03
2.026624798982706033e-01,1.216306001630275979e+01,6.152471619414600745e+00,3.884302441150710994e-01,4.412329675644178217e-01,-8.089705889529116289e-01,1.097930474787374806e+03
3.767408541188909665e-01,1.115659880451731389e+01,6.196282764384779540e+00,3.196056361481274255e-01,6.665844295030803890e-01,-6.734355467944762585e-01,1.102155198667772311e+03
3.041565459900069657e-01,9.955310267376152211e+00,6.221173728728524033e+00,2.271653934150549559e-01,8.426819270808137974e-01,-4.881404037838685817e-01,1.106379922548169816e+03
9.030097138764350828e-02,8.641467410706741958e+00,6.250003385951635515e+00,1.179399557416658945e-01,9.565136534367070231e-01,-2.667766811953448669e-01,1.110604646428567321e+03
-1.564392249134736179e-01,7.295890925410026817e+00,6.305630435318838600e+00,0.000000000000000000e+00,9.996686752873877868e-01,-2.570096594232212581e-02,1.114829370308964826e+03
-3.552135782076154547e-01,5.981321669930793838e+00,6.401584788920011704e+00,-0.000000000000000000e+00,9.605339957065379686e-01,-2.781590248288048906e-01,1.119054094189362331e+03
-4.840720158354565039e-01,4.726348240034130122e+00,6.532739424276043927e+00,-0.000000000000000000e+00,8.587084128757360713e-01,-5.124625465906356148e-01,1.123278818069759836e+03
-5.506973022587274835e-01,3.542804932463262890e+00,6.684638116965951227e+00,-0.000000000000000000e+00,7.008377572836966829e-01,-7.133193099638709400e-01,1.127503541950157341e+03
-5.652976253580512811e-01,2.616790664541110090e+00,6.816704576070510946e+00,-0.000000000000000000e+00,4.972257346852293480e-01,-8.676200601464615358e-01,1.131018260572192730e+03
-5.400876613041979413e-01,1.585246125503136927e+00,6.969053579124383724e+00,-0.000000000000000000e+00,2.611614333256502274e-01,-9.652941032375207397e-01,1.135242984452590235e+03
-4.719355035142531740e-01,6.592255595875652352e-01,7.101204368528697408e+00,-0.000000000000000000e+00,8.051988583367907307e-03,-9.999665821824688106e-01,1.139467708332987741e+03
-3.717045920796714364e-01,-1.582549638534191672e-01,7.191446862932516559e+00,-0.000000000000000000e+00,8.051988577683638279e-03,-9.999665814765463789e-01,1.143692432213385246e+03
-2.986058264697915021e-01,-6.418399117534242526e-01,7.218143300598395484e+00,-0.000000000000000000e+00,8.051988577684283596e-03,-9.999665814766264260e-01,1.146432912737599963e+03
-1.953605290954695817e-01,-1.335213916704212522e+00,7.174379884385125195e+00,-0.000000000000000000e+00,8.051988577684281861e-03,-9.999665814766264260e-01,1.150657636617997468e+03
-1.252159583124176079e-01,-1.974662781834897629e+00,6.980833955246023237e+00,-0.000000000000000000e+00,8.051988577683638279e-03,-9.999665814765463789e-01,1.154882360498394974e+03
-1.161562472713994765e-01,-2.583621013721183690e+00,6.594050438333616704e+00,-0.000000000000000000e+00,8.051988577682347645e-03,-9.999665814763862848e-01,1.159107084378792479e+03
-2.011609379249528762e-01,-3.175810654459032989e+00,6.012153549154609422e+00,8.268285378278704544e-07,9.837924052601855485e-02,-9.951479915230073692e-01,1.163331808259189984e+03
-4.218372212258257314e-01,-3.745831822651591647e+00,5.316416596195483457e+00,1.646891680324647987e-06,1.879015204871229416e-01,-9.821868552344663605e-01,1.167556532139587489e+03
-5.177603500340643983e-01,-3.915119383441942436e+00,5.095711892980451907e+00,2.453479596006295136e-06,2.758863490047499534e-01,-9.611892230076914956e-01,1.168850675330724926e+03
-9.529212535393164485e-01,-4.440567320491614289e+00,4.430708338508703825e+00,3.239992699297987237e-06,3.616138251037466778e-01,-9.323268962560146145e-01,1.173075399211122431e+03
-1.627847317271653660e+00,-4.907928327092707654e+00,3.935192515371924937e+00,3.999995637447623011e-06,4.443825153389718285e-01,-8.958360229660418117e-01,1.177300123091519936e+03
-2.517698580696715815e+00,-5.313935723632773112e+00,3.691140258072173719e+00,2.627821129399017797e-01,3.793061857353885458e-01,-8.871698701955733624e-01,1.181524846971917441e+03
-3.459586707279652007e+00,-5.682863300103095483e+00,3.698789224840497880e+00,5.062818420914955153e-01,2.864030132222324943e-01,-8.134187177504728083e-01,1.185749570852314946e+03
-4.152684325273788168e+00,-6.003978477481275888e+00,3.872515983390996563e+00,7.126394803979498871e-01,1.724885944638754609e-01,-6.799931291998748684e-01,1.189435480108141292e+03
-4.584783436969567916e+00,-6.411373507312781328e+00,4.225057040400336916e+00,8.667161273835900515e-01,4.591995376744019419e-02,-4.966814999372763384e-01,1.193660203988538797e+03
-4.606834479639382529e+00,-6.895104841578164390e+00,4.675188361706330120e+00,7.829820157127305169e-01,5.106203301573458697e-02,-6.199434102010146219e-01,1.197884927868936302e+03
-4.552005976018680400e+00,-7.117836846477870516e+00,4.866203884769989330e+00,6.818411546847885640e-01,5.506893172807868220e-02,-7.294230956948929423e-01,1.199635257361118420e+03
-4.519137228086907321e+00,-7.695016922113641300e+00,5.252209605585646202e+00,4.902537572748031369e-01,-1.219851526465785541e-01,-8.629999281649256559e-01,1.203859981241515925e+03
-4.661823192112616532e+00,-8.301859527457141397e+00,5.508065324092586756e+00,2.565550810984235097e-01,-2.885611248451277477e-01,-9.224478129364710455e-01,1.208084705121913430e+03
-4.848091276398752036e+00,-8.705943933575996496e+00,5.617608846451528137e+00,8.189993714648554539e-04,-4.303506697304908535e-01,-9.026603072598753386e-01,1.210967255010378949e+03
-5.134310375658273529e+00,-9.279616655857713781e+00,5.689067629409438887e+00,1.217558766205370513e-01,-4.271485671555058650e-01,-8.959450921076881347e-01,1.215191978890776454e+03
-5.230707128899461544e+00,-9.611504694813776339e+00,5.686469877226417502e+00,3.110091850878500819e-01,-3.164529420999974696e-01,-8.961745489736760995e-01,1.217587369489866660e+03
-5.105856525524386846e+00,-1.027655157106921813e+01,5.609506782461782137e+00,4.853120599655876277e-01,-1.905453277981301041e-01,-8.533244884025917854e-01,1.221812093370264165e+03
-4.663978129401543882e+00,-1.106192952457455725e+01,5.414251532658833632e+00,6.362857332077703765e-01,-5.547815104246812262e-02,-7.694547683097415769e-01,1.226036817250661670e+03
-4.113818673154793437e+00,-1.195243567045534938e+01,5.081184896633333281e+00,7.566728811008612832e-01,8.225587836747720594e-02,-6.485970409135987103e-01,1.230261541131059175e+03
-3.673308223436862807e+00,-1.277144610931089552e+01,4.687111558226448871e+00,8.529230045397877547e-01,3.664613607450105115e-01,-3.717881378002456660e-01,1.233855742262691592e+03
-3.216275418472975378e+00,-1.376256695769212257e+01,4.099780603131433665e+00,8.070246273467491793e-01,5.895923567824234990e-01,-3.301671819447103001e-02,1.238080466143089097e+03
-2.793354644603759596e+00,-1.473419000078504482e+01,3.384971313066664322e+00,6.266270243880818214e-01,7.144616147698110709e-01,3.112574068638133684e-01,1.242305190023486603e+03
-2.366168860123754936e+00,-1.562910895177635417e+01,2.558819052176454889e+00,3.417953635036462545e-01,7.202582473945347008e-01,6.036571763412587055e-01,1.246529913903884108e+03
-1.894206236403542132e+00,-1.639064913065089257e+01,1.637464728743813103e+00,0.000000000000000000e+00,6.060162459354393460e-01,7.954510102222167589e-01,1.250754637784281613e+03
-1.391246217904595239e+00,-1.696917033698618482e+01,6.872874005800821973e-01,-0.000000000000000000e+00,6.060162455076464338e-01,7.954510096606999259e-01,1.254979361664679118e+03
-9.312687648746942326e-01,-1.734208250512469718e+01,-1.817862498956475115e-01,-0.000000000000000000e+00,6.060162455076805177e-01,7.954510096607445568e-01,1.259204085545076623e+03
-5.423946075112785481e-01,-1.752130927568141416e+01,-9.234414125035828036e-01,-0.000000000000000000e+00,6.060162455077082733e-01,7.954510096607810832e-01,1.263428809425474128e+03
-4.031842971525277930e-01,-1.755090204158046774e+01,-1.187074374469164750e+00,-0.000000000000000000e+00,6.060162455077299226e-01,7.954510096608095049e-01,1.265089389682868614e+03
-6.927200675365281779e-02,-1.754081188813355752e+01,-1.794246359033103255e+00,-0.000000000000000000e+00,6.060162455077454657e-01,7.954510096608298220e-01,1.269314113563266119e+03
2.443169425485799684e-01,-1.740050974767887837e+01,-2.299404152286860015e+00,-0.000000000000000000e+00,6.060162455077546806e-01,7.954510096608420344e-01,1.273538837443663624e+03
5.572368108895657812e-01,-1.715695094356310335e+01,-2.713172247081872879e+00,-0.000000000000000000e+00,6.060162455077577892e-01,7.954510096608461422e-01,1.277763561324061129e+03
8.881272410706034792e-01,-1.683734647145608676e+01,-3.046179671592603722e+00,-0.000000000000000000e+00,6.060162455077546806e-01,7.954510096608420344e-01,1.281988285204458634e+03
1.254611723770744369e+00,-1.646915021117385436e+01,-3.309059463381804900e+00,-0.000000000000000000e+00,6.060162455077455768e-01,7.954510096608298220e-01,1.286213009084856139e+03
1.673296130608751042e+00,-1.608004612514010034e+01,-3.512448142296615394e+00,-0.000000000000000000e+00,6.060162455077300336e-01,7.954510096608095049e-01,1.290437732965253645e+03
2.159767319636478167e+00,-1.569793543997713137e+01,-3.666985184689535160e+00,-0.000000000000000000e+00,6.060162455077083843e-01,7.954510096607810832e-01,1.294662456845651150e+03
2.400086051577769553e+00,-1.553375924862582025e+01,-3.724694961698407525e+00,-0.000000000000000000e+00,6.060162455076804067e-01,7.954510096607445568e-01,1.296555730976829182e+03
2.996235298453880258e+00,-1.520343061570468279e+01,-3.835416421917555052e+00,-0.000000000000000000e+00,6.060162455076464338e-01,7.954510096606998149e-01,1.300780454857226687e+03
3.694102180505387079e+00,-1.494909896487162904e+01,-3.923342155733821279e+00,-0.000000000000000000e+00,6.060162455076062438e-01,7.954510096606471903e-01,1.305005178737624192e+03
4.495184576872694571e+00,-1.479142902368733381e+01,-3.990022393758530406e+00,-0.000000000000000000e+00,6.060202226416513405e-01,7.954479796562803351e-01,1.309229902618021697e+03
5.379216447533937462e+00,-1.473528047925276496e+01,-4.018817996606427023e+00,-0.000000000000000000e+00,6.060241997591763186e-01,7.954449496328330760e-01,1.313454626498419202e+03
5.797924257577629525e+00,-1.473799115030193185e+01,-4.016786386371738793e+00,-0.000000000000000000e+00,6.060281768608845043e-01,7.954419195899085082e-01,1.315368865982916532e+03
6.739949812776508509e+00,-1.480335051955211867e+01,-3.960328625871283759e+00,-0.000000000000000000e+00,6.060321539474121666e-01,7.954388895270219084e-01,1.319593589863314037e+03
7.689660077984765252e+00,-1.496120710649059227e+01,-3.802867297737311691e+00,-0.000000000000000000e+00,6.060361310193952411e-01,7.954358594436884422e-01,1.323818313743711542e+03
8.540128274023301103e+00,-1.519778657383526621e+01,-3.521770104381764632e+00,-7.821938217469305565e-02,6.089261674832545657e-01,7.893596460436332896e-01,1.328043037624109047e+03
8.611970994368379095e+00,-1.522360195493987334e+01,-3.488487574603428509e+00,-1.559566354840179747e-01,6.080630532080697481e-01,7.784181724289203075e-01,1.328446470627186045e+03
9.082748098663889991e+00,-1.550348547017396861e+01,-3.065205405083380796e+00,-2.327326561483993583e-01,6.034521084277693070e-01,7.626788731776810160e-01,1.332671194507583550e+03
9.061963422278161318e+00,-1.574901341383488429e+01,-2.491314015286433925e+00,-1.382754467733406378e-01,7.078746855896901335e-01,6.926697122859741818e-01,1.336895918387981055e+03
9.004527372505373606e+00,-1.579680257763290285e+01,-2.331522395092976208e+00,-4.039896372713496636e-02,7.947932863819529015e-01,6.055324563128597903e-01,1.337925680324524819e+03
8.802003451341009921e+00,-1.590041958658503063e+01,-1.593661942802279130e+00,-2.695639197422410732e-02,8.127454954499383488e-01,5.819932237922706975e-01,1.342150404204922324e+03
8.719300481574249417e+00,-1.586069320840065622e+01,-6.978769332371848044e-01,-1.348532605070228325e-02,8.298385646128195736e-01,5.578387783625694540e-01,1.346375128085319830e+03
8.852505774299336494e+00,-1.573597361612289269e+01,3.628232102941693626e-01,-0.000000000000000000e+00,8.460544322676838425e-01,5.330946422747231406e-01,1.350599851965717335e+03
8.856397647782349836e+00,-1.573373850934388507e+01,3.796375263000229539e-01,-1.574856769718991911e-01,9.116312676427341666e-01,3.796375816556024074e-01,1.350661896177497738e+03
9.253498497156778413e+00,-1.556664079870060924e+01,1.588075113831227680e+00,-3.066795027799085749e-01,9.292095930666018910e-01,2.061921791156680339e-01,1.354886620057895243e+03
9.870026374232098831e+00,-1.536619382533587697e+01,2.879858847811618716e+00,-4.397262446094700739e-01,8.978639278308896410e-01,2.189056652654472121e-02,1.359111343938292748e+03
1.061682780197406295e+01,-1.512375144825017692e+01,4.167714803208215635e+00,-5.496208538094236040e-01,8.192447011469474738e-01,-1.635635555429008070e-01,1.363336067818690253e+03
1.140515049577417450e+01,-1.482946064094048388e+01,5.364369256204335912e+00,-6.305772811299199532e-01,6.974913354673005772e-01,-3.404058305499498838e-01,1.367560791699087758e+03
1.214665096663364885e+01,-1.447226659634485024e+01,6.382553003818252080e+00,-6.783331045803133730e-01,5.390142884852560101e-01,-4.993253408758362988e-01,1.371785515579485264e+03
1.277786277578509200e+01,-1.404716780506878848e+01,7.164250334844469492e+00,-7.095946077680084230e-01,4.737001069976794487e-01,-5.216145140411588832e-01,1.376010239459882769e+03
1.328430632003054157e+01,-1.356291155869826071e+01,7.709946553098954602e+00,-7.367830078195292121e-01,4.056668663137904529e-01,-5.409095977748786810e-01,1.380234963340280274e+03
1.367549465420471755e+01,-1.303540429623598129e+01,8.049383301412781577e+00,-7.597422425515878430e-01,3.353050784980384225e-01,-5.570998377467845097e-01,1.384459687220677779e+03
1.393521881701449416e+01,-1.254402993451124182e+01,8.207155996490181238e+00,-7.783405249632213696e-01,2.630186214706111691e-01,-5.700923012644538712e-01,1.388212437010048006e+03
1.413658253891595784e+01,-1.198048975597447985e+01,8.251047830912925818e+00,-7.924710996877099012e-01,1.892224208566658239e-01,-5.798124107037887498e-01,1.392437160890445512e+03
1.424651367067829710e+01,-1.142034304669496336e+01,8.174634179429160596e+00,-8.020528557856548835e-01,1.143400684211829249e-01,-5.862043715980466141e-01,1.396661884770843017e+03
1.427200537979582684e+01,-1.087992783217836568e+01,8.007687814806553561e+00,-8.070307923611022005e-01,3.880139075300450408e-02,-5.892314929275898061e-01,1.400886608651240522e+03
1.421940120682278774e+01,-1.037567317942871625e+01,7.779985996026933748e+00,-8.073763343262480019e-01,-3.696001785241925797e-02,-5.888763977705037123e-01,1.405111332531638027e+03
1.409439450771180091e+01,-9.924091001151944980e+00,7.521308994770567580e+00,-8.030874964993104381e-01,-1.125092841558765905e-01,-5.851411231027691118e-01,1.409336056412035532e+03
1.390202794181611168e+01,-9.541767853980521963e+00,7.261438621911532998e+00,-7.941888950897572075e-01,-1.874127521019218479e-01,-5.780471081722644566e-01,1.413560780292433037e+03
1.374284992387293869e+01,-9.329024273319797445e+00,7.100393655632142753e+00,-7.807316065003243599e-01,-2.612404719866954772e-01,-5.676350715099149902e-01,1.416348523323084919e+03
1.345615182429077983e+01,-9.080505285557883610e+00,6.896864001272266620e+00,-7.627928742511440596e-01,-3.335686683802012165e-01,-5.539647772801663539e-01,1.420573247203482424e+03
1.311251503099998672e+01,-8.945746031085535677e+00,6.771353164934541091e+00,-7.404756657028251920e-01,-4.039821726376620070e-01,-5.371146923079772595e-01,1.424797971083879929e+03
1.271459691389506119e+01,-8.941538011036019640e+00,6.753636213944102629e+00,-7.139080811175166907e-01,-4.720768060363053076e-01,-5.171815357470793684e-01,1.429022694964277434e+03
1.226440235396257172e+01,-9.084709086285723600e+00,6.873482889146909081e+00,-6.832426184448645579e-01,-5.374616998558546799e-01,-4.942797239707215073e-01,1.433247418844674939e+03
1.176191687994718826e+01,-9.374729283207219765e+00,7.138211794178944913e+00,-6.241465809230843931e-01,-4.933347070375612708e-01,-6.058546957433377234e-01,1.437472142725072445e+03
1.120460767837991867e+01,-9.776295657352219948e+00,7.510245695697116197e+00,-5.538854875043798254e-01,-4.403826879931350691e-01,-7.065917879853034211e-01,1.441696866605469950e+03
1.059009191515597692e+01,-1.023669223842102127e+01,7.929557721461118369e+00,-4.737162126769884352e-01,-3.795528819115004393e-01,-7.946889704029783674e-01,1.445921590485867455e+03
1.037532069630557707e+01,-1.039428314969482159e+01,8.070842480540713737e+00,-3.850728704836159366e-01,-3.119334475315843624e-01,-8.685703245732309119e-01,1.447321010137442954e+03
9.693670122738957673e+00,-1.085042976163269834e+01,8.464627382103264708e+00,-2.895411598693651833e-01,-2.387339971975608599e-01,-9.269142329926705060e-01,1.451545734017840459e+03
8.956839877488731005e+00,-1.124258292147316141e+01,8.765748964969182211e+00,-1.888299989994850214e-01,-1.612639587523810314e-01,-9.686770189729172476e-01,1.455770457898237964e+03
8.168944642472146356e+00,-1.151806610249529150e+01,8.914184031011481935e+00,-8.474095594273538257e-02,-8.090915232910195209e-02,-9.931116148027928636e-01,1.459995181778635470e+03
7.336049206948845658e+00,-1.162426776852907651e+01,8.849916950997725351e+00,2.086397755587581990e-02,8.929990393691098665e-04,-9.997809245000306433e-01,1.464219905659032975e+03
6.475661988424290527e+00,-1.151991202160255057e+01,8.549016130626945653e+00,-1.075832769857233556e-01,4.501088590728575742e-03,-9.941848815561771247e-01,1.468444629539430480e+03
5.625668304492774219e+00,-1.118649833543954841e+01,8.059708691931561475e+00,-2.342507720849760500e-01,8.034716278144679938e-03,-9.721419747713011539e-01,1.472669353419827985e+03
4.833994265676468061e+00,-1.061732483676383332e+01,7.466304593465208583e+00,-3.570430524531250649e-01,1.143542543797294864e-02,-9.340168573105031014e-01,1.476894077300225490e+03
4.211095262028882402e+00,-9.909987550519369748e+00,6.913490984574393927e+00,-4.739287674901241365e-01,1.464695818584351404e-02,-8.804402250926161022e-01,1.480679423907843557e+03
3.658093651030117854e+00,-8.895047284467311854e+00,6.352865460250233909e+00,-5.829742737178338352e-01,1.761618603149990581e-02,-8.122983849377580778e-01,1.484904147788241062e+03
3.303503565041530088e+00,-7.628532496885243930e+00,5.932319182807965774e+00,-6.823756216992571400e-01,2.029398874925953528e-02,-7.307185948985009949e-01,1.489128871668638567e+03
