1.095800287508657078e+01,-3.843721823068231291e+00,3.678543941187914168e+00,-8.886239723574309579e-01,5.612761865674423950e-02,-4.551869134484997637e-01,8.804263417472698450e+01
1.159255450354583772e+01,-3.747359789069759195e+00,3.192748708491583542e+00,-9.176537121442193135e-01,5.076708583533719871e-02,-3.941222749135747105e-01,9.604651000879307787e+01
1.216327651177936708e+01,-3.632892798795900990e+00,2.666161008831593016e+00,-9.424619106793109546e-01,4.517300699617191745e-02,-3.312445416260937914e-01,1.040503858428591712e+02
1.264250308071714635e+01,-3.508248439295913901e+00,2.131293698716421048e+00,-9.629344443430476463e-01,3.937111667689335848e-02,-2.668429708065822026e-01,1.116275555781125490e+02
1.308359406062623975e+01,-3.360502195551110294e+00,1.530264352036430298e+00,-9.789771342224095063e-01,3.338810535209226632e-02,-2.012138292717634003e-01,1.196314314121786424e+02
1.345899102696271399e+01,-3.198027139277384023e+00,8.955874653004433084e-01,-9.905161792602086290e-01,2.725149666611119750e-02,-1.346590307134830078e-01,1.276353072462447358e+02
1.376785006915346621e+01,-3.021923932858450623e+00,2.297001749167886797e-01,-9.974984957053687484e-01,2.098952083530101348e-02,-6.748474701739057280e-02,1.356391830803108292e+02
1.400922562359726165e+01,-2.833252945803673928e+00,-4.649548456541200414e-01,-9.998919613052957844e-01,1.463098480123151482e-02,-0.000000000000000000e+00,1.436430589143769225e+02
1.418207112371291423e+01,-2.633031147987694442e+00,-1.185929814555767070e+00,-9.981823272462061469e-01,1.626630961861973146e-02,5.801248782692323969e-02,1.516469347484430159e+02
1.428628801325968034e+01,-2.421712400543269084e+00,-1.930082781521934798e+00,-9.931077682697367903e-01,1.784679979657804311e-02,1.158294105072792957e-01,1.596508105825091093e+02
1.432380090717892251e+01,-2.198720661383007702e+00,-2.692888690965340448e+00,-9.846853908302446445e-01,1.936712749942732723e-02,1.732558670204558948e-01,1.676546864165752027e+02
1.430150427858292161e+01,-2.004816805085025688e+00,-3.331778651501695609e+00,-9.729435863978089793e-01,2.082216768981415972e-02,2.300982725251944083e-01,1.742401787284384795e+02
1.421246749088801131e+01,-1.755553436722739891e+00,-4.117206967944642138e+00,-9.579219357790135225e-01,2.220701540244088279e-02,2.861650108227408729e-01,1.822440545625045729e+02
1.406500597634285299e+01,-1.491796251894863756e+00,-4.906553464944647835e+00,-9.396710757391073532e-01,2.351700227643685470e-02,3.412670801907698448e-01,1.902479303965706663e+02
1.386199164136296957e+01,-1.212830317354595122e+00,-5.694595660386475799e+00,-9.182525283735255561e-01,2.474771229071822537e-02,3.952187304145295954e-01,1.982518062306367597e+02
1.360626969029554090e+01,-9.180439452080162432e-01,-6.476111265141668127e+00,-8.937384938017941538e-01,2.589499664935288395e-02,4.478380888710045138e-01,2.062556820647028530e+02
1.330065721512231747e+01,-6.069277141986215707e-01,-7.245879104522699343e+00,-8.662116068799499136e-01,2.695498776679271583e-02,4.989477735583636719e-01,2.142595578987689464e+02
1.301009301670687890e+01,-3.374895893635848076e-01,-7.865590235880182135e+00,-8.400783011653911725e-01,-9.523753143362256564e-04,5.424624787870523379e-01,2.208445829030425500e+02
1.261354310434102466e+01,7.309454594267824137e-03,-8.598024388607266033e+00,-8.111262802087794155e-01,-2.885653806116456749e-02,5.841570488879063161e-01,2.288484587371086434e+02
1.217950512641082561e+01,3.710333724511784004e-01,-9.305300192209614352e+00,-7.794526882396025647e-01,-5.666387357832600169e-02,6.238915869179186835e-01,2.368523345711747368e+02
1.171323131367396897e+01,7.545172341599616361e-01,-9.982929567108637769e+00,-7.451638009907005644e-01,-8.428107999668564554e-02,6.615327726179925927e-01,2.448562104052408301e+02
1.121997036234453482e+01,1.158402924320434346e+00,-1.062642962661835533e+01,-7.083746690778193189e-01,-1.116154935213052590e-01,6.969543097040177271e-01,2.528600862393069235e+02
1.070496475010602566e+01,1.583139405362494978e+00,-1.123132346792591107e+01,-6.692087319432445947e-01,-1.385753993344948642e-01,7.300373495859384665e-01,2.608639620733729885e+02
1.017344805681039155e+01,2.028983039628506013e+00,-1.179314096227799524e+01,-6.277974036602408381e-01,-1.650703393111303541e-01,7.606708900947650731e-01,2.688678379074390818e+02
9.630642290297386054e+00,2.495997970246576880e+00,-1.230741954426841289e+01,-5.842796319886013334e-01,-1.910114155142428882e-01,7.887521478810819442e-01,2.768717137415051752e+02
9.081755217767945254e+00,2.984056560677549097e+00,-1.276970500012192034e+01,-5.388014321611124258e-01,-2.163115884531361666e-01,8.141869032369823955e-01,2.848755895755712686e+02
8.531977703144498548e+00,3.492839892809497027e+00,-1.317555225486940174e+01,-4.915153969652542587e-01,-2.408859691039408613e-01,8.368898161858824292e-01,2.928794654096373620e+02
7.986481050850214203e+00,4.021838323464510978e+00,-1.352052615830985793e+01,-4.425801847637355624e-01,-2.646521037134995091e-01,8.567847127810345187e-01,3.008833412437034553e+02
7.521509521653167774e+00,4.496159768870989559e+00,-1.376285939678883530e+01,-3.921599871712203034e-01,-2.875302504317270302e-01,8.738048406534190127e-01,3.078128525742819761e+02
6.997670649608132898e+00,5.062076084600173331e+00,-1.397357944586477529e+01,-3.404239781726283720e-01,-3.094436468450222355e-01,8.878930929527570903e-01,3.158167284083480695e+02
6.492823208447290995e+00,5.645697497070573334e+00,-1.411077916460529202e+01,-2.875457465304289140e-01,-3.303187675138261059e-01,8.990021999312634016e-01,3.238206042424141629e+02
6.010832255743840058e+00,6.244978356495913374e+00,-1.417158943440109553e+01,-2.337027133842383697e-01,-3.500855706509307663e-01,9.070948875281409363e-01,3.318244800764802562e+02
5.915738558535796443e+00,6.369979577342113508e+00,-1.416845970425144507e+01,-1.778736619215064430e-01,-2.626699224878794037e-01,9.483477591125042405e-01,3.334685849853738659e+02
5.471921301049542663e+00,6.984966933580047055e+00,-1.407820958887986862e+01,-1.198282634809248876e-01,-1.719813458973349363e-01,9.777840272438179658e-01,3.414724608194399593e+02
5.052407052028477175e+00,7.606096820596501829e+00,-1.391382969458716090e+01,-6.028976035866445704e-02,-7.914981539980536773e-02,9.950369096251017176e-01,3.494763366535060527e+02
4.657046256061836864e+00,8.228752985913434514e+00,-1.367705737536370592e+01,-0.000000000000000000e+00,1.466799147868569526e-02,9.998914191168527532e-01,3.574802124875721461e+02
4.283985050989451260e+00,8.847827138499399169e+00,-1.337066282229428715e+01,6.406752773475243856e-02,3.141232725857261848e-02,9.974500576898912563e-01,3.654840883216382394e+02
3.928091712896194743e+00,9.457302223489525872e+00,-1.299946866063236506e+01,1.278537465960291331e-01,4.801873468300486142e-02,9.906289015570060030e-01,3.734879641557043328e+02
3.582468623636560601e+00,1.005087377924354008e+01,-1.256932900824785548e+01,1.910785713891497706e-01,6.441429500784863482e-02,9.794579001435415044e-01,3.814918399897704262e+02
3.239991130851499257e+00,1.062249425502823641e+01,-1.208610835135481842e+01,2.534643815851793103e-01,8.052701521142714702e-02,9.639861031610856834e-01,3.894957158238365196e+02
2.893311145190271549e+00,1.116637938741753366e+01,-1.155568050615617892e+01,3.147372403885106418e-01,9.628614412646699372e-02,9.442814453120684792e-01,3.974995916579026130e+02
2.534860807450250775e+00,1.167701449695976024e+01,-1.098392757924987073e+01,3.746280976438315924e-01,1.116224831227485143e-01,9.204304480599871940e-01,4.055034674919687063e+02
2.156856225041125619e+00,1.214916070361173794e+01,-1.037673892693467437e+01,4.328739712984219223e-01,1.264686899756794214e-01,8.925378397730169278e-01,4.135073433260347997e+02
1.751301277169565296e+00,1.257786105945115196e+01,-9.740010113554440352e+00,4.892191022293966851e-01,1.407595745857944947e-01,8.607260959066505013e-01,4.215112191601008931e+02
1.313368115278567672e+00,1.296033751836342596e+01,-9.078413480542375069e+00,5.434160773620743123e-01,1.544323852498722394e-01,8.251349012426915097e-01,4.295150949941669865e+02
8.448732369395233199e-01,1.329771734429177421e+01,-8.394168932988016252e+00,5.952269161446095413e-01,1.674270842257857828e-01,7.859205365448249658e-01,4.375189708282330798e+02
5.626948184194755509e-01,1.346445667551487446e+01,-7.992417838858104417e+00,6.444241156047867403e-01,1.796866113801877385e-01,7.432551923235602986e-01,4.420746015192186178e+02
4.367091525700769750e-02,1.371520130461036757e+01,-7.265750450424476981e+00,6.907916493967254379e-01,1.911571347604652804e-01,6.973262127241062203e-01,4.500784773532847112e+02
-4.927300453806510161e-01,1.392808589662669938e+01,-6.519001253438742260e+00,7.341259164474031040e-01,2.017882869898585674e-01,6.483352728582584268e-01,4.580823531873508045e+02
-1.040944357379531171e+00,1.410586281481372062e+01,-5.753181915988571760e+00,7.742366350344596082e-01,2.115333864469632896e-01,5.964974931942813585e-01,4.660862290214168979e+02
-1.595048445126188374e+00,1.425188695344648693e+01,-4.969319533084388674e+00,8.109476783667347588e-01,2.203496422577550240e-01,5.420404948957240343e-01,4.740901048554829913e+02
-2.148864222976502703e+00,1.436968735759833571e+01,-4.168450404859840752e+00,8.440978479963244796e-01,2.281983421994856487e-01,4.852034002599064366e-01,4.820939806895490847e+02
-2.696085519142648490e+00,1.446254493001889685e+01,-3.351613813277481757e+00,8.735415816644921394e-01,2.350450226909877871e-01,4.262357826482664480e-01,4.900978565236151780e+02
-3.230281724148359235e+00,1.453348885392577650e+01,-2.519851843831524274e+00,8.991495924722966437e-01,2.408596201227529987e-01,3.653965705228083838e-01,4.981017323576812714e+02
-3.744901478392741456e+00,1.458529309672134211e+01,-1.674209206882620649e+00,9.208094365690192573e-01,2.456166028622592534e-01,3.029529104045420862e-01,5.061056081917473648e+02
-4.233537486346586221e+00,1.462041876038336596e+01,-8.159474984019366994e-01,9.384260068660318366e-01,2.492950833550602874e-01,2.391789937501747898e-01,5.141094840258134582e+02
-4.691335009744320494e+00,1.464005377079010550e+01,5.283214724528279699e-02,9.519219506092326810e-01,2.518789098297175566e-01,1.743548529016063775e-01,5.221133598598795515e+02
-5.115925558855242805e+00,1.464332549398732830e+01,9.289954330683196648e-01,9.612380089781419334e-01,2.533567372043765697e-01,1.087651313982974099e-01,5.301172356939456449e+02
-5.506097902429456958e+00,1.462836258383818233e+01,1.808998319588854820e+00,9.663332772226882472e-01,2.537220768842562979e-01,4.269783405476375998e-02,5.381211115280117383e+02
-5.690564458739338249e+00,1.460930711730044074e+01,2.267596844564829794e+00,9.671853841981121747e-01,2.529733252321253456e-01,-2.355693770622109898e-02,5.422886040904016909e+02
-6.008167475377617528e+00,1.454946470386668800e+01,3.146430494588977833e+00,9.637905905126991080e-01,2.511137705875735038e-01,-8.970825970996679222e-02,5.502924799244677843e+02
-6.288731704227222608e+00,1.446609894378077499e+01,4.020168696553997556e+00,9.561638048606789786e-01,2.481515788051370797e-01,-1.554656624813153809e-01,5.582963557585338776e+02
-6.531194079746676096e+00,1.435715978604291898e+01,4.885267766143370771e+00,9.443385184719881309e-01,2.440997573756763794e-01,-2.205404066816732955e-01,5.663002315925999710e+02
-6.734534990017263745e+00,1.422054752040341086e+01,5.738185521956774338e+00,9.283666579701287391e-01,2.389760982894335584e-01,-2.846467509316408240e-01,5.743041074266660644e+02
-6.897779071604313472e+00,1.405411387845250637e+01,6.575381907907787316e+00,9.083183572874744538e-01,2.328030998924933703e-01,-3.475032064533790099e-01,5.823079832607321578e+02
-7.019995993988732863e+00,1.385566315223762324e+01,7.393319615339874140e+00,8.842816496425118800e-01,2.256078680805260472e-01,-4.088337730253666091e-01,5.903118590947982511e+02
-7.100301233437033233e+00,1.362295333018536780e+01,8.188464704778230185e+00,8.563620809341198070e-01,2.174219972643106069e-01,-4.683691508248317703e-01,5.983157349288643445e+02
-7.137856836179948594e+00,1.335369725010285613e+01,8.957287227235219973e+00,8.246822462525471575e-01,2.082814316302205593e-01,-5.258479228394891125e-01,6.063196107629304379e+02
-7.131872170771411668e+00,1.304556376903050818e+01,9.696261844986594269e+00,7.893812515437655941e-01,1.982263073052221158e-01,-5.810177026598193351e-01,6.143234865969965313e+02
-7.114246368653875940e+00,1.292739522455399737e+01,9.935626770705647814e+00,7.506141027918864506e-01,1.873007761196127385e-01,-6.336362426153787641e-01,6.170350872386934498e+02
-7.019607776295927692e+00,1.253645138161677863e+01,1.060771009339214999e+01,6.909534112817036222e-01,9.594539726652016876e-02,-7.165025221049845516e-01,6.250389630727595431e+02
-6.892189857370191852e+00,1.210169288316347647e+01,1.124276845197689667e+01,6.183221077440755886e-01,2.788934670268472527e-03,-7.859185663411100142e-01,6.330428389068256365e+02
-6.740228427066186079e+00,1.162198537699035761e+01,1.183807808143386531e+01,5.340836313994830054e-01,-9.041987641659272879e-02,-8.405812992336466616e-01,6.410467147408917299e+02
-6.571971910596606570e+00,1.109648997374788948e+01,1.239092218888621488e+01,4.398193093580087254e-01,-1.819313189866800795e-01,-8.794645929706228493e-01,6.490505905749578233e+02
-6.395677309588672088e+00,1.052466345080443766e+01,1.289859143151256582e+01,3.372986724944045944e-01,-2.700275391118209800e-01,-9.018385297025469649e-01,6.570544664090239166e+02
-6.219606167761535076e+00,9.906258367629146022e+00,1.335838439346517070e+01,2.284462387107844550e-01,-3.530547926496986899e-01,-9.072831032303049215e-01,6.650583422430900100e+02
-6.052020536541210305e+00,9.241323092687920848e+00,1.376760806173618867e+01,1.153053869621040728e-01,-4.294544886486898472e-01,-8.956961035519415137e-01,6.730622180771561034e+02
-6.010541570931088096e+00,9.054530875781637178e+00,1.386149367316034287e+01,0.000000000000000000e+00,-4.977924468362984745e-01,-8.672950362325992923e-01,6.751676299021933119e+02
-5.867648027164674929e+00,8.299571386135314199e+00,1.416418957093841513e+01,4.510098805441212916e-02,-4.760978869911474121e-01,-8.782338543235761463e-01,6.831715057362594052e+02
-5.750440476812372914e+00,7.499329457787906605e+00,1.440937546671347036e+01,9.008360870240324225e-02,-4.531538501295736543e-01,-8.868678207923323953e-01,6.911753815703254986e+02
-5.665076995811165084e+00,6.654754031937210712e+00,1.459350897070060427e+01,1.348298089747198558e-01,-4.290205511934480631e-01,-8.931742770963757572e-01,6.991792574043915920e+02
-5.616028735629885915e+00,5.768253868772758253e+00,1.471437607533457559e+01,1.792221564493708119e-01,-4.037613261878225113e-01,-8.971366730403380618e-01,7.071831332384576854e+02
-5.606467205052032554e+00,5.176790863296791834e+00,1.475157889824758151e+01,2.231441474374482592e-01,-3.774424659566764095e-01,-8.987446101970388845e-01,7.123073271816559782e+02
-5.625097840212595734e+00,4.220745963016028668e+00,1.474837575489237373e+01,2.664805127297742993e-01,-3.501330422053736124e-01,-8.979938691843187826e-01,7.203112030157220715e+02
-5.679902902258739061e+00,3.238198593104225420e+00,1.468523546388270873e+01,3.091175201021458818e-01,-3.219047262264618237e-01,-8.948864207263202974e-01,7.283150788497881649e+02
-5.769740297387505379e+00,2.235348762200078276e+00,1.456393852461178895e+01,3.509432727854955858e-01,-2.928316008045820928e-01,-8.894304204704746031e-01,7.363189546838542583e+02
-5.893260928210561467e+00,1.218341942252276100e+00,1.438627565139055875e+01,3.918480031179044643e-01,-2.629899657941249247e-01,-8.816401875740572658e-01,7.443228305179203517e+02
-6.048909567503150342e+00,1.932632918554667290e-01,1.415404745630789840e+01,4.317243606080811147e-01,-2.324581378798354914e-01,-8.715361671167345392e-01,7.523267063519864450e+02
-6.234925794592821369e+00,-8.338681004284008713e-01,1.386906413077717204e+01,4.704676936546020594e-01,-2.013162450458043651e-01,-8.591448764379369107e-01,7.603305821860525384e+02
-6.449344994233928929e+00,-1.857104951417141825e+00,1.353314512581170348e+01,5.079763241818782138e-01,-1.696460162921352155e-01,-8.444988355400397939e-01,7.683344580201186318e+02
-6.689999417804322945e+00,-2.870577495980956684e+00,1.314811883107175738e+01,5.441518144724037942e-01,-1.375305671510217986e-01,-8.276364817401025142e-01,7.763383338541847252e+02
-6.954519306651061328e+00,-3.868499175700784054e+00,1.271582225272537059e+01,5.788992254953209127e-01,-1.050541815649625871e-01,-8.086020687942063745e-01,7.843422096882508185e+02
-7.240334077402695634e+00,-4.845172302176487200e+00,1.223810069016590063e+01,6.121273660536501460e-01,-7.230209069936979760e-02,-7.874455507591363590e-01,7.923460855223169119e+02
-7.544673569056327800e+00,-5.794993693653109013e+00,1.171680741162932726e+01,6.437490320966074986e-01,-3.936024926985123157e-02,-7.642224508961568130e-01,8.003499613563830053e+02
-7.864569351638147410e+00,-6.712460283637375014e+00,1.115380332875431435e+01,6.736812355692221033e-01,-6.315109970955918271e-03,-7.389937159608321871e-01,8.083538371904490987e+02
-8.196856096226948551e+00,-7.592174700180663649e+00,1.055095667012814431e+01,7.018454221988968955e-01,2.674660340185319035e-02,-7.118255562611609522e-01,8.163577130245151920e+02
-8.538173006120848285e+00,-8.428850814508937361e+00,9.910142653861926831e+00,7.281676776475538571e-01,5.973812354180933759e-02,-6.827892719035912883e-01,8.243615888585812854e+02
-8.884965308917674776e+00,-9.217319257685032241e+00,9.233243159238558206e+00,7.525789214884973655e-01,9.257286733497389897e-02,-6.519610656826965167e-01,8.323654646926473788e+02
-9.226006865047034822e+00,-9.934781669840347718e+00,8.540622037618602391e+00,7.630935350022809427e-01,1.012162067866522741e-01,-6.383114727725226478e-01,8.401724681973482802e+02
-9.578561852108558483e+00,-1.061319496515881688e+01,7.802276431530193790e+00,7.733246102499611307e-01,1.098219446505301483e-01,-6.244246852944518311e-01,8.481763440314143736e+02
-9.935481274237259797e+00,-1.123032873995700243e+01,7.041671636420622882e+00,7.742768151070604787e-01,2.245286200431697299e-01,-5.916758507570069048e-01,8.561802198654804670e+02
-1.029787755089149925e+01,-1.178203589726318512e+01,6.264857338948977450e+00,7.642102551842738789e-01,3.360400073954795119e-01,-5.505068567245811062e-01,8.641840956995465604e+02
-1.066670682618684474e+01,-1.226410890650618946e+01,5.477886049633304388e+00,7.432681909027212264e-01,4.427691877846674506e-01,-5.015035819819356755e-01,8.721879715336126537e+02
-1.104276793702001669e+01,-1.267228424953600374e+01,4.686812033829985680e+00,7.117486509772826819e-01,5.431972986058261066e-01,-4.453633938924405622e-01,8.801918473676787471e+02
-1.142670143032630214e+01,-1.300224688913463034e+01,3.897690242481507639e+00,6.701001910354822400e-01,6.358951478243947131e-01,-3.828852242482600476e-01,8.881957232017448405e+02
-1.181898862963912578e+01,-1.324963475895671650e+01,3.116575242774187071e+00,6.189155102769919869e-01,7.195435521554308655e-01,-3.149581999093161166e-01,8.961995990358109339e+02
-1.221995075111253293e+01,-1.341004327383599559e+01,2.349520148848036172e+00,5.589230170246324292e-01,7.929521098311208549e-01,-2.425489900090040118e-01,9.042034748698770272e+02
-1.262974806915864079e+01,-1.347902985939085774e+01,1.602575552702113271e+00,4.909764631618326880e-01,8.550761408763757343e-01,-1.666880497363100455e-01,9.122073507039431206e+02
-1.304837913184590725e+01,-1.345211849985897068e+01,8.817884554374245676e-01,4.160427949117005975e-01,9.050315538646874769e-01,-8.845495639612846461e-02,9.202112265380092140e+02
-1.347476303474265436e+01,-1.332672225837384694e+01,1.923559991971798555e-01,4.919861666657851518e-01,8.705251771476099076e-01,-1.155542130932059666e-02,9.282151023720753074e+02
-1.356969101557649182e+01,-1.327832225555549428e+01,4.829924272172929356e-02,5.615968554879086083e-01,8.248137121541456729e-01,6.549284043882450113e-02,9.299751986704784485e+02
-1.400386981912902229e+01,-1.296548759168286047e+01,-5.708301655885411607e-01,6.239788592510322474e-01,7.684855460552176831e-01,1.416980900093752771e-01,9.379790745045445419e+02
-1.443686986478109802e+01,-1.255941762695749375e+01,-1.151874871193039107e+00,6.783292223103412066e-01,7.022657199295877506e-01,2.160794408824998347e-01,9.459829503386106353e+02
-1.486502497033634995e+01,-1.206354958698301516e+01,-1.692195722298407423e+00,7.239483705104832190e-01,6.270065956972432630e-01,2.876794844753261526e-01,9.539868261726767287e+02
-1.528479748449352904e+01,-1.148142674756300785e+01,-2.189160792079711371e+00,7.602491153767252374e-01,5.436768843445287658e-01,3.555766134029187953e-01,9.619907020067428221e+02
-1.569277948582280047e+01,-1.081669479218042795e+01,-2.640145841945133576e+00,7.867642116459588886e-01,4.533491767208811529e-01,4.188968837798674461e-01,9.699945778408089154e+02
-1.608569394170706346e+01,-1.007309814397345527e+01,-3.042534783776952967e+00,8.031523709226161545e-01,3.571861374412212964e-01,4.768252639092864786e-01,9.779984536748750088e+02
-1.646039582706929494e+01,-9.254476273071791326e+00,-3.393720141087397391e+00,8.092026541178363175e-01,2.564255396119827224e-01,5.286161246163121330e-01,9.860023295089411022e+02
-1.681387320271345232e+01,-8.364759980160505037e+00,-3.691103509028122343e+00,8.048371861916543413e-01,1.523643329939036728e-01,5.736028362512339829e-01,9.940062053430071956e+02
-1.714324825311216571e+01,-7.407967657142441098e+00,-3.932096013192154960e+00,7.901121582997975290e-01,4.634195063228831873e-02,6.112063488867344185e-01,1.002010081177073289e+03
-1.728335805581104268e+01,-6.941996864460173278e+00,-4.015898346020382093e+00,8.917207831121387596e-01,3.630234530246970182e-02,4.511254644683244663e-01,1.005671229717381607e+03
-1.756300366923143486e+01,-5.864533127504741650e+00,-4.142543237464638040e+00,9.611819213313236299e-01,2.495400166180555129e-02,2.747810253767869471e-01,1.013675105551447700e+03
-1.780699964803528346e+01,-4.730654314427342300e+00,-4.215908788094861137e+00,9.959914286866065058e-01,1.270603674607807647e-02,8.853039372393979589e-02,1.021678981385513794e+03
-1.800987436502958516e+01,-3.544986399686433920e+00,-4.239911581419387510e+00,9.948943569143275933e-01,0.000000000000000000e+00,-1.009119347719494297e-01,1.029682857219579773e+03
-1.816630215175333163e+01,-2.312341610416756232e+00,-4.218476936331340355e+00,9.893589622998405497e-01,1.084947962827894907e-01,-9.693153715536692583e-02,1.037686733053645867e+03
-1.827207522132288275e+01,-1.038293967591476852e+00,-4.154626624706313720e+00,9.721316970690084824e-01,2.157074129202523616e-01,-9.180564015321847349e-02,1.045690608887711960e+03
-1.832510481292536753e+01,2.702941862801648831e-01,-4.049566749861746473e+00,9.434161508649844263e-01,3.203708681254175406e-01,-8.559481960184742166e-02,1.053694484721778053e+03
-1.832498829777318505e+01,1.542130483059584778e+00,-3.910584237491629978e+00,9.035516704528538945e-01,4.212483050148185248e-01,-7.837247184379828036e-02,1.061315597997590430e+03
-1.827106372513950205e+01,2.897631674191546214e+00,-3.724019946299797379e+00,8.530093499284799874e-01,5.171476058859961755e-01,-7.022394648289888297e-02,1.069319473831656524e+03
-1.816242932904428997e+01,4.265472644442867001e+00,-3.497158128755032624e+00,8.905021735482908651e-01,4.518748656242637107e-01,-5.303757836971331741e-02,1.077323349665722617e+03
-1.799890196949762355e+01,5.638121647470753395e+00,-3.230321965010722884e+00,9.226861437461508775e-01,3.839082467696433576e-01,-3.553502776040290412e-02,1.085327225499788710e+03
-1.778053930950082062e+01,7.008046963563169918e+00,-2.923841708547496587e+00,9.493694047547579506e-01,3.136529265082011464e-01,-1.782063425710721238e-02,1.093331101333854804e+03
-1.750763975624600022e+01,8.367723576365845517e+00,-2.578054629613037996e+00,9.703928888872567216e-01,2.415277234475494972e-01,0.000000000000000000e+00,1.101334977167920897e+03
-1.718074233055564903e+01,9.709639847527389733e+00,-2.193304957728182014e+00,9.925051440274124115e-01,1.216752594869475734e-01,-1.125479021975876737e-02,1.109338853001986990e+03
-1.680062646458310383e+01,1.102630418772021414e+01,-1.769943823266851179e+00,9.997494087536581420e-01,0.000000000000000000e+00,-2.234098678766239035e-02,1.117342728836053084e+03
-1.636863080834383766e+01,1.231039246470945692e+01,-1.308620529990618175e+00,9.956651059029340001e-01,-8.031537230239119141e-02,-4.688750216055016101e-02,1.125346604670119177e+03
-1.588696493482116523e+01,1.355491138804732998e+01,-8.105737749213068888e-01,9.845416653884212499e-01,-1.600629229956490873e-01,-7.110253016603272636e-02,1.133350480504185271e+03
-1.535837901232338076e+01,1.475308815391967165e+01,-2.773401000689036389e-01,9.664577293161703553e-01,-2.386788566649973853e-01,-9.481487660657546279e-02,1.141354356338251364e+03
-1.527476486462054162e+01,1.492327401267761644e+01,-1.934705435221713010e-01,9.415411480610880179e-01,-3.156073784729175324e-01,-1.178569012026730728e-01,1.142537868273054755e+03
-1.467441336096645443e+01,1.602308789218218621e+01,4.068049005043773980e-01,9.099680763566414532e-01,-3.903046232619367117e-01,-1.400657026969496233e-01,1.150541744107120849e+03
-1.403447442763662778e+01,1.706193735901315733e+01,1.038943490942196624e+00,8.719617279474891625e-01,-4.622425003158965873e-01,-1.612842704554467987e-01,1.158545619941186942e+03
-1.335837867583722449e+01,1.803337839205754989e+01,1.701387407586485656e+00,8.277907976101964715e-01,-5.309124266142375426e-01,-1.813625944295057524e-01,1.166549495775253035e+03
-1.264976948762595832e+01,1.893107967071623321e+01,2.392573438695619004e+00,7.777675616918859891e-01,-5.958289222012045361e-01,-2.001587256355801814e-01,1.174553371609319129e+03
-1.191250158517457258e+01,1.974882849234844429e+01,3.110933253449306157e+00,7.222456705857042136e-01,-6.565330422647759345e-01,-2.175397796594709943e-01,1.182557247443385222e+03
-1.115063953606505542e+01,2.048053665788674493e+01,3.854893675089381411e+00,6.616176487367819714e-01,-7.125956216717741487e-01,-2.333828760933595869e-01,1.190561123277451316e+03
-1.036860345400927663e+01,2.112132494041018305e+01,4.621962279909741511e+00,6.067844294361037782e-01,-7.634472610163793860e-01,-2.212666622876179878e-01,1.198564999111517409e+03
-9.571260444140365919e+00,2.166861449550691887e+01,5.407813159336477327e+00,5.484686556765481225e-01,-8.099171712134759504e-01,-2.078805173978016119e-01,1.206568874945583502e+03
-8.763694249233903832e+00,2.212106266086885853e+01,6.207202357114756097e+00,4.870050252902230481e-01,-8.517386478570856401e-01,-1.933012702713872155e-01,1.214572750779649596e+03
-8.726999800681102926e+00,2.213752585300631992e+01,6.243803986005832307e+00,4.227463018648667803e-01,-8.886716657981168499e-01,-1.776125971524922798e-01,1.214934784745257957e+03
-7.915239569755907922e+00,2.241246775504223976e+01,7.060067629156603353e+00,3.560612901096051330e-01,-9.205042565009615707e-01,-1.609045414192334655e-01,1.222938660579324051e+03
-7.105230486786964228e+00,2.259036304162849618e+01,7.879137105678888808e+00,2.873327192066330027e-01,-9.470537243808672123e-01,-1.432729967928971782e-01,1.230942536413390144e+03
-6.302172486639012305e+00,2.267039544227152703e+01,8.695763148782029717e+00,2.169550462935999346e-01,-9.681676951529660791e-01,-1.248191569847860172e-01,1.238946412247456237e+03
-5.511299469921762118e+00,2.265191464592802006e+01,9.504696863564339182e+00,1.453321926774472639e-01,-9.837249901870124269e-01,-1.056489349384798354e-01,1.246950288081522331e+03
-4.737877240820259850e+00,2.253443726353286181e+01,1.030069065296807906e+01,7.287522576432688137e-02,-9.936363218588756263e-01,-8.587235499903095315e-02,1.254954163915588424e+03
-3.987201434111194764e+00,2.231764774551864505e+01,1.107849914356451571e+01,0.000000000000000000e+00,-9.978448059151073801e-01,-6.560292149534976969e-02,1.262958039749654517e+03
-3.263537494320716270e+00,2.200304503374520593e+01,1.183237835364141866e+01,-0.000000000000000000e+00,-9.835855841509201225e-01,-1.804366887633692407e-01,1.270961915583720611e+03
-2.568977780110079046e+00,2.159553534010241904e+01,1.255558495000517816e+01,-0.000000000000000000e+00,-9.561560075664735647e-01,-2.928543822378847916e-01,1.278965791417786704e+03
-1.904374067760277844e+00,2.110170361273339168e+01,1.324087919730230922e+01,-0.000000000000000000e+00,-9.159233617395665661e-01,-4.013507137418188542e-01,1.286969667251852798e+03
-1.823942217497458440e+00,2.102996637766184662e+01,1.332176220715540360e+01,-0.000000000000000000e+00,-8.634263667115642527e-01,-5.044729024126257677e-01,1.287977668574702420e+03
-1.211874238124283965e+00,2.038834886071203911e+01,1.391688622238888762e+01,-0.000000000000000000e+00,-7.993679635871988598e-01,-6.008401274813224280e-01,1.295981544408768514e+03
-6.319327532624680055e-01,1.967475374982245029e+01,1.445873395496128744e+01,-0.000000000000000000e+00,-7.246059022407840278e-01,-6.891620175539969750e-01,1.303985420242834607e+03
-8.426826316702341890e-02,1.889576797534335029e+01,1.494009411019787592e+01,-0.000000000000000000e+00,-6.401412561381290001e-01,-7.682559288356513028e-01,1.311989296076900700e+03
4.311918463415726488e-01,1.805795953336317439e+01,1.535376602418534020e+01,-0.000000000000000000e+00,-5.471050180358059123e-01,-8.370627809437137801e-01,1.319993171910966794e+03
9.147428101328992645e-01,1.716787125525797464e+01,1.569256093907740102e+01,-0.000000000000000000e+00,-4.467429560165271929e-01,-8.946612382632606053e-01,1.327997047745032887e+03
1.366901922453696017e+00,1.623201458911137252e+01,1.594930327681942472e+01,-0.000000000000000000e+00,-3.403989326167249918e-01,-9.402800469405299122e-01,1.336000923579098981e+03
1.788407908143852865e+00,1.525686339445779360e+01,1.611683191112254576e+01,-0.000000000000000000e+00,-2.294969103876757510e-01,-9.733083623002333207e-01,1.344004799413165074e+03
2.180220226488941204e+00,1.424884775179952889e+01,1.618800143751805365e+01,-0.000000000000000000e+00,-1.155218848283482841e-01,-9.933039283757639781e-01,1.352008675247231167e+03
2.543518307827141278e+00,1.321434778834583135e+01,1.615568344132293888e+01,-0.000000000000000000e+00,-0.000000000000000000e+00,-9.999989999999978618e-01,1.360012551081297261e+03
2.878801119030025557e+00,1.215922220274748256e+01,1.601621239626748050e+01,-0.000000000000000000e+00,-8.566789209172613606e-02,-9.963227450202754021e-01,1.368016426915363354e+03
3.184963150366493689e+00,1.108838221206832664e+01,1.577283094880271719e+01,-0.000000000000000000e+00,-1.683632018247733508e-01,-9.857240142516011661e-01,1.376020302749429447e+03
3.460158600311972421e+00,1.000631964809999985e+01,1.543224471026754152e+01,-0.000000000000000000e+00,-2.498882301809904061e-01,-9.682736557493085705e-01,1.384024178583495541e+03
3.702689909267596668e+00,8.917590608438695554e+00,1.500117643472544948e+01,-0.000000000000000000e+00,-3.296763108354792138e-01,-9.440929668603286196e-01,1.392028054417561634e+03
3.911008621841268074e+00,7.826811310481335937e+00,1.448636482744293019e+01,-0.000000000000000000e+00,-4.071728511752843449e-01,-9.133500256019587704e-01,1.400031930251627728e+03
4.083716204197492594e+00,6.738653926969776720e+00,1.389456335124806685e+01,-0.000000000000000000e+00,-4.818391869460635357e-01,-8.762585223120589184e-01,1.408035806085693821e+03
4.125941641466704723e+00,6.419304158014608852e+00,1.369869085768998573e+01,-0.000000000000000000e+00,-5.531563261722187708e-01,-8.330762743092757772e-01,1.410401198203851209e+03
4.238299453783972659e+00,5.349370074449831591e+00,1.296930973071680349e+01,-0.000000000000000000e+00,-6.206285563444376985e-01,-7.841034338983396967e-01,1.418405074037917302e+03
4.312552280025406581e+00,4.293203995694688579e+00,1.217849575556357955e+01,-0.000000000000000000e+00,-6.837868898176857613e-01,-7.296804021725882272e-01,1.426408949871983395e+03
4.347801965534318747e+00,3.255630059683976896e+00,1.133304681113874857e+01,-0.000000000000000000e+00,-7.421923234858351925e-01,-6.701854631069702473e-01,1.434412825706049489e+03
4.343303261090002643e+00,2.241510264068943936e+00,1.043977038546367808e+01,-0.000000000000000000e+00,-7.954388900877077395e-01,-6.060321543755956553e-01,1.442416701540115582e+03
4.298464400174412781e+00,1.255740220485504377e+00,9.505482373081926895e+00,6.291224589223401442e-02,-7.575036288693982600e-01,-6.497909675945681141e-01,1.450420577374181676e+03
4.212847630585867087e+00,3.032448965055505874e-01,8.537005871352386421e+00,1.253644914851043124e-01,-7.140295847092373860e-01,-6.887985891648632508e-01,1.458424453208247769e+03
4.086169700310098740e+00,-6.110256537466094429e-01,7.541169975786369939e+00,1.869000951466088523e-01,-6.653346312130470341e-01,-7.227697994129922421e-01,1.466428329042313862e+03
3.918302297565365855e+00,-1.482100569328812956e+00,6.524808574588999655e+00,2.470691169182198388e-01,-6.117748164029483959e-01,-7.514562033019018816e-01,1.474432204876379956e+03
3.709272444945757474e+00,-2.304992471580962210e+00,5.494759142565165178e+00,3.054316082753692485e-01,-5.537417596395179942e-01,-7.746480467270003833e-01,1.482436080710446049e+03
3.458065006287398546e+00,-3.075420135687737755e+00,4.458761090547474382e+00,3.615608288891683508e-01,-4.916597884533511209e-01,-7.921757503427232505e-01,1.490439956544512143e+03
3.161388875857407132e+00,-3.790470675435462233e+00,3.426353954715342098e+00,4.150463668752011892e-01,-4.259828362006597979e-01,-8.039111496962630943e-01,1.498443832378578236e+03
2.814821751190841326e+00,-4.447793519676700669e+00,2.407976154198515406e+00,4.654971397167301239e-01,-3.571911232074788667e-01,-8.097684325885429191e-01,1.506447708212644329e+03
2.413992338463967879e+00,-5.044853439499952685e+00,1.414063588977238828e+00,5.125442539177974544e-01,-2.857876456525564879e-01,-8.097047667931541737e-01,1.514451584046710423e+03
1.954583134650253351e+00,-5.578931884496966198e+00,4.550477941159196127e-01,5.558437024704498963e-01,-2.122944978482985690e-01,-8.037206135258611051e-01,1.522455459880776516e+03
1.432333196581028423e+00,-6.047128380356886268e+00,-4.586459054203032570e-01,5.950788804023875445e-01,-1.372490548017253897e-01,-7.918597243539815533e-01,1.530459335714842609e+03
9.839790881018771751e-01,-6.352576146616793373e+00,-1.113209217255560102e+00,6.299628999983875044e-01,-6.120004296399389476e-02,-7.742088215497960890e-01,1.536561334239258713e+03
3.287677378185103749e-01,-6.682790467251299660e+00,-1.908661658279225515e+00,6.602406887513230238e-01,1.529647210011871560e-02,-7.508969642081414486e-01,1.544565210073324806e+03
-3.896500179806909880e-01,-6.938238370995177817e+00,-2.636474541573605723e+00,6.856908546860087661e-01,9.168115177871004329e-02,-7.220946047485082842e-01,1.552569085907390900e+03
-1.161261871527392797e+00,-7.116121810923482727e+00,-3.296313132181537764e+00,7.061273053998792237e-01,1.673954744734734990e-01,-6.880123426893001159e-01,1.560572961741456993e+03
-1.974392457843081816e+00,-7.214052446042068745e+00,-3.889664019055802946e+00,7.214006089662451382e-01,2.418858197333703108e-01,-6.488993847996062936e-01,1.568576837575523086e+03
-2.817320324064044090e+00,-7.230058543107673152e+00,-4.418025575822023931e+00,7.313990867353439285e-01,3.146075165802685869e-01,-6.050417228854162444e-01,1.576580713409589180e+03
-3.678283594242455656e+00,-7.162586085901251565e+00,-4.882907689930561901e+00,7.360496300316381468e-01,3.850288264054856913e-01,-5.567600425366280303e-01,1.584584589243655273e+03
-4.545485644456332963e+00,-7.010499760187129503e+00,-5.285831490275523237e+00,7.353182347682957198e-01,4.526348312940468022e-01,-5.044073781329987405e-01,1.592588465077721366e+03
-5.407100787314383261e+00,-6.773083814146700909e+00,-5.628329073316440834e+00,7.292102500664642273e-01,5.169311993257426074e-01,-4.483665312666922920e-01,1.600592340911787460e+03
-6.251279964938959210e+00,-6.450042794091472409e+00,-5.911943227741473628e+00,7.177703390624620150e-01,5.774477993037087087e-01,-3.890472714723527958e-01,1.608596216745853553e+03
-7.066156449508771864e+00,-6.041502155286107012e+00,-6.138227157708133319e+00,7.010821521947365742e-01,6.337421384654647882e-01,-3.268833397498507876e-01,1.616600092579919647e+03
-7.104015798667687953e+00,-6.017877700453434286e+00,-6.146501871190488409e+00,6.792677153686862423e-01,6.854025980298982246e-01,-2.623292768081331161e-01,1.616988761600147200e+03
-7.842353667650868942e+00,-5.455356085565891355e+00,-6.261685135177822659e+00,6.524865374855524092e-01,7.320514429167532811e-01,-1.958570992403584066e-01,1.624992637434213293e+03
-8.528813678504652884e+00,-4.815404453620886649e+00,-6.322011807993830779e+00,6.209344438760783236e-01,7.733475836316605623e-01,-1.279528479513079853e-01,1.632996513268279386e+03
-9.156044848587216123e+00,-4.106209614941829678e+00,-6.328132046744271655e+00,5.848421441853044467e-01,8.089890701271189588e-01,-5.911303408990849217e-02,1.641000389102345480e+03
-9.717789311307626576e+00,-3.336419691254461029e+00,-6.280037589154257027e+00,5.444735451969795470e-01,8.387152994145357088e-01,1.015899151411475167e-02,1.649004264936411573e+03
-1.020838764300892976e+01,-2.514320163349609061e+00,-6.176587303227180747e+00,6.130059001248604478e-01,7.790542572519191244e-01,1.315151347539490478e-01,1.657008140770477667e+03
-1.062259648385845168e+01,-1.648100673968117880e+00,-6.016078615496092574e+00,6.674492297085788950e-01,7.014878614731863138e-01,2.498485660694932942e-01,1.665012016604543760e+03
-1.089635401215753596e+01,-9.096675888705750834e-01,-5.836621582915046069e+00,7.065522579988335883e-01,6.077988501724725934e-01,3.624396010999944018e-01,1.671566654257867413e+03
-1.114635268746271279e+01,1.969606449001553780e-02,-5.557328553626146750e+00,7.294162694259622715e-01,5.001404990656512783e-01,4.667005325586955355e-01,1.679570530091933506e+03
-1.130690331019106409e+01,9.696711083237733453e-01,-5.218518685742828289e+00,7.930740998131542430e-01,3.627163110823237724e-01,4.893550345923263767e-01,1.687574405925999599e+03
-1.137508605763287051e+01,1.933722943609961664e+00,-4.825383267255890729e+00,8.381335558412399411e-01,2.167860354469378081e-01,5.005336726019271598e-01,1.695578281760065693e+03
-1.134860897447700268e+01,2.905981188239031621e+00,-4.385407587869501356e+00,8.635379381941015176e-01,6.577187186622002191e-02,4.999742895096568329e-01,1.703582157594131786e+03
-1.122532293091125055e+01,3.880494555595468409e+00,-3.906085219779032336e+00,8.686914736452828745e-01,-8.678475117218918677e-02,4.876899943403344984e-01,1.711586033428197879e+03
-1.100447072077605526e+01,4.850924475684442960e+00,-3.394443953643112799e+00,8.534732894886478682e-01,-2.373062244246753605e-01,4.639688566899283773e-01,1.719589909262263973e+03
-1.068795188256802220e+01,5.810301594300829819e+00,-2.856571817606836206e+00,8.182402516510547397e-01,-3.822626561553157942e-01,4.293671532456551643e-01,1.727593785096330066e+03
-1.068607896735466589e+01,5.814844027365171364e+00,-2.853884504374311515e+00,7.638185991989352441e-01,-5.182546532166684150e-01,3.846963243079237205e-01,1.727632210915535779e+03
-1.022415210432818000e+01,6.744002748438401085e+00,-2.275069703468211024e+00,6.914845707154108068e-01,-6.420930433427143313e-01,3.310039458258326461e-01,1.735636086749601873e+03
-9.673649418077912898e+00,7.646826763106989944e+00,-1.681296328643609783e+00,6.029344763516597538e-01,-7.508736684608613432e-01,2.695491629322802618e-01,1.743639962583667966e+03
-9.038288111590713214e+00,8.516383714212645728e+00,-1.078192395765046774e+00,5.002449171508137615e-01,-8.420454942291394351e-01,2.017731610300068368e-01,1.751643838417734059e+03
-8.321972602387779361e+00,9.345876072112250910e+00,-4.713875648843434685e-01,3.858240846345607489e-01,-9.134704377246155582e-01,1.292653670481524186e-01,1.759647714251800153e+03
-7.528792673684222336e+00,1.012864615907387211e+01,1.334878550366670469e-01,2.623552831358225146e-01,-9.634735095788565795e-01,5.372617378629649526e-02,1.767651590085866246e+03
-6.663021573505572448e+00,1.085818113260396700e+01,7.308039014894188723e-01,1.327339999768187839e-01,-9.908820942862828218e-01,-2.307293809702410173e-02,1.775655465919932340e+03
-5.729114062066629209e+00,1.152811792659417733e+01,1.314931953735779091e+00,0.000000000000000000e+00,-9.950534475069289231e-01,-9.933094484752662268e-02,1.783659341753998433e+03
-4.731704407726100570e+00,1.213224814918188876e+01,1.880245727946892265e+00,-2.572198949475819618e-01,-9.597554600510722622e-01,-1.127181553500170574e-01,1.791663217588064526e+03
-3.675604331837153627e+00,1.266452293622644554e+01,2.421122272031303257e+00,-4.970549346329666274e-01,-8.595901424476586339e-01,-1.184870413347764162e-01,1.799667093422130620e+03
-2.565800902823108132e+00,1.311905775930856777e+01,2.931942960020816447e+00,-7.032952946951093187e-01,-7.013274555067088301e-01,-1.162477036889892346e-01,1.807670969256196713e+03
-1.408667291577221148e+00,1.349070759692143184e+01,3.408988346264182567e+00,-8.620017719880562757e-01,-4.956640031599928164e-01,-1.061515005166612374e-01,1.815674845090262806e+03
-1.262519757852922808e+00,1.352686644970257390e+01,3.463158196667401878e+00,-9.624478833641667563e-01,-2.565000446221210040e-01,-8.888081299130087820e-02,1.816653591133128202e+03
-3.495473975308651532e-02,1.374841081181845226e+01,3.872602414312220631e+00,-9.978448059155614613e-01,-0.000000000000000000e+00,-6.560292149537962081e-02,1.824657466967194296e+03
1.220553699372732170e+00,1.389054818361957544e+01,4.248409627983932957e+00,-9.964856948682970783e-01,-0.000000000000000000e+00,-8.375117860585871987e-02,1.832661342801260389e+03
2.496407726252506620e+00,1.395584853607536324e+01,4.590600545582327108e+00,-9.947965409861071473e-01,-0.000000000000000000e+00,-1.018716939941586991e-01,1.840665218635326482e+03
3.785364714662171615e+00,1.394492586265352685e+01,4.899181513872791882e+00,-9.927779038249605614e-01,-0.000000000000000000e+00,-1.199584664465057487e-01,1.848669094469392576e+03
5.080221258391618200e+00,1.385864582655067778e+01,5.174164813774353000e+00,-9.904304520402420486e-01,-0.000000000000000000e+00,-1.380055059290597463e-01,1.856672970303458669e+03
6.373816527886196681e+00,1.369812457411157425e+01,5.415568655743131288e+00,-9.877549631618864900e-01,-0.000000000000000000e+00,-1.560068355698066567e-01,1.864676846137524763e+03
7.659035613192625824e+00,1.346472747488515331e+01,5.623417174367737914e+00,-9.847523233368148388e-01,-0.000000000000000000e+00,-1.739564936363012237e-01,1.872680721971590856e+03
8.928812852672143308e+00,1.316006778861799731e+01,5.797740422177384723e+00,-9.814235270354989549e-01,-0.000000000000000000e+00,-1.918485355083962007e-01,1.880684597805656949e+03
1.017613514694563115e+01,1.278600525949729594e+01,5.938574362663578299e+00,-9.777696767227497254e-01,-0.000000000000000000e+00,-2.096770356453106776e-01,1.888688473639723043e+03
1.139404525753770869e+01,1.234464463796635236e+01,6.045960862516264633e+00,-9.737919824928413792e-01,-0.000000000000000000e+00,-2.274360895463909127e-01,1.896692349473789136e+03
1.170442843478221384e+01,1.221410232305075638e+01,6.065389428480805201e+00,-9.694917616690875706e-01,-0.000000000000000000e+00,-2.451198157049211956e-01,1.898788793137455286e+03
1.285199548132966108e+01,1.166039268096761994e+01,6.106387226250365785e+00,-9.648704383680040131e-01,-0.000000000000000000e+00,-2.627223575543413681e-01,1.906792668971521380e+03
1.395497858529203050e+01,1.104541873874228664e+01,6.114637760047139992e+00,-9.599295430281978847e-01,-0.000000000000000000e+00,-2.802378854062338442e-01,1.914796544805587473e+03
1.438208848014832242e+01,1.077562893549702139e+01,6.105393707143539572e+00,-9.546707119041405454e-01,-0.000000000000000000e+00,-2.976605983794417543e-01,1.918029671460766167e+03
1.539178954307285530e+01,1.005712376060457558e+01,6.052515979764347520e+00,-9.978448059123020686e-01,-0.000000000000000000e+00,-6.560292149516534776e-02,1.926033547294832260e+03
1.634926642504732541e+01,9.285427674973020018e+00,5.969910597272990671e+00,-9.979324485751058793e-01,-0.000000000000000000e+00,-6.425595697284865182e-02,1.934037423128898354e+03
1.725259504444598946e+01,8.464492403034723722e+00,5.857828707014883562e+00,-9.980182730346742748e-01,-0.000000000000000000e+00,-6.290887548320497902e-02,1.942041298962964447e+03
1.809995613958561833e+01,7.598327410114199765e+00,5.716526645354191416e+00,-9.981022791013838269e-01,-0.000000000000000000e+00,-6.156167946344247299e-02,1.950045174797030541e+03
1.888963594968421944e+01,6.690997085900567853e+00,5.546265893023208271e+00,-9.981844666234390706e-01,-0.000000000000000000e+00,-6.021437135324594209e-02,1.958049050631096634e+03
1.962002686676900964e+01,5.746617913437543912e+00,5.347313029788379524e+00,-9.982648354522779544e-01,-0.000000000000000000e+00,-5.886695359249820986e-02,1.966052926465162727e+03
2.028962805843141837e+01,4.769355624253655890e+00,5.119939688438964076e+00,-9.983433854425713960e-01,-0.000000000000000000e+00,-5.751942862127603501e-02,1.974056802299228821e+03
2.089704606133111042e+01,3.763422340257566390e+00,4.864422508104459197e+00,-9.984201164522236160e-01,-0.000000000000000000e+00,-5.617179887984604519e-02,1.982060678133294914e+03
2.144099534535528306e+01,2.733073703025552970e+00,4.581043086906988471e+00,-9.984950283423722484e-01,-0.000000000000000000e+00,-5.482406680866058063e-02,1.990064553967361007e+03
2.192029884834409970e+01,1.682605991109898058e+00,4.270087933954802573e+00,-9.985681209773891176e-01,-0.000000000000000000e+00,-5.347623484835372504e-02,1.998068429801427101e+03
2.233388848129757065e+01,6.163532259983595107e-01,3.931848420683178524e+00,-9.986393942248797950e-01,-0.000000000000000000e+00,-5.212830543973705211e-02,2.006072305635493194e+03
2.268080560398343337e+01,-4.613157326431129857e-01,3.566620731549098533e+00,-9.987088479556843756e-01,-0.000000000000000000e+00,-5.078028102379562175e-02,2.014076181469559288e+03
2.296020147086970553e+01,-1.546000101810308669e+00,3.174705814086220101e+00,-9.987764820438771451e-01,-0.000000000000000000e+00,-4.943216404168391392e-02,2.022080057303625381e+03
2.317133764731022438e+01,-2.633270099448009383e+00,2.756409328326665076e+00,-9.988422963667674681e-01,-0.000000000000000000e+00,-4.808395693472168608e-02,2.030083933137691474e+03
2.331358639591616466e+01,-3.718669877548046010e+00,2.312041595596193488e+00,-9.989062908048993439e-01,-0.000000000000000000e+00,-4.673566214438981681e-02,2.038087808971757568e+03
2.338643103305065551e+01,-4.797720463420128034e+00,1.841917546689500140e+00,-9.989684652420519617e-01,-0.000000000000000000e+00,-4.538728211232637144e-02,2.046091684805823661e+03
2.338763587866629479e+01,-4.937208397494773138e+00,1.777241743522419704e+00,-9.990288195652399228e-01,-0.000000000000000000e+00,-4.403881928032236936e-02,2.047136279865358347e+03
2.333312693122992698e+01,-5.992911469731892815e+00,1.256425823333453984e+00,-9.990873536647134623e-01,-0.000000000000000000e+00,-4.269027609031774556e-02,2.055140155699424213e+03
2.320868235882845099e+01,-7.031748680899831072e+00,7.105417585251865287e-01,-9.991440674339581163e-01,-0.000000000000000000e+00,-4.134165498439722891e-02,2.063144031533490306e+03
2.301413938847294460e+01,-8.049191524700313849e+00,1.399205182687522087e-01,-9.991989607696954989e-01,-0.000000000000000000e+00,-3.999295840478626213e-02,2.071147907367556400e+03
2.275032909867744024e+01,-9.041784054988674768e+00,-4.534806338996154040e-01,-9.982059545133549205e-01,-4.801507892358493519e-04,5.985517378794102950e-02,2.079151783201622493e+03
2.241990395233873201e+01,-1.000827313104573868e+01,-1.064456577521954328e+00,-9.872599552618370744e-01,-9.555139052457606872e-04,1.591064666495917435e-01,2.087155659035688586e+03
2.202637403147450357e+01,-1.094859200812053857e+01,-1.686177160895766081e+00,-9.664701110266822326e-01,-1.421349608183971854e-03,2.567713073099773258e-01,2.095159534869754680e+03
2.157319673897266199e+01,-1.186279779990203131e+01,-2.311810315277860628e+00,-9.360437174974478580e-01,-1.873013160214111053e-03,3.518759024935256274e-01,2.103163410703820773e+03
2.130909636348334502e+01,-1.232649693594944118e+01,-2.636563658474087024e+00,-8.962841509979221355e-01,-2.306001131121798546e-03,4.434719867466797583e-01,2.107331732485573866e+03
2.075064023791624024e+01,-1.319315061122495081e+01,-3.252903435129302689e+00,-8.475878438099091472e-01,-2.715996295123831224e-03,5.306462761482237944e-01,2.115335608319639960e+03
