-1.744847226992726874e+01,1.300793714104643684e+01,-3.625455069034321465e+00,9.567725445040204946e-01,-2.908254620083579600e-01,2.201983006182876498e-03,1.117342728836053084e+03
-1.723610003259864598e+01,1.434346657255592028e+01,-4.375608773780291116e+00,9.539233295178829453e-01,-2.976130530714404254e-01,3.814121184728911512e-02,1.125346604670119177e+03
-1.720283025733718674e+01,1.551356411928568235e+01,-4.983528250114587443e+00,9.497903047842257696e-01,-3.040001109512658894e-01,7.402911236517864535e-02,1.133350480504185271e+03
-1.729827485001668919e+01,1.654623214826008137e+01,-5.444828298948983125e+00,9.443790321130526300e-01,-3.099780398970257700e-01,1.098173869874665698e-01,1.141354356338251364e+03
-1.732430493596178067e+01,1.668166576055355321e+01,-5.499665590731177112e+00,9.376967934549446104e-01,-3.155387947130168236e-01,1.454578721594574353e-01,1.142537868273054755e+03
-1.755179522604547770e+01,1.749534590110183174e+01,-5.777587238688453475e+00,9.308780680270587471e-01,-3.430033361353009846e-01,1.257486932870523488e-01,1.150541744107120849e+03
-1.779854560928875884e+01,1.822594418331573962e+01,-5.899560478635184069e+00,9.229522970226479162e-01,-3.700599566151959174e-01,1.058899708558384556e-01,1.158545619941186942e+03
-1.801144262536712759e+01,1.889519452877187433e+01,-5.861285448445865853e+00,9.139289063127831181e-01,-3.966764802725578631e-01,8.590532114989467283e-02,1.166549495775253035e+03
-1.813656829371319290e+01,1.952277984594331173e+01,-5.658490708020750937e+00,9.038186269341850210e-01,-4.228212545786822485e-01,6.581851016807054033e-02,1.174553371609319129e+03
-1.811922949841272512e+01,2.012630947459305020e+01,-5.286933998250745503e+00,8.926334823288942788e-01,-4.484631879816534661e-01,4.565342537175947485e-02,1.182557247443385222e+03
-1.790398762166704572e+01,2.072129727946477828e+01,-4.742402996203203713e+00,8.803867740494207839e-01,-4.735717868653126494e-01,2.543404728865098982e-02,1.190561123277451316e+03
-1.743468842075919056e+01,2.132114039880116252e+01,-4.020716066272592926e+00,8.670930659459420431e-01,-4.981171917979467789e-01,5.184421006040725900e-03,1.198564999111517409e+03
-1.665449214341608553e+01,2.193709865334344755e+01,-3.117723006961775400e+00,8.527681668542906879e-01,-5.220702130277620201e-01,-1.507137241253445580e-02,1.206568874945583502e+03
-1.550590387665601533e+01,2.257827462089720072e+01,-2.029305793313612494e+00,8.374291118052266114e-01,-5.454023651830950392e-01,-3.530924455347897450e-02,1.214572750779649596e+03
-1.544339802489730751e+01,2.260899816628357328e+01,-1.975731089805942142e+00,8.210941417772363859e-01,-5.680859011362460187e-01,-5.550512828822978112e-02,1.214934784745257957e+03
-1.379739331162836002e+01,2.333018366598919613e+01,-6.931372142191181140e-01,7.500818130619009150e-01,-6.508880985804171848e-01,-1.171322194829451935e-01,1.222938660579324051e+03
-1.166261751697193638e+01,2.408745076883345959e+01,7.832002002133415797e-01,6.672955433821510240e-01,-7.234733756912338221e-01,-1.769206953671059734e-01,1.230942536413390144e+03
-9.059368178446392861e+00,2.489007024362217990e+01,2.473298678902096093e+00,5.740348202867429084e-01,-7.847023730634945515e-01,-2.339320645141893806e-01,1.238946412247456237e+03
-6.166267490781321747e+00,2.576283997119965008e+01,4.429141092355134646e+00,4.717635461966208088e-01,-8.336139893728397032e-01,-2.872714277524093252e-01,1.246950288081522331e+03
-3.240128884433712386e+00,2.674521494483389716e+01,6.718664753007868917e+00,3.620870597997978835e-01,-8.694404671980713317e-01,-3.361015250262519016e-01,1.254954163915588424e+03
-5.360777656283243209e-01,2.788640366044382546e+01,9.409747676482902889e+00,2.467269375238372864e-01,-8.916194440363128804e-01,-3.796558774963361138e-01,1.262958039749654517e+03
1.766720260097066841e+00,2.921988161205190693e+01,1.253446669791010848e+01,1.274939705847217553e-01,-8.998027794028347071e-01,-4.172508186264903274e-01,1.270961915583720611e+03
3.638068571962543185e+00,3.073416633218074878e+01,1.605336194108392434e+01,6.259741726534408246e-03,-8.938620194913305950e-01,-4.482962254417837134e-01,1.278965791417786704e+03
5.120783486875266632e+00,3.239263891434521980e+01,1.989117361158173125e+01,-1.150727522650697443e-01,-8.738904136251770538e-01,-4.723047815352379719e-01,1.286969667251852798e+03
5.270201685185566198e+00,3.261716875494838064e+01,2.039466263635061338e+01,-2.345989712158692564e-01,-8.402014508300185147e-01,-4.888996264351218590e-01,1.287977668574702420e+03
6.183603026302676220e+00,3.450314609896019391e+01,2.451024317331147984e+01,-2.231515830877297546e-01,-8.277697557688885599e-01,-5.147801495770506497e-01,1.295981544408768514e+03
6.795611179875534980e+00,3.645383378814938169e+01,2.878456951612772130e+01,-2.114909986967932753e-01,-8.145472165923618446e-01,-5.401688526847714389e-01,1.303985420242834607e+03
7.143505699111487139e+00,3.842796557162654381e+01,3.314224799805657540e+01,-1.996283583842027587e-01,-8.005464660686409939e-01,-5.650414800639290691e-01,1.311989296076900700e+03
7.262748447429622445e+00,4.038290788163471490e+01,3.750786992723552515e+01,-1.875749955138119041e-01,-7.857808804107524470e-01,-5.893742690667475026e-01,1.319993171910966794e+03
7.186964632906326145e+00,4.227471251526147711e+01,4.180602494760390897e+01,-1.753424256457619401e-01,-7.702645664968938988e-01,-6.131439727887194602e-01,1.327997047745032887e+03
6.947924435388036279e+00,4.405816972742799464e+01,4.596131439978996269e+01,-1.629423355364071069e-01,-7.540123483940919247e-01,-6.363278822732265638e-01,1.336000923579098981e+03
6.575525229344038713e+00,4.568686172189666195e+01,4.989836468064245167e+01,-1.503865719748346819e-01,-7.370397531971422111e-01,-6.589038482024073273e-01,1.344004799413165074e+03
6.097774405396128472e+00,4.711321652701766283e+01,5.354184059994832978e+01,-1.376871304666284768e-01,-7.193629961963514674e-01,-6.808503020535949801e-01,1.352008675247231167e+03
5.540772793387706230e+00,4.828856224359572735e+01,5.681645873212290354e+01,-1.248561437756672970e-01,-7.009989653882292560e-01,-7.021462767011557027e-01,1.360012551081297261e+03
4.928698689652107667e+00,4.916318165245147753e+01,5.964700076064004719e+01,-1.119058703348864842e-01,-6.819652053439025918e-01,-7.227714264440833203e-01,1.368016426915363354e+03
4.283792491110260059e+00,4.968636716877087167e+01,6.195832681345401483e+01,-9.884868253705438035e-02,-6.622799004506424447e-01,-7.427060464402565065e-01,1.376020302749429447e+03
3.626341938871804338e+00,4.980647612972974514e+01,6.367538878795320301e+01,-8.569705491672909015e-02,-6.419618575424774765e-01,-7.619310915288225461e-01,1.384024178583495541e+03
2.974667973745411143e+00,4.947098640197634722e+01,6.472324366381619143e+01,-7.246355223466444118e-02,-6.210304879364590969e-01,-7.804281944227582368e-01,1.392028054417561634e+03
2.345111205949384825e+00,4.862655229558922088e+01,6.502706680215312929e+01,-5.916081747602794372e-02,-5.995057888917012523e-01,-7.981796832542521480e-01,1.400031930251627728e+03
1.752019001266713616e+00,4.721906077124614853e+01,6.451216522916166696e+01,-4.580155977387436600e-02,-5.774083245088703631e-01,-8.151685984561716225e-01,1.408035806085693821e+03
1.592483252034871288e+00,4.662260375353488939e+01,6.416213876452763998e+01,-3.239854226939082454e-02,-5.547592060883312914e-01,-8.313787089635008565e-01,1.410401198203851209e+03
1.110268442897860863e+00,4.395744396816763810e+01,6.226000713364422268e+01,-9.231826512078430275e-03,-4.114831842125677985e-01,-9.113694983306326325e-01,1.418405074037917302e+03
6.814365734947231967e-01,4.060163266687030870e+01,5.936828245284341676e+01,1.418844809477553225e-02,-2.569063247537042294e-01,-9.663311172879579525e-01,1.426408949871983395e+03
3.136792490377336984e-01,3.649908781001570190e+01,5.541281860898256184e+01,3.721908771541840993e-02,-9.527375951319531910e-02,-9.947540652107702552e-01,1.434412825706049489e+03
1.264716672466262640e-02,3.159320452275312263e+01,5.031965798995041439e+01,5.922759219085611815e-02,6.897556523000852868e-02,-9.958576523372426603e-01,1.442416701540115582e+03
-2.180594996990135592e-01,2.582691261960047413e+01,4.401504465432600455e+01,7.960952540473972827e-02,2.313307866310845007e-01,-9.696114637391718416e-01,1.450420577374181676e+03
-3.769000869071578164e-01,1.914273433807548841e+01,3.642543747466549320e+01,9.780511669377382755e-02,3.873330107095196984e-01,-9.167362204882986143e-01,1.458424453208247769e+03
-4.644017988540069530e-01,1.148284226761826865e+01,2.747752325317472710e+01,1.133146370072917325e-01,5.326977826163826757e-01,-8.386840080905348938e-01,1.466428329042313862e+03
-4.412268045932579152e-01,3.188423771918217575e+00,1.771113091483108803e+01,1.257121268262650637e-01,6.634327749903818905e-01,-7.375984098603105554e-01,1.474432204876379956e+03
-1.662647503481842204e-01,-4.603229685782302738e+00,8.892036796922491604e+00,1.346570979459608963e-01,7.759474568483512025e-01,-6.162556370327492150e-01,1.482436080710446049e+03
2.643429376856148982e-01,-1.083487148464212169e+01,2.353343159834405895e+00,1.399038869121666251e-01,8.671517248803634059e-01,-4.779882722994338584e-01,1.490439956544512143e+03
4.213876374208854192e-01,-1.534613229562993375e+01,-2.257973251505276391e+00,1.413084026391099035e-01,9.345407828472153122e-01,-3.265937239626531263e-01,1.498443832378578236e+03
1.232491430878870919e-01,-1.834984433332768816e+01,-5.530498467966997289e+00,1.388320826906437877e-01,9.762639344952973586e-01,-1.662299101054179051e-01,1.506447708212644329e+03
-5.325007416654287118e-01,-2.001373646092127601e+01,-7.647963147941236883e+00,1.325429498045449239e-01,9.911754000868270298e-01,-1.301043916162988347e-03,1.514451584046710423e+03
-1.454944944875181889e+00,-2.050863029951229421e+01,-8.794303122359101721e+00,1.226137402590660036e-01,9.788657633775573741e-01,1.636633373229628985e-01,1.522455459880776516e+03
-2.559859413445416898e+00,-2.000825020584048630e+01,-9.153626694618770543e+00,1.093171563309202204e-01,9.396731902795292246e-01,3.241327734115515558e-01,1.530459335714842609e+03
-3.486492146786346780e+00,-1.899643530564853577e+01,-8.971186960098835428e+00,9.301837410326083133e-02,8.746741172519588714e-01,4.757002950255135865e-01,1.536561334239258713e+03
-4.748353662927299546e+00,-1.699976133914245935e+01,-8.295703692403083807e+00,1.633047199042561293e-01,8.637727215380681667e-01,4.766825505343587621e-01,1.544565210073324806e+03
-5.991836238462493469e+00,-1.450087082598073884e+01,-7.342419797423888284e+00,2.327647383893890198e-01,8.485006500964685783e-01,4.752527994117656807e-01,1.552569085907390900e+03
-7.158202653175266050e+00,-1.168275522154613277e+01,-6.295807834471178310e+00,3.010469649643572332e-01,8.289351802920500445e-01,4.714182768628513709e-01,1.560572961741456993e+03
-8.195562302376444563e+00,-8.730393556081470052e+00,-5.340356916344943805e+00,3.678058947941585388e-01,8.051753135034647180e-01,4.651983859384263842e-01,1.568576837575523086e+03
-9.058897275036839503e+00,-5.830558377927376412e+00,-4.660539954465148682e+00,4.327037309186944625e-01,7.773412741699573525e-01,4.566245993388210467e-01,1.576580713409589180e+03
-9.710086311562895034e+00,-3.171621133612152477e+00,-4.440780908245322678e+00,4.954120933665901449e-01,7.455739014751018301e-01,4.457403001589460012e-01,1.584584589243655273e+03
-1.013537698394722142e+01,-8.882242057013498560e-01,-4.790718864137533117e+00,5.556136806254391436e-01,7.100339367452803696e-01,4.326005623809005551e-01,1.592588465077721366e+03
-1.036010100945807721e+01,9.949075497352206643e-01,-5.670485387224298179e+00,6.130038750674083881e-01,6.709012101666594896e-01,4.172718722243397016e-01,1.600592340911787460e+03
-1.042709409131531650e+01,2.509226807858369046e+00,-6.965414760623638735e+00,6.672922842121616904e-01,6.283737309327971365e-01,3.998317917634506835e-01,1.608596216745853553e+03
-1.037785287053056038e+01,3.687650932821840311e+00,-8.560767509990187207e+00,7.182042100329175671e-01,5.826666854227504633e-01,3.803685665109556302e-01,1.616600092579919647e+03
-1.037287829082810653e+01,3.730831575646301967e+00,-8.644260932043296819e+00,7.654820388745479098e-01,5.340113484741719763e-01,3.589806789525891162e-01,1.616988761600147200e+03
-1.023930621776524852e+01,4.349414543348592233e+00,-1.042750474385218418e+01,7.417271928393190938e-01,5.208946033409338483e-01,4.225015782358260696e-01,1.624992637434213293e+03
-1.007485471485559358e+01,4.703885149953714873e+00,-1.227597709706629558e+01,7.144333822909800791e-01,5.052925400804193501e-01,4.840066024407908007e-01,1.632996513268279386e+03
-9.916821099498749348e+00,4.831472900674201654e+00,-1.407483977390994845e+01,6.837308325691088262e-01,4.872796001136155408e-01,5.432023010872490953e-01,1.641000389102345480e+03
-9.801087791912417302e+00,4.770713185249287669e+00,-1.570926330668866200e+01,6.497660317874787150e-01,4.669417269470799159e-01,5.998062416896415838e-01,1.649004264936411573e+03
-9.762104791857437291e+00,4.561407037278166321e+00,-1.706444736246234584e+01,6.127010320115390263e-01,4.443759561743695352e-01,6.535483570058601144e-01,1.657008140770477667e+03
-9.832872600760930837e+00,4.244580513892986851e+00,-1.802564112254853512e+01,5.727126762276237848e-01,4.196899525905324335e-01,7.041722333218993768e-01,1.665012016604543760e+03
-1.000443840749467483e+01,3.929869196341637227e+00,-1.840947539055333593e+01,5.299917547845404142e-01,3.930014966235664264e-01,7.514363336375347036e-01,1.671566654257867413e+03
-1.038018190162880217e+01,3.517589960809055061e+00,-1.828146283927108939e+01,6.030378618949805425e-01,4.308325110278753423e-01,6.713618134531255111e-01,1.679570530091933506e+03
-1.095093076828985801e+01,3.120161108341657830e+00,-1.743643740027595257e+01,6.681366002224405909e-01,4.629856337637903718e-01,5.824395130588083669e-01,1.687574405925999599e+03
-1.174399854722390657e+01,2.782909964587337637e+00,-1.576003172514113970e+01,7.244300475698814967e-01,4.890371263963667059e-01,4.858413271682417989e-01,1.695578281760065693e+03
-1.278517327777794854e+01,2.552188079887456773e+00,-1.313802604917403727e+01,7.711763246375211711e-01,5.086436623189298789e-01,3.828403075723486038e-01,1.703582157594131786e+03
-1.397790689644232742e+01,2.467500493602731826e+00,-9.664908670627767151e+00,8.077593714686016613e-01,5.215468510409690950e-01,2.747938863486816263e-01,1.711586033428197879e+03
-1.498288026075757529e+01,2.547534881227270898e+00,-5.852399360752696289e+00,8.336970659449104426e-01,5.275766432614489299e-01,1.631259872628135765e-01,1.719589909262263973e+03
-1.533945773862770423e+01,2.788809940611885807e+00,-2.420818302446450687e+00,8.486475773976213111e-01,5.266535718794934651e-01,4.930826101412817686e-02,1.727593785096330066e+03
-1.533905321235019592e+01,2.790352938583226194e+00,-2.406123405426702444e+00,8.524138716263010007e-01,5.187897994143685354e-01,-6.515930849094524191e-02,1.727632210915535779e+03
-1.474781070104275926e+01,3.176862359400954183e+00,1.536317802548542166e-01,7.273123641277231544e-01,6.669854308240085183e-01,-1.616946506642512327e-01,1.735636086749601873e+03
-1.324446145466819047e+01,3.659040998115240750e+00,1.814206857319218491e+00,5.680767939167820080e-01,7.838785526939771042e-01,-2.506415185803927970e-01,1.743639962583667966e+03
-1.102914555650030692e+01,4.195730802653448777e+00,2.781219696342771996e+00,3.821801936833611468e-01,8.639830773731865809e-01,-3.278254742452973436e-01,1.751643838417734059e+03
-8.302775762465431697e+00,4.753401215614482034e+00,3.260411368493863371e+00,1.783469301324288325e-01,9.035393998070896382e-01,-3.896240822929046832e-01,1.759647714251800153e+03
-5.266929129897371276e+00,5.306167474256934469e+00,3.457609598836374420e+00,-3.385671276894274689e-02,9.006909086114273100e-01,-4.331369415535538669e-01,1.767651590085866246e+03
-2.123738471380700599e+00,5.835806528977481200e+00,3.578692208263517749e+00,-2.444715118068850335e-01,8.555711876576199693e-01,-4.563218412018703041e-01,1.775655465919932340e+03
9.242163433788185278e-01,6.331770559100480256e+00,3.829550573320317230e+00,-4.436127659919494315e-01,7.702977879720189769e-01,-4.580906369787433041e-01,1.783659341753998433e+03
3.727520545068843560e+00,6.791489982762933586e+00,4.347689885527069364e+00,-6.219342789705152308e-01,6.488728453736799517e-01,-4.383603348526964871e-01,1.791663217588064526e+03
6.243558565672866045e+00,7.217970869033901948e+00,5.133841501749764724e+00,-7.710670556093118799e-01,4.969952088767083942e-01,-3.980569784627861485e-01,1.799667093422130620e+03
8.483104096925032422e+00,7.615454063945456653e+00,6.120325974399647428e+00,-8.840120979646561850e-01,3.217929152028128348e-01,-3.390721610131925412e-01,1.807670969256196713e+03
1.045683522997158832e+01,7.987775664104289852e+00,7.239428257506839159e+00,-9.554688559574564533e-01,1.314885929583779478e-01,-2.641742137590921136e-01,1.815674845090262806e+03
1.067277392996621010e+01,8.032449409693153797e+00,7.382889116407721275e+00,-9.820839279540146682e-01,-6.498647383970078406e-02,-1.768782538112257940e-01,1.816653591133128202e+03
1.223679929809313194e+01,8.393013998855044733e+00,8.572142771212794443e+00,-9.823259258267825755e-01,-5.773805635362093402e-02,-1.780451972825176366e-01,1.824657466967194296e+03
1.355755050177847743e+01,8.737569144467263627e+00,9.750240222352221764e+00,-9.825149173950334935e-01,-5.048652437247320296e-02,-1.792025332729885456e-01,1.832661342801260389e+03
1.464538177730042712e+01,9.068707481944386473e+00,1.084943247176590475e+01,-9.826508924771495401e-01,-4.323226895008976806e-02,-1.803501993728365005e-01,1.840665218635326482e+03
1.551052862160552159e+01,9.388632853903995823e+00,1.180198447889049618e+01,-9.827338437555414030e-01,-3.597568128718509062e-02,-1.814881336946786994e-01,1.848669094469392576e+03
1.616310232520256207e+01,9.699164547707345818e+00,1.254018718288800827e+01,-9.827637667667863397e-01,-2.871715270973625167e-02,-1.826162748750175535e-01,1.856672970303458669e+03
1.661308456255494193e+01,1.000174165279574545e+01,1.299636952188042649e+01,-9.827406599018631006e-01,-2.145707464803477821e-02,-1.837345620775248101e-01,1.864676846137524763e+03
1.687032204090949250e+01,1.029742753650281095e+01,1.310291044744871058e+01,-9.826645244062360840e-01,-1.419583861573318201e-02,-1.848429349962978085e-01,1.872680721971590856e+03
1.694452120833510378e+01,1.058691443704154800e+01,1.279225093264527935e+01,-9.825353643797880565e-01,-6.933836188886931783e-03,-1.859413338590876763e-01,1.880684597805656949e+03
1.684524302179586996e+01,1.087052817234900459e+01,1.199690597193209918e+01,-9.823531867766041037e-01,3.285410150067205950e-04,-1.870296994304993521e-01,1.888688473639723043e+03
1.658189777612195570e+01,1.114823296351160309e+01,1.064947657142385928e+01,-9.821180014046045903e-01,7.590901357972269607e-03,-1.881079730151637430e-01,1.896692349473789136e+03
1.647365571361667236e+01,1.121878360369512428e+01,1.018117060165811338e+01,-9.818298209250287956e-01,1.485285320252070253e-02,-1.891760964608812934e-01,1.898788793137455286e+03
1.591621292679046640e+01,1.147996944202425595e+01,7.910326794214938673e+00,-9.735153675608249069e-01,1.021326987027197479e-02,-2.283889625797000111e-01,1.906792668971521380e+03
1.533162894951290767e+01,1.169899641629623055e+01,5.330725521081153495e+00,-9.636157336856634448e-01,5.557057213556875971e-03,-2.672299326335406122e-01,1.914796544805587473e+03
1.519499836336343712e+01,1.173194172887326125e+01,4.457607374469264805e+00,-9.521470345635950627e-01,8.917949183052303668e-04,-3.056357787627164146e-01,1.918029671460766167e+03
1.529788146559929451e+01,1.160430668848096936e+01,3.352666279657075421e+00,-9.419281219925648152e-01,-5.204679699406199005e-03,-3.357712380594031210e-01,1.926033547294832260e+03
1.584858070939066366e+01,1.125538963405302972e+01,3.485496897955024043e+00,-9.307204298184224012e-01,-1.129569015509574066e-02,-3.655542215619745350e-01,1.934037423128898354e+03
1.677791237296174742e+01,1.069293263440583885e+01,4.671619302126371664e+00,-9.185357233622256645e-01,-1.737484253854972710e-02,-3.949534653013234697e-01,1.942041298962964447e+03
1.801736691914955912e+01,9.927213661984440662e+00,6.726366440333447549e+00,-9.053867934952153362e-01,-2.343575539185536322e-02,-4.239381081396951245e-01,1.950045174797030541e+03
1.949914410205618864e+01,8.971025815972311079e+00,9.464916930834700537e+00,-8.912874432175632577e-01,-2.947206640724531895e-02,-4.524777241631238733e-01,1.958049050631096634e+03
2.115618782628452266e+01,7.839655777282436233e+00,1.270232787835726995e+01,-8.762524731691584412e-01,-3.547743910481437890e-02,-4.805423546150689451e-01,1.966052926465162727e+03
2.292222075392182035e+01,6.550861499937290944e+00,1.625356770738993717e+01,-8.602976660937002862e-01,-4.144556948310317707e-02,-5.081025393397290424e-01,1.974056802299228821e+03
2.473177865412724685e+01,5.124849143841609944e+00,1.993354900732593293e+01,-8.434397702723984702e-01,-4.737019263557762372e-02,-5.351293477020828693e-01,1.982060678133294914e+03
2.652024448945693891e+01,3.584249255645866050e+00,2.355716138406703664e+01,-8.256964819446543924e-01,-5.324508932606952100e-02,-5.615944089522514338e-01,1.990064553967361007e+03
2.822388223384333727e+01,1.954092203591373256e+00,2.693930431322957730e+01,-8.070864267341590903e-01,-5.906409251628613050e-02,-5.874699420023583585e-01,1.998068429801427101e+03
2.977987041681091895e+01,2.617828720579256085e-01,2.989491999151873713e+01,-7.876291400998784997e-01,-6.482109383854720019e-02,-6.127287845846791647e-01,2.006072305635493194e+03
3.112633538854677795e+01,-1.462925378027743584e+00,3.223902618245140417e+01,-7.673450468324187757e-01,-7.051005000696472513e-02,-6.373444217605199746e-01,2.014076181469559288e+03
3.220238430035286825e+01,-3.187957476736401841e+00,3.378674905209199864e+01,-7.462554396172613735e-01,-7.612498916034558805e-02,-6.612910137499381502e-01,2.022080057303625381e+03
3.294813779483876459e+01,-4.878944134609563221e+00,3.435335599059933998e+01,-7.243824566873310333e-01,-8.166001713016815544e-02,-6.845434230531347586e-01,2.030083933137691474e+03
3.330476240081576833e+01,-6.499250048182195094e+00,3.375428841508931299e+01,-7.017490585883142673e-01,-8.710932362706225174e-02,-7.070772408350823879e-01,2.038087808971757568e+03
3.321450262777567275e+01,-8.010002815248927988e+00,3.180519454932638723e+01,-6.783790040810729893e-01,-9.246718833930647752e-02,-7.288688125457235545e-01,2.046091684805823661e+03
3.315167029057808179e+01,-8.189202299233228288e+00,3.143928721288623507e+01,-6.542968252063993129e-01,-9.772798693694932648e-02,-7.498952627488720823e-01,2.047136279865358347e+03
3.224817420226771247e+01,-9.399850444112100689e+00,2.767705793335332842e+01,-8.349839344145173481e-01,-1.182684940221071235e-01,-5.374126836903437843e-01,2.055140155699424213e+03
3.078084753429162745e+01,-1.040630495313098969e+01,2.217288485036274892e+01,-9.503596907288132112e-01,-1.295581912290226512e-01,-2.828942087116695370e-01,2.063144031533490306e+03
2.869553462233896823e+01,-1.116292956758418775e+01,1.474328100090818694e+01,-9.913994223093125502e-01,-1.307139958958627168e-01,-6.247937305768240870e-03,2.071147907367556400e+03
2.593928684293324949e+01,-1.162197813809458680e+01,5.205101285174523085e+00,-9.548929479306448309e-01,-1.216454899070311679e-01,2.708871218355003996e-01,2.079151783201622493e+03
2.268204686539085202e+01,-1.179947171707681086e+01,-5.608891521774349798e+00,-8.436957418816213305e-01,-1.030620004057219985e-01,5.268336731854427191e-01,2.087155659035688586e+03
1.933244202541773049e+01,-1.179618328237629754e+01,-1.582659883634438813e+01,-6.665055945925154601e-01,-7.641711745838011827e-02,7.415717878503230720e-01,2.095159534869754680e+03
1.611121489660552086e+01,-1.168219359015320968e+01,-2.454440979550263791e+01,-4.371822300358217950e-01,-4.379498817435937413e-02,8.983049018855269185e-01,2.103163410703820773e+03
1.450602809890436440e+01,-1.158166754433092649e+01,-2.841007917183548770e+01,-1.736631332080598444e-01,-7.747286426756262202e-03,9.847736266359686796e-01,2.107331732485573866e+03
1.157477267122990661e+01,-1.132532852710246907e+01,-3.460535504015664543e+01,-1.521636529539631411e-01,-1.119118500015462737e-02,9.882909389929558364e-01,2.115335608319639960e+03
8.811663742904441321e+00,-1.101039884491797238e+01,-3.952463062427003848e+01,-1.305901532149399691e-01,-1.462963916513672705e-02,9.913274865244425804e-01,2.123339484153706053e+03
6.231261712774280426e+00,-1.065807273185571802e+01,-4.325715670505250188e+01,-1.089531283866443101e-01,-1.806097629569202584e-02,9.938817922407883199e-01,2.131343359987772146e+03
3.847481142749377803e+00,-1.029008405257472347e+01,-4.589239458183578790e+01,-8.726310375603427150e-02,-2.148352722889547428e-02,9.959526137213990937e-01,2.139347235821838240e+03
1.673583207601306855e+00,-9.928688525428102096e+00,-4.752000014983103426e+01,-6.553063038270753871e-02,-2.489562707658691393e-02,9.975389437169752682e-01,2.147351111655904333e+03
-2.778316663086119465e-01,-9.596645781523077900e+00,-4.822980795214355965e+01,-4.376627996799493242e-02,-2.829561603497968841e-02,9.986400106389058395e-01,2.155354987489970426e+03
-1.994830972377445333e+00,-9.317201263692972191e+00,-4.811181520841642367e+01,-2.198063971404779979e-02,-3.168184019179467320e-02,9.992552789341463404e-01,2.163358863324036520e+03
-3.466157104507205045e+00,-9.114067969484926479e+00,-4.725616582216465389e+01,-1.843071754133081828e-04,-3.505265233052851093e-02,9.993844493454001610e-01,2.171362739158102613e+03
-4.681234146209614089e+00,-9.011408042243999716e+00,-4.575313436887950758e+01,2.161211489440820546e-02,-3.840641273146602058e-02,9.990274590564758306e-01,2.179366614992168707e+03
-5.630174466358260688e+00,-9.033814214437953183e+00,-4.369311006700255717e+01,4.339802369892311468e-02,-4.174148996904860492e-02,9.981844817227548683e-01,2.187370490826234800e+03
-6.303785120554418420e+00,-9.206291107418419273e+00,-4.116658073390806294e+01,6.516282155462370385e-02,-4.505626170521183360e-02,9.968559273867497739e-01,2.195374366660300893e+03
-6.693574057314123138e+00,-9.554236391754288960e+00,-3.826411672905744865e+01,8.689592104448519427e-02,-4.834911547830776646e-02,9.950424422788003431e-01,2.203378242494366987e+03
-6.791756128116074542e+00,-1.010342181231400716e+01,-3.507635488649462729e+01,1.085867501664839058e-01,-5.161844948722965620e-02,9.927449085029976805e-01,2.211382118328433080e+03
-6.591258900458615955e+00,-1.087997408234153873e+01,-3.169398243887505728e+01,1.302247574746381309e-01,-5.486267337035822395e-02,9.899644436084916732e-01,2.219385994162499173e+03
-6.085728272793168081e+00,-1.191035565085197767e+01,-2.820772093525510726e+01,1.517994172100812500e-01,-5.808020897895260770e-02,9.867024000463875399e-01,2.227389869996565267e+03
-5.269533890432443357e+00,-1.322134534822767371e+01,-2.470831015440711909e+01,1.733002344196775124e-01,-6.126949114461016643e-02,9.829603645124924682e-01,2.235393745830631360e+03
-5.132635204528314787e+00,-1.342516711749991920e+01,-2.426600107875633938e+01,1.947167500596991008e-01,-6.442896844042353410e-02,9.787401571762300856e-01,2.236412113772757039e+03
-3.795905923587349129e+00,-1.533405583985711473e+01,-2.086383497186556824e+01,1.624115497090359017e-01,1.166039855284800308e-01,9.798081440163805000e-01,2.244415989606823132e+03
-2.143644585339324227e+00,-1.758453729186284775e+01,-1.764153117462383591e+01,1.246139590528363428e-01,2.936936306937631969e-01,9.477412159972967709e-01,2.252419865440889225e+03
-1.725311008934335422e-01,-2.020416523590341029e+01,-1.468978237942393505e+01,8.260220681241162155e-02,4.608512059104275527e-01,8.836238121743857921e-01,2.260423741274955319e+03
2.023092497198690332e+00,-2.307743509054449405e+01,-1.203744478003247487e+01,3.779703326316789097e-02,6.124238309081682097e-01,7.896242369717318965e-01,2.268427617109021412e+03
4.161451770996010602e+00,-2.579763021695531222e+01,-9.589744635071566492e+00,-8.286354783591465267e-03,7.432856684587744178e-01,6.689213342307154253e-01,2.276431492943087505e+03
5.069289197183810103e+00,-2.686684796809776543e+01,-8.415474896301818220e+00,-5.408952341171579387e-02,8.490112647536001145e-01,5.255969898879022661e-01,2.280408773675207158e+03
6.510266880613674090e+00,-2.835800200923667447e+01,-6.108485253653133107e+00,-3.006785063313167569e-02,8.904282096576774386e-01,4.541272154413356632e-01,2.288412649509273251e+03
7.571979612188020958e+00,-2.928366178884012427e+01,-3.881623251004878039e+00,-5.823668302653909473e-03,9.252556724703488999e-01,3.792967511717277862e-01,2.296416525343339345e+03
8.273885940141346040e+00,-2.974495524642819433e+01,-1.756308051469063436e+00,1.846360887009271950e-02,9.532359210825112061e-01,3.016593673434221912e-01,2.304420401177405438e+03
8.631326231004855742e+00,-2.984349851373553264e+01,2.460592484520417733e-01,4.261424741701673458e-02,9.741618945385590589e-01,2.217896055876844019e-01,2.312424277011471531e+03
8.655518012238422543e+00,-2.968127803783817953e+01,2.104099405982043258e+00,6.644952512990348614e-02,9.878787351665648808e-01,1.402785272817921314e-01,2.320428152845537625e+03
8.353552626374902701e+00,-2.936053261829750838e+01,3.796458815484005989e+00,8.979305358943338866e-02,9.942849344444737447e-01,5.772933971947210446e-02,2.328432028679603718e+03
7.738854070625845516e+00,-2.895704784123622133e+01,5.308979083126153853e+00,1.124720834229700067e-01,9.933330841313554593e-01,-2.524706757523023648e-02,2.336435904513669811e+03
6.842970135988116986e+00,-2.849398939852284229e+01,6.641865324842046725e+00,1.343187826370388638e-01,9.850302271095948692e-01,-1.080366433753101874e-01,2.344439780347735905e+03
5.707098881598205331e+00,-2.796922591125666813e+01,7.802520324370426863e+00,1.551714785693475984e-01,9.694378053413921226e-01,-1.900267186840757239e-01,2.352443656181801998e+03
5.660703004770620161e+00,-2.794811723356752964e+01,7.842187514983751662e+00,1.748758542737676169e-01,9.466712053196466581e-01,-2.706105404652592861e-01,2.352738983735501733e+03
4.303126567613102971e+00,-2.732929267782032667e+01,8.835505974711360011e+00,2.354070095355336734e-01,9.182992721249595425e-01,-3.182891557630773693e-01,2.360742859569567827e+03
2.789501980713619655e+00,-2.664888187046180690e+01,9.671764678255884817e+00,2.943509831142341326e-01,8.837359400702007317e-01,-3.638217791283475666e-01,2.368746735403633920e+03
1.160463110149393628e+00,-2.590942564421995087e+01,1.035845478050351609e+01,3.513103629809220529e-01,8.432142447488084613e-01,-4.069014208812629096e-01,2.376750611237700014e+03
-5.435859178565695116e-01,-2.511498701836546843e+01,1.090309394230944484e+01,4.059011177919893965e-01,7.970073933284027579e-01,-4.472376298517429793e-01,2.384754487071766107e+03
-2.282492110076477676e+00,-2.427114402978607899e+01,1.131322499145215410e+01,4.577551858846485300e-01,7.454269225738251459e-01,-4.845584514773789708e-01,2.392758362905832200e+03
-4.017464695900466509e+00,-2.338243305938062022e+01,1.160046918960586204e+01,5.065229566141717932e-01,6.888205985174988832e-01,-5.186122612136337962e-01,2.400762238739898294e+03
-5.712058804855986160e+00,-2.244973763103072883e+01,1.178457877570656542e+01,5.518756273171122606e-01,6.275700719297940822e-01,-5.491694609058098697e-01,2.408766114573964387e+03
-7.330914866113668715e+00,-2.147275209300196863e+01,1.188937884662602151e+01,5.935074200216448048e-01,5.620883053846238431e-01,-5.760240266943459364e-01,2.416769990408030480e+03
-8.442550988261276146e+00,-2.072582920714673449e+01,1.192567665519361420e+01,6.311376429693706935e-01,4.928167892521269078e-01,-5.989948980235187959e-01,2.422651536278851381e+03
-9.818474931263063255e+00,-1.967196022419207324e+01,1.194035494127165542e+01,6.484779748730978843e-01,4.339761022965318848e-01,-6.254111117815249754e-01,2.430655412112917475e+03
-1.102169684605457078e+01,-1.858029799984906916e+01,1.194094171584821851e+01,6.629256141082839893e-01,3.731995697986199012e-01,-6.490375268512668105e-01,2.438659287946983568e+03
-1.201677254431844766e+01,-1.745552382453690754e+01,1.195129360183168643e+01,6.744161150827923112e-01,3.107582986061601660e-01,-6.697687537979478689e-01,2.446663163781049661e+03
-1.276827915839231586e+01,-1.630365537832552292e+01,1.199526541577450978e+01,6.828982228798675669e-01,2.469308210465036291e-01,-6.875123175659394459e-01,2.454667039615115755e+03
-1.324083401226447165e+01,-1.513204657826511479e+01,1.209670593141259509e+01,6.883341018383738463e-01,1.820018525751094518e-01,-7.021890699132785629e-01,2.462670915449181848e+03
-1.339911349745812430e+01,-1.394938701126425507e+01,1.227945364379346849e+01,6.906995042909672700e-01,1.162610218586278832e-01,-7.137335424152825292e-01,2.470674791283247941e+03
-1.322376735682602877e+01,-1.276595350100461523e+01,1.255623674969542947e+01,6.899838787089233039e-01,5.000157895211346237e-02,-7.220942384648268986e-01,2.478678667117314035e+03
-1.272734774253158463e+01,-1.159305808915902425e+01,1.291757510247182417e+01,6.861904167719300451e-01,-1.648091267271201144e-02,-7.272338629682761901e-01,2.486682542951380128e+03
-1.193844046620316846e+01,-1.044158848982185717e+01,1.334287768245182626e+01,6.793360391528028286e-01,-8.288989441938958425e-02,-7.291294887131652969e-01,2.494686418785446222e+03
-1.141728380716509683e+01,-9.881873693049845642e+00,1.357539351054928467e+01,6.694513200796480268e-01,-1.489291353040374521e-01,-7.277726586653627816e-01,2.498666572844796974e+03
-1.013176378651952803e+01,-8.789593326674118856e+00,1.406982076652313651e+01,5.794304113868655737e-01,-2.004856081977497984e-01,-7.899771637626601395e-01,2.506670448678863067e+03
-8.625850185250062196e+00,-7.743318142419481021e+00,1.457674744376130960e+01,4.809317092692592110e-01,-2.491087207046873142e-01,-8.406233022520522846e-01,2.514674324512929161e+03
-6.928541823184980686e+00,-6.750140239100423933e+00,1.507555748319390254e+01,3.753963745169651700e-01,-2.940870561949207596e-01,-8.789700594326804728e-01,2.522678200346995254e+03
-5.068918325058005436e+00,-5.816062279569311322e+00,1.554563619202902025e+01,2.643685218471548692e-01,-3.347625258858680231e-01,-9.044563759075733289e-01,2.530682076181061348e+03
-3.076124786529545574e+00,-4.945995975994513572e+00,1.596637390330156592e+01,1.494726276575657209e-01,-3.705399973581263717e-01,-9.167093563065660256e-01,2.538685952015127441e+03
-9.793564311118980736e-01,-4.143760912511552874e+00,1.631716963422444167e+01,3.238976209199895262e-02,-4.008960019412214359e-01,-9.155497249959653194e-01,2.546689827849193534e+03
1.178150657555589120e+00,-3.411874255493443364e+00,1.658068324196512577e+01,-8.516700685442725460e-02,-4.253863935894754977e-01,-9.009944489803513035e-01,2.554693703683259628e+03
3.325137390535100934e+00,-2.750633267361202616e+00,1.674608699975437887e+01,-2.014776773589140313e-01,-4.436528472063368533e-01,-8.732564896367804863e-01,2.562697579517325721e+03
5.376368651502898999e+00,-2.157263644228856858e+00,1.680581901682186441e+01,-3.148404792480820058e-01,-4.554281013507837650e-01,-8.327416869160599866e-01,2.570701455351391814e+03
7.246685597318687222e+00,-1.625776453221868367e+00,1.675233607813260406e+01,-4.235967727683474515e-01,-4.605398686240205763e-01,-7.800428215866807014e-01,2.578705331185457908e+03
7.580797011535025831e+00,-1.526235287189758427e+00,1.672539393230118066e+01,-5.261553163857293214e-01,-4.589133565207925702e-01,-7.159309423727240329e-01,2.580331318504142928e+03
8.948618222507832343e+00,-1.070143777305698762e+00,1.650911333175744744e+01,-4.893512311180431840e-01,-4.964345846025396969e-01,-7.169979608133362214e-01,2.588335194338209021e+03
9.948128298424407490e+00,-6.481630117980702321e-01,1.616307308747680693e+01,-4.511948186525042703e-01,-5.325838945856788964e-01,-7.160835362204380772e-01,2.596339070172275115e+03
1.049473345065535845e+01,-2.440225540687833705e-01,1.567980029488042426e+01,-4.117915217543491324e-01,-5.672613914713453553e-01,-7.131901964792879411e-01,2.604342946006341208e+03
1.050410676526526466e+01,1.617459801370571271e-01,1.505184632840697567e+01,-3.712502283459857555e-01,-6.003712471114736049e-01,-7.083259373986982022e-01,2.612346821840407301e+03
9.892233442059048087e+00,5.918024294241469585e-01,1.427178816839604103e+01,-3.296829707403067244e-01,-6.318219648903340424e-01,-7.015042006165570498e-01,2.620350697674473395e+03
8.648523587938173662e+00,1.045010878574356150e+00,1.338435981358088078e+01,-2.872046161991335667e-01,-6.615266324556483557e-01,-6.927438364808713445e-01,2.627917929885181820e+03
6.548465542070866618e+00,1.602067908287178266e+00,1.227997986446991874e+01,-2.052127036451164288e-01,-7.273790826889047212e-01,-6.548323574238049671e-01,2.635921805719247914e+03
3.581990886210754343e+00,2.269382339249608194e+00,1.100179401653880440e+01,-1.206563622877093317e-01,-7.841418124816400548e-01,-6.087377597599505918e-01,2.643925681553314007e+03
-1.134146599745267242e-01,3.091788053562392946e+00,9.646421936647135098e+00,-3.459224504861507787e-02,-8.311054947926985736e-01,-5.550360646912855245e-01,2.651929557387380100e+03
-3.959566820421863920e+00,4.125485349210470609e+00,8.518353207968072383e+00,5.190415473749697417e-02,-8.676832533346703347e-01,-4.943983521449140661e-01,2.659933433221446194e+03
-7.369603641878136102e+00,5.389675906024535834e+00,7.899117860001345193e+00,1.377519418842788612e-01,-8.934179955644474536e-01,-4.275823753484526146e-01,2.667937309055512287e+03
-7.923234119992049074e+00,5.667214854712418592e+00,7.852378979736295506e+00,2.218783253981852222e-01,-9.079881243397711632e-01,-3.554230926320229855e-01,2.669480296999758139e+03
-1.028718894481475310e+01,7.238708644869822351e+00,7.927575990970010977e+00,2.938697251818563339e-01,-8.565839182147045872e-01,-4.241492375075683330e-01,2.677484172833824232e+03
-1.211463283291425341e+01,8.907107978197057463e+00,8.421014634632339124e+00,3.621735056303724831e-01,-7.944309075443310997e-01,-4.875529560555954545e-01,2.685488048667890325e+03
-1.346076171537193744e+01,1.060517274001599652e+01,9.233400891968981838e+00,4.259325618140629155e-01,-7.223090183479511373e-01,-5.448386318908059467e-01,2.693491924501956419e+03
-1.438283569259166406e+01,1.226779606328758909e+01,1.026538404393927628e+01,4.843468182670888078e-01,-6.411232693232338242e-01,-5.952874206362777088e-01,2.701495800336022512e+03
-1.494014849576640458e+01,1.383206089750192547e+01,1.141757430767525427e+01,5.366832683639776169e-01,-5.518924153156881118e-01,-6.382662699658706584e-01,2.709499676170088605e+03
-1.519399634691836809e+01,1.523729589588476152e+01,1.259056048181365384e+01,5.822851721088031507e-01,-4.557361637319765069e-01,-6.732358631341921473e-01,2.717503552004154699e+03
-1.520764622325513749e+01,1.642513061067807101e+01,1.368492759532414205e+01,6.205802969549957249e-01,-3.538611242865249418e-01,-6.997573863496153734e-01,2.725507427838220792e+03
-1.504630353071239135e+01,1.733954998476079368e+01,1.460127455726156498e+01,6.510880982754331248e-01,-2.475456683502252064e-01,-7.174980350955505459e-01,2.733511303672286886e+03
-1.477707919134592984e+01,1.792694812744148436e+01,1.524023180520345377e+01,6.734257493982122034e-01,-1.381238878424261018e-01,-7.262351903175172652e-01,2.741515179506352979e+03
-1.468408424031445847e+01,1.799155210179958786e+01,1.534910669242146142e+01,6.873129455475162075e-01,-2.696885490203947827e-02,-7.258592120712802354e-01,2.743859125371373921e+03
-1.436524256381318843e+01,1.781328584474917420e+01,1.538952981774653317e+01,7.546475090476449932e-01,4.527796923234329862e-03,-6.561132799629355583e-01,2.751863001205440014e+03
-1.410444455289033527e+01,1.719427690828730348e+01,1.492494716929214960e+01,8.141409018317139479e-01,3.597739870936709355e-02,-5.795500140172347159e-01,2.759866877039506107e+03
-1.397483658049985067e+01,1.608931832147866103e+01,1.385622591550906257e+01,8.651749626837472729e-01,6.705317459425697013e-02,-4.969649441587513095e-01,2.767870752873572201e+03
-1.405132227668502765e+01,1.445583470473731147e+01,1.208434043821636372e+01,9.072194263431039296e-01,9.743223317221826052e-02,-4.092161683090054791e-01,2.775874628707638294e+03
-1.437746608421822536e+01,1.238000896069808654e+01,9.620004814476398991e+00,9.398374327891401148e-01,1.267989223319213044e-01,-3.172154366113359991e-01,2.783878504541704388e+03
-1.492608701741617416e+01,1.020118852381804153e+01,6.693285810155628290e+00,9.626900661164606854e-01,1.548481088702000907e-01,-2.219186783051492751e-01,2.791882380375770481e+03
-1.562284944700953737e+01,8.383063955380224641e+00,3.643947148660416691e+00,9.755398758695145167e-01,1.812883488209576510e-01,-1.243160696405768706e-01,2.799886256209836574e+03
-1.637619976663695098e+01,7.386309156173809676e+00,8.117742955763351809e-01,9.782533442643387422e-01,2.058449155728125091e-01,-2.542174598572481334e-02,2.807890132043902668e+03
-1.674570546707426999e+01,7.452294117375109828e+00,-4.338314779210026839e-01,9.708022736626925608e-01,2.282626543242760042e-01,7.373673502768124388e-02,2.812008479671528221e+03
-1.735662387530468109e+01,8.677157434072487519e+00,-2.399511337212517414e+00,9.738725707195158288e-01,1.677719728393145815e-01,1.530450297477570776e-01,2.820012355505594314e+03
-1.779161167670940813e+01,1.075444910248137376e+01,-3.931234150266437410e+00,9.672446807105889999e-01,1.056105606445622014e-01,2.308292380055376181e-01,2.828016231339660408e+03
-1.798624807220298649e+01,1.340010089988912689e+01,-5.110285445885417666e+00,9.509846088173043999e-01,4.239744358686296788e-02,3.063147573506121435e-01,2.836020107173726501e+03
-1.788660484344492474e+01,1.632800475006645513e+01,-6.018013370645306281e+00,9.252542803209502509e-01,-2.123787968674276452e-02,3.787498768515707992e-01,2.844023983007792594e+03
-1.744927171012660239e+01,1.925030946330729265e+01,-6.735814230186303320e+00,8.903099279746762296e-01,-8.466170636747656630e-02,4.474132626840665039e-01,2.852027858841858688e+03
-1.664137843322339805e+01,2.187771799335274991e+01,-7.345118023622394077e+00,8.464995403105118887e-01,-1.472424399606881151e-01,5.116211412064978203e-01,2.860031734675924781e+03
-1.545875683547739143e+01,2.400283719227934043e+01,-7.905568882668112529e+00,7.942593962949340280e-01,-2.083568797728519162e-01,5.707341080130274857e-01,2.868035610509990875e+03
-1.393994878644295632e+01,2.558441205901579707e+01,-8.433209381764527279e+00,7.341097208370366278e-01,-2.673964267936493333e-01,6.241634951768701978e-01,2.876039486344056968e+03
-1.214183359244344906e+01,2.666575781961205038e+01,-8.922282774845095688e+00,6.666495044009009829e-01,-3.237731441893407780e-01,6.713772332932983478e-01,2.884043362178123061e+03
-1.011938771793323966e+01,2.729213784692330336e+01,-9.367039104356534196e+00,5.925505382917162223e-01,-3.769256120696445334e-01,7.119051499580680842e-01,2.892047238012189155e+03
-9.187936635138044039e+00,2.738681679860152585e+01,-9.537859072635962221e+00,5.125507249912559793e-01,-4.263245182358995078e-01,7.453436519233703761e-01,2.895442534093102950e+03
-6.856933963943780519e+00,2.724087850763729435e+01,-9.894385793136077467e+00,4.210676287880502078e-01,-4.366439759876756810e-01,7.950107484939393787e-01,2.903446409927169043e+03
-4.430695869068319581e+00,2.675597529878742975e+01,-1.019269239802981275e+01,3.249769910912513327e-01,-4.421854616092937285e-01,8.359784523556379465e-01,2.911450285761235136e+03
-1.957499132609767933e+00,2.598369403810068690e+01,-1.042706123651288230e+01,2.253302808837623905e-01,-4.428883355153439561e-01,8.677984712947061086e-01,2.919454161595301230e+03
5.163915666120870718e-01,2.497732211487455700e+01,-1.059178594407008056e+01,1.232178807326498038e-01,-4.387449045129385161e-01,8.901226110102404832e-01,2.927458037429367323e+03
2.946746573265098590e+00,2.379179001202066601e+01,-1.068117245529130699e+01,1.975715539708187626e-02,-4.298005061797536830e-01,9.027065856069279581e-01,2.935461913263433416e+03
5.291393541667726019e+00,2.248361338015806155e+01,-1.068954001423061229e+01,-8.391977495208276239e-02,-4.161530129435289660e-01,9.054126910916251436e-01,2.943465789097499510e+03
7.510239083251637027e+00,2.111083462869079952e+01,-1.061122218244492643e+01,-1.866784231075392930e-01,-3.979517612714539299e-01,8.982113125800091913e-01,2.951469664931565603e+03
9.565289771026145971e+00,1.973296404696691653e+01,-1.044056784550882888e+01,-2.873943492207464145e-01,-3.753959176713327905e-01,8.811812486834285085e-01,2.959473540765631697e+03
1.142067249752097169e+01,1.841092046966963025e+01,-1.017194221758259154e+01,-3.849654653459111397e-01,-3.487322993733211196e-01,8.545088494944720336e-01,2.967477416599697790e+03
1.304265418291998024e+01,1.720697150117542051e+01,-9.799727842939077505e+00,-4.783240954546142398e-01,-3.182526735335025059e-01,8.184859775804680382e-01,2.975481292433763883e+03
1.439966083064410718e+01,1.618467331322304759e+01,-9.318325594676743151e+00,-5.664486589132003980e-01,-2.842905645127434267e-01,7.735068142841601269e-01,2.983485168267829977e+03
1.547483840390840903e+01,1.539081791656222897e+01,-8.725062293023054139e+00,-6.483748495338483853e-01,-2.472176041730479168e-01,7.200635462780421436e-01,2.991489044101896070e+03
1.627771499687922585e+01,1.483675340603981496e+01,-8.023097805034828056e+00,-7.232061878326190296e-01,-2.074394651394828037e-01,6.587409795837354531e-01,2.999492919935962163e+03
1.683031720086026439e+01,1.451540515555148581e+01,-7.218517865524834320e+00,-7.901238309930722625e-01,-1.653914215433740509e-01,5.902101400149535326e-01,3.007496795770028257e+03
1.715417201093473665e+01,1.441896034469962373e+01,-6.317426378777414087e+00,-8.483955331664677635e-01,-1.215335858414749726e-01,5.152209301024067711e-01,3.015500671604094350e+03
1.727029727521883729e+01,1.453888305012193882e+01,-5.325944339368557046e+00,-8.973836580491784121e-01,-7.634587385129033843e-02,4.345939228891461115e-01,3.023504547438160444e+03
1.719919231973840112e+01,1.486592954506872921e+01,-4.250208751204449520e+00,-9.365521560616657526e-01,-3.032275311581255489e-02,3.492113824317267801e-01,3.031508423272226537e+03
1.696082875187695649e+01,1.539016380194845190e+01,-3.096371544703190093e+00,-9.654724297963088731e-01,1.603216792085928113e-02,2.600076093026172930e-01,3.039512299106292630e+03
1.657464144390580785e+01,1.610097319407450200e+01,-1.870598491757475612e+00,-9.838280235780967331e-01,6.221165070783019752e-02,1.679587167700798411e-01,3.047516174940358724e+03
1.617896362786221331e+01,1.677773819139378020e+01,-8.849792436754303493e-01,-9.914180858583491185e-01,1.077103770438542774e-01,7.407194955307259965e-02,3.053630985231456634e+03
1.554578626391681162e+01,1.782838330791846815e+01,4.640153872245103006e-01,-9.989328266917949506e-01,4.457392499849310852e-02,1.201553030858776121e-02,3.061634861065522728e+03
1.481635984823347663e+01,1.903347813059150084e+01,1.867839357413644485e+00,-9.985622935160503033e-01,-1.891438145531722237e-02,-5.013573718352834496e-02,3.069638736899588821e+03
1.400802405691785069e+01,2.037999382018253058e+01,3.320283542845280156e+00,-9.903094107426688719e-01,-8.225338467824325206e-02,-1.118912494535231894e-01,3.077642612733654914e+03
1.313754131600795105e+01,2.185430231317178595e+01,4.815130171380761048e+00,-9.742393237456445920e-01,-1.449431055027630699e-01,-1.727635269251551475e-01,3.085646488567721008e+03
1.222108884811605201e+01,2.344219309594686607e+01,6.346153916777905302e+00,-9.504788846508483990e-01,-2.064886899350571181e-01,-2.322720619500895367e-01,3.093650364401787101e+03
1.127425090747513714e+01,2.512889015171864671e+01,7.907122993921260168e+00,-9.192156510232529776e-01,-2.664043154049380857e-01,-2.899471118122720070e-01,3.101654240235853194e+03
1.031201120471966881e+01,2.689906907614698284e+01,9.491800254579148444e+00,-8.806964053547713389e-01,-3.242170257274724632e-01,-3.453334067598528567e-01,3.109658116069919288e+03
9.348745522769604577e+00,2.873687435731637407e+01,1.109394428361461316e+01,-8.352252070386814164e-01,-3.794704645024803424e-01,-3.979937437928057764e-01,3.117661991903985381e+03
8.398214526125864055e+00,3.062593681454678674e+01,1.270731049557954151e+01,-7.831609922077141794e-01,-4.317284774797077174e-01,-4.475124378361293176e-01,3.125665867738051475e+03
7.473556764443020306e+00,3.254939119242103374e+01,1.432565223169269331e+01,-7.249147403825995095e-01,-4.805785554518644531e-01,-4.934986030543430657e-01,3.133669743572117568e+03
