-1.929336974269782790e+00,7.676235291832142593e+00,-2.980286458344918898e+00,4.368294317547982697e-01,-1.599204374717398403e-01,8.852149463444612953e-01,1.025625285654697791e+03
-1.931368352315258718e+00,8.421957107291325073e+00,-3.030493943906326315e+00,3.981413014329845401e-01,3.385056254222422178e-01,8.525828086765213643e-01,1.032170670954967818e+03
-1.554521419097333546e+00,8.759721816952097839e+00,-3.078653304884534592e+00,2.478892281266968090e-01,2.022999413471712749e-01,9.474310868393972518e-01,1.037160837249594579e+03
-6.455053785641456932e-01,8.899344278310829637e+00,-3.054589217940982149e+00,-2.019872216477025528e-01,1.391232936681277843e-01,9.694564824941724890e-01,1.043706222549864606e+03
4.860725670228169260e-01,8.737440327370114446e+00,-2.876854264526534255e+00,-7.882077757909274757e-03,2.434682094053113310e-01,9.698768498418702810e-01,1.050251607850134633e+03
1.618429176921297508e+00,8.286349352542227820e+00,-2.525546723035324792e+00,-5.703529417733749218e-01,4.420603754187166223e-01,6.923006184419602249e-01,1.056796993150404660e+03
2.003431983476615219e+00,8.026851797656039622e+00,-2.333011684959402032e+00,-3.394681067675140995e-01,-3.578160403261247402e-01,8.699017678870486492e-01,1.059310682662409818e+03
2.823995669394757879e+00,7.213242743025123360e+00,-1.703608102775268973e+00,-8.137043482126139482e-01,6.874737384813343899e-02,5.771993003191100424e-01,1.065856067962679845e+03
3.435856037826411580e+00,6.384678600082316358e+00,-9.651234504461921881e-01,-7.269597200583950425e-01,4.214863915983473319e-01,5.421058818257045164e-01,1.072401453262949872e+03
3.671483982512511179e+00,5.989302009089362500e+00,-5.293563598198866016e-01,-8.915544754051968335e-01,-2.285361870486069813e-01,3.910266341238771148e-01,1.075989233689780121e+03
3.921908820609645296e+00,5.391952938119378480e+00,2.956069416743182798e-01,-9.987197790866227942e-01,5.031953229191909321e-02,5.171801532323985415e-03,1.082534618990050149e+03
3.972919574649085295e+00,4.877693280474253434e+00,1.135291366387643608e+00,-9.400509056998488377e-01,2.652293208175194317e-01,2.143774756628391565e-01,1.089080004290320176e+03
3.818519192859766598e+00,4.390617452072226534e+00,1.968131272724597647e+00,-9.303986755999884561e-01,-3.252162599552697042e-01,-1.690937275669744388e-01,1.095625389590590203e+03
3.764196318504580141e+00,4.298858694849542417e+00,2.120498135428439124e+00,-9.257225601934769843e-01,-2.903314321265965114e-01,-2.423745058131192287e-01,1.096841725917567601e+03
3.328704514817509619e+00,3.765148224899120599e+00,2.914723037333675659e+00,-7.674735375995699327e-01,-4.907289480892977618e-02,-6.391996715264123274e-01,1.103387111217837628e+03
2.675540318715113219e+00,3.223829978986248790e+00,3.640144964409557371e+00,-7.586148256645619536e-01,2.359557937496820357e-01,-6.073124481499483363e-01,1.109932496518107655e+03
2.433081538636875152e+00,3.091810590977993378e+00,3.830729865244565158e+00,-6.307994484469133800e-01,3.079462129638126933e-01,-7.122227079785619086e-01,1.111877068987771281e+03
1.470197591475445709e+00,2.931755562425165884e+00,4.335889002564782047e+00,-6.068183016567293420e-01,3.940918201347608507e-01,-6.902631281455745560e-01,1.118422454288041308e+03
3.819428638564214551e-01,3.242759674005264436e+00,4.638572131868659909e+00,-2.341991344014331816e-02,2.565776769192986140e-01,-9.662398270414815915e-01,1.124967839588311335e+03
-6.774130703212614124e-01,4.012162837940024929e+00,4.769597783323018092e+00,-1.388981899004419207e-01,-1.972904435320856908e-01,-9.704554465472867708e-01,1.131513224888581362e+03
-1.515349043872741719e+00,5.122703777775588385e+00,4.797013843312379677e+00,2.995436933392701673e-01,2.038529640304422574e-01,-9.320501836471427604e-01,1.138058610188851389e+03
-1.594309962653653434e+00,5.278373233036669276e+00,4.795849612537910645e+00,3.423111589978696245e-01,1.199449021238023771e-01,-9.318992922414131019e-01,1.138860141434578054e+03
-1.941442549719574195e+00,6.640265321198731030e+00,4.787618817377642166e+00,4.563943850275217762e-01,3.371302361990476948e-01,-8.234363176079401159e-01,1.145405526734848081e+03
-1.888314358995821785e+00,7.213161832259448403e+00,4.790272716228700212e+00,4.619607201583338929e-01,6.460962816700648037e-02,-8.845438875369128207e-01,1.148053578703284984e+03
-1.323816477486955412e+00,8.533357013341662523e+00,4.796161417146871386e+00,1.575670218043886961e-01,3.491471573232598491e-01,-9.237255524087131242e-01,1.154598964003555011e+03
-4.842488428438183057e-01,9.682777452910787730e+00,4.726897321016281239e+00,-3.069109870046617949e-01,-2.833573429538941424e-01,-9.085781541782376181e-01,1.161144349303825038e+03
-3.967417079768769117e-01,9.785529954901903693e+00,4.713107185934507726e+00,-2.226994912650990255e-01,2.375070243736316922e-01,-9.455132732878206436e-01,1.161785984944732490e+03
3.470666625764519675e-01,1.077768969652588282e+01,4.502409997792941709e+00,-7.787965493307633102e-02,-3.524058853176830208e-01,-9.326011212415331597e-01,1.168331370245002518e+03
5.761356888680219113e-01,1.163959992047458769e+01,4.265059012450991283e+00,-1.830258548679554453e-01,-7.378427635107073224e-01,-6.496842254393565552e-01,1.173990410582729510e+03
1.558162847441512400e-01,1.266174344831981813e+01,4.003719268670559828e+00,2.518367451675709856e-02,-9.262033801839933966e-01,-3.761822444953763500e-01,1.180535795882999537e+03
-8.142027105780017537e-01,1.340079225264618579e+01,3.752811187855752628e+00,4.940879716393636704e-03,-9.738457755557229367e-01,-2.271563187320582988e-01,1.187081181183269564e+03
-1.822557853338093281e+00,1.349388518725945829e+01,3.500681684253589943e+00,2.951168550738255680e-01,-9.449210784722201772e-01,-1.415280795822184134e-01,1.192657969127693832e+03
-2.812846594096082065e+00,1.295898362162882300e+01,3.049553684579346058e+00,1.558611646301465981e-01,-8.586428463201908334e-01,-4.883029385773708375e-01,1.199203354427963859e+03
-2.992968392881376172e+00,1.269889183906989416e+01,2.863140639783265939e+00,2.323585988956259341e-01,-8.510828744263755352e-01,-4.708156989495995148e-01,1.201110968549146264e+03
-3.337358381380937100e+00,1.182724657543877456e+01,2.040473808062076788e+00,5.144439760681008833e-01,-8.113557452669517556e-01,-2.775774668620502039e-01,1.207656353849416291e+03
-3.368241308176241233e+00,1.173837796549547186e+01,1.922239966520407073e+00,9.727896455020582644e-01,5.660960798037224101e-02,2.246678835265255858e-01,1.208478945707734283e+03
-3.429872281118389932e+00,1.162852601907554195e+01,1.720935537343416089e+00,9.536396649012156557e-01,9.297696602966225299e-02,2.862283586841389837e-01,1.209865610689777441e+03
-3.719807541197734047e+00,1.147252794431691925e+01,9.637145536490249187e-01,9.611372900290677812e-01,-1.621999753887452822e-02,2.755939429585100853e-01,1.216410995990047468e+03
-3.782703302639394582e+00,1.155856541965708040e+01,8.567145870376112748e-01,9.473773565649303841e-01,-5.484862549735622372e-02,-3.153851178307174874e-01,1.218977352460894735e+03
-3.745992086881294370e+00,1.183805743377570963e+01,1.104982946075525607e+00,9.721466489131322941e-01,-2.587116394865419597e-02,2.329411425294144466e-01,1.222448549475186155e+03
-3.633147952570825456e+00,1.210128984791283457e+01,1.505025678960267177e+00,9.869012000157911801e-01,-1.125689013843950842e-01,1.155606500868767983e-01,1.224607003153273808e+03
-2.777727324841339662e+00,1.294449295597166305e+01,2.846596724697062264e+00,8.816195743987494948e-01,-4.522383165661483795e-01,-1.350090036493264978e-01,1.231152388453543836e+03
-1.259831632132615953e+00,1.345252421577325919e+01,3.277699952721055521e+00,2.614655278214430556e-01,-8.927996585901408766e-01,3.668031452732951614e-01,1.237697773753813863e+03
-7.562457063218782638e-01,1.347064201288668883e+01,3.099852206118385300e+00,-4.709578364560922797e-02,-8.837761653761913028e-01,4.655337546040680952e-01,1.239535596146444504e+03
7.775616301327862301e-01,1.313754061199471046e+01,1.820206396721843589e+00,-5.297348476820296082e-01,-7.362699476682300626e-01,4.210552877139991379e-01,1.246080981446714532e+03
1.717704084755089067e+00,1.248725379746963959e+01,3.858019904947023737e-01,-9.071744331341790035e-01,-3.215153657975424184e-01,-2.714082117839349273e-01,1.252626366746984559e+03
1.954694585702206888e+00,1.209624699462562525e+01,-1.475016395853182838e-01,-9.133473960241382805e-01,-1.817806549550226788e-02,-4.067752353705506585e-01,1.256439075760270043e+03
1.997104573416098594e+00,1.192635521330517001e+01,-2.424332331137719343e-01,-9.307176860339403390e-01,6.278195863065763604e-02,-3.603096093280415135e-01,1.258643091531374012e+03
1.955743605309489652e+00,1.172881897143767382e+01,5.967570313006734239e-02,-9.927831561944899796e-01,3.459939988994210902e-02,-1.148237183850211590e-01,1.263537512859439857e+03
1.735630074015674040e+00,1.170639749165715315e+01,1.134141222188518983e+00,-9.390725477101738994e-01,2.246319424755389288e-02,3.429841906579948474e-01,1.270082898159709885e+03
1.612823314621437465e+00,1.175201922897957552e+01,1.646676558036387350e+00,-9.934558130317731051e-01,1.071800001187436790e-03,1.142120781622342485e-01,1.272415143416737919e+03
1.171680497855018377e+00,1.194447351600303264e+01,3.264586351136327114e+00,-8.879227323139334827e-01,4.208754552907891661e-02,4.580631615306959836e-01,1.278960528717007946e+03
6.985500301441099902e-01,1.207881398345496038e+01,4.978531265478904899e+00,-9.381110345983993959e-01,-2.077742947665576698e-02,3.457108404274639724e-01,1.285505914017277973e+03
3.108160381789841775e-01,1.197125143607728326e+01,6.635228307664725378e+00,-9.484711936668566157e-01,1.923191574853631847e-01,-2.518248130115222083e-01,1.292051299317548001e+03
3.496217824350951464e-02,1.155522222754384387e+01,8.106632018934545769e+00,-2.601749244890251833e-01,-8.136117230331129102e-01,-5.199470865484476789e-01,1.298596684617818028e+03
1.729609064627782647e-02,1.151330571137287251e+01,8.206959072336589500e+00,-2.017079137859329740e-01,-6.620901861145475076e-01,-7.217690094254051170e-01,1.299084628259237661e+03
-3.028143653060639262e-01,1.096479736784945835e+01,9.399079833527721917e+00,3.515519646055341729e-01,8.559666257936494604e-01,-3.791204976118064951e-01,1.305630013559507688e+03
-7.998110058991828586e-01,1.056363159724811496e+01,1.028555819011923766e+01,2.179060843552750870e-01,9.205317819052900585e-01,3.242501764120154784e-01,1.312175398859777715e+03
-1.347889010284934574e+00,1.040934480905846726e+01,1.086604560233126548e+01,5.843618796097665991e-01,7.808994274943554803e-01,-2.207199080235594801e-01,1.318720784160047742e+03
-1.584532683777043927e+00,1.033170515670307132e+01,1.114663113444842502e+01,6.294403467836036103e-01,6.886551967779714900e-01,-3.599428701775189143e-01,1.324381940622837419e+03
-1.367377683313116377e+00,1.009289961898273624e+01,1.129026139633335823e+01,4.570339206093714246e-01,7.836229100947726955e-01,-4.207791940995022073e-01,1.330927325923107446e+03
-7.678342616016711197e-01,9.846665231910105121e+00,1.132977965767098816e+01,1.499759494138596938e-01,9.645447563687830073e-01,2.171649777447928198e-01,1.337472711223377473e+03
-5.344624683970791157e-01,9.839799907362120734e+00,1.133080187521044557e+01,1.375505346140098659e-02,9.758093894918667965e-01,2.181899032581120779e-01,1.339529752796983757e+03
-3.105066320882385877e-01,9.917799505443602115e+00,1.132973463382235124e+01,-1.415313372007058652e-02,9.733157445019725573e-01,2.290330768916850335e-01,1.341451046296087952e+03
3.781630386643634045e-01,1.052426126397248218e+01,1.131917743594779857e+01,-5.625069614156122944e-01,7.695712641186802649e-01,3.022349877194093204e-01,1.347996431596357979e+03
7.966137169155544928e-01,1.138984102114498320e+01,1.131867704602359481e+01,-9.432627056542015609e-01,9.016964969930628404e-02,3.195698709124804027e-01,1.354541816896628006e+03
8.212849115901633690e-01,1.159358490441309364e+01,1.132338424509519825e+01,-9.481393338165323703e-01,6.800793095187730730e-02,3.104943236157254871e-01,1.355968761765152522e+03
6.341162180309307672e-01,1.244085276620376490e+01,1.141774074240344206e+01,-7.646771434992546412e-01,-6.041232401364164950e-01,2.242854808874127359e-01,1.362514147065422549e+03
2.514381509357778155e-01,1.296990867591877361e+01,1.171722948746552717e+01,-4.120072934432842948e-01,-9.111135659266651476e-01,-1.104808281720818380e-02,1.369059532365692576e+03
1.285492544762681377e-01,1.300377002968062179e+01,1.191130146265696332e+01,-3.251371859165823053e-01,-9.340758071007485563e-01,-1.476082549294950308e-01,1.371438322353818876e+03
-1.368633453976974002e-01,1.270089907824895725e+01,1.259642518627169139e+01,-1.430558529594531669e-01,-7.453926369450035727e-01,-6.510951080466028662e-01,1.377983707654088903e+03
-4.259705751226813830e-01,1.214763720258033608e+01,1.325541829164740548e+01,-5.234966345882291483e-02,-2.898083448012915286e-01,-9.556519429265467602e-01,1.384529092954358930e+03
-6.565740177654303400e-01,1.183417791600728819e+01,1.348576610052224289e+01,8.095559894736591156e-02,-8.778906972258858354e-02,-9.928440311732330548e-01,1.388136004714354613e+03
-6.890699824943907759e-01,1.180075728738395924e+01,1.350185538313746214e+01,9.814942258547387777e-02,-6.857094065304282504e-02,-9.928064851440561167e-01,1.388555737678094602e+03
-1.257188760815588724e+00,1.135811689067354635e+01,1.351229071445288454e+01,3.800005782055038694e-01,7.117899046492834336e-02,-9.222435209205193107e-01,1.395101122978364629e+03
-1.815938690957322521e+00,1.102400046267590206e+01,1.306998829043444665e+01,6.693889526874473583e-01,2.430960620145602435e-01,-7.020133436431357232e-01,1.401646508278634656e+03
-1.957105853847761257e+00,1.091972033598145408e+01,1.278966361959246001e+01,7.611428897947906114e-01,3.043224808788033142e-01,-5.727559069504265521e-01,1.403961155374455302e+03
-2.037185475514377675e+00,1.060531229334893588e+01,1.169263759755574128e+01,8.631922543030038364e-01,5.048502255883535739e-01,5.038038773854191556e-03,1.410506540674725329e+03
-1.666931370276976576e+00,1.031645083225243553e+01,1.029071094431736455e+01,6.862219130113985655e-01,7.026237454852237718e-01,1.882003145143280043e-01,1.417051925974995356e+03
-9.669983091137809295e-01,1.022588752673684809e+01,8.659588985354314872e+00,2.196597651511934535e-01,8.613675101460284145e-01,4.580344965595430917e-01,1.423597311275265383e+03
-3.025055747978100396e-01,1.035843872629675033e+01,7.184278075514784589e+00,3.056418147941515895e-01,7.439630618638433113e-01,-5.942239002526849001e-01,1.429009903517570365e+03
4.550854137712201375e-01,1.067353186691733669e+01,5.346071627282873884e+00,-6.624802265696417836e-01,7.176696866225659166e-01,-2.146396289302234250e-01,1.435555288817840392e+03
1.099744307518424113e+00,1.108385063887281063e+01,3.565814288569653989e+00,-9.606342364893756258e-01,7.686425822163210630e-02,2.669714394696792170e-01,1.442100674118110419e+03
1.589279723962732316e+00,1.156968187265541559e+01,1.964263900075307712e+00,-9.369579524432932738e-01,-1.579262560767279444e-01,3.117195742889097287e-01,1.448646059418380446e+03
1.910127996808832718e+00,1.209652179244840831e+01,6.116402897818821183e-01,-9.275462315667144519e-01,-1.278952386749483416e-01,-3.511421310960345377e-01,1.455191444718650473e+03
2.006350180472499467e+00,1.235009858118973369e+01,4.826038292462631052e-02,-8.748559826262893857e-01,-1.300494553642812801e-01,-4.665984878055684515e-01,1.458405581212226934e+03
2.130588189892562490e+00,1.279366551814741904e+01,-9.543726779089265477e-01,-9.430022095859050824e-01,-3.321739873821339395e-01,-2.018105108151897059e-02,1.464950966512496962e+03
2.234139502644647557e+00,1.308554776070066161e+01,-1.860284055102845890e+00,-6.136811751463931985e-01,-6.427871360510022392e-01,-4.584976695669151225e-01,1.471496351812766989e+03
2.383782991405023477e+00,1.313812453177867390e+01,-2.750883729696567137e+00,-7.175339578438634236e-01,-6.964964368912353043e-01,-6.142698001220010459e-03,1.478041737113037016e+03
2.509879078525373952e+00,1.302099698253469384e+01,-3.280008024771023045e+00,-7.702368592961131855e-01,-5.791474299162205908e-01,-2.670644772392911648e-01,1.481816523951514682e+03
2.736124506458445627e+00,1.267532740072985575e+01,-4.184513322228744947e+00,-8.927399390716467265e-01,-3.982583127282274260e-01,2.107266417167461547e-01,1.488361909251784709e+03
2.850072341804379850e+00,1.240021574227810142e+01,-4.978722341653146088e+00,-9.579995870529842694e-01,-2.662517704749233771e-01,-1.065212932951915270e-01,1.494907294552054736e+03
2.721131358698078540e+00,1.245342017551526403e+01,-5.548430708166174341e+00,-9.294941897847873724e-01,-3.075434957769899169e-01,2.036112702224271986e-01,1.501423043705973669e+03
2.278524455345010136e+00,1.295277096721851251e+01,-5.829418657494077394e+00,-7.321711155744929922e-01,-6.750574281222461170e-01,-9.068035209118387174e-02,1.507968429006243696e+03
1.562430602742042929e+00,1.372842098738537686e+01,-5.833839185439879671e+00,-5.885378419688072071e-01,-7.004933787060481087e-01,4.036486528649445016e-01,1.514513814306513723e+03
1.029999727379248720e+00,1.418492491622426854e+01,-5.712665039924646138e+00,-6.678210528968364645e-01,-6.728542019731823531e-01,3.182487457866766678e-01,1.518374598924670863e+03
3.671414870521357010e-02,1.477247472303433184e+01,-5.334751520425077054e+00,-7.209549349684968300e-02,-9.933579370687081189e-01,8.967858540390860611e-02,1.524919984224940890e+03
-2.101845850001577420e-01,1.486893483505999036e+01,-5.211057814455935855e+00,6.752705748021044230e-02,-9.975710644506695646e-01,1.708999352903120897e-02,1.526550447678494493e+03
-1.094523914110313134e+00,1.505623008005970398e+01,-4.667120531536372852e+00,1.744876417893738152e-01,-9.537145671630650190e-01,-2.449134280592848434e-01,1.533095832978764520e+03
-1.751300513049738994e+00,1.503226971509930010e+01,-4.215954432093493409e+00,4.440798129162314423e-01,-8.752830745392767842e-01,1.915010683660955115e-01,1.539641218279034547e+03
-1.819462998354024919e+00,1.501403848283839082e+01,-4.171572660213752393e+00,4.729168511150048104e-01,-8.643237723669865424e-01,1.711551005747994625e-01,1.540574001202621048e+03
-2.053844126029280570e+00,1.482427180094519592e+01,-4.141044845788422357e+00,5.870564034113020524e-01,-7.935126467084850921e-01,1.603198637957305994e-01,1.547119386502891075e+03
-1.806566767684342434e+00,1.453929137500863611e+01,-4.580789371331203341e+00,5.592630067701477303e-01,-7.684244235978660020e-01,-3.110446824440198377e-01,1.553664771803161102e+03
-9.320800865173477501e-01,1.410849848155958597e+01,-5.282030309317956807e+00,1.890112532593476447e-01,-9.773727158162266448e-01,9.495957307899127731e-02,1.560210157103431129e+03
-7.244875773346600711e-01,1.401549679922263714e+01,-5.398089757111640630e+00,-4.691274419736672120e-03,-9.749852092414682536e-01,2.222202369377937470e-01,1.561251238058522858e+03
5.108183588242005690e-01,1.305178593554591515e+01,-6.008110342651935554e+00,-9.990958795367518297e-01,-2.949836551012555846e-02,3.061486444385215500e-02,1.567796623358792885e+03
9.716264635078355472e-01,1.157476290942046049e+01,-6.322976930121807726e+00,1.051620849259738422e-01,-5.135212794608059461e-01,8.516083791479268639e-01,1.574342008659062913e+03
9.407339947197987939e-01,1.138499269143765780e+01,-6.334348156392084483e+00,2.036569117291130437e-01,-3.750760236019597127e-02,9.783235876079803273e-01,1.575088175139991336e+03
3.196451139487000992e-01,9.850990136865625857e+00,-6.143578969322808447e+00,-8.526389195001090604e-01,4.624561186371712873e-01,2.431896611468694624e-01,1.581633560440261363e+03
-3.139846974491402043e-01,8.712207781928547945e+00,-5.465020118607057498e+00,1.300573876459216183e-01,9.718538496833379892e-01,1.964310840330378838e-01,1.588178945740531390e+03
-3.545221301085687005e-01,8.622759708226025666e+00,-5.365416409579623291e+00,1.500050487665242904e-01,9.812148730169854005e-01,1.213089374894271988e-01,1.588887797873073396e+03
-5.205369037495716222e-01,8.101549672950195458e+00,-4.430249106941791304e+00,-1.200822567391236495e-01,9.454664925340428017e-01,3.027760940229820563e-01,1.595433183173343423e+03
-3.924540478743297478e-01,8.007876805378483454e+00,-3.862899916181792737e+00,1.369675747049503012e-01,9.899212703928578216e-01,3.599669294857829605e-02,1.600887889330697590e+03
-2.858667373070754580e-01,8.040105901614834849e+00,-3.795617785015418910e+00,8.872081165417265713e-02,9.960466401236939271e-01,4.439400604319760496e-03,1.602857601602921704e+03
1.764526535088219161e-01,8.295000996279590311e+00,-4.119948030406062500e+00,-1.486732043088464239e-01,9.726346683546945870e-01,1.785443368888896820e-01,1.609402986903191731e+03
6.272192485905930814e-01,8.689152807213213592e+00,-4.981950488032365953e+00,-4.614938579910198846e-01,8.787858951677348651e-01,-1.214856760725624985e-01,1.615948372203461759e+03
8.584883110306232856e-01,9.176855028993147201e+00,-6.080446375722177166e+00,-7.445351911886536334e-01,6.644731662151752705e-01,6.436427939202772619e-02,1.622493757503731786e+03
8.390790167426033230e-01,9.341711121550998698e+00,-6.420531596119561257e+00,-7.593977777160464404e-01,5.731670024350271619e-01,3.078873211413152289e-01,1.624493894945130023e+03
4.868883132346381593e-01,9.935278289892051973e+00,-7.397178091374629005e+00,-4.499868210716510553e-01,1.345742080888961134e-01,8.828372689114776239e-01,1.631039280245400050e+03
8.563817074944161944e-02,1.049392039314526315e+01,-7.971054242429008063e+00,8.388524537642057244e-02,2.095185543036403031e-01,9.741997952220324830e-01,1.636281754133308368e+03
-4.790633960002076835e-02,1.073490784657768415e+01,-8.115703986686073179e+00,1.434580434593394627e-01,8.062470442696374751e-02,9.863667912104923108e-01,1.638253231754998524e+03
-3.855476101712287940e-01,1.151550334691052235e+01,-8.413493104051028126e+00,2.538178966338300313e-01,-2.455465398507713504e-01,9.355658031991613832e-01,1.644798617055268551e+03
-6.341696528959684942e-01,1.189588960915264870e+01,-8.559988349455034395e+00,-1.812856241627731346e-01,1.488386588053106918e-01,9.721021428414557963e-01,1.649936422859968388e+03
-1.060938288662228723e+00,1.187039256825204525e+01,-8.710700047609838848e+00,-1.374927167497624197e-02,1.522191552951013549e-01,9.882511251142866993e-01,1.656481808160238415e+03
-1.377658493588503896e+00,1.161230113561712862e+01,-8.737064302363638291e+00,1.015407074854024344e-01,2.407836208599854755e-01,9.652526781361027153e-01,1.660148686695825063e+03
-2.074855282009231416e+00,1.089328793250848548e+01,-8.532438115010535284e+00,8.288413156886599575e-02,1.932280558256551650e-01,9.776467353681043138e-01,1.666694071996095090e+03
-2.714513046207294167e+00,1.029741974574842978e+01,-7.972249011834929178e+00,3.526741307873799691e-01,4.530946880896154494e-01,8.187344875466894267e-01,1.671978387122397407e+03
-3.469618412668481700e+00,9.975248340054825746e+00,-6.724254009771884810e+00,7.091054807647982905e-01,6.257505424633771351e-01,3.249702690341281786e-01,1.678523772422667435e+03
-3.557313888760853082e+00,9.991088206593918386e+00,-6.530047842020895388e+00,7.479738529935127112e-01,6.189913400057224235e-01,2.395513227597775574e-01,1.679380621676957617e+03
-4.059600360446467882e+00,1.057092669274142338e+01,-5.128236159073965794e+00,9.496059991396245126e-01,3.126283023771392333e-01,-2.262721703664943157e-02,1.685926006977227644e+03
-4.211415767103002139e+00,1.166290002171319173e+01,-3.986499784527837154e+00,9.891240077056038249e-01,1.197104287935146921e-01,8.545823903215833683e-02,1.692471392277497671e+03
-4.197210365206534455e+00,1.184191739352786321e+01,-3.855538128032146794e+00,9.985834183611113080e-01,4.394587421568664498e-02,2.999861186216668321e-02,1.693401776851197610e+03
-3.732452783597163926e+00,1.301025047866628270e+01,-3.184565134723794877e+00,8.320084762925420430e-01,-4.832047870453620719e-01,-2.725344549847030784e-01,1.699947162151467637e+03
-2.635467500305486155e+00,1.383837252214520497e+01,-2.866756249216687813e+00,6.167414148022871689e-01,-6.244689557264418989e-01,-4.792374678607678740e-01,1.706492547451737664e+03
-1.140861649458140503e+00,1.438360719212298733e+01,-2.690302810674916056e+00,-5.016381764441130847e-02,-2.903998171351611021e-02,9.983187220829914388e-01,1.713037932752007691e+03
-1.009826794741225164e+00,1.442680372207017392e+01,-2.674624280382604358e+00,-9.765029317792577046e-02,-4.471387754773942236e-02,9.942158163079638511e-01,1.713584268264123693e+03
4.528024766652440358e-01,1.510264490967866635e+01,-2.388977883449483475e+00,-2.261704900174139332e-01,8.600068674931948820e-01,4.574222308872026299e-01,1.720129653564393720e+03
1.705847713002550670e+00,1.597669896067853124e+01,-2.020446539376668849e+00,-3.984284200215393867e-01,2.926011377074615449e-01,8.692751971219695450e-01,1.726675038864663748e+03
2.726711621782783368e+00,1.688115592982932966e+01,-1.760029385276232317e+00,-7.606290667406279127e-01,-1.207379645271691726e-01,6.378603034764881441e-01,1.733220424164933775e+03
3.408321866838628367e+00,1.760134851863632477e+01,-1.726515282006580776e+00,-8.072869332243154394e-01,4.419226688025229000e-01,3.911421253761034889e-01,1.738973867391777048e+03
3.945468227574588926e+00,1.831909680697803822e+01,-1.877945028638588143e+00,-9.011595223141100064e-01,1.641206291648718285e-01,4.012180634332552231e-01,1.745519252692047075e+03
4.263018227633035728e+00,1.896866449701781221e+01,-2.109151517096659934e+00,-9.027019845244985685e-01,-4.243410222728613568e-02,4.281687448935246887e-01,1.752064637992317103e+03
4.383419025882962394e+00,1.958540113585207010e+01,-2.303391787582911743e+00,-8.691476428017324007e-01,-2.064300676091793407e-01,4.494096151608926726e-01,1.758610023292587130e+03
4.357106129584821019e+00,1.993676340487246890e+01,-2.342604642965747441e+00,-8.445882844506954479e-01,3.157021401451722831e-01,4.324381903537071192e-01,1.762352992655723710e+03
4.163665055802250770e+00,2.057583682893957189e+01,-2.193772034978199059e+00,-8.852933789280612586e-01,1.563885192483642772e-01,4.379477871544048551e-01,1.768898377955993737e+03
3.835214572448816028e+00,2.127042860250424638e+01,-1.707785039929631488e+00,-9.363621328335279825e-01,-6.866460280663187754e-02,3.442544531547180320e-01,1.775443763256263765e+03
3.397563918539061145e+00,2.205321644435567663e+01,-7.679829730598061177e-01,-6.655841361037672099e-01,-4.868471307514222191e-01,5.656656512871446330e-01,1.781989148556533792e+03
2.844203881888037522e+00,2.291006588647572784e+01,6.072494733405755518e-01,-8.512500229869263135e-01,4.776649191152604335e-01,-2.172777563658306599e-01,1.788534533856803819e+03
2.101180620411500222e+00,2.373538367052043085e+01,2.129492945730566245e+00,-4.666597167183098027e-02,-6.082750622667831841e-01,-7.923532897087416371e-01,1.795079919157073846e+03
2.000416576275958924e+00,2.382111069718885332e+01,2.296593422558320441e+00,8.506742176562835656e-02,-5.740244753459362581e-01,-8.144074136806290776e-01,1.795822939813491757e+03
9.053153578418599023e-01,2.442361342679122060e+01,3.482648737952129370e+00,-9.890266336545173731e-01,6.626323593501688702e-02,-1.320435590456172092e-01,1.802368325113761784e+03
-4.922357024463974162e-01,2.476422975687366446e+01,4.052643353279935745e+00,-7.981158237133063882e-02,-3.637570286214076853e-01,-9.280683894239198928e-01,1.808913710414031812e+03
-1.888992835632092193e+00,2.493035174361129336e+01,3.981789819266932540e+00,8.667003425256165627e-01,-2.859451104975481162e-01,-4.087369692706105395e-01,1.815269220276476744e+03
-3.053582549718172778e+00,2.507539229036824935e+01,3.398546981331553418e+00,7.750889017585529395e-01,-2.245909854452216303e-01,-5.905896067723039877e-01,1.821814605576746771e+03
-3.225238584310194945e+00,2.510919974554690626e+01,3.236573494793233419e+00,2.765661004793099620e-01,-2.918035198931910323e-01,-9.156210448889936515e-01,1.823075599560264436e+03
-3.815809465711722304e+00,2.531134280566050165e+01,2.238871785690495830e+00,6.883829573553741366e-01,-4.790565673570626459e-01,-5.446408993958654632e-01,1.829620984860534463e+03
-3.980143697313921702e+00,2.549662998494544652e+01,1.062796901933154903e+00,7.916481399935009211e-01,-5.929356113496258018e-01,1.473790461302954824e-01,1.836166370160804490e+03
-3.771631483229729742e+00,2.560700276765223649e+01,-1.838692274612457878e-01,6.150973929433670717e-01,-6.060687559209214648e-01,5.043172218859273137e-01,1.842711755461074517e+03
-3.338839343561596618e+00,2.561104837432132442e+01,-1.194278830103639333e+00,2.971338273305683120e-01,-4.768046867492317098e-01,8.272658456323788156e-01,1.848176137346606993e+03
-2.567079250765577303e+00,2.548074648576056589e+01,-2.264115033829096291e+00,8.049560655091079209e-01,-4.214412683015923422e-01,4.176517568171386197e-01,1.854721522646877020e+03
-1.639506213997862227e+00,2.512423583385320924e+01,-3.052979245989035917e+00,4.476196955317933157e-01,-2.965111699379189836e-01,8.436336493253875357e-01,1.861266907947147047e+03
-1.391842806137032706e+00,2.496230829901077541e+01,-3.185072882199579070e+00,3.319660000045612791e-01,-2.209360728131755380e-01,9.170527937751798975e-01,1.862969455417602603e+03
-5.752130726748293510e-01,2.400531948284689321e+01,-3.442904556363391766e+00,-6.094514356287449725e-02,2.280954137665225367e-01,9.717294745425703040e-01,1.869514840717872630e+03
-4.297729941635904383e-01,2.370521030119871497e+01,-3.459996582186604552e+00,-2.385121788021161704e-01,-1.626416663652271444e-01,9.574234324085710846e-01,1.871052893727382980e+03
-5.334272811157840521e-02,2.215426426970135410e+01,-3.457659941514058310e+00,8.763587080380254302e-02,-4.425034655740072154e-01,8.924744461907312409e-01,1.877598279027653007e+03
-1.130625453863946979e-03,2.040014031820195228e+01,-3.414960282994416119e+00,7.166721222949479220e-02,3.065419442807358896e-01,9.491553334875376668e-01,1.884143664327923034e+03
-6.160496123886626679e-02,1.987590656356206154e+01,-3.405148211341210374e+00,4.482050788489407717e-02,-4.399779714413762921e-01,8.968893503210256801e-01,1.886141432716269264e+03
-5.460511151632060356e-01,1.842835652417380032e+01,-3.386761699839270445e+00,-1.281663599433312817e-01,1.811708050631331279e-01,9.750643689375858569e-01,1.892621027517892571e+03
-9.172994735072873551e-01,1.796001332736684475e+01,-3.373626120740809586e+00,1.533452402056478536e-01,-2.971247069972701160e-01,9.424447706884783171e-01,1.895443756594243041e+03
-2.074191767955743781e+00,1.728890806479426701e+01,-3.221876501807524829e+00,6.028379906010209455e-01,-2.033652074664764331e-03,7.978610288435966647e-01,1.901989141894513068e+03
-3.244068128660360539e+00,1.702274942311925798e+01,-2.736666700520880013e+00,8.680671100505230608e-01,8.469928949467021850e-02,4.891681948038231198e-01,1.908534527194783095e+03
-3.342433925593244037e+00,1.701610816736670628e+01,-2.666544698727890683e+00,5.736747206880515870e-01,-1.654008344959950194e-01,8.022093734128979969e-01,1.909155685568748140e+03
-4.159800254419028676e+00,1.708423900736654133e+01,-1.777556268311465182e+00,5.045961015270126193e-01,4.617993057590881467e-02,8.621195905068769205e-01,1.915410774006160409e+03
-4.692667093628021924e+00,1.735477976005578071e+01,-6.232806224238909287e-01,8.161928035482537425e-01,-5.197117466660724355e-02,5.754374896023152219e-01,1.921956159306430436e+03
-4.826713355337413525e+00,1.773097894354818393e+01,6.129028267068986624e-01,9.698525021233923571e-01,-2.244638278169706069e-01,9.487947157709455959e-02,1.928501544606700463e+03
-4.501710474837994802e+00,1.810987994849708826e+01,1.860897811349997655e+00,9.065208718937445287e-01,3.550473729523295763e-01,-2.283884230442829455e-01,1.935046929906970490e+03
-3.770716724253985852e+00,1.838289483558415682e+01,3.052709347855293132e+00,9.393824764073548383e-01,2.214648081949336933e-01,-2.617516031468893334e-01,1.941592315207240517e+03
-3.069471496092764262e+00,1.843517853978843490e+01,3.783147081228391162e+00,6.654007765984107925e-01,2.212799426733421115e-01,-7.129354763740645140e-01,1.945986311538626524e+03
-1.786387220952415644e+00,1.822909308618848812e+01,4.717667796719752893e+00,5.713360284449162663e-01,3.346708959104930381e-01,-7.493800998366968447e-01,1.952531696838896551e+03
-8.595766654392252848e-01,1.784042963876098753e+01,5.204172474274245452e+00,1.440843599529112729e-01,-3.414849806960929546e-01,-9.287775326610506754e-01,1.956877363433620303e+03
4.737057028374979661e-01,1.680545873223167064e+01,5.699703575738557682e+00,-2.179204250868255754e-01,1.451153726921463882e-01,-9.651177218030951854e-01,1.963422748733890330e+03
1.671302832924020043e+00,1.533622673139884363e+01,5.955856277940642762e+00,-4.775016605702986361e-01,5.035826979693536209e-01,-7.199976600368325208e-01,1.969968134034160357e+03
2.741871662242350904e+00,1.352295561093904297e+01,6.007128798944903814e+00,-4.642712774930351505e-01,1.715511273230843625e-01,-8.689202446767850807e-01,1.976513519334430384e+03
3.696750808100231822e+00,1.145547650718632759e+01,5.888043698382674052e+00,-6.207632220929502065e-01,1.122218316378504888e-01,-7.759247918455914883e-01,1.983058904634700411e+03
4.549955158260513777e+00,9.223167782669097647e+00,5.633143775049791024e+00,-6.546560851737296405e-01,4.498817910985283275e-01,-6.074798631913543856e-01,1.989604289934970438e+03
5.318169902300965646e+00,6.914893194316703351e+00,5.276987961410103622e+00,-6.928122012924201600e-01,5.126111204038240610e-01,-5.071894054282751751e-01,1.996149675235240466e+03
6.020744003599437733e+00,4.618940176620848881e+00,4.854147218060608893e+00,-6.438954528149105627e-01,6.701732940749888234e-01,-3.691427931748902380e-01,2.002695060535510493e+03
6.679683119614048259e+00,2.422958246881552036e+00,4.399200429274110036e+00,1.220877483053446760e-01,-9.925192843472805393e-01,2.278431317580190802e-04,2.009240445835780520e+03
7.312051896435098008e+00,3.898287286302973831e-01,3.939318134289692352e+00,8.618111053693883195e-02,-9.953126077860612320e-01,4.388198911547099013e-02,2.015785831136050547e+03
7.921394107684448294e+00,-1.466144433982615292e+00,3.486847135857349400e+00,3.456436609445666386e-02,-9.991793163873654571e-01,-2.111867183715074661e-02,2.022331216436320574e+03
8.503846333271612323e+00,-3.154718460172760253e+00,3.046721194263108945e+00,1.885452193216362662e-02,-9.991354767647286916e-01,3.705139771760392053e-02,2.028876601736590601e+03
9.055238204677770852e+00,-4.685483527920825786e+00,2.623872603779776380e+00,-7.677117787957864203e-02,-9.892714280271802663e-01,1.242909004555258629e-01,2.035421987036860628e+03
9.571094695145831110e+00,-6.067855662587586352e+00,2.223231607666335652e+00,-6.896421531724294951e-02,-9.343354835246856505e-01,-3.496586066899666223e-01,2.041967372337130655e+03
9.704779470098158001e+00,-6.415200070340148386e+00,2.118771693696169578e+00,-1.092194253524418207e-01,-9.288062132394475645e-01,-3.541046954976453387e-01,2.043757430129056502e+03
1.016342271465895664e+01,-7.578831646659954124e+00,1.758625589400987899e+00,-3.140513630267074419e-01,-8.769016132318584456e-01,-3.638891343423589220e-01,2.050302815429326529e+03
1.057589969710503119e+01,-8.614720003582684527e+00,1.431884852120036022e+00,-6.300734336698167182e-01,-6.982558850048848909e-01,-3.397737294723827683e-01,2.056848200729596556e+03
1.093675520187861139e+01,-9.531672082517308908e+00,1.143468636759282120e+00,-9.281605511376815887e-01,-2.922609027024435369e-01,-2.304377487812010183e-01,2.063393586029866583e+03
1.124023984467098103e+01,-1.033829076446462736e+01,8.982915573380635399e-01,-9.016241012152396150e-01,-3.575807612355416665e-01,2.433310076871044447e-01,2.069938971330136610e+03
1.148031271651596619e+01,-1.104296801062017863e+01,7.012630928170020539e-01,-9.446416563350831241e-01,4.723797209161741117e-02,3.246855634443612248e-01,2.076484356630406637e+03
1.165064407061415608e+01,-1.165387805079220662e+01,5.572869915512288497e-01,-8.915031550341059319e-01,3.183896903347859797e-01,-3.222578620495611945e-01,2.083029741930676664e+03
1.174461806122953789e+01,-1.217897061069501419e+01,4.712606861240372647e-01,-9.509369903835700466e-01,-1.124412149973847835e-01,-2.882287520185138341e-01,2.089575127230946691e+03
1.175533554916303025e+01,-1.262596418662150555e+01,4.480747133057480514e-01,-9.560637014066184491e-01,9.438238684485138197e-02,-2.775502907693400134e-01,2.096120512531216718e+03
1.167561697091454320e+01,-1.300233937127686978e+01,4.926121342116651092e-01,-9.164754323142406678e-01,2.677590150887360076e-01,-2.972841936651457462e-01,2.102665897831486745e+03
1.149800527076445711e+01,-1.331533223246924713e+01,6.097479546072400725e-01,-8.461180637028887785e-01,4.179629623197944621e-01,3.307433814977046027e-01,2.109211283131756772e+03
1.121476889560603318e+01,-1.357192774536785329e+01,8.043485454607807172e-01,-9.910300293329876720e-01,1.282979428346235073e-01,-3.740479681352873453e-02,2.115756668432026800e+03
1.084646402409115318e+01,-1.377606348853135465e+01,1.050240092152709748e+00,-9.426623893939971577e-01,2.732692420282810120e-01,-1.916025599601650642e-01,2.122302053732296827e+03
1.048742806019607521e+01,-1.392000653105246144e+01,1.250893041338398071e+00,-8.365089858465890593e-01,4.138807360049161499e-01,-3.591036799615675013e-01,2.128530846178800857e+03
1.020469489055901668e+01,-1.401752266896070864e+01,1.310320571368018605e+00,-7.155610637525130491e-01,5.371268532108948168e-01,-4.466174062899180286e-01,2.135076231479070884e+03
1.012152611638133060e+01,-1.406334469848324531e+01,1.100046442704239569e+00,-7.137476330825615056e-01,6.272375400654393029e-01,-3.116687096929967593e-01,2.141621616779340911e+03
1.012781967807254624e+01,-1.406515755565209425e+01,1.058252252210909905e+00,-7.231348710747809161e-01,6.323276218690835337e-01,-2.779167804524395047e-01,2.142313443644631661e+03
1.015979279037970429e+01,-1.405218549531641159e+01,7.804354201528623802e-01,-7.695023343062346033e-01,6.372011415766715148e-01,-4.290527555724035075e-02,2.145499142418664633e+03
1.016158654577965237e+01,-1.390499460535097320e+01,-4.804684872511583854e-02,-7.597982773113252097e-01,5.014849210914328337e-01,4.137867224944051792e-01,2.152044527718934660e+03
1.020395655969654314e+01,-1.356486599483082145e+01,-8.691053566383021289e-01,-3.563910372218558886e-01,7.913508458086655484e-01,4.967386308974161557e-01,2.158589913019204687e+03
1.036233165663682243e+01,-1.321899681510840630e+01,-1.219670101770206738e+00,-4.508494170433507975e-01,5.338571507706281194e-01,7.153540002842911916e-01,2.162754429491485098e+03
1.074001911236210560e+01,-1.254777504935345789e+01,-1.515700273845427271e+00,-8.647472826441259253e-01,4.203671699351642088e-01,2.747791469531504771e-01,2.169299814791755125e+03
1.101457691303239983e+01,-1.187971915089633335e+01,-1.728612536145716749e+00,-9.313809847656236984e-01,2.316193389098346322e-02,3.633083897124408379e-01,2.175845200092025152e+03
1.102998206722655716e+01,-1.171965628903715384e+01,-1.796814724679167030e+00,-9.184229629613744894e-01,-6.121392135437062759e-02,3.908351531498548415e-01,2.177622345709097772e+03
1.079396077107068663e+01,-1.122862405119919771e+01,-2.099084218701614990e+00,-8.112941051671582748e-01,-1.659217509662505585e-01,5.605995428800433222e-01,2.184167731009367799e+03
1.016059550080395901e+01,-1.083252106199598330e+01,-2.398055144387969850e+00,-5.023273285202117799e-01,-4.015078166882121158e-01,7.658059337456274429e-01,2.190713116309637826e+03
9.156599319512592317e+00,-1.048994952267384662e+01,-2.588302559814340764e+00,6.447147301707559230e-02,-5.623945567588717331e-01,8.243517402753515189e-01,2.197258501609907853e+03
7.891271575653896697e+00,-1.015588803377111127e+01,-2.575468694504848166e+00,3.259792226568718893e-02,-6.535090598011503715e-01,7.562164268394176991e-01,2.203803886910177880e+03
6.595306235044602339e+00,-9.802060903809557857e+00,-2.306629909021215674e+00,-1.218344423516968672e-01,-4.150608213276278380e-01,9.015990701280065522e-01,2.209961793825262248e+03
5.254003736425764792e+00,-9.332312369186009704e+00,-1.687940007315854363e+00,-2.765185376851354571e-01,-7.016114770643069320e-01,6.567182299648121058e-01,2.216507179125532275e+03
4.103116651118905445e+00,-8.791995130396660585e+00,-7.734779839545525837e-01,3.487717522259260461e-01,-6.949171893054106874e-01,6.288468532616866558e-01,2.223052564425802302e+03
3.420524925108925807e+00,-8.414158681106121307e+00,5.375999439739751612e-02,-1.789704871457252766e-01,-9.669968954691453566e-01,1.813465436225816241e-01,2.228535470921359774e+03
3.137415754842177940e+00,-8.221342457689479133e+00,8.670436972905515294e-01,-1.016133228031449939e-02,-9.993832281290730979e-01,-3.361414375827727341e-02,2.234736411398093878e+03
3.498286719706266812e+00,-8.271657629947805290e+00,1.556214194293213060e+00,-1.934066621936902930e-01,-9.034582789274219206e-01,-3.825663357596906233e-01,2.241281796698363905e+03
4.354280602991440041e+00,-8.442864439051787073e+00,2.010241550221409490e+00,1.849964578964767292e-01,-7.853146044258810798e-01,-5.908106994978838955e-01,2.247170543447848104e+03
5.679664016737036469e+00,-8.666354665300849192e+00,2.328378527862452696e+00,3.078320676533127798e-01,-6.383113057744702612e-01,-7.055480813132278817e-01,2.253715928748118131e+03
7.105086668833573427e+00,-8.886462186487136705e+00,2.553900769315014863e+00,6.154199396809227895e-01,-6.706023826617637518e-01,4.141868445659456222e-01,2.260261314048388158e+03
7.728284153935744527e+00,-8.983976807287794131e+00,2.672304389945593606e+00,3.577397924478325497e-01,-8.128254899486836438e-01,4.597140021677217359e-01,2.263384574859697750e+03
8.797781874160770954e+00,-9.152193922906469936e+00,3.050469005726390570e+00,-1.634925442454167321e-01,-9.530532433990459573e-01,2.548719349452177596e-01,2.269929960159967777e+03
9.292876298065866791e+00,-9.220884232745913067e+00,3.448692430952926991e+00,-5.934475241519722166e-01,-7.942701396619167298e-01,-1.302112948992280861e-01,2.274173040800676063e+03
9.712291346728436636e+00,-9.290069552860671820e+00,4.324288405447719974e+00,-7.949609602827966137e-01,-6.039239908489386632e-01,5.755766589555882246e-02,2.280718426100946090e+03
9.776242038088756914e+00,-9.456333147255040927e+00,5.327708735000337370e+00,-8.793474840680814975e-01,-4.678813627553615739e-01,-8.851571978649185046e-02,2.287263811401216117e+03
9.750994946060616897e+00,-9.507540597964059259e+00,5.492205320556350578e+00,-8.748065860826806928e-01,-4.390738377503806134e-01,-2.047623059782189281e-01,2.288346293910029544e+03
9.454635797926560059e+00,-1.001663764395811462e+01,6.372479508426929229e+00,-6.295942288146170185e-01,-7.862049835831437516e-02,-7.729359121435733782e-01,2.294891679210299571e+03
9.139278054597069101e+00,-1.068919574225702718e+01,6.908016533796770275e+00,-2.219573909491180663e-02,-1.955305865028265921e-01,-9.804463977739380498e-01,2.300417285006516522e+03
8.844472721883068544e+00,-1.169576681309393962e+01,7.247847082230482130e+00,1.192610634245110240e-01,3.113455151778178887e-01,-9.427835217744918728e-01,2.306962670306786549e+03
8.619522271139056002e+00,-1.272560838525596161e+01,7.341697868467543131e+00,2.143676859392061040e-01,1.379481224141435314e-01,-9.669626728821968387e-01,2.313508055607056576e+03
8.610570290156017492e+00,-1.276698299568845840e+01,7.341505688100555815e+00,2.176681546105109777e-01,1.562347494701707695e-01,-9.634372203348009478e-01,2.313785461999990275e+03
8.378905616449372928e+00,-1.361426728563350608e+01,7.267800417552386705e+00,-1.066045739066893896e-03,1.462707444066392859e-01,-9.892440208953550140e-01,2.320330847300260302e+03
8.083829228877418061e+00,-1.419428364561071199e+01,7.060579854006387102e+00,1.405441709262295891e-01,4.252706047436658476e-01,-8.940873831788567205e-01,2.326876232600530329e+03
7.892437717008539799e+00,-1.434747126815401330e+01,6.901248233285801170e+00,2.358061491626927131e-01,5.061042753915104830e-01,-8.296107053597465697e-01,2.330114591040249707e+03
7.379633924653112409e+00,-1.436131810240406637e+01,6.467767200277749318e+00,5.171838378640739586e-01,5.462894782893411572e-01,-6.588540686392904133e-01,2.336659976340519734e+03
6.689722446923618726e+00,-1.402293381415636730e+01,5.912067823435548597e+00,8.578420852032022648e-01,3.634704622379210659e-01,-3.633127852619196796e-01,2.343205361640789761e+03
5.778189663691217781e+00,-1.329589161531543695e+01,5.238705300813258248e+00,5.652776003754695910e-01,8.245679265833788518e-01,-2.343008672067547343e-02,2.349750746941059788e+03
4.633750860845100128e+00,-1.222323816397667962e+01,4.490049086880228302e+00,9.891575153112324159e-01,1.413103997987170402e-01,-3.998475724617719940e-02,2.356296132241329815e+03
3.307297516783729296e+00,-1.100976519514118834e+01,3.784078116484191678e+00,-1.153306807317523719e-01,-2.783647370859244075e-01,-9.535260390933405494e-01,2.362841517541599842e+03
3.252993878657155946e+00,-1.096274771688064220e+01,3.759064505439667414e+00,-8.286807569896136039e-02,-3.100537925638049974e-01,-9.471005900889050144e-01,2.363095694385508978e+03
1.820146136129223491e+00,-9.904953430841599626e+00,3.257670672543560020e+00,1.393282802953051402e-01,-8.349770905392580600e-01,-5.323541007492558208e-01,2.369641079685779005e+03
3.372505964382914168e-01,-9.191916407026848646e+00,3.018345532299851808e+00,4.972151899008178111e-01,-6.240435687780367946e-01,-6.027824476531027376e-01,2.376186464986049032e+03
-8.356454353554274572e-01,-8.895128203975914971e+00,2.937871018865375827e+00,-4.821812378434509050e-01,-6.875516824643308489e-01,-5.429308775638251872e-01,2.381263921751987255e+03
-2.368533832798702665e+00,-8.736252061565503269e+00,2.759243272483555831e+00,-5.221808517942037042e-01,-7.465107357377018804e-01,-4.123698333387577630e-01,2.387809307052257282e+03
-3.879615395247758780e+00,-8.807296909885804936e+00,2.449579777686127002e+00,1.813161453716156946e-01,-9.173302418860692642e-01,-3.544427778200942014e-01,2.394354692352527309e+03
-5.264634856980841882e+00,-9.338248226178624378e+00,2.271889204086386727e+00,2.719548146519955578e-01,-8.897603948456802581e-01,-3.665610706985369394e-01,2.400900077652797336e+03
-5.568152059129030107e+00,-9.595230473995671971e+00,2.294351413791445360e+00,5.516067672258204713e-01,-7.264008231147599526e-01,-4.099656309117613029e-01,2.402515144762348427e+03
-6.607825244559415445e+00,-1.102961067666666040e+01,2.498917256212529470e+00,7.302658356854434540e-01,-3.786514458558582485e-01,-5.686254406741830802e-01,2.409060530062618454e+03
-7.375508106238780393e+00,-1.258522057715027209e+01,2.406467438088214283e+00,9.015712577355485813e-01,3.691479311520263762e-01,-2.256082271357139346e-01,2.415605915362888481e+03
-7.839076835927712317e+00,-1.379894733602056611e+01,1.641601829145957092e+00,8.856681596763897879e-01,3.084623247702823479e-01,-3.470488512194641606e-01,2.422151300663158509e+03
-7.935986096999882555e+00,-1.427541419998344452e+01,6.775204565692676262e-01,8.563074043433277494e-01,5.013261925010134012e-01,1.241357240250747368e-01,2.427138108118117088e+03
-7.685982422427381167e+00,-1.439351202261175544e+01,-6.079030842225954245e-01,7.423977042470927268e-01,5.560833877677365811e-01,3.736534685740296458e-01,2.433683493418387116e+03
-7.156298980080843641e+00,-1.438649745487644083e+01,-1.384542869716163915e+00,4.785123996877067021e-01,5.299951861557000710e-01,7.000935551745189889e-01,2.439487471183304933e+03
-6.333838943541405975e+00,-1.447784021814963396e+01,-1.770047324613488904e+00,5.930176540837405197e-01,6.566164173248890679e-01,4.660310530902895265e-01,2.446032856483574960e+03
-5.348554217913578768e+00,-1.453171853510530909e+01,-1.890483363608309375e+00,2.032424228532916932e-01,7.792411713296008013e-01,5.928538727693321020e-01,2.452578241783844987e+03
-5.328720084474641183e+00,-1.453120890128829146e+01,-1.891588601625082910e+00,1.939865519571944141e-01,7.803849545111641861e-01,5.944480973410268820e-01,2.452699812519981151e+03
-4.174247868563105257e+00,-1.429557382767155538e+01,-2.035957360787006287e+00,3.031071492425142511e-01,6.746788714884813798e-01,6.730040686690575980e-01,2.459245197820251178e+03
-2.894248521481067371e+00,-1.364257303819654510e+01,-2.318993208691843666e+00,-3.454851299181140867e-01,3.746848947100295812e-01,8.603785531273997478e-01,2.465790583120521205e+03
-1.641564767322776230e+00,-1.268563563888436541e+01,-2.504643353684594231e+00,-4.812700249945707220e-01,3.267678985366118671e-01,8.133891464285050166e-01,2.472335968420791232e+03
-6.432757567716298475e-01,-1.165473311986286120e+01,-2.403356433870895703e+00,-7.865627091324250975e-01,1.414633573202300210e-01,6.010883654987417835e-01,2.478881353721061259e+03
