-1.215171172815514566e+01,-7.683505815455203170e+00,3.703227704829011202e+00,4.306731364798805917e-01,4.793595556264478308e-01,-7.646784068691395708e-01,5.250788286519319854e+02
-1.084390487798967584e+01,-3.336021449611197731e+00,4.557506375084318329e+00,3.771473059055645560e-01,3.454899836897943888e-01,-8.592988890974797567e-01,5.298183525905736815e+02
-9.079968733961402805e+00,1.716771954342587669e+00,5.655657967210411918e+00,3.124053242036853306e-01,2.013456082738308839e-01,-9.283646155594514893e-01,5.345578765292153776e+02
-6.871508306846823011e+00,7.325725449598670558e+00,6.955397577075060234e+00,2.383725790979986936e-01,5.121324596689069003e-02,-9.698214871594306175e-01,5.392974004678570736e+02
-4.387148004330855500e+00,1.297850163966958625e+01,8.294653664976795682e+00,1.572507999711564297e-01,-1.004421611293240535e-01,-9.824365415440021732e-01,5.440369244064987697e+02
-1.838045830481551013e+00,1.816313229946524288e+01,9.509370536220655978e+00,7.145256083248931189e-02,-2.491103723229360634e-01,-9.658346410942242333e-01,5.487764483451404658e+02
6.775266140110937085e-01,2.272926224747345358e+01,1.055131094471705921e+01,-1.647049342684667878e-02,-3.903700236709226612e-01,-9.205096237700181039e-01,5.535159722837821619e+02
3.129160257727475969e+00,2.670700934230431756e+01,1.143015374984005561e+01,-1.039035560853937418e-01,-5.200201495156767661e-01,-8.478095865938697351e-01,5.582554962224238579e+02
5.488947331043131150e+00,3.012685549842017707e+01,1.215558796544436682e+01,-1.882464386979856297e-01,-6.342051297310411506e-01,-7.498967473810356221e-01,5.629950201610655540e+02
7.731483323786692452e+00,3.301961508753026919e+01,1.273731215390914251e+01,-2.669909042806068999e-01,-7.295293429199177782e-01,-6.296830908042230224e-01,5.677345440997072501e+02
9.833868755672479978e+00,3.541640331817489340e+01,1.318503382024124271e+01,-3.377952520862849695e-01,-8.031581181968553418e-01,-4.907437262347504325e-01,5.724740680383489462e+02
1.139860910250271964e+01,3.702556617591427823e+01,1.344818516165392808e+01,-3.985539378593045412e-01,-8.529019913091695493e-01,-3.372105452610086318e-01,5.762830677374723791e+02
1.317454513164152807e+01,3.866188571992411482e+01,1.366410914817547528e+01,-4.227584416296420455e-01,-8.381711904106484701e-01,-3.445901269559626390e-01,5.810225916761140752e+02
1.476010556534700058e+01,3.989106674474690095e+01,1.377329038298312547e+01,-4.466005064319993889e-01,-8.227218146188597370e-01,-3.516742859579974900e-01,5.857621156147557713e+02
1.614193281924212542e+01,4.074507275933212469e+01,1.378546530640761247e+01,-4.700596924696293644e-01,-8.065671089137192995e-01,-3.584569490651945411e-01,5.905016395533974674e+02
1.730918022111385568e+01,4.125601597226071249e+01,1.371037638917532853e+01,-4.931158881901983593e-01,-7.897209229241015649e-01,-3.649323015431248929e-01,5.952411634920391634e+02
1.825351269732374604e+01,4.145612558802314851e+01,1.355777152544844810e+01,-5.157493275244865449e-01,-7.721976990557958276e-01,-3.710947921088194046e-01,5.999806874306808595e+02
1.896910727230642735e+01,4.137771609638130599e+01,1.333740342563075565e+01,-5.379406068286783915e-01,-7.540124601109854385e-01,-3.769391376887296641e-01,6.047202113693225556e+02
1.945265338112912090e+01,4.105315555701115215e+01,1.305902900900173513e+01,-5.596707015160313770e-01,-7.351807964104596360e-01,-3.824603279468485884e-01,6.094597353079642517e+02
1.970335299512162308e+01,4.051483388162505861e+01,1.273240879618509780e+01,-5.809209823636897196e-01,-7.157188524295902132e-01,-3.876536295791194742e-01,6.141992592466059477e+02
1.972292056058550003e+01,3.979513111577384876e+01,1.236730630145935450e+01,-6.016732314806895188e-01,-6.956433129595125386e-01,-3.925145903704587713e-01,6.189387831852476438e+02
1.951558275060709136e+01,3.892638572252851503e+01,1.197348742490513196e+01,-6.219096579234911770e-01,-6.749713888053608946e-01,-3.970390430109229651e-01,6.236783071238893399e+02
1.908807802998977365e+01,3.794086287024142479e+01,1.156071984441627443e+01,-6.416129129456720204e-01,-6.537208020337996750e-01,-4.012231086677520708e-01,6.284178310625310360e+02
1.844965603328756032e+01,3.687072272658750904e+01,1.113877240766777454e+01,-6.607661048687309968e-01,-6.319097707824764543e-01,-4.050632003102350165e-01,6.331573550011727320e+02
1.761207675597036726e+01,3.574798876108621926e+01,1.071741452406949158e+01,-6.793528135612727503e-01,-6.095569936444005243e-01,-4.085560257845481380e-01,6.378968789398144281e+02
1.658960955878451671e+01,3.460451605830377986e+01,1.030641555670215581e+01,-6.973571045141797597e-01,-5.866816336406054377e-01,-4.116985906359354463e-01,6.426364028784561242e+02
1.539903198536202034e+01,3.347195964393479528e+01,9.915544214264887302e+00,-7.147635424997182962e-01,-5.633033017948142485e-01,-4.144882006758124349e-01,6.473759268170978203e+02
1.405962839311610502e+01,3.238174282596172304e+01,9.554567943105828576e+00,-7.315572048028855523e-01,-5.394420403241619866e-01,-4.169224642915930201e-01,6.521154507557395164e+02
1.259318839749006358e+01,3.136502555309056461e+01,9.233252319368128624e+00,-7.477236940136658960e-01,-5.151183054603556410e-01,-4.189992944972598110e-01,6.568549746943812124e+02
1.241746456057113335e+01,3.125347906979204637e+01,9.199120829165178037e+00,-7.632491503692365731e-01,-4.903529499159722804e-01,-4.207169107229175586e-01,6.573997440653656668e+02
1.084038765320942588e+01,3.034618399145786682e+01,8.931984971828248021e+00,-6.955538829262712941e-01,-5.322518149158658174e-01,-4.826083313263145325e-01,6.621392680040073628e+02
9.190502936704586290e+00,2.957725507914530638e+01,8.725154536243609371e+00,-6.207857219326928799e-01,-5.687383502930890566e-01,-5.395922315518494328e-01,6.668787919426490589e+02
7.497391686884240514e+00,2.897683047997561090e+01,8.588385428094307272e+00,-5.397049645885801938e-01,-5.994415366541323564e-01,-5.910891602228356412e-01,6.716183158812907550e+02
5.793132076873591885e+00,2.857465500820995885e+01,8.531429182824473045e+00,-4.531360979958679591e-01,-6.240491635452926067e-01,-6.365754614908568643e-01,6.763578398199324511e+02
4.112296667896889524e+00,2.840004862636067529e+01,8.564032358659053656e+00,-3.619594153669056791e-01,-6.423110040273877219e-01,-6.755885994696604335e-01,6.810973637585741471e+02
2.491376504473173270e+00,2.844831551948309922e+01,8.681434997267340137e+00,-2.671020648508118378e-01,-6.540413590157756474e-01,-7.077318614065659652e-01,6.858368876972158432e+02
9.644097947832728224e-01,2.864717965118005694e+01,8.849869987865996990e+00,-1.695286219730142985e-01,-6.591209455272735163e-01,-7.326783915879326869e-01,6.905764116358575393e+02
-4.421404562434384511e-01,2.889041404266490076e+01,9.021066103224931965e+00,-7.023128152073254693e-02,-6.574981096400867031e-01,-7.501745149738832108e-01,6.953159355744992354e+02
-1.710712980862540311e+00,2.907150940284508067e+01,9.146751939027177869e+00,2.978023142629074305e-02,-6.491893518322919832e-01,-7.600423167720932183e-01,7.000554595131409314e+02
-2.471537142056424052e+00,2.912168234775834108e+01,9.176427527796349182e+00,1.294889287644215847e-01,-6.342791593492944635e-01,-7.621814517180242055e-01,7.032395558749495876e+02
-3.466426709754886648e+00,2.900068754941438698e+01,9.098741860478824606e+00,2.236997358259885382e-01,-5.983437059433865945e-01,-7.693771752202375191e-01,7.079790798135912837e+02
-4.319642690972994359e+00,2.853213795252846907e+01,8.846596381902054773e+00,3.156246000638117111e-01,-5.562938752558381772e-01,-7.687107623728685057e-01,7.127186037522329798e+02
-5.046317522174624592e+00,2.760944706593187803e+01,8.371745431599142862e+00,4.043241558309632611e-01,-5.085593661714813418e-01,-7.601890212909154787e-01,7.174581276908746759e+02
-5.675190593096016478e+00,2.618482685015465350e+01,7.654435292562371096e+00,4.888919957703751207e-01,-4.556279687452379212e-01,-7.438990325098412404e-01,7.221976516295163719e+02
-6.246691055625361422e+00,2.432800720073980472e+01,6.731883499053916253e+00,5.684639333703772612e-01,-3.980405796405468433e-01,-7.200072592806028293e-01,7.269371755681580680e+02
-6.798301611886242490e+00,2.216776290979105113e+01,5.669798442827501894e+00,6.422268341151998738e-01,-3.363856748367374805e-01,-6.887578466393098342e-01,7.316766995067997641e+02
-7.356541822921072615e+00,1.983327426085486778e+01,4.533897204924268287e+00,7.094269249705948965e-01,-2.712932960842523444e-01,-6.504701266212694621e-01,7.364162234454414602e+02
-7.936966093627658481e+00,1.745398854784867737e+01,3.389901463579999774e+00,7.693774972730719197e-01,-2.034286125597825068e-01,-6.055353551048747729e-01,7.411557473840831562e+02
-8.544162475800915146e+00,1.515948157510873351e+01,2.303533401283681226e+00,8.214659242891533264e-01,-1.334851235185724738e-01,-5.544127136269093592e-01,7.458952713227248523e+02
-9.171752289462395069e+00,1.307931914810811058e+01,1.340511611692257743e+00,8.651599217152752264e-01,-6.217757141354434552e-02,-4.976246170266276359e-01,7.506347952613665484e+02
-9.804053652828057963e+00,1.130376271222102069e+01,5.463928702536720028e-01,9.000129871278301774e-01,9.765362087424133558e-03,-4.357513748741738135e-01,7.553743192000082445e+02
-1.042217435817899940e+01,9.844522901935897963e+00,-7.358483979454356894e-02,9.256689627870349213e-01,8.160850253427083534e-02,-3.694252612466026320e-01,7.601138431386499406e+02
-1.100899313147141356e+01,8.673920629537088089e+00,-5.343485171536880296e-01,9.418656751616745204e-01,1.526176954694102306e-01,-2.993240534640244088e-01,7.648533670772916366e+02
-1.154971210114898206e+01,7.764077036347319272e+00,-8.508350762554168778e-01,9.484376139822694451e-01,2.220673087588057315e-01,-2.261641058271396110e-01,7.695928910159333327e+02
-1.203185784794994007e+01,7.086942841743401722e+00,-1.037990416815632422e+00,9.453176234508258169e-01,2.892476478025649000e-01,-1.506930291499475605e-01,7.743324149545750288e+02
-1.244528228210116083e+01,6.614327703454181417e+00,-1.110768492579537581e+00,9.325375883352158279e-01,3.534722078413895519e-01,-7.368205090910059929e-02,7.790719388932167249e+02
-1.278216334883973104e+01,6.317929586873311187e+00,-1.084130379572866953e+00,9.102281079516710838e-01,4.140846892436577109e-01,4.081865906885238406e-03,7.838114628318584209e+02
-1.303700556150801404e+01,6.169364141465280227e+00,-9.730433439622023783e-01,8.786171613844822037e-01,4.704657040842043503e-01,8.180406470270319697e-02,7.885509867705001170e+02
-1.308800010032607197e+01,6.149447912618486001e+00,-9.316221542382012721e-01,8.380277776017751590e-01,5.220391054848106949e-01,1.586903157510800577e-01,7.897730006978659958e+02
-1.322796877438292107e+01,6.125730811867565961e+00,-7.308264817468133057e-01,8.804934884117999738e-01,4.531718497238216292e-01,1.391563562427553247e-01,7.945125246365076919e+02
-1.328227990134569758e+01,6.185527788911771907e+00,-4.793935744916734132e-01,9.168594671113813321e-01,3.811651970006262879e-01,1.186583758706167835e-01,7.992520485751493879e+02
-1.325301938000436763e+01,6.300392697500682537e+00,-1.923045445099136608e-01,9.468737864183954800e-01,3.065179815437737987e-01,9.733837673105522059e-02,8.039915725137910840e+02
-1.314459998768251836e+01,6.441922193220529280e+00,1.154572769680260458e-01,9.703285205407893299e-01,2.297473297896229505e-01,7.534405537480896864e-02,8.087310964524327801e+02
-1.296376099903772072e+01,6.581785114780663193e+00,4.289072725693534038e-01,9.870611854589053102e-01,1.513850780547756347e-01,5.282777965701881268e-02,8.134706203910744762e+02
-1.271956763162367388e+01,6.691751859767914645e+00,7.330604722309396193e-01,9.969558644434362016e-01,7.197408833559891528e-02,2.994553323574452794e-02,8.182101443297161723e+02
-1.242341031823182007e+01,6.743723752830317331e+00,1.012932486894983386e+00,9.999440110186127439e-01,-7.935512252843236400e-03,6.855835028104084392e-03,8.229496682683578683e+02
-1.208900380605092906e+01,6.709762404252185064e+00,1.253540441865899968e+00,9.960049238120538551e-01,-8.779014235834557700e-02,-1.628135889369668535e-02,8.276891922069995644e+02
-1.173238608133452843e+01,6.562119057087794971e+00,1.439903909837953577e+00,9.851658900026349919e-01,-1.670366012054990412e-01,-3.930576336272696009e-02,8.324287161456412605e+02
-1.137191711953153472e+01,6.273263920799281301e+00,1.557045843851064149e+00,9.675019963703577197e-01,-2.451259007879394713e-01,-6.205787446137581154e-02,8.371682400842829566e+02
-1.120163242843132423e+01,6.083887611726675360e+00,1.580832721316108413e+00,9.431356092519000978e-01,-3.215170689020812600e-01,-8.438007446031049741e-02,8.394713424112674147e+02
-1.087740058124586540e+01,5.573182671145296752e+00,1.550471095424586387e+00,9.373270457085132179e-01,-2.980771147517167208e-01,-1.804606412628632639e-01,8.442108663499091108e+02
-1.060458332276149207e+01,4.853999207360288004e+00,1.413677300757239852e+00,9.223189329506598089e-01,-2.717116368679760585e-01,-2.747700353236388615e-01,8.489503902885508069e+02
-1.040962262707212105e+01,3.899795073940929946e+00,1.155493898685586052e+00,8.982585730603158680e-01,-2.426794035737408484e-01,-3.663826456115051311e-01,8.536899142271925029e+02
-1.032127474965831837e+01,2.684378453842117818e+00,7.609710152490144486e-01,8.653821114167414841e-01,-2.112653558891396388e-01,-4.543993294906147895e-01,8.584294381658341990e+02
-1.035428540202795311e+01,1.215935163328076385e+00,2.365388400466938157e-01,8.240122189491323468e-01,-1.777778110204350781e-01,-5.379562370043567965e-01,8.631689621044758951e+02
-1.048921353463607531e+01,-4.292406637938995240e-01,-3.686212062891606189e-01,7.745549253153123370e-01,-1.425454364683389208e-01,-6.162332887895417555e-01,8.679084860431175912e+02
-1.068297693943601701e+01,-2.141222871774890901e+00,-9.839511020260426344e-01,7.174956340798225307e-01,-1.059140244413452753e-01,-6.884622244564193583e-01,8.726480099817592873e+02
-1.088325218875292144e+01,-3.810699710414557462e+00,-1.538892186914063043e+00,6.533943589810289332e-01,-6.824309821640556217e-02,-7.539341424805796610e-01,8.773875339204009833e+02
-1.092815101316469928e+01,-4.217877509224146948e+00,-1.661154325344070815e+00,5.828802280112294065e-01,-2.990238373682000197e-02,-8.120064576347989505e-01,8.785825676994058995e+02
-1.104563571341192052e+01,-5.743321934234156600e+00,-2.065307590247078551e+00,6.982976367712296906e-01,1.123478834405948062e-01,-7.069344832208950269e-01,8.833220916380475956e+02
-1.103530176335413060e+01,-7.114543346886803121e+00,-2.384079966936094142e+00,7.825733861617852893e-01,2.495878040108434892e-01,-5.703357111045164185e-01,8.880616155766892916e+02
-1.084111209430678713e+01,-8.356330649544188915e+00,-2.680828355517632211e+00,8.319490907649430556e-01,3.756969723603035272e-01,-4.083019658726363410e-01,8.928011395153309877e+02
-1.043643770172024610e+01,-9.485311604133705998e+00,-2.999807111131339354e+00,8.442227721069920365e-01,4.850513737992910857e-01,-2.280593690951311925e-01,8.975406634539726838e+02
-1.034671984219197505e+01,-9.668509890997706080e+00,-3.057620672630008141e+00,8.188470561118783575e-01,5.727741881775879618e-01,-3.764608950310791707e-02,8.983496677306200127e+02
-9.733626834395179728e+00,-1.067991951050693267e+01,-3.408396548659498038e+00,7.518318268294489348e-01,6.579700779320041271e-01,-4.268818001420718322e-02,9.030891916692617087e+02
-9.005164823056199808e+00,-1.156557981726303908e+01,-3.772157919420031646e+00,6.759639178284195804e-01,7.354184749644155916e-01,-4.722762407378915117e-02,9.078287156079034048e+02
-8.216319444220255619e+00,-1.231439884228239379e+01,-4.135843218741638516e+00,5.921366608427433009e-01,8.042074429853305340e-01,-5.121097083308202152e-02,9.125682395465451009e+02
-7.421043771752240836e+00,-1.291458182692925050e+01,-4.486390897969337210e+00,5.013371057227756777e-01,8.635270085498397696e-01,-5.459131736072952990e-02,9.173077634851867970e+02
-6.672253847241194968e+00,-1.335364429537929887e+01,-4.810740241498061565e+00,4.046343983558395863e-01,9.126786977780775301e-01,-5.732886088199494468e-02,9.220472874238284930e+02
-6.021824293951038243e+00,-1.361842517927583174e+01,-5.095832177733227830e+00,3.031671920928001862e-01,9.510837603044844935e-01,-5.939136742254822604e-02,9.267868113624701891e+02
-5.520584008756554972e+00,-1.369509999355177143e+01,-5.328610091384871517e+00,1.981302408620028987e-01,9.782899836693893514e-01,-6.075455134151803993e-02,9.315263353011118852e+02
-5.218311931725234665e+00,-1.356919406270956685e+01,-5.496020636481500965e+00,9.076033177416849285e-02,9.939770179461705490e-01,-6.140236128663505849e-02,9.362658592397535813e+02
-5.202455658978220931e+00,-1.354922371187347530e+01,-5.507172254333586814e+00,-1.767827720773583466e-02,9.979601479180651991e-01,-6.132716920484974910e-02,9.366738776834386044e+02
-5.163008341592152384e+00,-1.320329859788715865e+01,-5.591750749140208754e+00,1.680529585871126663e-01,9.764598335139796914e-01,1.352124130573734706e-01,9.414134016220803005e+02
-5.423165651859920722e+00,-1.262265571891857796e+01,-5.583745445148490028e+00,3.414177843423452652e-01,8.831054531776050265e-01,3.218021987240353154e-01,9.461529255607219966e+02
-5.971263097452459867e+00,-1.180665461220218759e+01,-5.478895668260997276e+00,4.896589359568009892e-01,7.247666159331626057e-01,4.847117482249842513e-01,9.508924494993636927e+02
-6.679973029407493712e+00,-1.078656640462116023e+01,-5.290501856918298884e+00,6.018679041911121352e-01,5.130948798366206098e-01,6.119531601281674726e-01,9.556319734380053887e+02
-6.890265612351468505e+00,-1.046626776182107221e+01,-5.222963770726667398e+00,6.697876438910089769e-01,2.636663662681481557e-01,6.941632080358212109e-01,9.569899367144379312e+02
-7.534440459197011997e+00,-9.282917516743317776e+00,-4.954124590829223962e+00,7.260666650211534678e-01,2.078852258244980600e-01,6.554455971508964529e-01,9.617294606530796273e+02
-7.988363902690661433e+00,-8.027342479009451637e+00,-4.657793935915949923e+00,7.766983779665486143e-01,1.504871808039688619e-01,6.116299846094401804e-01,9.664689845917213233e+02
-8.244255626264074266e+00,-6.865138404029279329e+00,-4.387737413850793189e+00,8.212889948103269111e-01,9.191864425418158624e-02,5.630571461557152269e-01,9.709448363749478403e+02
-8.418664192286192005e+00,-5.757732849042530354e+00,-4.238042221333446768e+00,8.243244937032643271e-01,7.933819821687672358e-02,5.605288389879806710e-01,9.756843603135895364e+02
-8.617745068192364855e+00,-4.841459962258991112e+00,-4.517078438021614240e+00,8.272166629184337650e-01,6.674396012773105291e-02,5.579030707293325397e-01,9.804238842522312325e+02
-8.647948785650447334e+00,-4.745344323888212479e+00,-4.591218416138896252e+00,8.299650008499304121e-01,5.413811420710165634e-02,5.551802967563719271e-01,9.809881345987362238e+02
-8.890338310350728079e+00,-4.056957749126154589e+00,-5.576164090255451455e+00,7.667436017389653857e-01,6.581000260498846843e-02,6.385697242666069640e-01,9.857276585373779199e+02
-8.933131486950301792e+00,-3.601493092660560169e+00,-7.092746003053562731e+00,6.950213284390622803e-01,7.675225431672676180e-02,7.148793216149550434e-01,9.904671824760196159e+02
-8.449099117537045345e+00,-3.378684672613443407e+00,-8.897236356124313517e+00,6.155933660425151333e-01,8.684355326541003117e-02,7.832630496463649505e-01,9.952067064146613120e+02
-7.346768250419350110e+00,-3.375885218237925756e+00,-1.071781141987855790e+01,5.293403307940905966e-01,9.597201787382142468e-02,8.429627429375017300e-01,9.999462303533030081e+02
-6.004932544185672683e+00,-3.547416632695127081e+00,-1.231594785561531502e+01,4.372185069405681856e-01,1.040364414236021606e-01,8.933165150411520594e-01,1.004685754291944704e+03
-4.873966636668342289e+00,-3.835910104656394370e+00,-1.361182614767010435e+01,3.402492447914244877e-01,1.109474140702234740e-01,9.337660963703169337e-01,1.009425278230586400e+03
-4.079772827532005763e+00,-4.200493808581896360e+00,-1.463080936251242470e+01,2.395076375154668868e-01,1.166283140816987279e-01,9.638630234254327300e-01,1.014164802169228096e+03
-3.585362322160331239e+00,-4.610178205651306094e+00,-1.540613099771495520e+01,1.361106021626625473e-01,1.210161573160230541e-01,9.832736107756951949e-01,1.018904326107869792e+03
-3.361100306407331928e+00,-5.015201575348432250e+00,-1.594591576440986103e+01,3.120449699855065359e-02,1.240622955219921747e-01,9.917826506837275069e-01,1.023424978356343786e+03
-3.344686841566714364e+00,-5.425467872445230988e+00,-1.633492592890601358e+01,1.266667814894423608e-02,1.256495180406817236e-01,9.919928194628990781e-01,1.028164502294985596e+03
-3.505346240764077415e+00,-5.792188178898496353e+00,-1.657852134292082624e+01,-5.875522200351701585e-03,1.271932385097756801e-01,9.918595456522862897e-01,1.032904026233627292e+03
-3.796991759212856810e+00,-6.086483894829465946e+00,-1.670998361779890118e+01,-2.441568651837556017e-02,1.286929226606990662e-01,9.913828755300440054e-01,1.037643550172268988e+03
-4.171244429983171464e+00,-6.280082167766479095e+00,-1.676260134920946143e+01,-4.294739798365544703e-02,1.301480514528184362e-01,9.905629741186250392e-01,1.042383074110910684e+03
-4.577436944006580077e+00,-6.345344812518679767e+00,-1.676966804331449623e+01,-6.146424269680191010e-02,1.315581212514148335e-01,9.894001251200630342e-01,1.047122598049552380e+03
-4.723639823206297272e+00,-6.338703784727892199e+00,-1.676641172569167182e+01,-7.995981189186229798e-02,1.329226440013521193e-01,9.878947308183748666e-01,1.048850609055448558e+03
-5.082718395743152762e+00,-6.218906961912434639e+00,-1.676420106580639313e+01,-4.473612813466777693e-02,1.496469281302491849e-01,9.877259112380069039e-01,1.053590132994090254e+03
-5.345223213524115558e+00,-5.908164787199601697e+00,-1.679517265744939891e+01,-9.444434575569971707e-03,1.661436788131422648e-01,9.860553131728271303e-01,1.058329656932731950e+03
-5.473754985043418841e+00,-5.400149063542113659e+00,-1.687022240986923904e+01,2.586161861331411072e-02,1.823878179100217600e-01,9.828854768237125228e-01,1.063069180871373646e+03
-5.474382818818519070e+00,-4.825997433354620725e+00,-1.694631235784762779e+01,6.112835944232853508e-02,1.983546511108583155e-01,9.782212204018398971e-01,1.067196175604796281e+03
-5.373768728116877114e+00,-4.062834067154537543e+00,-1.699336313767674866e+01,7.727801590483276972e-02,1.370807021543382631e-01,9.875398672221136209e-01,1.071935699543437977e+03
-5.200241699646400484e+00,-3.229214735831313465e+00,-1.694525780762826628e+01,9.311066293724150345e-02,7.524443953702959764e-02,9.928074731611826742e-01,1.076675223482079673e+03
-4.990050232788494355e+00,-2.375155702201646069e+00,-1.674570038498254476e+01,1.085613539796176502e-01,1.309952055670689924e-02,9.940024320804901059e-01,1.081414747420721369e+03
-4.761818868390412796e+00,-1.553703478024669460e+00,-1.636042074305058591e+01,1.235667092678771201e-01,-4.909913171342959737e-02,9.911198432199488373e-01,1.086154271359363065e+03
-4.495124844973428679e+00,-8.247774882038502176e-01,-1.579919316955789022e+01,1.380651757597690377e-01,-1.110963739023262953e-01,9.841715312620806788e-01,1.090893795298004761e+03
-4.152891315717848641e+00,-2.521455424202902473e-01,-1.509381933537213172e+01,1.519972795718290137e-01,-1.726378887185213706e-01,9.731859978339170159e-01,1.095633319236646457e+03
-4.067551144134377239e+00,-1.520644617146530986e-01,-1.492790993362183904e+01,1.653058698944185057e-01,-2.334712279441117366e-01,9.582083046493162781e-01,1.096637862826583387e+03
-3.586630426034430830e+00,1.807949458463734005e-01,-1.408700929185336115e+01,1.442045552032530931e-01,-1.796133053720335437e-01,9.731095040076813696e-01,1.101377386765225083e+03
-2.966776869063492139e+00,2.147657659044712175e-01,-1.317233531682764180e+01,1.225887235603497077e-01,-1.251145337525324530e-01,9.845386525159838254e-01,1.106116910703866779e+03
-2.188115012423139660e+00,-1.151135051214090127e-01,-1.221571161093020841e+01,1.005354986515934607e-01,-7.016936037501976531e-02,9.924549734742451612e-01,1.110856434642508475e+03
-1.281745649078549709e+00,-8.361327297405924952e-01,-1.125467759122390987e+01,7.812356456689151241e-02,-1.497382495770192834e-02,9.968302228683771915e-01,1.115595958581150171e+03
-3.710964036125330989e-01,-1.899179985659010361e+00,-1.033819934988537348e+01,5.543288513320164534e-02,4.027513962380981083e-02,9.976487900921464647e-01,1.120335482519791867e+03
3.801001552071461842e-01,-3.215497981352054335e+00,-9.520953408493555870e+00,3.254441868620260025e-02,9.538040979011112863e-02,9.949077536328250204e-01,1.125075006458433563e+03
7.650152475258111817e-01,-4.468312321742339499e+00,-8.948972614970180928e+00,9.539829295558223399e-03,1.501453743941954522e-01,9.886168915221225095e-01,1.129121868167976345e+03
8.461327512761253056e-01,-6.007116457258455888e+00,-8.456054022966574379e+00,1.109479474144731311e-03,1.664227236417041567e-01,9.860528617170523091e-01,1.133861392106618041e+03
6.170561401148796365e-01,-7.561923604242815955e+00,-8.134088430734493613e+00,-7.321248861774587273e-03,1.826430537707494361e-01,9.831510129242463369e-01,1.138600916045259737e+03
2.164160022340372858e-01,-9.066920237647330794e+00,-7.953442693721131107e+00,-1.574946788697799069e-02,1.988008087661934931e-01,9.799123392859447890e-01,1.143340439983901433e+03
-2.118227483814579815e-01,-1.045810802732835398e+01,-7.884474879385754420e+00,-2.417229063855595023e-02,2.148904540424302068e-01,9.763379502592455239e-01,1.148079963922543129e+03
-5.183725143012655190e-01,-1.167337113268682280e+01,-7.897536111622681432e+00,-3.258683200268340519e-02,2.309064783343444949e-01,9.724290702323397095e-01,1.152819487861184825e+03
-5.957010209299352654e-01,-1.267459498907291504e+01,-7.967056115371407010e+00,-4.099020970071678288e-02,2.468433955809781477e-01,9.681870381059259900e-01,1.157559011799826521e+03
-4.276224607762646457e-01,-1.346896736941565109e+01,-8.075628507555268953e+00,-4.937954527432660695e-02,2.626957468006236307e-01,9.636133068356786957e-01,1.162298535738468217e+03
-6.988139428190351388e-02,-1.405638344246064797e+01,-8.201899003963573520e+00,-5.775196506933551882e-02,2.784581019567163862e-01,9.587094429359224179e-01,1.166753985703076978e+03
4.900228241697538456e-01,-1.453972993755234988e+01,-8.349042083599565345e+00,-5.208003418130055517e-02,3.021531463789000616e-01,9.518346212278504526e-01,1.171493509641718674e+03
1.195149792908217323e+00,-1.490103850434411115e+01,-8.496057059660410360e+00,-4.637472659673731040e-02,3.256545400856298844e-01,9.443497790807134917e-01,1.176233033580360370e+03
2.007034066333212241e+00,-1.516820893245797919e+01,-8.629616476153120885e+00,-4.063969858245313621e-02,3.489472222623609121e-01,9.362597134180801195e-01,1.180972557519002066e+03
2.884973221308558600e+00,-1.536863034866112443e+01,-8.736393717738220488e+00,-3.487862544409391780e-02,3.720162658382016319e-01,9.275696089427389879e-01,1.185712081457643762e+03
3.786031209403301290e+00,-1.552915299016439299e+01,-8.803063838965192289e+00,-2.909519917266400676e-02,3.948468870453252233e-01,9.182850348181620381e-01,1.190451605396285458e+03
4.665041875918729097e+00,-1.567606001848117536e+01,-8.816304393559395436e+00,-2.329312608023288711e-02,4.174244548859298853e-01,9.084119411015293410e-01,1.195191129334927155e+03
5.474612645645223985e+00,-1.583503937580812071e+01,-8.762796263723437562e+00,-1.747612442649381509e-02,4.397345005015008135e-01,8.979566549332542724e-01,1.199930653273568851e+03
6.165128374221085394e+00,-1.603115568594273910e+01,-8.629224489344318627e+00,-1.164792203768416634e-02,4.617627264384149277e-01,8.869258764854370813e-01,1.204670177212210547e+03
6.684755365030180307e+00,-1.628882220168529216e+01,-8.402279097050099566e+00,-5.812253919382020899e-03,4.834950158039958978e-01,8.753266746718207925e-01,1.209409701150852243e+03
6.881279883687558829e+00,-1.647937900888587848e+01,-8.206877991685502138e+00,2.714013530240643260e-05,5.049174413071901846e-01,8.631664826219758169e-01,1.212292251195785866e+03
6.963246942490051161e+00,-1.686693094175200613e+01,-7.780567204774552437e+00,-4.266642159720140069e-03,5.495413601108878332e-01,8.354544208308024578e-01,1.217031775134427562e+03
6.728928981222255246e+00,-1.737589963414651706e+01,-7.226198119137556830e+00,-8.548571986327547015e-03,5.926388105448371357e-01,8.054217293733080263e-01,1.221771299073069258e+03
6.257985012067886821e+00,-1.798105380345090154e+01,-6.524769779798071490e+00,-1.280675651963359730e-02,6.340900923120158517e-01,7.731518232616106934e-01,1.226510823011710954e+03
5.941998454470533098e+00,-1.848881270313177438e+01,-5.788387906889412626e+00,-1.702936886798991564e-02,6.737800760364741626e-01,7.387343295972059742e-01,1.230512537557586711e+03
6.135910959924354202e+00,-1.893894575818700687e+01,-4.712194109224400407e+00,-5.174791825376325038e-02,7.403738920537059620e-01,6.701989651742116250e-01,1.235252061496228407e+03
7.110686420307304800e+00,-1.915325180006748695e+01,-3.432625337224850526e+00,-8.593152996589710491e-02,7.993142800507102574e-01,5.947356167775880165e-01,1.239991585434870103e+03
8.495472590127249646e+00,-1.920228264155811715e+01,-2.035778302636148229e+00,-1.192268456139954219e-01,8.499919720799787859e-01,5.131243579129777244e-01,1.244731109373511799e+03
9.789687492479922426e+00,-1.919180613844190120e+01,-6.186604869442817733e-01,-1.512896890213177581e-01,8.918831089801894096e-01,4.262088102216935459e-01,1.249470633312153495e+03
1.006708093013957495e+01,-1.918612808904554612e+01,-2.724999401462582793e-01,-1.817886233832334830e-01,9.245546546161731438e-01,3.348874244199473993e-01,1.250636107496832665e+03
1.104320974180818382e+01,-1.915065147292414238e+01,1.121103963828153027e+00,-2.109628453652752367e-01,9.490459052798284612e-01,2.341037110934434118e-01,1.255375631435474361e+03
1.180447568358115262e+01,-1.908962746790262699e+01,2.488268220863365077e+00,-2.376881386660436857e-01,9.625203112587691345e-01,1.306024469624310902e-01,1.260115155374116057e+03
1.237352966616607119e+01,-1.900339977720180329e+01,3.821479456602441704e+00,-2.616542674515919265e-01,9.648214583539445055e-01,2.558510943796044740e-02,1.264854679312757753e+03
1.277278705339231379e+01,-1.889260114104780186e+01,5.113226411731648824e+00,-2.825830252505452944e-01,9.559226351866372262e-01,-7.972922537518616071e-02,1.269594203251399449e+03
1.302442585910048223e+01,-1.875815033803454313e+01,6.356000409333281809e+00,-3.002314644243113118e-01,9.359271431587985468e-01,-1.841180340681154715e-01,1.274333727190041145e+03
1.315038496208038588e+01,-1.860124916529432682e+01,7.542295822388924265e+00,-3.143947163399945510e-01,9.050670972060470554e-01,-2.863695372999606192e-01,1.279073251128682841e+03
1.317236233901810039e+01,-1.842337939772629696e+01,8.664610540876051203e+00,-3.249083695133674343e-01,8.637007312748339327e-01,-3.852967664234526746e-01,1.283812775067324537e+03
1.310890320298537404e+01,-1.822572789789377623e+01,9.715957100330925300e+00,-3.316503781198800738e-01,8.123082398083475431e-01,-4.797513420859710331e-01,1.288552299005966233e+03
1.297255164446268161e+01,-1.800856211264175144e+01,1.069037377885755014e+01,-3.345424787224820506e-01,7.514862035160099207e-01,-5.686368048730123803e-01,1.293291822944607929e+03
1.277285462336246091e+01,-1.777172544172282187e+01,1.158241430650140913e+01,-3.335510987726043042e-01,6.819406641311670514e-01,-6.509213432610662098e-01,1.298031346883249626e+03
1.251930294388908038e+01,-1.751518328630861987e+01,1.238663754188079125e+01,-3.286877463388794829e-01,6.044789285405056667e-01,-7.256497711417173591e-01,1.302770870821891322e+03
1.222133049396465410e+01,-1.723902233090759140e+01,1.309760781017139131e+01,-3.200088765387457679e-01,5.200001974152778095e-01,-7.919546158873553843e-01,1.307510394760533018e+03
1.215091180471217491e+01,-1.717640483713778821e+01,1.323959589765173916e+01,-3.076152362212494218e-01,4.294851271177291263e-01,-8.490661882503539593e-01,1.308545226280693896e+03
1.180949469913830541e+01,-1.687920926620429185e+01,1.382593306327022908e+01,-2.805629668216646500e-01,3.966369516706759191e-01,-8.740489404009080809e-01,1.313284750219335592e+03
1.144434859760059453e+01,-1.656299410280192319e+01,1.430698042205720100e+01,-2.528275393507022351e-01,3.628229824050485108e-01,-8.969034054919430288e-01,1.318024274157977288e+03
1.106471916872340344e+01,-1.622823106218246991e+01,1.467732230462662102e+01,-2.244764877482406384e-01,3.281255541649752416e-01,-9.175739355227480187e-01,1.322763798096618984e+03
1.067979200567370057e+01,-1.587551001672330386e+01,1.493154993156178456e+01,-1.955788447961649135e-01,2.926291527413690807e-01,-9.360101999618775093e-01,1.327503322035260680e+03
1.029869188864056895e+01,-1.550553823164120359e+01,1.506426175036272141e+01,-1.662049740635003214e-01,2.564202091970696484e-01,-9.521673082554809042e-01,1.332242845973902376e+03
9.930482052059051767e+00,-1.511913959201822344e+01,1.507006377213095405e+01,-1.364263986149655550e-01,2.195868894606810007e-01,-9.660059191001312273e-01,1.336982369912544073e+03
9.584163456595650388e+00,-1.471725382127168480e+01,1.494356990767294135e+01,-1.063156268986905073e-01,1.822188796997246396e-01,-9.774923362137297733e-01,1.341721893851185769e+03
9.268674065759142877e+00,-1.430093569109981111e+01,1.467940230313295125e+01,-7.594597623605414682e-02,1.444071679944830544e-01,-9.865985903718302863e-01,1.346461417789827465e+03
9.069207927590751339e+00,-1.399606281617714032e+01,1.439531764081041487e+01,-4.539139434240966470e-02,1.062438228428678466e-01,-9.933025075099298773e-01,1.349845436408356136e+03
8.833505439143225502e+00,-1.355948491699352765e+01,1.385913387868556335e+01,-3.653707323537287027e-02,1.001637478744564214e-01,-9.942988815481766940e-01,1.354584960346997832e+03
8.652548075155090501e+00,-1.311198145500407364e+01,1.317072603757082661e+01,-2.767850293578194218e-02,9.407201946194543307e-02,-9.951795594698136238e-01,1.359324484285639528e+03
8.531668400795336282e+00,-1.266744850787335608e+01,1.235302073710685633e+01,-1.881671200729685342e-02,8.796934491429632408e-02,-9.959444390433677130e-01,1.364064008224281224e+03
8.492944990465762345e+00,-1.242997840511561769e+01,1.186525425684223123e+01,-9.952729386032718381e-03,8.185643280541328448e-02,-9.965934314165397767e-01,1.366700001627259780e+03
8.467830823506318438e+00,-1.206037731418696879e+01,1.101278320085402029e+01,-2.226220726839130970e-01,6.961289342368440214e-02,-9.724152702542004922e-01,1.371439525565901477e+03
8.482931618651184280e+00,-1.181216617031884830e+01,1.027816408297378992e+01,-4.250590357037694056e-01,5.416975196856205904e-02,-9.035421706477256842e-01,1.376179049504543173e+03
8.501513912567610021e+00,-1.171226411441766579e+01,9.719512014368925534e+00,-6.079590898832771817e-01,3.623681658346891710e-02,-7.931397343171335823e-01,1.380918573443184869e+03
8.488583725430812521e+00,-1.170710109197952065e+01,9.518667184669524772e+00,-7.629156630695872465e-01,1.663833135325059817e-02,-6.462823353404023585e-01,1.383125740893989814e+03
8.343270856705398586e+00,-1.175092601813840965e+01,9.148229461448755373e+00,-5.675286276256529261e-01,2.140268039402546535e-02,-8.230742263590509200e-01,1.387865264832631510e+03
7.982646690558338420e+00,-1.185253368535267171e+01,8.779556644681861144e+00,-3.327241006430280978e-01,2.468052298152734192e-02,-9.427001350562709270e-01,1.392604788771273206e+03
7.315738040989916868e+00,-1.196355251597419134e+01,8.321866966028718338e+00,-7.481021707713660096e-02,2.624419498322453151e-02,-9.968513799199544279e-01,1.397344312709914902e+03
6.255414508347025837e+00,-1.203446661903394421e+01,7.684384209275549438e+00,1.882997230600345906e-01,2.598508853649731873e-02,-9.817667693839540188e-01,1.402083836648556598e+03
4.791963100444906587e+00,-1.203446978556942959e+01,6.856143460991878769e+00,4.383314372979244533e-01,2.392119769167074320e-02,-8.984939217238179232e-01,1.406823360587198295e+03
3.064452735281089524e+00,-1.197257061730464223e+01,5.985791890995610487e+00,6.579189708301698136e-01,2.019586986072478829e-02,-7.528165478123003407e-01,1.411562884525839991e+03
1.283849261888035498e+00,-1.187967648955263300e+01,5.301779401616625975e+00,8.318109269594562427e-01,1.506784906435260606e-02,-5.548527207410903772e-01,1.416302408464481687e+03
-3.416711990085731232e-01,-1.178938806440963205e+01,5.032544304971088067e+00,9.479297872363781075e-01,8.893302900778898151e-03,-3.183520498326780079e-01,1.421041932403123383e+03
-9.620294247158667211e-01,-1.175467463818081093e+01,5.132044718280831752e+00,9.982107210193977842e-01,2.101082804932273389e-03,-5.974062179815147616e-02,1.423200303365853415e+03
-1.294145292068810127e+00,-1.173431162141043771e+01,5.298637330717170357e+00,9.989431658182863494e-01,7.844127257834759837e-03,-4.526611323590392505e-02,1.424565034103077778e+03
-2.243658666894823739e+00,-1.169584948689448822e+01,6.273498520787040178e+00,9.605545056203089738e-01,1.547863071059657480e-02,-2.776570793706654161e-01,1.429304558041719474e+03
-2.970476718548016759e+00,-1.171502088504289674e+01,7.603526145058907559e+00,8.688189152691716544e-01,2.225348705789634632e-02,-4.946276122348129967e-01,1.434044081980361170e+03
-3.545003055898824584e+00,-1.178321608783415719e+01,8.961152873540623176e+00,7.288311781245886412e-01,2.779243707280403680e-02,-6.841276885464779856e-01,1.438783605919002866e+03
-4.036719112286554001e+00,-1.189092743381735318e+01,1.001880966954461449e+01,5.483658804377216089e-01,3.178786081157736199e-02,-8.356329296273813378e-01,1.443523129857644562e+03
-4.497972947612596251e+00,-1.202430542876203745e+01,1.056298007812197781e+01,3.374456311264887320e-01,3.401786193994260632e-02,-9.407290954910924041e-01,1.448262653796286259e+03
-4.932573594967575303e+00,-1.215780838160960364e+01,1.060784671345136942e+01,1.077844344967249374e-01,3.435859127544392544e-02,-9.935793893225288720e-01,1.452845841268543381e+03
-5.370668581479919546e+00,-1.227598793637227637e+01,1.028299674424714816e+01,2.714734640324178438e-01,5.091449466511482197e-02,-9.610972232605347054e-01,1.457585365207185077e+03
-5.795808724743599427e+00,-1.234937440876777437e+01,9.712319222989599155e+00,4.275277190146513639e-01,6.603850909846246953e-02,-9.015858055616039479e-01,1.462324889145826774e+03
-6.204276133054537290e+00,-1.235303888707310094e+01,9.024500498803481818e+00,5.715584706477924160e-01,7.930530068898791751e-02,-8.167187912086112389e-01,1.467064413084468470e+03
-6.583018669315977789e+00,-1.226563946635383218e+01,8.360244236941944962e+00,6.995151205209784173e-01,9.034176521477875477e-02,-7.088828969723697249e-01,1.471714136304197154e+03
-6.938803481198220879e+00,-1.205925308886707548e+01,7.821366378130248265e+00,7.143199137498510431e-01,1.329950011748177729e-01,-6.870643277545191996e-01,1.476453660242838851e+03
-7.244426126483578976e+00,-1.172676120660254639e+01,7.497356697234851097e+00,7.273285215699036854e-01,1.753138071667182107e-01,-6.635181163446127739e-01,1.481193184181480547e+03
-7.333299726166168320e+00,-1.158306869554836105e+01,7.437633558613794271e+00,7.385082391252988376e-01,2.171917897626949867e-01,-6.383034601137148600e-01,1.482896858624605102e+03
-7.489931757834050075e+00,-1.114716060256686170e+01,7.376445353551427608e+00,6.800123886280452501e-01,2.761971952176922041e-01,-6.791879420789832533e-01,1.487636382563246798e+03
-7.494622069479757620e+00,-1.067604673680135363e+01,7.398111344226030006e+00,6.156854729457494901e-01,3.328342090053073021e-01,-7.142484075717395742e-01,1.492375906501888494e+03
-7.305946382927794858e+00,-1.021651326956250827e+01,7.424788638539292052e+00,5.460790889122352221e-01,3.866171780445374351e-01,-7.431842209661790877e-01,1.497115430440530190e+03
-6.900081037563638553e+00,-9.787171850413995955e+00,7.399445650789219009e+00,4.717901018585606843e-01,4.370849218724978669e-01,-7.657472630440158579e-01,1.501854954379171886e+03
-6.281373106054537914e+00,-9.349506513009092856e+00,7.306677264663129279e+00,3.934555282509926144e-01,4.838046865908847138e-01,-7.817440581933959853e-01,1.506594478317813582e+03
-6.187889740701848496e+00,-9.290903901629036454e+00,7.290290043966260569e+00,3.117470741993675354e-01,5.263758551696110510e-01,-7.910374332619162230e-01,1.507199925270739413e+03
-5.349142381605593854e+00,-8.772690873509230158e+00,7.129547049877740683e+00,2.319775362772654725e-01,4.581119051700698885e-01,-8.580896835437763492e-01,1.511939449209381110e+03
-4.320048042726134518e+00,-8.102770684282319280e+00,6.912895851149036375e+00,1.486079122508470740e-01,3.827384476620580012e-01,-9.118250759317265697e-01,1.516678973148022806e+03
-3.101878597272088811e+00,-7.213640576054233478e+00,6.645754963045087393e+00,6.293202364662589532e-02,3.014252124256513454e-01,-9.514096918332023423e-01,1.521418497086664502e+03
-1.713462392817660440e+00,-6.101040838785884546e+00,6.370544236588098208e+00,-2.372051859031863025e-02,2.154341064990726862e-01,-9.762292162985869437e-01,1.526158021025306198e+03
-2.218156195979534284e-01,-4.886821627949923474e+00,6.203680391557782059e+00,-1.100049469416664455e-01,1.260996318963882867e-01,-9.858984706773846751e-01,1.530897544963947894e+03
5.122934025468400820e-01,-4.303220303045677042e+00,6.216972478716385808e+00,-1.945822053337776247e-01,3.480817697514102665e-02,-9.802673901456296912e-01,1.533202039012903697e+03
1.968517115038245002e+00,-3.214205963741038286e+00,6.441134580931562326e+00,-2.601156218655550356e-01,1.341233053317599476e-02,-9.654832844997526253e-01,1.537941562951545393e+03
3.299862795259131509e+00,-2.323806952489124278e+00,6.709553342672462506e+00,-3.243559916326332337e-01,-8.050183596947247527e-03,-9.458997754696230054e-01,1.542681086890187089e+03
4.431273035958717799e+00,-1.658268961709925549e+00,6.730141717210519126e+00,-3.869839870408955940e-01,-2.947267880319451652e-02,-9.216142115741852159e-01,1.547420610828828785e+03
5.312887109190968182e+00,-1.222177949214904968e+00,6.311901028660534152e+00,-4.476882947960947878e-01,-5.074866745172028348e-02,-8.927473122063654953e-01,1.552160134767470481e+03
5.943996065058620104e+00,-9.793916694590170113e-01,5.474474989106907330e+00,-5.061671628117793142e-01,-7.177239002102255017e-02,-8.594425677837234101e-01,1.556853654352434432e+03
6.373144136920334546e+00,-8.676460155112222239e-01,4.313176284918740500e+00,-6.032697791662472442e-01,-1.308496379502151197e-01,-7.867286354224669598e-01,1.561593178291076129e+03
6.634749032294124049e+00,-8.335200636941670904e-01,2.947700912619638292e+00,-6.893890223633637460e-01,-1.875445811191298884e-01,-6.996912218532616023e-01,1.566332702229717825e+03
6.774459162346087915e+00,-8.202877972235227411e-01,1.490355247244945724e+00,-7.629569764223117501e-01,-2.408250110928526755e-01,-5.999149657755564746e-01,1.571072226168359521e+03
6.842585660088190025e+00,-7.718402401619477438e-01,5.345139006958476990e-02,-8.226342388826218821e-01,-2.897208857434458995e-01,-4.892164320450756443e-01,1.575811750107001217e+03
6.894098302578554716e+00,-6.327443166269051122e-01,-1.250699827599343950e+00,-8.673343056961166919e-01,-3.333419898079607036e-01,-3.696110387885942483e-01,1.580551274045642913e+03
6.972801647021978688e+00,-3.686437951785822009e-01,-2.343066888944879356e+00,-8.962433519174548557e-01,-3.708941421016248019e-01,-2.432763644485891330e-01,1.585290797984284609e+03
7.093204059374702553e+00,1.362102501213753938e-02,-3.211173563165786504e+00,-9.088350481617251120e-01,-4.016936543760875056e-01,-1.125125027171153536e-01,1.590030321922926305e+03
7.252874060851304705e+00,4.867559860860958265e-01,-3.875828635620313545e+00,-9.048801431335191658e-01,-4.251797786308235128e-01,2.029981297557999567e-02,1.594769845861568001e+03
7.443393441184112724e+00,1.012816367240765736e+00,-4.349240151747070904e+00,-8.844506377694857369e-01,-4.409249162875314987e-01,1.527425531626034338e-01,1.599420980298763425e+03
7.665101257658039735e+00,1.584878454304342599e+00,-4.670040008273550036e+00,-8.993593634059021680e-01,-3.806681612406623283e-01,2.150406623671816952e-01,1.604160504237405121e+03
7.905324517455222022e+00,2.166828679781587219e+00,-4.849496777344369569e+00,-9.073122482033554315e-01,-3.174672478824850375e-01,2.756755897459411964e-01,1.608900028176046817e+03
8.152580704500037356e+00,2.731732919715142760e+00,-4.908462065950266684e+00,-9.082477864525942968e-01,-2.518109823119900614e-01,3.341783769048878860e-01,1.613639552114688513e+03
8.393115846234906030e+00,3.252818948403109811e+00,-4.867794984732672248e+00,-9.021587441004390584e-01,-1.842071596458706717e-01,3.900965557116199411e-01,1.618379076053330209e+03
8.610905613704876060e+00,3.703505120696320319e+00,-4.748360848621547170e+00,-8.890922145860936654e-01,-1.151786370754943195e-01,4.429976473114721758e-01,1.623118599991971905e+03
8.787656590944928681e+00,4.057429040320088554e+00,-4.571029877182390067e+00,-8.691492546594374868e-01,-4.525929048692523687e-02,4.924725065920800837e-01,1.627858123930613601e+03
8.789965718617553492e+00,4.061994391680988414e+00,-4.567959561948144120e+00,-8.424841029938712200e-01,2.501011412033932527e-02,5.381384862594416063e-01,1.627930488279329211e+03
8.904903908872855212e+00,4.292780639618457350e+00,-4.353704143214803146e+00,-8.722250528554589266e-01,-3.387216274751403411e-02,4.879284104887521289e-01,1.632670012217970907e+03
8.935069374217297522e+00,4.374449827479062414e+00,-4.123620584340265793e+00,-8.959714480783455004e-01,-9.252163758431523888e-02,4.343649511726480617e-01,1.637409536156612603e+03
8.855336178777903910e+00,4.281473800333982282e+00,-3.898586011696006715e+00,-9.135600897498370454e-01,-1.505352319505141589e-01,3.778162335819724160e-01,1.642149060095254299e+03
8.638316100930124364e+00,3.988658582158340682e+00,-3.699477235997684854e+00,-9.248700985636536531e-01,-2.075142379055567587e-01,3.186708989687783711e-01,1.646888584033895995e+03
8.281086225105228849e+00,3.482598906562865082e+00,-3.533159220857735150e+00,-9.298237454266738977e-01,-2.630670579862064984e-01,2.573354337113900048e-01,1.651628107972537691e+03
7.833219617636225429e+00,2.772669017671380853e+00,-3.378474424261495912e+00,-9.283869855753655864e-01,-3.168118963145645228e-01,1.942313758589137018e-01,1.656367631911179387e+03
7.372013198507495702e+00,1.878908534023836951e+00,-3.200254347740579597e+00,-9.205696925371094075e-01,-3.683793823550181035e-01,1.297924182607433363e-01,1.661107155849821083e+03
6.976408400563664181e+00,8.203494752358178044e-01,-2.963331958302787061e+00,-9.064255903296359884e-01,-4.174151093014608627e-01,6.446142817529375291e-02,1.665846679788462779e+03
6.836317362090165162e+00,2.484688336762718996e-01,-2.809680541011562838e+00,-8.860518843610130091e-01,-4.635820696612358294e-01,-1.312596174765767038e-03,1.668192500195069670e+03
6.727396778365005936e+00,-9.909797943289702093e-01,-2.399442836290433867e+00,-9.186083274651278829e-01,-3.951664281936959067e-01,-4.844985272615794851e-04,1.672932024133711366e+03
6.888521128351714928e+00,-2.352695651795600806e+00,-1.842784324466634871e+00,-9.458907418152756597e-01,-3.244820250294988551e-01,3.463806081719191573e-04,1.677671548072353062e+03
7.404326246011813772e+00,-3.821334584817313917e+00,-1.104560923513128845e+00,-9.677424957487127388e-01,-2.519346753800617011e-01,1.175270976884189604e-03,1.682411072010994758e+03
8.232291895587376729e+00,-5.331955125243958982e+00,-2.319637659365698934e-01,-9.840381345954801739e-01,-1.779408890581160585e-01,1.997413745960734122e-03,1.687150595949636454e+03
9.079645160233146939e+00,-6.717159533288872275e+00,5.631598351081893439e-01,-9.946841007373664612e-01,-1.029254797216605094e-01,2.808088819621138137e-03,1.691890119888278150e+03
9.459807829005658419e+00,-7.562157537070826052e+00,9.096428289734626027e-01,-9.996192706714811527e-01,-2.731912647791287160e-02,3.602641932382996941e-03,1.695395039387796714e+03
9.484107620022944829e+00,-7.998038223636751987e+00,9.328248296366230541e-01,-9.995850758042017503e-01,-2.497582305519719173e-02,1.427880644540158346e-02,1.697554481633690330e+03
9.054913090398672537e+00,-8.657046057159293539e+00,4.948999680532712997e-01,-9.980014004829907970e-01,5.749288566905214753e-02,2.618726274867421225e-02,1.702294005572332026e+03
8.251640270726911197e+00,-8.906886188269236726e+00,-4.079943590868297942e-01,-9.894861874966862647e-01,1.395622651791197377e-01,3.791383507818600618e-02,1.707033529510973722e+03
7.362727418445014216e+00,-8.879649686979075085e+00,-1.563929290437642505e+00,-9.740985810071919326e-01,2.206623179653669775e-01,4.937707878124315830e-02,1.711773053449615418e+03
