-8.306135867994747457e+00,1.157527194697754780e+01,-8.718198708304631950e-01,9.752492259691760701e-01,-5.051403361039758649e-02,2.152563115348389011e-01,8.339966659361181200e+01
-8.311202327176900440e+00,1.225441187995552816e+01,-1.310733880821931319e+00,9.528864163487760219e-01,-1.543241663579818512e-01,2.611312490225541350e-01,8.813919053225350808e+01
-8.253979219098656728e+00,1.294117699150179313e+01,-1.801623830871918353e+00,9.177728734362708973e-01,-2.560692430278985188e-01,3.035119364373847772e-01,9.287871447089520416e+01
-8.143842775490181651e+00,1.363289780107820448e+01,-2.333548801438650511e+00,8.703784607315264710e-01,-3.543878027065787695e-01,3.418312747362663440e-01,9.761823840953690024e+01
-7.990210654867095919e+00,1.432711523140464571e+01,-2.895565315261907635e+00,8.113373704397620623e-01,-4.479642357254467466e-01,3.755765099672987439e-01,1.023577623481785963e+02
-7.799794748436514880e+00,1.502127716132273250e+01,-3.476952582909531131e+00,7.414396374558109848e-01,-5.355463868073822020e-01,4.042960939550363508e-01,1.070972862868202924e+02
-7.573862902820631682e+00,1.571235331055334861e+01,-4.067437734418523299e+00,6.616205684462506120e-01,-6.159623092320772875e-01,4.276057261246224428e-01,1.118368102254619885e+02
-7.401565361678926536e+00,1.616385508791283598e+01,-4.456362870962570888e+00,5.729482273972796857e-01,-6.881359459699041281e-01,4.451934956695245416e-01,1.149588926796404991e+02
-7.103252278781045703e+00,1.684078547923389380e+01,-5.038372473892041015e+00,5.670574198247351205e-01,-6.360699160254238427e-01,5.233153394934689784e-01,1.196984166182821951e+02
-6.765811210297293599e+00,1.750560247863233698e+01,-5.602763153523033779e+00,5.561489424596572917e-01,-5.783755584690275509e-01,5.968065575769188058e-01,1.244379405569238912e+02
-6.387994307759385038e+00,1.815489887084250142e+01,-6.139487604183993419e+00,5.403193215052275455e-01,-5.155633873887816021e-01,6.650168602318117239e-01,1.291774644955656015e+02
-5.968618179296325543e+00,1.878523875387423914e+01,-6.638500238085272898e+00,5.197086273291111613e-01,-4.481892008791077964e-01,7.273426860121022797e-01,1.339169884342072976e+02
-5.506564135099747404e+00,1.939315859507915718e+01,-7.089757810516923442e+00,4.944992350458831676e-01,-3.768491632956716408e-01,7.832325418817934759e-01,1.386565123728489937e+02
-5.003981879218517115e+00,1.997247245329537435e+01,-7.488284823103725785e+00,4.649142108573783849e-01,-3.021745304309019775e-01,8.321918827421130871e-01,1.433960363114906897e+02
-4.469573614375285331e+00,2.051167289266453508e+01,-7.839238611450495497e+00,4.312153384207942364e-01,-2.248260642521041908e-01,8.737874871749693462e-01,1.481355602501323858e+02
-4.268077928779877794e+00,2.068954620394147170e+01,-7.952676530716765946e+00,3.937008026926946958e-01,-1.454881865852805101e-01,9.076512907075423575e-01,1.498583834276345783e+02
-3.702403067267740600e+00,2.111958169369640004e+01,-8.232836855874159809e+00,3.544621828902335681e-01,-1.143386788907156809e-01,9.280523839786178897e-01,1.545979073662762744e+02
-3.134514138136129002e+00,2.147679768874569817e+01,-8.489595367532430714e+00,3.141863533157377986e-01,-8.285460233869591795e-02,9.457378337889349451e-01,1.593374313049179705e+02
-2.577296696286562216e+00,2.174785479859901116e+01,-8.733182286700763797e+00,2.729911660307425270e-01,-5.112808301604308825e-02,9.606558917711930379e-01,1.640769552435596665e+02
-2.043934677879597483e+00,2.191969437164873469e+01,-8.973828646633466022e+00,2.309971629466491261e-01,-1.925195627929436604e-02,9.727629068218418551e-01,1.688164791822013626e+02
-1.547908090825024896e+00,2.197954348424113036e+01,-9.221765655322894162e+00,1.883272231847438749e-01,1.268050482740987195e-02,9.820234527766019683e-01,1.735560031208430587e+02
-1.102990672753261236e+00,2.191491989952521635e+01,-9.487224057984496639e+00,1.451062036049165227e-01,4.457586243260665965e-02,9.884104320382826048e-01,1.782955270594847548e+02
-7.232475165999203703e-01,2.171363699566511940e+01,-9.780433499563809363e+00,1.014605735520354018e-01,7.634078717962815286e-02,9.919051548537731744e-01,1.830350509981264508e+02
-6.807427318790582049e-01,2.166601754139534819e+01,-9.826135379326135677e+00,5.751804488609150307e-02,1.078823312526935446e-01,9.924973940086511126e-01,1.836947673092740558e+02
-4.512131914562620971e-01,2.118668572158362196e+01,-1.018926280991165711e+01,5.074016870989150191e-02,9.415049846204882888e-02,9.942631034639254350e-01,1.884342912479157519e+02
-2.931399822502563368e-01,2.058194809718385443e+01,-1.058009165240475191e+01,4.395023658910694048e-02,8.039629553137650486e-02,9.957925548826919160e-01,1.931738151865574480e+02
-1.979320896563595833e-01,1.987133623716110620e+01,-1.098959821003144732e+01,3.714986173651053242e-02,6.662299030640336794e-02,9.970853849730690888e-01,1.979133391251991441e+02
-1.565835611216542245e-01,1.907417231786628165e+01,-1.140875761242398312e+01,3.034065984348862516e-02,5.283385516653158614e-02,9.981412866422615382e-01,2.026528630638408401e+02
-1.596753539557297930e-01,1.820956222873925512e+01,-1.182854437736715525e+01,2.352424869659762094e-02,3.903216624825319586e-02,9.989600090657410059e-01,2.073923870024825362e+02
-1.973772277036276168e-01,1.729638870241684145e+01,-1.223993297257562851e+01,1.670224779383112576e-02,2.522120266806417502e-02,9.995413577466436550e-01,2.121319109411242323e+02
-2.594496809749121113e-01,1.635330446980848151e+01,-1.263389837748058575e+01,9.876277960484260848e-03,1.140424574467693679e-02,9.998851945618560944e-01,2.168714348797659284e+02
-3.352459326190410094e-01,1.539872544069945803e+01,-1.300141664500522332e+01,3.047960964704903367e-03,-2.415421779286273159e-03,9.999914377947825006e-01,2.216109588184076244e+02
-4.137139471265262047e-01,1.445082391046206638e+01,-1.333346546328496807e+01,-3.781080867178697371e-03,-1.623451651593791484e-02,9.998600621547794054e-01,2.263504827570493205e+02
-4.833985041387727777e-01,1.352752179344846262e+01,-1.362102471729425979e+01,-1.060922503546365449e-02,-3.004975521092544816e-02,9.994910987832590354e-01,2.310900066956910166e+02
-5.059951481273098350e-01,1.311795823680820483e+01,-1.373100370640692702e+01,-1.743484925192182594e-02,-4.385785552220518996e-02,9.988846352464563205e-01,2.332890381136658107e+02
-5.278559548896182285e-01,1.229232336435795325e+01,-1.391777159747332782e+01,-1.744311582599988170e-02,-2.675917513780617235e-02,9.994887114099310077e-01,2.380285620523075067e+02
-5.201356344116555563e-01,1.154574738187999117e+01,-1.405865680987318100e+01,-1.744627626918665575e-02,-9.652665678399582547e-03,9.998002067760649592e-01,2.427680859909492028e+02
-4.762353379427128885e-01,1.090331716238005555e+01,-1.415887094027901405e+01,-1.744432965922095707e-02,7.456667990943417756e-03,9.998190303475116281e-01,2.475076099295908989e+02
-3.889855544098297924e-01,1.038997894653284959e+01,-1.422362810517798337e+01,-1.743727656566899931e-02,2.456382018370439207e-02,9.995451766196579158e-01,2.522471338682325950e+02
-3.604363071646113914e-01,1.031487703667908740e+01,-1.423055969541262300e+01,-1.742511904965797498e-02,4.166378584708963634e-02,9.989787255764482898e-01,2.532220613187311642e+02
-2.770193498564613166e-01,1.022578175486016328e+01,-1.423231613769643822e+01,8.220890819069419722e-03,2.129721615785955605e-02,9.997383885196257092e-01,2.552519230788333289e+02
-2.587173070052027624e-02,1.017648293858434450e+01,-1.420465198536401807e+01,7.623110112428185467e-03,5.433998337436916209e-02,9.984923907507029517e-01,2.599914470174750249e+02
2.808547003450180268e-01,1.027811121828708529e+01,-1.413843491866654745e+01,7.016991882983236208e-03,8.732330880271439721e-02,9.961543060955720952e-01,2.647309709561167210e+02
6.387894067416615140e-01,1.050852568375865737e+01,-1.402122300651794973e+01,6.403198916448176597e-03,1.202111256258249217e-01,9.927266916464841939e-01,2.694704948947584171e+02
7.170665089917248602e-01,1.057395598244612778e+01,-1.398623898083020656e+01,5.782402384852128319e-03,1.529674713919002282e-01,9.882132950462761967e-01,2.703921655938089543e+02
1.160138806631328068e+00,1.099881848279931340e+01,-1.373469974291658602e+01,-5.164812911375718518e-02,1.616254627727163051e-01,9.854986963676426459e-01,2.751316895324506504e+02
1.639366517891048591e+00,1.148767730532028608e+01,-1.339927206850228458e+01,-1.089040519936910617e-01,1.697370617626212941e-01,9.794525191776400908e-01,2.798712134710923465e+02
2.147181713696432848e+00,1.201479993853521044e+01,-1.297084098279322184e+01,-1.657918081037565716e-01,1.772748466339755247e-01,9.700952041508875690e-01,2.846107374097340426e+02
2.676917335486189486e+00,1.256131015974408704e+01,-1.245202888872524483e+01,-2.221190840543949274e-01,1.842133354671783019e-01,9.574583852757888591e-01,2.893502613483757386e+02
3.222237773152709650e+00,1.311182326272427368e+01,-1.185132960523443657e+01,-2.776954612917280629e-01,1.905290722836166795e-01,9.415847829020947968e-01,2.940897852870174347e+02
3.776469742712210476e+00,1.365110075084557018e+01,-1.117724203990192144e+01,-3.323330597638272654e-01,1.962007063301895171e-01,9.225280593150687602e-01,2.988293092256591308e+02
4.332603534361282982e+00,1.416405597420723517e+01,-1.043826966015054580e+01,-3.858471730051597492e-01,2.012090642486350778e-01,9.003526373306092179e-01,3.035688331643008269e+02
4.883294297172412257e+00,1.463575975029898402e+01,-9.642919964206587480e+00,-4.380568924942189746e-01,2.055372148859662129e-01,8.751334825243864968e-01,3.083083571029425229e+02
5.420863360326515945e+00,1.505144596770764132e+01,-8.799703951874036534e+00,-4.887857191755493602e-01,2.091705265271352754e-01,8.469558498306588579e-01,3.130478810415842190e+02
5.937299590810770411e+00,1.539651717239361162e+01,-7.917135595165160744e+00,-5.378621600806571257e-01,2.120967163565996849e-01,8.159149953665546517e-01,3.177874049802259151e+02
6.424260787524072036e+00,1.565655013608223989e+01,-7.003731308796898425e+00,-5.851203080325034778e-01,2.143058919816555885e-01,7.821158544548728608e-01,3.225269289188676112e+02
6.716683050782012110e+00,1.576266448698001987e+01,-6.393928078889790534e+00,-6.304004024752413171e-01,2.157905848771691226e-01,7.456726869324609153e-01,3.256133222141516512e+02
7.120310798915166828e+00,1.581696122310828656e+01,-5.441512644850487135e+00,-8.168143587398325467e-01,-2.160338640063488858e-02,5.764942298524744491e-01,3.303528461527933473e+02
7.470760388789344120e+00,1.574889602623776419e+01,-4.478590731716233009e+00,-9.054330459184679603e-01,-2.564108028972016950e-01,3.382935109001406482e-01,3.350923700914350434e+02
7.643694158804983374e+00,1.562816435813858540e+01,-3.898889116201607052e+00,-8.856463804278239538e-01,-4.605187945969549390e-01,5.958966905835684502e-02,3.379201917663621089e+02
7.866135052981074516e+00,1.528029514591610472e+01,-2.918203502929138882e+00,-9.286375450441485269e-01,-3.705091713783352225e-01,1.879531480386356299e-02,3.426597157050038049e+02
8.011270823414097464e+00,1.478431339463269900e+01,-1.927508577107302612e+00,-9.608433454269766916e-01,-2.761964085274137282e-01,-2.221732353505749200e-02,3.473992396436455010e+02
8.065511657433850345e+00,1.415838175681007982e+01,-9.249742488051557743e-01,-9.818897458102786580e-01,-1.786758632271523151e-01,-6.297192209639876359e-02,3.521387635822871971e+02
8.014045347962214905e+00,1.343162070791624529e+01,9.166989132748865066e-02,-9.915323134849769460e-01,-7.908014615353803345e-02,-1.029951542513895674e-01,3.568782875209288932e+02
7.842681173077934886e+00,1.263346178184632684e+01,1.124693374670428403e+00,-9.896590571965454552e-01,2.143403143176264569e-02,-1.418221872806847417e-01,3.616178114595705892e+02
7.588946598818039568e+00,1.191373450546493018e+01,2.016807419175519644e+00,-9.762917278736165105e-01,1.216992904032517253e-01,-1.790020804356731721e-01,3.656524552456843367e+02
7.169982192032994028e+00,1.103479876014108108e+01,3.070346293992570530e+00,-9.479122858043544930e-01,1.738127932744334692e-01,-2.669258535920174258e-01,3.703919791843260327e+02
6.642652949968875120e+00,1.013152855982418998e+01,4.115266253618695025e+00,-9.088670996145155057e-01,2.239705893804068981e-01,-3.518462310887188194e-01,3.751315031229677288e+02
6.020835870427061032e+00,9.212789998634375976e+00,5.136839045930075009e+00,-8.595954964569744172e-01,2.716083114253804998e-01,-4.328077028380034608e-01,3.798710270616094249e+02
5.318573894527064638e+00,8.287135120463883453e+00,6.120337869123195773e+00,-8.006518698111317889e-01,3.161899471942776763e-01,-5.088993030664484829e-01,3.846105510002511210e+02
4.550073255375004067e+00,7.362799218954268810e+00,7.051038288047609903e+00,-7.326994417367342916e-01,3.572138707660372781e-01,-5.792648605010158880e-01,3.893500749388928170e+02
3.729700809643663906e+00,6.447698172111976156e+00,7.914219150428036365e+00,-6.565028005387844035e-01,3.942184868433668554e-01,-6.431126320605513591e-01,3.940895988775345131e+02
2.871981352215130290e+00,5.549425811776423245e+00,8.695163502931867683e+00,-5.729192977966962586e-01,4.267874246776082736e-01,-6.997242116358081132e-01,3.988291228161762092e+02
1.991594914036149966e+00,4.675251328154431896e+00,9.379159507041450183e+00,-4.828894015526151717e-01,4.545542231339112504e-01,-7.484626136951827435e-01,4.035686467548179053e+02
1.103374043333762877e+00,3.832116709652884534e+00,9.951501354679100686e+00,-3.874261142074532094e-01,4.772064541676170890e-01,-7.887794407380456230e-01,4.083081706934596014e+02
2.223010703547938227e-01,3.026634218224057982e+00,1.039749018354092591e+01,-2.876035742050316868e-01,4.944892383031215810e-01,-8.202210539281753476e-01,4.130476946321012974e+02
-6.397794405455898836e-01,2.264690152767574904e+00,1.070925104714852516e+01,-1.845449697754436291e-01,5.062081125502536638e-01,-8.424336774601784983e-01,4.177872185707429935e+02
-1.477460137568578080e+00,1.551146438501275204e+00,1.089254945997744350e+01,-7.940990075423276506e-02,5.122312184831004922e-01,-8.551673792151791575e-01,4.225267425093846896e+02
-2.288505658037137014e+00,8.903788772860158351e-01,1.095997498299449902e+01,2.661866929336663412e-02,5.124907858598317656e-01,-8.582788829128438213e-01,4.272662664480263857e+02
-3.070574399158842560e+00,2.867179132902142324e-01,1.092412438426191912e+01,1.323477238042932158e-01,5.069838950929014265e-01,-8.517331801219315546e-01,4.320057903866680817e+02
-3.821218871743791823e+00,-2.555531657837333270e-01,1.079760085424630134e+01,2.365876170120173316e-01,4.957725099973400718e-01,-8.356039240022480330e-01,4.367453143253097778e+02
-4.537886065790941892e+00,-7.322000228212499628e-01,1.059301322082771257e+01,3.381654597428777054e-01,4.789827804589492644e-01,-8.100726003644512785e-01,4.414848382639514739e+02
-5.217917827928410190e+00,-1.139039060616547028e+00,1.032297516404464943e+01,4.359383165884933575e-01,4.568036228813099897e-01,-7.754264853956830406e-01,4.462243622025931700e+02
-5.311239683648352639e+00,-1.188382000102273572e+00,1.027548583827539552e+01,5.288060659589270962e-01,4.294845943979063163e-01,-7.320554130532641590e-01,4.469163079477719407e+02
-5.907820768617631835e+00,-1.455298351821157077e+00,9.902191776194188222e+00,5.656040888786648679e-01,3.914066785249948333e-01,-7.258724589411997830e-01,4.516558318864136368e+02
-6.461095346355206104e+00,-1.644036764535565354e+00,9.490530364150361109e+00,6.007945156774697759e-01,3.522162890714393702e-01,-7.176263900138448726e-01,4.563953558250553328e+02
-6.968078281389177953e+00,-1.750591723377254993e+00,9.053126786734656761e+00,6.342773274836556174e-01,3.120248146062579719e-01,-7.073406441806449063e-01,4.611348797636970289e+02
-7.425681004804668639e+00,-1.771015803831302193e+00,8.602607822943189930e+00,6.659573588286108459e-01,2.709464888481235012e-01,-6.950444564218333232e-01,4.658744037023387250e+02
-7.830711952295844824e+00,-1.701421433750437862e+00,8.151601060098879969e+00,6.957445680903104890e-01,2.290980660130621793e-01,-6.807727756908052985e-01,4.706139276409804211e+02
-8.179877013934079955e+00,-1.537982649638678145e+00,7.712734107739064093e+00,7.235542933773306817e-01,1.865984890028631049e-01,-6.645661655824425251e-01,4.753534515796221172e+02
-8.469779995626378621e+00,-1.276936847050791801e+00,7.298633811504958047e+00,7.493074931267247329e-01,1.435685513761326138e-01,-6.464706890492062374e-01,4.800929755182638132e+02
-8.696923092231827468e+00,-9.145865249630721339e-01,6.921925467067161719e+00,7.729309707327869372e-01,1.001305540617779405e-01,-6.265377774924384413e-01,4.848324994569055093e+02
-8.857707372315433147e+00,-4.473010239725375148e-01,6.595232034121959686e+00,7.943575825689719316e-01,5.640795778958248435e-02,-6.048240846005819016e-01,4.895720233955472054e+02
-8.948433274520583680e+00,1.284817418288413393e-01,6.331173350497695473e+00,8.135264288122930898e-01,1.252503222467281699e-02,-5.813913253492360989e-01,4.943115473341889015e+02
-8.965301115524020759e+00,8.162535594541256989e-01,6.142365346413577676e+00,8.303830265282226009e-01,-3.139349719796497712e-02,-5.563061006200180625e-01,4.990510712728305975e+02
-8.936997109594081223e+00,1.209792078889513567e+00,6.090564283641108467e+00,8.448794645243671297e-01,-7.522280373620390814e-02,-5.296397079359572713e-01,5.013812089587234482e+02
-8.805783865304512403e+00,2.116491290859142449e+00,6.066559260159641198e+00,8.181690666175394089e-01,-1.417501465023322249e-01,-5.572291040473721369e-01,5.061207328973651443e+02
-8.602313070483925017e+00,3.116655009363892059e+00,6.114658087965148425e+00,7.866310481854256187e-01,-2.074410863001559524e-01,-5.815305578781281293e-01,5.108602568360068403e+02
-8.331026270887587515e+00,4.195946614289220555e+00,6.224290556655152074e+00,7.504515005002762029e-01,-2.719080129388912193e-01,-6.024006788652319644e-01,5.155997807746485933e+02
-7.996663798151471880e+00,5.340142033773236818e+00,6.384882617272337413e+00,7.098439020878749561e-01,-3.347705386877322109e-01,-6.197163230835627257e-01,5.203393047132902893e+02
-7.604263755382447698e+00,6.535134697866075371e+00,6.585857040830614295e+00,6.650478590747193053e-01,-3.956577427244333256e-01,-6.333753198248247562e-01,5.250788286519319854e+02
-7.159160970823441161e+00,7.766940478737713427e+00,6.816634076982019508e+00,6.163276913790273204e-01,-4.542103597184433683e-01,-6.432970744257496820e-01,5.298183525905736815e+02
-6.666985919646039704e+00,9.021702617032866911e+00,7.066632112787954334e+00,5.639708730887326160e-01,-5.100828996371278290e-01,-6.494230437905782471e-01,5.345578765292153776e+02
-6.133663613938852954e+00,1.028569663395099631e+01,7.325268331581237469e+00,5.082863362288795317e-01,-5.629456862695639829e-01,-6.517170818034686564e-01,5.392974004678570736e+02
-5.565412460958479635e+00,1.154533522863038186e+01,7.581959371905139911e+00,4.496026479263256492e-01,-6.124868024420594415e-01,-6.501656525939035758e-01,5.440369244064987697e+02
-4.968743089702260640e+00,1.278717316044690122e+01,7.826121986489718019e+00,3.882660717261312011e-01,-6.584139304500314926e-01,-6.447779103975342929e-01,5.487764483451404658e+02
-4.350457145875178178e+00,1.399791211584593853e+01,8.047173701219277220e+00,3.246385244971075612e-01,-7.004560768489523914e-01,-6.355856455416613038e-01,5.535159722837821619e+02
-3.717192237988705017e+00,1.516745999210967533e+01,8.237799944018815879e+00,2.590954409796884517e-01,-7.383651714290884183e-01,-6.226430968740469529e-01,5.582554962224238579e+02
-3.074875889022845588e+00,1.629197623897037062e+01,8.397220970208227442e+00,1.920235585739794859e-01,-7.719175309407104724e-01,-6.060266317413949277e-01,5.629950201610655540e+02
-2.429041758991313582e+00,1.737079953655470987e+01,8.527925440920514077e+00,1.238186354363254305e-01,-8.009151789339988836e-01,-5.858342954049422513e-01,5.677345440997072501e+02
-1.785236977982849416e+00,1.840338718534107798e+01,8.632403797962931336e+00,5.488311534624266963e-02,-8.251870139263075554e-01,-5.621852325506493386e-01,5.724740680383489462e+02
-1.274592680746287066e+00,1.919633134746326064e+01,8.697218837210433762e+00,-1.437624688022107709e-02,-8.445898190038285680e-01,-5.352189843058832164e-01,5.762830677374723791e+02
-6.526628978595633290e-01,2.013679586077685357e+01,8.756287544350739083e+00,-2.967534831144031174e-02,-8.359812703313290738e-01,-5.479531817185456788e-01,5.810225916761140752e+02
-4.846498543294095601e-02,2.103018432860883991e+01,8.796120870846971584e+00,-4.496049114074870262e-02,-8.269795351396928007e-01,-5.604296590066148998e-01,5.857621156147557713e+02
5.324116567164665081e-01,2.187640814037560588e+01,8.819214749820778465e+00,-6.022448648216518347e-02,-8.175888472128033380e-01,-5.726425483135380023e-01,5.905016395533974674e+02
1.084368812828413908e+00,2.267549826083218178e+01,8.828066148605008934e+00,-7.546015540018230494e-02,-8.078136232511086146e-01,-5.845861057490008283e-01,5.952411634920391634e+02
1.601800423347411462e+00,2.342760539258531693e+01,8.825172913186538182e+00,-9.066033228511047315e-02,-7.976584607932937221e-01,-5.962547140885030572e-01,5.999806874306808595e+02
2.079093558272886444e+00,2.413300012596875987e+01,8.813033612607771516e+00,-1.058178682221646433e-01,-7.871281360543198602e-01,-6.076428854142394975e-01,6.047202113693225556e+02
2.510629391658109277e+00,2.479207307626640144e+01,8.794147383335246815e+00,-1.209256343526919908e-01,-7.762276016795199851e-01,-6.187452636952139873e-01,6.094597353079642517e+02
2.890784177201431770e+00,2.540533500826994739e+01,8.771013773600611074e+00,-1.359765252259632906e-01,-7.649619844158057624e-01,-6.295566273053759820e-01,6.141992592466059477e+02
3.213930224872231900e+00,2.597341694815377622e+01,8.746132587721030305e+00,-1.509634621399583154e-01,-7.533365827010790605e-01,-6.400718914786014402e-01,6.189387831852476438e+02
3.474436878515122284e+00,2.649707028265165576e+01,8.722003730410124334e+00,-1.658793964695768064e-01,-7.413568641729777475e-01,-6.502861106993637064e-01,6.236783071238893399e+02
3.666671494378558105e+00,2.697716684552463562e+01,8.701127051086555042e+00,-1.807173129807162770e-01,-7.290284630981247460e-01,-6.601944810279781750e-01,6.284178310625310360e+02
3.785000420515665098e+00,2.741469899130908772e+01,8.686002188184518857e+00,-1.954702331286619632e-01,-7.163571777230854920e-01,-6.697923423593268311e-01,6.331573550011727320e+02
3.823789977001313733e+00,2.781077965633519611e+01,8.679128413472922077e+00,-2.101312183392419763e-01,-7.033489675482774706e-01,-6.790751806140054025e-01,6.378968789398144281e+02
3.777407436906023985e+00,2.816664240700542976e+01,8.683004476392580884e+00,-2.246933732712102783e-01,-6.900099505261048094e-01,-6.880386298608645035e-01,6.426364028784561242e+02
3.643728818812472792e+00,2.848349537885825455e+01,8.698714249559289513e+00,-2.391498490583259806e-01,-6.763464001846380969e-01,-6.966784743699498961e-01,6.473759268170978203e+02
3.427642500339374454e+00,2.876227088178049129e+01,8.724512462386822875e+00,-2.534938465296106003e-01,-6.623647426781810177e-01,-7.049906505948771995e-01,6.521154507557395164e+02
3.137536017263041987e+00,2.900361511170925510e+01,8.757239008641905187e+00,-2.677186194062705638e-01,-6.480715537661091430e-01,-7.129712490837118999e-01,6.568549746943812124e+02
3.096287561714863745e+00,2.902703372486305966e+01,8.761525943556227602e+00,-2.818174774737876032e-01,-6.334735557213959645e-01,-7.206165163174560462e-01,6.573997440653656668e+02
2.673208691096896850e+00,2.919359909720151691e+01,8.801630690447838745e+00,-2.411715612476735826e-01,-6.406389340859930392e-01,-7.289828764631987035e-01,6.621392680040073628e+02
2.193433413074341143e+00,2.932414317145533289e+01,8.841979009521343968e+00,-2.000979497460159684e-01,-6.466681816003999606e-01,-7.360564335777816103e-01,6.668787919426490589e+02
1.665311279590184323e+00,2.941871920061735324e+01,8.879409967187950059e+00,-1.586694828691063153e-01,-6.515506064817074838e-01,-7.418246439675857395e-01,6.716183158812907550e+02
1.097175698805289423e+00,2.947718928918542503e+01,8.910762803035870760e+00,-1.169596297006829239e-01,-6.552775505970972469e-01,-7.462772786987897922e-01,6.763578398199324511e+02
4.973423083624655128e-01,2.949922470836245125e+01,8.932877126672124746e+00,-7.504235825019554829e-02,-6.578424048090528720e-01,-7.494064417268067047e-01,6.810973637585741471e+02
-1.258926490180373725e-01,2.948430623244976445e+01,8.942593114547383593e+00,-3.299200431177652659e-02,-6.592406206897393206e-01,-7.512065838918222660e-01,6.858368876972158432e+02
-7.642539475180237796e-01,2.943172449640346144e+01,8.936751706754231250e+00,9.116860328057122334e-03,-6.594697185839938358e-01,-7.516745127558674966e-01,6.905764116358575393e+02
-1.409488997683246536e+00,2.934058037452192025e+01,8.912194803789667219e+00,5.120956010085831595e-02,-6.585292920066851963e-01,-7.508093982640453579e-01,6.953159355744992354e+02
-2.053369463274409057e+00,2.920978538023155480e+01,8.865765463272868629e+00,9.321144805101307107e-02,-6.564210083666450757e-01,-7.486127742198791513e-01,7.000554595131409314e+02
-2.479772824316186064e+00,2.909372228180405529e+01,8.817964731660119071e+00,1.350480381806330454e-01,-6.531486060158387952e-01,-7.450885355721101888e-01,7.032395558749495876e+02
-3.098517548270131705e+00,2.887777922349450677e+01,8.719454584483539605e+00,1.809982351344521512e-01,-6.598963572493172780e-01,-7.292286586302206830e-01,7.079790798135912837e+02
-3.694231691622555491e+00,2.861830151432750569e+01,8.590644752302818432e+00,2.265124959829129259e-01,-6.650547522567653580e-01,-7.116124406337230868e-01,7.127186037522329798e+02
-4.258789931131056861e+00,2.831351111933628317e+01,8.428384491461208938e+00,2.714812003274721941e-01,-6.686113674232733173e-01,-6.922823103485994389e-01,7.174581276908746759e+02
-4.784098707560041852e+00,2.796144279039986458e+01,8.229525133569339346e+00,3.157960417845867007e-01,-6.705576369725843033e-01,-6.712848244161653266e-01,7.221976516295163719e+02
-5.264908675334416088e+00,2.756075072099375944e+01,7.992741267215767387e+00,3.593502888291960629e-01,-6.708888735916498369e-01,-6.486705552203330116e-01,7.269371755681580680e+02
-5.701603283917158649e+00,2.711159874389793956e+01,7.720351806146392271e+00,4.020390418443045011e-01,-6.696042797141746883e-01,-6.244939690837414403e-01,7.316766995067997641e+02
-6.097352841541262336e+00,2.661497955885387867e+01,7.416498859625857420e+00,4.437594857579977847e-01,-6.667069494368816907e-01,-5.988132950870266313e-01,7.364162234454414602e+02
-6.455291474065784740e+00,2.607194986629016498e+01,7.085326489270388883e+00,4.844111376597088903e-01,-6.622038610639838785e-01,-5.716903848271502886e-01,7.411557473840831562e+02
-6.778516626901841313e+00,2.548362972692154571e+01,6.730980451217941862e+00,5.238960887996400029e-01,-6.561058602978955268e-01,-5.431905634525004967e-01,7.458952713227248523e+02
-7.070088571347167061e+00,2.485120191492538311e+01,6.357607938219283383e+00,5.621192403887735889e-01,-6.484276341167092284e-01,-5.133824723334478035e-01,7.506347952613665484e+02
-7.333029915356677364e+00,2.417591126475169716e+01,5.969357321661703075e+00,5.989885326318257208e-01,-6.391876754013727790e-01,-4.823379037471570707e-01,7.553743192000082445e+02
-7.570325118779923201e+00,2.345906401162105936e+01,5.570377893537996172e+00,6.344151664417801983e-01,-6.284082383977444008e-01,-4.501316279746578886e-01,7.601138431386499406e+02
-7.784920013091622515e+00,2.270202712576898563e+01,5.164819608373724336e+00,6.683138173022440398e-01,-6.161152851207494230e-01,-4.168412132264266989e-01,7.648533670772916366e+02
-7.979721325639894225e+00,2.190622764049657434e+01,4.756832825123286312e+00,7.006028407627521437e-01,-6.023384228296537746e-01,-3.825468388299819167e-01,7.695928910159333327e+02
-8.157596208441697527e+00,2.107315197408372143e+01,4.350568049046284358e+00,7.312044690722706575e-01,-5.871108327249392467e-01,-3.473311021292084799e-01,7.743324149545750288e+02
-8.321371771554552765e+00,2.020434524562010736e+01,3.950175673576761248e+00,7.600449984774542145e-01,-5.704691900383894732e-01,-3.112788195602537167e-01,7.790719388932167249e+02
-8.473834621047490856e+00,1.930141058481483540e+01,3.559805722195431787e+00,7.870549667346598000e-01,-5.524535757086996846e-01,-2.744768223828621401e-01,7.838114628318584209e+02
-8.617730401595871115e+00,1.836600843584802689e+01,3.183607590317420577e+00,8.121693204082515161e-01,-5.331073798551737575e-01,-2.370137475588807441e-01,7.885509867705001170e+02
-8.652105400616914466e+00,1.811670374321568744e+01,3.091141155738262647e+00,8.353275715522813227e-01,-5.124771972818029653e-01,-1.989798242813619611e-01,7.897730006978659958e+02
-8.776625036752815134e+00,1.711930867533339296e+01,2.752692570911838388e+00,8.447973224256477565e-01,-5.031240345288847671e-01,-1.821584197785426629e-01,7.945125246365076919e+02
-8.898886664602702723e+00,1.609326492054246671e+01,2.437780306938094554e+00,8.538783652135463198e-01,-4.935393765592608895e-01,-1.652532032979961985e-01,7.992520485751493879e+02
-9.021499746866505021e+00,1.504041768054118400e+01,2.150549486366002849e+00,8.625665220040894532e-01,-4.837276332274323964e-01,-1.482719527239167168e-01,8.039915725137910840e+02
-9.147030881479174980e+00,1.396266644625515418e+01,1.895143505196023925e+00,8.708577956152321331e-01,-4.736933188416327378e-01,-1.312224809079997334e-01,8.087310964524327801e+02
-9.278003368948107621e+00,1.286196427121842767e+01,1.675703775074951052e+00,8.787483714292539938e-01,-4.634410500867920391e-01,-1.141126320772128805e-01,8.134706203910744762e+02
-9.415797018759798576e+00,1.173959378005936927e+01,1.492627412129778008e+00,8.862346191459985478e-01,-4.529755439020987651e-01,-9.695027822779862803e-02,8.182101443297161723e+02
-9.559569441134728507e+00,1.059541054930606663e+01,1.338825158992164033e+00,8.933130944515387251e-01,-4.423016153125694516e-01,-7.974331550654975564e-02,8.229496682683578683e+02
-9.707387959968947655e+00,9.428517120822295539e+00,1.203463880004128850e+00,8.999805406015080056e-01,-4.314241752156207643e-01,-6.249966058100894784e-02,8.276891922069995644e+02
-9.857340425316980514e+00,8.237970157445676733e+00,1.075709289591808338e+00,9.062338899183758345e-01,-4.203482281236491369e-01,-4.522724700024824407e-02,8.324287161456412605e+02
-1.000753561294318672e+01,7.022780784839016022e+00,9.447266272395447029e-01,9.120702652019813117e-01,-4.090788698636509402e-01,-2.793402154788810279e-02,8.371682400842829566e+02
-1.007802344612998269e+01,6.419669846085070297e+00,8.749258787352921507e-01,9.174869810526835590e-01,-3.976212852349300109e-01,-1.062794058901986131e-02,8.394713424112674147e+02
-1.021661594384402960e+01,5.151745551904453713e+00,7.105746531241473596e-01,9.227937342386735020e-01,-3.663176658465752689e-01,-1.194198130090059901e-01,8.442108663499091108e+02
-1.035100091544621570e+01,3.856431352765398834e+00,5.160634775840936550e-01,9.162483333798631113e-01,-3.303091490121899954e-01,-2.266778720080812048e-01,8.489503902885508069e+02
-1.047936343520001401e+01,2.532584146521749346e+00,2.805614801918004941e-01,8.979348494785294177e-01,-2.900582202497688500e-01,-3.310245231976373659e-01,8.536899142271925029e+02
-1.059804863189608959e+01,1.183188728451834093e+00,-1.484367241190673011e-03,8.680884985307767421e-01,-2.460818527486418328e-01,-4.311195663236919717e-01,8.584294381658341990e+02
-1.069957514456099545e+01,-1.805260024912121730e-01,-3.250736120919707206e-01,8.270926202920474424e-01,-1.989448676104641212e-01,-5.256774078373912529e-01,8.631689621044758951e+02
-1.077431228325668222e+01,-1.543344984384992680e+00,-6.799279230754146086e-01,7.754737547906808137e-01,-1.492526796355881369e-01,-6.134835721135085684e-01,8.679084860431175912e+02
-1.081228216189259506e+01,-2.890271924646692803e+00,-1.055767021108426018e+00,7.138948798231121717e-01,-9.764352180146694538e-02,-6.934102993273094651e-01,8.726480099817592873e+02
-1.080316154834953757e+01,-4.206535127216342040e+00,-1.442309319317159666e+00,6.431468962567301606e-01,-4.478024826618342419e-02,-7.644310297215100025e-01,8.773875339204009833e+02
-1.078534817357836140e+01,-4.527732196448762458e+00,-1.540368127243751717e+00,5.641384704499566860e-01,8.658178860454916401e-03,-8.256335882809084925e-01,8.785825676994058995e+02
-1.064774720455651824e+01,-5.749698358214879512e+00,-1.926851209886370153e+00,6.825221166168585762e-01,1.415750153111234866e-01,-7.170202754240218024e-01,8.833220916380475956e+02
-1.044420449427573239e+01,-6.906208711815054357e+00,-2.307501407917457836e+00,7.712307054438193310e-01,2.683363615390056967e-01,-5.772320123290000105e-01,8.880616155766892916e+02
-1.016927586867402944e+01,-7.980150861100505644e+00,-2.678657875850262826e+00,8.264073395606327255e-01,3.834308401617576578e-01,-4.123465774490073787e-01,8.928011395153309877e+02
-9.824485882787033830e+00,-8.957738434256633298e+00,-3.036459441196822873e+00,8.456530275452016632e-01,4.818543290048024064e-01,-2.295329227444133924e-01,8.975406634539726838e+02
-9.754800919848007013e+00,-9.106964683976958241e+00,-3.094697435682346232e+00,8.281309852897998924e-01,5.593275258542119710e-01,-3.673948863508296608e-02,8.983496677306200127e+02
-9.296367416745505707e+00,-9.875460424566128381e+00,-3.416656210926479087e+00,7.748399875399545333e-01,6.297665305869785124e-01,-5.491002332590780993e-02,9.030891916692617087e+02
-8.810176218751660571e+00,-1.053520874007042707e+01,-3.715774905722001975e+00,7.152481791177062176e-01,6.950844110621585692e-01,-7.263404000485813861e-02,9.078287156079034048e+02
-8.319258531162262216e+00,-1.108092599748894536e+01,-3.987593617305545735e+00,6.498401467126091458e-01,7.547500218448289777e-01,-8.976741193828158272e-02,9.125682395465451009e+02
-7.846519501770822913e+00,-1.150680130867234574e+01,-4.227654139992830018e+00,5.791477718392363805e-01,8.082781800393503691e-01,-1.061708154169384993e-01,9.173077634851867970e+02
-7.414733732522305054e+00,-1.180649867706842926e+01,-4.431500242611987161e+00,5.037459058732614015e-01,8.552336103290307801e-01,-1.217108626206912653e-01,9.220472874238284930e+02
-7.046540805264789320e+00,-1.197315920289586266e+01,-4.594677945836463273e+00,4.242476957586961417e-01,8.952344842409935000e-01,-1.362611862179781419e-01,9.267868113624701891e+02
-6.764440821857568231e+00,-1.199940334656062468e+01,-4.712735799409040638e+00,3.412995983764464669e-01,9.279555248774351561e-01,-1.497034668862684548e-01,9.315263353011118852e+02
-6.590789958895469702e+00,-1.187733325012949948e+01,-4.781225159246371703e+00,2.555761240909905641e-01,9.531306518819560036e-01,-1.619283954031237316e-01,9.362658592397535813e+02
-6.586610437848846367e+00,-1.185408122009100040e+01,-4.782664628585608035e+00,1.677743521907949509e-01,9.705551451410597830e-01,-1.728365614884356527e-01,9.366738776834386044e+02
-6.659693001148377256e+00,-1.144143821721806198e+01,-4.755164387559097428e+00,3.709653929775741932e-01,9.283386821585166704e-01,2.387401143426565175e-02,9.414134016220803005e+02
-6.830522226920185958e+00,-1.090088247270358934e+01,-4.705741289645455794e+00,5.438247945498517755e-01,8.102175056783701423e-01,2.186325372078874729e-01,9.461529255607219966e+02
-7.070691743717636868e+00,-1.026065310904291294e+01,-4.663944360235011466e+00,6.722188856591094774e-01,6.258496845883846360e-01,3.955147810950619958e-01,9.508924494993636927e+02
-7.352454825767099855e+00,-9.549603600681077609e+00,-4.659322145328535392e+00,7.456496539014523250e-01,3.903098678036146518e-01,5.400581456959613336e-01,9.556319734380053887e+02
-7.439461215953016016e+00,-9.332860183587156300e+00,-4.675605437277657650e+00,7.581130998257414877e-01,1.228567274543551496e-01,6.404441836667210675e-01,9.569899367144379312e+02
-7.749479220878799701e+00,-8.550854458346172748e+00,-4.815873128573816331e+00,7.587440900654182085e-01,1.176232283308888266e-01,6.406794688650229164e-01,9.617294606530796273e+02
-8.046620359116563037e+00,-7.769074397133816312e+00,-5.072778550184892765e+00,7.593539544430705224e-01,1.123864554373987662e-01,6.408969155669622664e-01,9.664689845917213233e+02
-8.297803998595238539e+00,-7.062399197725881095e+00,-5.464138382583723974e+00,7.599426762029117821e-01,1.071465522469225440e-01,6.410965177756593469e-01,9.709448363749478403e+02
-8.514688699631243196e+00,-6.377270473667368655e+00,-6.066055816766824371e+00,7.390517444115929369e-01,1.193905484709850834e-01,6.629829681075875003e-01,9.756843603135895364e+02
-8.663868517665155977e+00,-5.779030064274893519e+00,-6.865451037271515844e+00,7.173734575944914482e-01,1.315073473509629498e-01,6.841630945282087817e-01,9.804238842522312325e+02
-8.672096287065176767e+00,-5.719745751183901383e+00,-6.983693915106265138e+00,6.949309014953788388e-01,1.434840454526820630e-01,7.046143419131464247e-01,9.809881345987362238e+02
-8.648812243750505502e+00,-5.321001563985579885e+00,-8.138188619629419307e+00,6.564470658856522700e-01,1.402909677527316712e-01,7.412109646084331649e-01,9.857276585373779199e+02
-8.510973183735108805e+00,-5.007360711006560550e+00,-9.372612796313662287e+00,6.161051506240851072e-01,1.367007943111106238e-01,7.757095694961940735e-01,9.904671824760196159e+02
-8.249140262730525919e+00,-4.764802622522808839e+00,-1.057964922055541734e+01,5.740193432334746992e-01,1.327236871890994652e-01,8.080125100836144103e-01,9.952067064146613120e+02
-7.894683904471187397e+00,-4.594411467762779644e+00,-1.168045138712871100e+01,5.303087669083046407e-01,1.283709035880396254e-01,8.380283544434018461e-01,9.999462303533030081e+02
-7.509900713785372162e+00,-4.506276619948572204e+00,-1.265924557962152086e+01,4.850971433987728010e-01,1.236547639907001478e-01,8.656721439480942193e-01,1.004685754291944704e+03
-7.146514379989534760e+00,-4.501512209990681690e+00,-1.352932111652060776e+01,4.385124428834913934e-01,1.185886172940220501e-01,8.908656336864361203e-01,1.009425278230586400e+03
-6.820865787057419638e+00,-4.561975670188911813e+00,-1.429697607472813736e+01,3.906865218256732053e-01,1.131868030329269831e-01,9.135375138885881707e-01,1.014164802169228096e+03
-6.531164034112944883e+00,-4.660181748445078043e+00,-1.496501589710226554e+01,3.417547498358079472e-01,1.074646108019042673e-01,9.336236117346872199e-01,1.018904326107869792e+03
-6.286838717695530931e+00,-4.763918401319694240e+00,-1.550985232781700418e+01,2.918556265947714889e-01,1.014382369889740565e-01,9.510670729764664211e-01,1.023424978356343786e+03
-6.061318210709592869e+00,-4.856483135812397656e+00,-1.598699570958296867e+01,2.441479162210543896e-01,6.755112117899918223e-02,9.673813317559141201e-01,1.028164502294985596e+03
-5.862937181239233908e+00,-4.905924738028215160e+00,-1.637284641494473902e+01,1.955391819419578237e-01,3.341471327484692166e-02,9.801254436345633314e-01,1.032904026233627292e+03
-5.687526909954711662e+00,-4.885018557572410103e+00,-1.667023347452739657e+01,1.462088106141072041e-01,-8.450090657480394726e-04,9.892523791511194098e-01,1.037643550172268988e+03
-5.530318809112064748e+00,-4.766630712252570845e+00,-1.688199141347588039e+01,9.633885184493017062e-02,-3.510161325331749571e-02,9.947284565999975348e-01,1.042383074110910684e+03
-5.384344434318539818e+00,-4.537127837555464005e+00,-1.700978975343281263e+01,4.611334638639464495e-02,-6.922867819233818887e-02,9.965334662710609859e-01,1.047122598049552380e+03
-5.332398629429661696e+00,-4.416129034974477285e+00,-1.702571031120531231e+01,-4.282352811447232878e-03,-1.031002606648848546e-01,9.946607450293689645e-01,1.048850609055448558e+03
-5.185177196302899638e+00,-4.000218083851401651e+00,-1.698399493282828843e+01,-1.400472002972470709e-02,-9.755336439096669310e-02,9.951307496361457838e-01,1.053590132994090254e+03
-5.022515773368382064e+00,-3.523349325154062850e+00,-1.685515881020696582e+01,-2.372532708784166541e-02,-9.199422520232818090e-02,9.954758517124476791e-01,1.058329656932731950e+03
-4.833665856672134886e+00,-3.012808247378364612e+00,-1.663737999304454007e+01,-3.344295634711694915e-02,-8.642353945970790430e-02,9.956960080549261960e-01,1.063069180871373646e+03
-4.638152221251922391e+00,-2.561979563067001475e+00,-1.636879867171882807e+01,-4.315639053967235128e-02,-8.084200496359798815e-02,9.957911910371407549e-01,1.067196175604796281e+03
-4.372396628738106195e+00,-2.061264854636563726e+00,-1.597219488095005602e+01,-3.445080656761541349e-02,-1.042755946021553387e-01,9.939505733630493722e-01,1.071935699543437977e+03
-4.066574777774028426e+00,-1.599525690012052248e+00,-1.549824990959722903e+01,-2.572357863208911063e-02,-1.276436620795365628e-01,9.914854477121572973e-01,1.076675223482079673e+03
-3.725768883446477275e+00,-1.197655228438226693e+00,-1.496196342821511749e+01,-1.698018943642481265e-02,-1.509315269477463362e-01,9.883973630740336969e-01,1.081414747420721369e+03
-3.355516012496279288e+00,-8.764352574741939295e-01,-1.437833897565507790e+01,-8.226131826066788999e-03,-1.741245591401135162e-01,9.846882596290177370e-01,1.086154271359363065e+03
-2.961807166230961297e+00,-6.565286065716220421e-01,-1.376238302505645805e+01,5.330946561514033006e-04,-1.972081881493009392e-01,9.803604675468421403e-01,1.090893795298004761e+03
-2.551086314220759377e+00,-5.584715728639420007e-01,-1.312910404970343770e+01,9.291987219620009494e-03,-2.201679121667136918e-01,9.754167055249812757e-01,1.095633319236646457e+03
-2.461616056771633421e+00,-5.663912129458219535e-01,-1.299379765926308039e+01,1.804504327760637905e-02,-2.429893071789923087e-01,9.698600790841385155e-01,1.096637862826583387e+03
-2.032820192836308326e+00,-7.515164491605592634e-01,-1.235939444682385435e+01,3.117787597028360419e-02,-1.876404953511200679e-01,9.817418115534815026e-01,1.101377386765225083e+03
-1.606170719030330041e+00,-1.093952971174457334e+00,-1.173943260886932194e+01,4.420541394633892979e-02,-1.316580053807835382e-01,9.903080586338204316e-01,1.106116910703866779e+03
-1.195556431498325800e+00,-1.585070282636979577e+00,-1.114461264017828412e+01,5.708366240260628888e-02,-7.523089411555020090e-02,9.955298930998800477e-01,1.110856434642508475e+03
-8.166972448750083879e-01,-2.206387899875994041e+00,-1.058419739817306215e+01,6.976913070766309344e-02,-1.854971961361636876e-02,9.973896812684253099e-01,1.115595958581150171e+03
-4.849059861505411462e-01,-2.939094879192753140e+00,-1.006744758668517647e+01,8.221897923050631996e-02,3.819410220584504301e-02,9.958811425110334348e-01,1.120335482519791867e+03
-2.150857389486558191e-01,-3.764056630130514502e+00,-9.603621179675268849e+00,9.439116397223731858e-02,9.480894380551425915e-02,9.910093704584178598e-01,1.125075006458433563e+03
-4.895177925118622542e-02,-4.531057133156517480e+00,-9.260400772085938925e+00,1.062445785137463988e-01,1.511036129888449764e-01,9.827908158279974327e-01,1.129121868167976345e+03
6.657504693911127369e-02,-5.484215613236771425e+00,-8.925365134064319861e+00,7.832285150425440101e-02,1.385485052127450045e-01,9.872526741571120423e-01,1.133861392106618041e+03
1.170461283823093918e-01,-6.473022783345119713e+00,-8.655636740106491089e+00,5.032616186777968265e-02,1.258607861896234581e-01,9.907695695399379998e-01,1.138600916045259737e+03
1.264391885907941437e-01,-7.477693132593590697e+00,-8.446441723659789957e+00,2.228130532835648561e-02,1.130525994225078240e-01,9.933381363824390631e-01,1.143340439983901433e+03
1.191559866838128590e-01,-8.478982903657751535e+00,-8.293002439574927109e+00,-5.784876327710926532e-03,1.001362036789197746e-01,9.949559165680337269e-01,1.148079963922543129e+03
1.200177491062607571e-01,-9.458197138824676387e+00,-8.190537761866385935e+00,-3.384552092261167849e-02,8.712396126652513506e-02,9.956213618046590996e-01,1.152819487861184825e+03
1.542605556879746431e-01,-1.039719666624368699e+01,-8.134263381639591728e+00,-6.187377157696664909e-02,7.402832621022763238e-02,9.953338351047443799e-01,1.157559011799826521e+03
2.475306803063791750e-01,-1.127840502579695325e+01,-8.119392105177952956e+00,-8.984280239470887608e-02,6.086183234170053358e-02,9.940936113951677200e-01,1.162298535738468217e+03
4.074953327759377464e-01,-1.204177552734990897e+01,-8.137896842826073396e+00,-1.177258441185133897e-01,4.763708131266680690e-02,9.919018772566112752e-01,1.166753985703076978e+03
6.553145445824238857e-01,-1.278508590018082813e+01,-8.180942939041079498e+00,-8.102575114198325157e-02,1.071685760164970969e-01,9.909327545127768477e-01,1.171493509641718674e+03
9.725389777055151175e-01,-1.346595370519131052e+01,-8.233666567948288773e+00,-4.392929789908287669e-02,1.661758106240948385e-01,9.851161437868359849e-01,1.176233033580360370e+03
1.350936827462704048e+00,-1.409050297769449678e+01,-8.282182442939120648e+00,-6.617953367251948674e-03,2.243701330962458163e-01,9.744805006092316368e-01,1.180972557519002066e+03
1.782161407412598653e+00,-1.466466539937226798e+01,-8.312605531699349015e+00,3.072576246256192994e-02,2.814668681974205611e-01,9.590778537888888788e-01,1.185712081457643762e+03
2.257752806470093798e+00,-1.519417843217295960e+01,-8.311051921012303723e+00,6.791917136636986541e-02,3.371867099467816820e-01,9.389835508656478869e-01,1.190451605396285458e+03
2.769139557798907969e+00,-1.568458347390823882e+01,-8.263639681498800016e+00,1.047803304365718391e-01,3.912570878029147936e-01,9.142958895224554405e-01,1.195191129334927155e+03
3.307640319390613204e+00,-1.614122403567805009e+01,-8.156489732276838822e+00,1.411289220327389127e-01,4.434134999053983006e-01,8.851356367628311350e-01,1.199930653273568851e+03
3.864465566231902738e+00,-1.656924394127154088e+01,-7.975726705502010461e+00,1.767871357841108715e-01,4.934008068571149597e-01,8.516454382041455107e-01,1.204670177212210547e+03
4.430719293965908356e+00,-1.697358554870281466e+01,-7.707479810733937065e+00,2.115805383329490141e-01,5.409744797237219238e-01,8.139891203733621294e-01,1.209409701150852243e+03
4.776394036027808987e+00,-1.720696865534033293e+01,-7.483554692031671784e+00,2.453389265675931519e-01,5.859017961499212168e-01,7.723508894140136416e-01,1.212292251195785866e+03
5.339597693149261914e+00,-1.757377544784098333e+01,-7.004294965836789899e+00,1.493278124626548076e-01,6.313244784308924551e-01,7.610049982472979480e-01,1.217031775134427562e+03
5.888642675266475557e+00,-1.792884243824399704e+01,-6.401403104503430086e+00,5.161287478471137530e-02,6.695436734502923093e-01,7.409759648582049385e-01,1.221771299073069258e+03
6.424721247610457375e+00,-1.826703314461751404e+01,-5.669593817247100986e+00,-4.669097188491656836e-02,7.001233078296980050e-01,7.124923206437497880e-01,1.226510823011710954e+03
6.884325750934337407e+00,-1.851899104782236449e+01,-4.952200856096499848e+00,-1.444620939238272506e-01,7.227144690595689314e-01,6.758790569539764315e-01,1.230512537557586711e+03
7.456312895547329234e+00,-1.875771110592797442e+01,-4.001475646819978138e+00,-1.368524933892774076e-01,7.742622707903484836e-01,6.178894165475624645e-01,1.235252061496228407e+03
8.054083769277074367e+00,-1.893651110612037769e+01,-2.963193314019298974e+00,-1.284111201642331723e-01,8.211041794621218859e-01,5.561443254101707812e-01,1.239991585434870103e+03
8.665868505904368746e+00,-1.906337819526919830e+01,-1.849641969062547853e+00,-1.191892790705515182e-01,8.629555045051082729e-01,4.910190556352248548e-01,1.244731109373511799e+03
9.279998308888005809e+00,-1.914491080789643007e+01,-6.747122299464497486e-01,-1.092430180099377840e-01,8.995618846819577463e-01,4.229094213200993990e-01,1.249470633312153495e+03
9.429326820528705966e+00,-1.915411908834092358e+01,-3.740457450311195364e-01,-9.863278742315312320e-02,9.307008335576831826e-01,3.522293736439989775e-01,1.250636107496832665e+03
1.002296950138477705e+01,-1.914920734086105725e+01,8.847713291220901111e-01,-1.410204871899173318e-01,9.566194609874738575e-01,2.549322048182559031e-01,1.255375631435474361e+03
1.059428911952567987e+01,-1.910633196377815679e+01,2.164588517665124279e+00,-1.817250701165910309e-01,9.711205906597472071e-01,1.545923584416782626e-01,1.260115155374116057e+03
1.113213473822447952e+01,-1.902790675487061023e+01,3.446712367688181899e+00,-2.202607169167047074e-01,9.740311490484341306e-01,5.240741615013038562e-02,1.264854679312757753e+03
1.162529377439318345e+01,-1.891609098008338208e+01,4.712449280536194607e+00,-2.561674952153655260e-01,9.653163989400102007e-01,-5.040301909022026905e-02,1.269594203251399449e+03
1.206249416048556178e+01,-1.877278833150752391e+01,5.943106674959142133e+00,-2.890168489155541809e-01,9.450803539212169202e-01,-1.526118792097241605e-01,1.274333727190041145e+03
