-1.855147108108196008e+01,2.330558488687969998e+00,-1.753611660063031819e+00,9.979531420623094506e-01,-0.000000000000000000e+00,-6.393376444317012963e-02,1.092459417055062687e+02
-1.851435332162258263e+01,2.764878358108733725e+00,-2.312274917179713452e+00,9.984001293252741105e-01,-0.000000000000000000e+00,-5.652593874741783375e-02,1.107784446939567573e+02
-1.845152368749235805e+01,3.208972598803223608e+00,-2.860979818728493385e+00,9.987921288824478383e-01,-0.000000000000000000e+00,-4.911500046367404948e-02,1.123109476824072459e+02
-1.836406558679979639e+01,3.661225437997983168e+00,-3.398997386881976279e+00,9.991291191618084655e-01,-0.000000000000000000e+00,-4.170135766486918888e-02,1.138434506708577345e+02
-1.825307679112761505e+01,4.120027507259071520e+00,-3.925598713382214111e+00,9.994110816183233714e-01,-0.000000000000000000e+00,-3.428541857249064323e-02,1.153759536593082231e+02
-1.811966941935104458e+01,4.583775913643141742e+00,-4.440054964281910266e+00,9.996380007349621177e-01,-0.000000000000000000e+00,-2.686759153416442072e-02,1.169084566477587117e+02
-1.796496992131109494e+01,5.050874310781725107e+00,-4.941637384685283685e+00,9.998098640235444368e-01,-0.000000000000000000e+00,-1.944828500123040038e-02,1.184409596362092003e+02
-1.779011906134277154e+01,5.519732969898186958e+00,-5.429617303488571523e+00,9.999266620254225746e-01,-0.000000000000000000e+00,-1.202790750631175035e-02,1.199734626246596889e+02
-1.759627190165842237e+01,5.988768850756725826e+00,-5.903266138120103257e+00,9.999883883119979888e-01,-0.000000000000000000e+00,-4.606867640880129948e-03,1.215059656131101775e+02
-1.738459778558625146e+01,6.456405672542861574e+00,-6.361855399279915169e+00,9.999950394850740665e-01,-0.000000000000000000e+00,2.814425967182330492e-03,1.230384686015606661e+02
-1.713240550251187599e+01,6.966288586948123474e+00,-6.846571668027194413e+00,9.999466151770413092e-01,-0.000000000000000000e+00,1.023556467602310983e-02,1.247214020487907504e+02
-1.686052092835022620e+01,7.470137802187164056e+00,-7.309934762043544865e+00,9.998431180508986493e-01,-0.000000000000000000e+00,1.765613985225994442e-02,1.264043354960208347e+02
-1.657066890284205840e+01,7.965726141723774134e+00,-7.750915357137462713e+00,9.996845538001093434e-01,-0.000000000000000000e+00,2.507574289342124826e-02,1.280872689432509333e+02
-1.626475176019884472e+01,8.451101287823240327e+00,-8.168264626234329029e+00,9.994709311482899983e-01,-0.000000000000000000e+00,3.249396525038473343e-02,1.297702023904810176e+02
-1.594500089609550209e+01,8.924851035650021913e+00,-8.560294570623593557e+00,9.960945680068780117e-01,1.577809707173184403e-02,8.686002095651210175e-02,1.314531358377111019e+02
-1.561381599645148910e+01,9.385841555430689098e+00,-8.925097711763852359e+00,9.895147429823415441e-01,3.150544991876096101e-02,1.409467276905616850e-01,1.331360692849411862e+02
-1.527360791660187544e+01,9.832954306731419791e+00,-9.260766784811773178e+00,9.797526177388532487e-01,4.713147922060148542e-02,1.945801421036902623e-01,1.348190027321712705e+02
-1.495285615938967894e+01,1.023385261328311202e+01,-9.544564844171700813e+00,9.668395881148829085e-01,6.260593154935836790e-02,2.475877787563376398e-01,1.363766605072500795e+02
-1.462851139523687216e+01,1.062184495790242167e+01,-9.801726087528107811e+00,9.508171831428741116e-01,7.787904097712813889e-02,2.997991648047121371e-01,1.379343182823288885e+02
-1.430240184716812202e+01,1.099613317988277750e+01,-1.003081775199145653e+01,9.317369314799234248e-01,9.290168911488506931e-02,3.510463882122800139e-01,1.394919760574076975e+02
-1.397636334289080828e+01,1.135592984070802913e+01,-1.023040726341173290e+01,9.096601956855138171e-01,1.076255630684434389e-01,4.011646377243726080e-01,1.410496338324865064e+02
-1.365223928790734753e+01,1.170045826246117748e+01,-1.039906224601407025e+01,8.846579748794015652e-01,1.220033108037980735e-01,4.499927328703562934e-01,1.426072916075653154e+02
-1.333188063854750283e+01,1.202895256612081987e+01,-1.053535053203338201e+01,8.568106764142734422e-01,1.359886934224794897e-01,4.973736422898791254e-01,1.441649493826441244e+02
-1.301698193254520852e+01,1.234077708241081339e+01,-1.063805589731701140e+01,8.262078572972535451e-01,1.495367338574938587e-01,5.431549887172464341e-01,1.457226071577229334e+02
-1.270891577854278864e+01,1.263554446812180387e+01,-1.070639379547490933e+01,7.929479361914592017e-01,1.626038615119154429e-01,5.871895390008262661e-01,1.472802649328017424e+02
-1.240889446383426709e+01,1.291299442028204325e+01,-1.073979563718769903e+01,7.571378769232551820e-01,1.751480523752261542e-01,6.293356775824366922e-01,1.488379227078805513e+02
-1.211813310766298812e+01,1.317287367354355432e+01,-1.073769306806221024e+01,7.188928445123580202e-01,1.871289641670133008e-01,6.694578619147605325e-01,1.503955804829593603e+02
-1.183784964375990256e+01,1.341493601458917695e+01,-1.069951797245494518e+01,6.783358348301689045e-01,1.985080660735916991e-01,7.074270583527858536e-01,1.519532382580381693e+02
-1.156926480285143377e+01,1.363894229646678902e+01,-1.062470247729443074e+01,6.355972790764422564e-01,2.092487626604653816e-01,7.431211571179329178e-01,1.535108960331169783e+02
-1.130806751404676902e+01,1.384895652920563158e+01,-1.050937009173760828e+01,5.446331803844381980e-01,1.820671853376717719e-01,8.186722414054754537e-01,1.551040573606738917e+02
-1.106196761761497527e+01,1.403924308109878538e+01,-1.035387199566541128e+01,4.456513720901530973e-01,1.522053419866805091e-01,8.821714053545011147e-01,1.566972186882308051e+02
-1.083230295940461119e+01,1.420956452073119536e+01,-1.015759164262543734e+01,3.401089830736247488e-01,1.201028340899310543e-01,9.326838633086107500e-01,1.582903800157877185e+02
-1.062041442197215346e+01,1.435969135313133904e+01,-9.919912773067261824e+00,2.295597212613609273e-01,8.623224814474107769e-02,9.694660044344645122e-01,1.598835413433446320e+02
-1.042764590446975781e+01,1.448940203568816365e+01,-9.640219418682129060e+00,1.156310034642898527e-01,5.109219933360076987e-02,9.919763395386808069e-01,1.614767026709015454e+02
-1.025534430249834195e+01,1.459848299398221627e+01,-9.317895906741147982e+00,0.000000000000000000e+00,1.519999199371748627e-02,9.998834733319879042e-01,1.630698639984584588e+02
-1.010386401864331418e+01,1.468719518094191301e+01,-8.953275636734959519e+00,7.345792764472328096e-02,-1.350684512563871120e-01,9.881085195166608992e-01,1.646630253260153722e+02
-9.971565316805271806e+00,1.475673259586315567e+01,-8.548589850334241902e+00,1.448505572634255500e-01,-2.815393926620458620e-01,9.485525217087501515e-01,1.662561866535722856e+02
-9.855800562795788977e+00,1.480874365768554668e+01,-8.107018843387459484e+00,2.121706588889945011e-01,-4.200947479780910987e-01,8.823276116204769037e-01,1.678493479811291991e+02
-9.753906650498249675e+00,1.484486057297401196e+01,-7.631743171239477874e+00,2.735255030240940077e-01,-5.468389822741623885e-01,7.912957264264850465e-01,1.694425093086861125e+02
-9.663205044316793391e+00,1.486669925614915932e+01,-7.125943626351924465e+00,3.271900752260222811e-01,-6.582086339158397248e-01,6.780162600647964277e-01,1.710356706362430259e+02
-9.581001821794592033e+00,1.487585924989929431e+01,-6.592801215922367675e+00,3.716555754285367219e-01,-7.510725023994051508e-01,5.456741054808892377e-01,1.726288319637999393e+02
-9.504587716401278641e+00,1.487392364577477721e+01,-6.035497139502364661e+00,4.056718384533016808e-01,-8.228196832836928154e-01,3.979901107902050206e-01,1.742219932913568528e+02
-9.431238160489268552e+00,1.486245900496546390e+01,-5.457212766614478738e+00,4.282824830370373093e-01,-8.714329750754372661e-01,2.391164667577914960e-01,1.758151546189137662e+02
-9.358213328418710120e+00,1.484301527926192321e+01,-4.861129614368418395e+00,4.388518011076011915e-01,-8.955455941290179078e-01,7.351996667995323864e-02,1.774083159464706796e+02
-9.285639148702664158e+00,1.481805177158870990e+01,-4.272399365567406626e+00,4.029543729034321120e-01,-9.125022784804370790e-01,7.046534698438898514e-02,1.789451473100430405e+02
-9.208754012945265188e+00,1.478798409514665835e+01,-3.673305218004037087e+00,3.664180631690328038e-01,-9.280122019094187991e-01,6.729900512079829700e-02,1.804819786736154015e+02
-9.125434684706879906e+00,1.475351965535641874e+01,-3.066741691123453961e+00,3.293007997724338165e-01,-9.420507733405094619e-01,6.402596127582217689e-02,1.820188100371877624e+02
-9.033550965903627272e+00,1.471535342887480979e+01,-2.455603353250277454e+00,2.916614317102196874e-01,-9.545957345108261327e-01,6.065140481423531710e-02,1.835556414007601234e+02
-8.930965727946432509e+00,1.467416792882983145e+01,-1.842784802637992048e+00,2.535596358026219743e-01,-9.656271952641714007e-01,5.718068605134555421e-02,1.850924727643324843e+02
-8.815534942951844144e+00,1.463063317018403531e+01,-1.231180648518134912e+00,2.150558220756837446e-01,-9.751276650905593701e-01,5.361930777016586658e-02,1.866293041279048452e+02
-8.685107715024406261e+00,1.458540663522652281e+01,-6.236854921493659720e-01,1.762110379804781857e-01,-9.830820808609882500e-01,4.997291649680010023e-02,1.881661354914772062e+02
-8.537526311610450946e+00,1.453913323919388567e+01,-2.319390786657716391e-02,1.370868716012579314e-01,-9.894778307134339812e-01,4.624729354787512209e-02,1.897029668550495671e+02
-8.370626194923096008e+00,1.449244529602037979e+01,5.673995758698212599e-01,9.774535400602631097e-02,-9.943047740521417932e-01,4.244834586421467049e-02,1.912397982186219281e+02
-8.182236053438282752e+00,1.444596248421759555e+01,1.145200495424409270e+00,5.824886089438393449e-02,-9.975552576284594242e-01,3.858209664528985949e-02,1.927766295821942890e+02
-7.970177833461630001e+00,1.440029181288395677e+01,1.707314470937022044e+00,1.866001369862419976e-02,-9.992241276776738790e-01,3.465467579929749214e-02,1.943134609457666500e+02
-7.732266770765948927e+00,1.435602758784428801e+01,2.250847225272580410e+00,-2.095841970507346386e-02,-9.993087380925685936e-01,3.067231022401067583e-02,1.958502923093390109e+02
-7.466311422299239275e+00,1.431375137791977714e+01,2.772904602970367449e+00,-6.054362451789002675e-02,-9.978089546207097316e-01,2.664131393381482735e-02,1.973871236729113718e+02
-7.170113697962953836e+00,1.427403198132858542e+01,3.270592589192714339e+00,-1.000328386142060044e-01,-9.947271550787789574e-01,2.256807804858681696e-02,1.989239550364837328e+02
-6.841468892460386364e+00,1.423742539221742476e+01,3.741017328672973097e+00,-1.393634520540768529e-01,-9.900682255835941969e-01,1.845906066029455797e-02,2.004607864000560937e+02
-6.478967156841653363e+00,1.420376430285497094e+01,4.181889905631570592e+00,-1.784731063545101082e-01,-9.838395528057748418e-01,1.432077659338829197e-02,2.019976177636284547e+02
-6.012791407738165006e+00,1.416623294248379672e+01,4.653543530065451961e+00,-2.172997933620969269e-01,-9.760510122583300197e-01,1.015978707522392950e-02,2.037839543238071371e+02
-5.497580600145238527e+00,1.412692361758989357e+01,5.078523853120156417e+00,-2.557819535701759128e-01,-9.667149526387349701e-01,5.982689332901732458e-03,2.055702908839858196e+02
-4.935156206865288553e+00,1.408175182468212583e+01,5.456006443334103118e+00,-2.938585737245931195e-01,-9.558461762493266622e-01,1.796106133020288148e-03,2.073566274441645021e+02
-4.329003393341228190e+00,1.402491127585330943e+01,5.785046412434597940e+00,-3.314692835632512269e-01,-9.434619155270772550e-01,-2.393324719063803785e-03,2.091429640043431846e+02
-3.685917889621871613e+00,1.394715462858961175e+01,6.064457546700732671e+00,-3.685544515360105189e-01,-9.295818057199723983e-01,-6.578960903815342896e-03,2.109293005645218670e+02
-3.090033054169722515e+00,1.385289703688141216e+01,6.271906236776120025e+00,-4.050552793531323470e-01,-9.142278537533453653e-01,-1.075416611924665325e-02,2.125192776248340465e+02
-2.479084829224144748e+00,1.372856969008488903e+01,6.441186761522523341e+00,-4.409138952123072830e-01,-8.974244033355582850e-01,-1.491232060308641562e-02,2.141092546851462259e+02
-1.858735102282251583e+00,1.356724361398569556e+01,6.571447590178375542e+00,-4.760734455564176182e-01,-8.791980963583935216e-01,-1.904683162870327018e-02,2.156992317454584054e+02
-1.234713486812511585e+00,1.336202391797333711e+01,6.661837465434478744e+00,-5.104781852165121148e-01,-8.595778306533954360e-01,-2.315114395813719708e-02,2.172892088057705848e+02
-6.122705213992121198e-01,1.310858728880097424e+01,6.712163036423185680e+00,-5.440735657970391381e-01,-8.385947141711873609e-01,-2.721875023566083796e-02,2.188791858660827643e+02
5.179057912885236953e-03,1.280835418167236561e+01,6.723750760622135836e+00,-5.768063221631789528e-01,-8.162820156564603025e-01,-3.124320130538769946e-02,2.204691629263949437e+02
6.163446950260524915e-01,1.246657801923912245e+01,6.698993541058823276e+00,-6.086245568931232253e-01,-7.926751118968935472e-01,-3.521811643656420909e-02,2.220591399867071232e+02
1.220766066153619711e+00,1.208915710732929760e+01,6.640488808986631852e+00,-6.394778225613954037e-01,-7.678114316296957842e-01,-3.913719344033090436e-02,2.236491170470193026e+02
1.818040728235640557e+00,1.168199206475699903e+01,6.550834232149911784e+00,-6.693172017227393411e-01,-7.417303961947618873e-01,-4.299421866190963892e-02,2.252390941073314821e+02
2.407824123809350514e+00,1.125098552435952470e+01,6.432627696574499510e+00,-6.980953844697618260e-01,-7.144733570285953794e-01,-4.678307683237215714e-02,2.268290711676436615e+02
2.989829585244788479e+00,1.080204183401638041e+01,6.288467288357396434e+00,-7.257667434413701546e-01,-6.860835300981564799e-01,-5.049776076436923722e-02,2.284190482279558410e+02
3.563828338344424917e+00,1.034106675765195504e+01,6.120951275455439600e+00,-7.522874061630875353e-01,-6.566059273786477579e-01,-5.413238087644677704e-02,2.300090252882680204e+02
4.128557914773590021e+00,9.874880030561131505e+00,5.933076585728156438e+00,-7.776153246045730549e-01,-6.260872854839313328e-01,-5.768117453084862373e-02,2.315958987753729446e+02
4.685039031348041227e+00,9.408462724175375769e+00,5.727133900820588153e+00,-8.017103418440894025e-01,-5.945759915627872871e-01,-6.113851517000181562e-02,2.331827722624778687e+02
5.233216837310441072e+00,8.947678805071189956e+00,5.505703187458887982e+00,-8.245342557342484335e-01,-5.621220065785514919e-01,-6.449892123719974668e-02,2.347696457495827929e+02
5.773093844034670852e+00,8.498392458900635660e+00,5.271364520448567959e+00,-8.460508794681375067e-01,-5.287767860938151765e-01,-6.775706486734237033e-02,2.363565192366877170e+02
6.304729925441370675e+00,8.066467794724671236e+00,5.026698064661421661e+00,-8.662260989498316022e-01,-4.945931986858267404e-01,-7.090778033395642166e-02,2.379433927237926412e+02
6.827572069249409736e+00,7.657000551179635295e+00,4.774164121074610634e+00,-8.850279268783878273e-01,-4.596254421219739261e-01,-7.394607223910740212e-02,2.395302662108975653e+02
7.339774042743369975e+00,7.273555203758225396e+00,4.515983173646717752e+00,-9.024265534596128679e-01,-4.239289574282843476e-01,-7.686712343322166241e-02,2.411171396980024895e+02
7.838851529850258792e+00,6.918940832333949409e+00,4.254255809763176188e+00,-9.183943936652581019e-01,-3.875603409872091509e-01,-7.966630265226658236e-02,2.427040131851074136e+02
8.322347372250250785e+00,6.595981661576799659e+00,3.991082641518985952e+00,-9.329061309647683764e-01,-3.505772548040740899e-01,-8.233917186018531453e-02,2.442908866722123378e+02
8.787831608967138664e+00,6.307516921012308764e+00,3.728564291053985347e+00,-9.459387574603038695e-01,-3.130383350844755941e-01,-8.488149328495006585e-02,2.458777601593172619e+02
9.213622549292894703e+00,6.066160689350316382e+00,3.480371087193694812e+00,-9.574716103614586693e-01,-2.750030992675827068e-01,-8.728923613708382268e-02,2.473929803015676043e+02
9.619419503587973708e+00,5.859876870255350312e+00,3.236377252510213687e+00,-9.674864047419036162e-01,-2.365318516627293310e-01,-8.955858300000447969e-02,2.489082004438179467e+02
1.000324695637744732e+01,5.691077958671357351e+00,2.998352010369476961e+00,-9.759672625260763512e-01,-1.976855878389018883e-01,-9.168593588206563894e-02,2.504234205860682891e+02
1.036323271599012763e+01,5.561699646101614825e+00,2.767693931436280952e+00,-9.829007376600104040e-01,-1.585258979186983386e-01,-9.366792192070455547e-02,2.519386407283186315e+02
1.069768322276268968e+01,5.472711712888563618e+00,2.545060310101560752e+00,-9.882758374264528634e-01,-1.191148689300513125e-01,-9.550139872965941745e-02,2.534538608705689740e+02
1.100499296183298448e+01,5.424605423109746027e+00,2.330737774971367138e+00,-9.920840398705211838e-01,-7.951498637051582219e-02,-9.718345938078390422e-02,2.549690810128193164e+02
1.130152181159159142e+01,5.420510909954777468e+00,2.110796912010570736e+00,-9.943193073083171907e-01,-3.978903514014703324e-02,-9.871143701256639147e-02,2.565934096239146811e+02
1.156115598480431750e+01,5.467617220181423043e+00,1.901607630581310104e+00,-9.949780958971221612e-01,-0.000000000000000000e+00,-1.000829090580521719e-01,2.582177382350100743e+02
1.178182639333536486e+01,5.566604229715951035e+00,1.703540647464997670e+00,-9.956419654736985425e-01,3.589187074252870452e-02,-8.606305942589967395e-02,2.598420668461054674e+02
1.196208339492322636e+01,5.717386241044409623e+00,1.516882689957218311e+00,-9.948270816445858866e-01,7.173042963406149608e-02,-7.191538838512320786e-02,2.614663954572008606e+02
1.210170072094762261e+01,5.918328117410871947e+00,1.341752585684271137e+00,-9.925346549824263231e-01,1.074624512204010590e-01,-5.766090731311603740e-02,2.630907240682962538e+02
1.220104551040725305e+01,6.167016567268801097e+00,1.178185169824619738e+00,-9.887680900700260844e-01,1.430348682638796498e-01,-4.332078618260299524e-02,2.647150526793916470e+02
1.226045876297370896e+01,6.461036545362464523e+00,1.026215192944690546e+00,-9.835329804447737745e-01,1.783948505045633015e-01,-2.891632214138257009e-02,2.663393812904870401e+02
1.228025533569831929e+01,6.797971391365090987e+00,8.858773207468193522e-01,-9.768371003016207421e-01,2.134898830705159178e-01,-1.446890790375389597e-02,2.679637099015824333e+02
1.226072394002267352e+01,7.175402968530366188e+00,7.572061338176634404e-01,-9.686903929641765831e-01,2.482678444214204416e-01,-0.000000000000000000e+00,2.695880385126778265e+02
1.220250681832895978e+01,7.590941537293508290e+00,6.402905058639974945e-01,-9.812420369974732548e-01,1.927694395837902808e-01,-1.417036255421905405e-03,2.712123671237732196e+02
1.210697982426516184e+01,8.042252503429109467e+00,5.353279815511362560e-01,-9.906148190218223570e-01,1.366465307525880635e-01,-2.829481888635998130e-03,2.728366957348686128e+02
1.198358652637485378e+01,8.502325499647776397e+00,4.465683106550763504e-01,-9.967783742955725890e-01,8.008093574840113860e-02,-4.232761087223992601e-03,2.743826603265579251e+02
1.183062461148062994e+01,8.989555419998293218e+00,3.686952172124211558e-01,-9.997127348590858498e-01,2.325590659353830858e-02,-5.622327733582691868e-03,2.759286249182472375e+02
1.164949085115156358e+01,9.502013506026374401e+00,3.019182473980432380e-01,-9.994083942357662176e-01,-3.364446417069157091e-02,-6.993680133075795557e-03,2.774745895099365498e+02
1.144156226866113357e+01,1.003776306672434515e+01,2.464468738461106645e-01,-9.958663382364574268e-01,-9.043583989176381954e-02,-8.342375598289476085e-03,2.790205541016258621e+02
1.120819611970117258e+01,1.059485957811089030e+01,2.024904942625859738e-01,-9.890980417698460592e-01,-1.469342370054932956e-01,-9.664044842131364749e-03,2.805665186933151745e+02
1.095072987330322256e+01,1.117135078289005534e+01,1.702584300380920179e-01,-9.791254316690856108e-01,-2.029566210921559533e-01,-1.095440613313187171e-02,2.821124832850044868e+02
1.067048119296732800e+01,1.176527679018872341e+01,1.499599248611228064e-01,-9.659808156550380165e-01,-2.583214998576567334e-01,-1.220927916707717671e-02,2.836584478766937991e+02
1.036874791799835904e+01,1.237467017537177760e+01,1.418041433316178657e-01,-9.497067776663222771e-01,-3.128495111181935906e-01,-1.342459861002297597e-02,2.852044124683831114e+02
1.004680804505006364e+01,1.299755607993402151e+01,1.460001695749628958e-01,-9.303560398954069388e-01,-3.663640038830673351e-01,-1.459642726880351973e-02,2.867503770600724238e+02
9.705919709876983603e+00,1.363195231146799813e+01,1.627570058564156430e-01,-9.079912919779226099e-01,-4.186916106526827885e-01,-1.572096884635858227e-02,2.882963416517617361e+02
9.347321169294316334e+00,1.427586944370681543e+01,1.922835711959384464e-01,-8.826849878888617384e-01,-4.696628090772849151e-01,-1.679458024054757831e-02,2.898423062434510484e+02
8.972230783345906957e+00,1.492731091664110643e+01,2.347886999834515598e-01,-8.545191112040121384e-01,-5.191124711565046068e-01,-1.781378334660072699e-02,2.913882708351403608e+02
8.581846997680333544e+00,1.558427313670940251e+01,2.904811405945320613e-01,-8.235849094875177245e-01,-5.668803982002157404e-01,-1.877527632496730700e-02,2.929342354268296731e+02
8.177348326135213341e+00,1.624474557706101763e+01,3.595695540065683704e-01,-7.899825986665203192e-01,-6.128118398174120518e-01,-1.967594429805493914e-02,2.944802000185189854e+02
7.733150019705805178e+00,1.694783271523666812e+01,4.481973911734820626e-01,-7.538210383510977053e-01,-6.567579952516361397e-01,-2.051286944120626204e-02,2.961223233005255224e+02
7.274951000370842635e+00,1.765005055844245874e+01,5.530998111020464236e-01,-7.152173791518547930e-01,-6.985764954387725378e-01,-2.128334043522404559e-02,2.977644465825320594e+02
6.804151596704111959e+00,1.834883704644276037e+01,6.745373688575181381e-01,-6.742966831382449788e-01,-7.381318642255568774e-01,-2.198486124982613338e-02,2.994065698645385964e+02
6.322125435763316759e+00,1.904162141658101604e+01,8.127704958589838657e-01,-6.311915186676967382e-01,-7.752959572547496458e-01,-2.261515922958139482e-02,3.010486931465451335e+02
5.830219419895903421e+00,1.972582434660813178e+01,9.680594979303248637e-01,-5.860415308986195448e-01,-8.099483770953631590e-01,-2.317219245613907561e-02,3.026908164285516705e+02
5.330317357196898698e+00,2.039914891521598150e+01,1.140637974161045287e+00,-5.389929893790990079e-01,-8.419768632733551916e-01,-2.365415636291036405e-02,3.043329397105582075e+02
4.825407539843102889e+00,2.105986686422901144e+01,1.330686235966576980e+00,-4.901983141772999764e-01,-8.712776559395997156e-01,-2.405948958078397287e-02,3.059750629925647445e+02
4.319024974286156393e+00,2.170652085080403992e+01,1.538357884928494901e+00,-4.398155820890472523e-01,-8.977558319973903966e-01,-2.438687899594964986e-02,3.076171862745712815e+02
3.814689646456954630e+00,2.233763136823162654e+01,1.763806390834237403e+00,-3.880080145225220378e-01,-9.213256126010195279e-01,-2.463526400345676312e-02,3.092593095565778185e+02
3.315906462295479251e+00,2.295169682630650598e+01,2.007185090526769411e+00,-3.349434487192901044e-01,-9.419106410297366505e-01,-2.480383994274090037e-02,3.109014328385843555e+02
2.861024397376156880e+00,2.350529793722727945e+01,2.248692577365202006e+00,-2.807937940247731690e-01,-9.594442300373982047e-01,-2.489206070400137166e-02,3.124246130759309494e+02
2.416226443878075614e+00,2.404285746478242203e+01,2.505070030110350121e+00,-2.257344749696247876e-01,-9.738695778769999034e-01,-2.489964049699830081e-02,3.139477933132775433e+02
1.984122772255419331e+00,2.456320308827211818e+01,2.776433161682714701e+00,-1.699438629661076394e-01,-9.851399523007579040e-01,-2.482655477655055024e-02,3.154709735506241373e+02
1.567103745878979604e+00,2.506537575540324170e+01,3.062346736260494584e+00,-1.136026984603740742e-01,-9.932188419401288826e-01,-2.467304032174660877e-02,3.169941537879707312e+02
1.167133635144606663e+00,2.554885979599629309e+01,3.361273719767506218e+00,-5.689350541238605286e-02,-9.980800745757895109e-01,-2.443959446862062693e-02,3.185173340253173251e+02
7.859640370187271907e-01,2.601335691067801292e+01,3.671126142068368736e+00,-0.000000000000000000e+00,-9.997079019148148449e-01,-2.412697349878688280e-02,3.200405142626639190e+02
4.062578799686845654e-01,2.648238532972271386e+01,4.008051084781030227e+00,1.959998565696795844e-04,-9.951322717742601132e-01,-9.853792789113820227e-02,3.216490862012672096e+02
5.241810407298864993e-02,2.692838782739194770e+01,4.352655766762466349e+00,6.813423141552460427e-02,-9.880382375798641981e-01,-1.383335374721700317e-01,3.232576581398705002e+02
-2.736804842521090020e-01,2.735090643113527520e+01,4.702353484100936676e+00,1.356466451670930995e-01,-9.747693292750637672e-01,-1.772646111317075224e-01,3.248662300784737909e+02
-5.702553784521438018e-01,2.774945421397424994e+01,5.054547461950049225e+00,2.023113150430844720e-01,-9.554084732309692241e-01,-2.150878450404656861e-01,3.264748020170770815e+02
-8.355276708013247289e-01,2.812353314941329074e+01,5.406640907493133419e+00,2.677116131203193805e-01,-9.300766676391726273e-01,-2.515668589339115635e-01,3.280833739556803721e+02
-1.067722081990998273e+00,2.847263412989924092e+01,5.756037028570404779e+00,3.314388132610190940e-01,-8.989322263414406544e-01,-2.864736733263145707e-01,3.296919458942836627e+02
-1.265066990679611703e+00,2.879623698540851962e+01,6.100139052306158938e+00,3.930946453746740343e-01,-8.621697894741167101e-01,-3.195901342281930457e-01,3.313005178328869533e+02
-1.425794463003961177e+00,2.909381050216181563e+01,6.436350243735853738e+00,4.522937843454701290e-01,-8.200191071197249215e-01,-3.507092764684626718e-01,3.329090897714902439e+02
-1.548140282051551297e+00,2.936481244146603942e+01,6.762073924432992378e+00,5.086662580769818476e-01,-7.727436035628754141e-01,-3.796366171044948112e-01,3.345176617100935346e+02
-1.630343977293898350e+00,2.960868955868340535e+01,7.074713491135722343e+00,5.618597596102833380e-01,-7.206387311171049692e-01,-4.061913708394350175e-01,3.361262336486968252e+02
-1.670648853980591708e+00,2.982487762232750583e+01,7.371672434373023997e+00,6.115418488697745847e-01,-6.640301238031148801e-01,-4.302075798526238115e-01,3.377348055873001158e+02
-1.667302022493903690e+00,3.001280143328616745e+01,7.650354357090377810e+00,6.574020302792109582e-01,-6.032715624088886841e-01,-4.515351509828105514e-01,3.393433775259034064e+02
-1.620042003548954890e+00,3.016964508664112543e+01,7.904151868914378376e+00,6.991536932644440983e-01,-5.387427636405804909e-01,-4.700407937817885351e-01,3.409249258207854041e+02
-1.528914583995449217e+00,3.029856846794953285e+01,8.135770648339626376e+00,6.433707541335245139e-01,-6.257146796478184614e-01,-4.410818658691372796e-01,3.425064741156674017e+02
-1.395617262895890498e+00,3.039940694932800724e+01,8.343370399606405030e+00,5.801797447246875850e-01,-7.054817881299697557e-01,-4.070441136143774785e-01,3.440880224105493994e+02
-1.222958020601180529e+00,3.047214012969400443e+01,8.525310281187485018e+00,5.103082823140773217e-01,-7.771256182462160655e-01,-3.683194679450499942e-01,3.456695707054313971e+02
-1.013743248131204533e+00,3.051676422743698325e+01,8.679949629429215108e+00,4.345609040630130093e-01,-8.398212361704695539e-01,-3.253538257612849094e-01,3.472511190003133947e+02
-7.707777051138642310e-01,3.053329207161782577e+01,8.805647969928738661e+00,3.538098028814256613e-01,-8.928467429287769708e-01,-2.786419154167977807e-01,3.488326672951953924e+02
-4.968644777445358485e-01,3.052175309299033046e+01,8.900765028910226917e+00,2.689847845190589393e-01,-9.355915857652358225e-01,-2.287216000804080107e-01,3.504142155900773901e+02
-1.948049367662039455e-01,3.048219331484473216e+01,8.963660744600055352e+00,1.810625615288249946e-01,-9.675635874311748763e-01,-1.761676845816383674e-01,3.519957638849593877e+02
1.326013045294861248e-01,3.041467534367349046e+01,8.992695278600907116e+00,9.105550735609074797e-02,-9.883946125529278204e-01,-1.215852970446762993e-01,3.535773121798413854e+02
4.825564322800053874e-01,3.031927835965929674e+01,8.986229027264680980e+00,0.000000000000000000e+00,-9.978448059153464111e-01,-6.560292149536549322e-02,3.551588604747233830e+02
8.521855692455015951e-01,3.019594784167045276e+01,8.942876468562831249e+00,-9.696985158282539485e-02,-9.701621586427787713e-01,-2.222166371419873609e-01,3.567404087696053807e+02
1.225763676457428231e+00,3.004996391799123145e+01,8.865342747619699537e+00,-1.905750876019940976e-01,-9.088174119632871362e-01,-3.711199909719714585e-01,3.582715807443294693e+02
1.611790998118916685e+00,2.987775251299554569e+01,8.752667688356526199e+00,-2.775678624343891343e-01,-8.159390697456431196e-01,-5.071464445378356389e-01,3.598027527190535579e+02
2.007506925423493183e+00,2.967891422529687517e+01,8.604298650261782200e+00,-3.549297630118185554e-01,-6.947497535606222963e-01,-6.255762489551647265e-01,3.613339246937776466e+02
2.410147526356202441e+00,2.945306548892499166e+01,8.419683224780238007e+00,-4.199765354728830502e-01,-5.494543922601784480e-01,-7.223002010791040872e-01,3.628650966685017352e+02
2.816945584552862147e+00,2.919983858964334900e+01,8.198269238905764311e+00,-4.404925794903271075e-01,-5.655743079257812278e-01,-6.972015416132614218e-01,3.643962686432258238e+02
3.225527095780240217e+00,2.891905480325903710e+01,7.940131830998554463e+00,-4.604312654444466801e-01,-5.809529207933729067e-01,-6.711890595224697664e-01,3.659274406179499124e+02
3.634309965139839171e+00,2.861089446102473133e+01,7.646600522524535037e+00,-4.797664600409117241e-01,-5.955700744723593232e-01,-6.442968494511495114e-01,3.674586125926740010e+02
4.042110879998420003e+00,2.827571922087578216e+01,7.319632137189240773e+00,-4.984728209768434226e-01,-6.094066105993262150e-01,-6.165601590316920344e-01,3.689897845673980896e+02
4.456391109401397266e+00,2.790561940126035267e+01,6.952938182391100064e+00,-5.165258301505245564e-01,-6.224443939428916384e-01,-5.880153426879275447e-01,3.705537608425730127e+02
4.867125565752139060e+00,2.750764482264973765e+01,6.555016142571385984e+00,-5.339018257912752086e-01,-6.346663361682235438e-01,-5.586998139892491722e-01,3.721177371177479358e+02
5.273043838458165489e+00,2.708220968183574229e+01,6.127983900706508003e+00,-5.505780334672144560e-01,-6.460564182298218494e-01,-5.286519966173793827e-01,3.736817133929228589e+02
5.672879383151069987e+00,2.662973548558142056e+01,5.673959537140677689e+00,-5.665325959303340042e-01,-6.565997113632725535e-01,-4.979112740099796985e-01,3.752456896680977820e+02
6.065369539656979114e+00,2.615065103099290056e+01,5.195061315224742238e+00,-5.817446017598315589e-01,-6.662823966485160732e-01,-4.665179377470392574e-01,3.768096659432727051e+02
6.449255549926053099e+00,2.564539238581613745e+01,4.693407666954081847e+00,-5.961941127662242490e-01,-6.750917831190328400e-01,-4.345131347476154371e-01,3.783736422184476282e+02
6.823282575920858406e+00,2.511440286865883920e+01,4.171117178605626918e+00,-6.098621901203759021e-01,-6.830163243932537709e-01,-4.019388133460459755e-01,3.799376184936225513e+02
7.186199717463527925e+00,2.455813302913768581e+01,3.630308576374067453e+00,-6.227309191732427474e-01,-6.900456338064249184e-01,-3.688376683182211235e-01,3.815015947687974744e+02
7.536760030041627090e+00,2.397704062795101621e+01,3.073100712007368340e+00,-6.347834329338462034e-01,-6.961704980231230300e-01,-3.352530849298680504e-01,3.830655710439723975e+02
7.873720542572597125e+00,2.337159061687717809e+01,2.501612548441642492e+00,-6.460039341747346731e-01,-7.013828891125925002e-01,-3.012290820800831992e-01,3.846295473191473206e+02
8.195842275126665299e+00,2.274225511869863325e+01,1.917963145435450878e+00,-6.563777161359908296e-01,-7.056759750710851486e-01,-2.668102546145263432e-01,3.861935235943222438e+02
8.501890256608106711e+00,2.208951340705209532e+01,1.324271645203605630e+00,-6.658911818006597594e-01,-7.090441287774126300e-01,-2.320417148837779775e-01,3.877574998694971669e+02
8.790633542394790112e+00,2.141385188620481728e+01,7.226572580505561394e-01,-7.142513392199832944e-01,-6.601633892587224217e-01,-2.324377849633105508e-01,3.893214761446720900e+02
9.061150096947942600e+00,2.071584346504682728e+01,1.152446402894187205e-01,-7.709208131549379894e-01,-6.173088430743008947e-01,-1.568722158563457814e-01,3.908854524198470131e+02
9.304243236911348802e+00,2.002385370368081041e+01,-4.728835916747556323e-01,-8.192966258384439815e-01,-5.678132202434732489e-01,-7.961900405971375494e-02,3.923908549736837585e+02
9.530597037565335938e+00,1.931316383999521946e+01,-1.062455787042954514e+00,-8.588583464699565129e-01,-5.122090031070078986e-01,-1.509250182759674323e-03,3.938962575275205040e+02
9.740221274071323876e+00,1.858447908159911677e+01,-1.651614446239996203e+00,-8.891803681774242962e-01,-4.510943907407725662e-01,7.661673114464498391e-02,3.954016600813572495e+02
9.933131686675382710e+00,1.783850442995491292e+01,-2.238502072278906407e+00,-9.099364865207043573e-01,-3.851268631968778888e-01,1.539184516029008798e-01,3.969070626351939950e+02
1.010934997983468797e+01,1.707594465140700279e+01,-2.821261182427794445e+00,-9.209034085310874307e-01,-3.150161080282297132e-01,2.295642912999339702e-01,3.984124651890307405e+02
1.026890382128611279e+01,1.629750424821411059e+01,-3.398034319876624743e+00,-9.219631545751063584e-01,-2.415163852251129284e-01,3.027404453905997439e-01,3.999178677428674860e+02
1.041182684105696055e+01,1.550388742958559440e+01,-3.966964065403860040e+00,-9.131043272363950081e-01,-1.654184127187781350e-01,3.726596789531434473e-01,4.014232702967042314e+02
1.053815863041785406e+01,1.469579808272197141e+01,-4.526193049042946726e+00,-8.944222335990289485e-01,-8.754085975690689692e-02,4.385697959487435127e-01,4.029286728505409769e+02
1.064794474077774566e+01,1.387393974385983597e+01,-5.073863961748561024e+00,-8.661178596486622805e-01,-8.721539665698153226e-03,4.997617311732895362e-01,4.044340754043777224e+02
1.074123668252110342e+01,1.303901556932143002e+01,-5.608119567062557209e+00,-8.284957078513907058e-01,7.019160326129096628e-02,5.555771781717812052e-01,4.059394779582144679e+02
1.081809192378723594e+01,1.219172830656910023e+01,-6.127102712779581850e+00,-7.819605211923720267e-01,1.483496158003818066e-01,6.054156710809007746e-01,4.074448805120512134e+02
1.087857388919185020e+01,1.133278026526486570e+01,-6.628956342612283059e+00,-7.270129289260844896e-01,2.249116686482289518e-01,6.487410442403667155e-01,4.089502830658879589e+02
1.092361933948701491e+01,1.044327389269161621e+01,-7.122644398650963993e+00,-7.161305230572415637e-01,2.124300655788691761e-01,6.648522701939069135e-01,4.104894614825212784e+02
1.095219272569423552e+01,9.543420872006242561e+00,-7.595726671823650911e+00,-7.048658540521677285e-01,1.998350695663028420e-01,6.806086046773198728e-01,4.120286398991545980e+02
1.096511746568444856e+01,8.634543712100299473e+00,-8.047766852047432806e+00,-6.932249346667971324e-01,1.871334034613588437e-01,6.960016373998199057e-01,4.135678183157879175e+02
1.096322898570953974e+01,7.717960008098065927e+00,-8.478328767387919740e+00,-6.812139784705207868e-01,1.743318470477547844e-01,7.110231519713618997e-01,4.151069967324212371e+02
1.094737470787191747e+01,6.794982381529304227e+00,-8.886976386919878124e+00,-6.688393965296295374e-01,1.614372334243133200e-01,7.256651302854051355e-01,4.166461751490545566e+02
1.091841403747105232e+01,5.866918420554062763e+00,-9.273273823587357967e+00,-6.561077939868671383e-01,1.484564453591809829e-01,7.399197567972330969e-01,4.181853535656878762e+02
1.087721835022742134e+01,4.935070620239954131e+00,-9.636785337062946155e+00,-6.430259665375107625e-01,1.353964116175550569e-01,7.537794226943114184e-01,4.197245319823211958e+02
1.082467097938386935e+01,4.000736322892404218e+00,-9.977075336606148426e+00,-6.296008968038557807e-01,1.222641032648704162e-01,7.672367299564629706e-01,4.212637103989545153e+02
1.076166720268444621e+01,3.065207658438332761e+00,-1.029370838392102527e+01,-6.158397506100258267e-01,1.090665299474116862e-01,7.802844953037014752e-01,4.228028888155878349e+02
1.068911422923079080e+01,2.129771484863775655e+00,-1.058624919601303915e+01,-6.017498731590891214e-01,9.581073615232726937e-02,7.929157540296222217e-01,4.243420672322211544e+02
1.060793118621611164e+01,1.195709328705975016e+00,-1.085426264804510232e+01,-5.873387851145116523e-01,8.250379744903359180e-02,8.051237637183064066e-01,4.258812456488544740e+02
1.051904910553690797e+01,2.642973256004067517e-01,-1.109731377619287152e+01,-5.726141785880242141e-01,6.915281671400683172e-02,8.169020078427619014e-01,4.274204240654877935e+02
1.042341091028245792e+01,-6.631938391168081814e-01,-1.131496778049930363e+01,-5.575839130360381590e-01,5.576492034097020600e-02,8.282441992429799837e-01,4.289596024821211131e+02
1.032197140110214484e+01,-1.585498989750550924e+00,-1.150679002772838189e+01,-5.422560110667847821e-01,4.234725443849036292e-02,8.391442834817568475e-01,4.304987808987544327e+02
1.021569724245061117e+01,-2.501358519531883040e+00,-1.167234605421796623e+01,-5.266386541604061167e-01,2.890698101700569025e-02,8.495964420764861025e-01,4.320379593153877522e+02
1.010556694871088368e+01,-3.409518449846269394e+00,-1.181120156873185323e+01,-5.268387551153821402e-01,5.535391305986528399e-02,8.481596962932073103e-01,4.335771377320210718e+02
9.992570870195525146e+00,-4.308730489404384301e+00,-1.192292245531102068e+01,-5.266692545270801329e-01,8.176201000203696390e-02,8.461279277125480780e-01,4.351163161486543913e+02
9.877711179025951083e+00,-5.197752093355015646e+00,-1.200707477612396978e+01,-5.261302713787027185e-01,1.081127455467556370e-01,8.435025618148335180e-01,4.366554945652877109e+02
9.762001854890051789e+00,-6.075346522339552635e+00,-1.206322477431618800e+01,-5.252221838512491914e-01,1.343876336473911470e-01,8.402854404975140801e-01,4.381946729819210304e+02
9.646468670678103763e+00,-6.940282901487568878e+00,-1.209093887685872559e+01,-5.239456290584324494e-01,1.605682414745048803e-01,8.364788207834753520e-01,4.397338513985543500e+02
9.532149177997077061e+00,-7.791336279352995220e+00,-1.208978369739587677e+01,-5.223015025994248717e-01,1.866362023454993802e-01,8.320853732372857081e-01,4.412730298151876696e+02
9.420092692563414971e+00,-8.627287686790374721e+00,-1.205932603909192302e+01,-5.202909579303420795e-01,2.125732286078329814e-01,8.271081800914539262e-01,4.428122082318209891e+02
9.305921646126972036e+00,-9.489062812354921661e+00,-1.199452862580715973e+01,-5.179154055549081148e-01,2.383611244667747375e-01,8.215507330840122746e-01,4.444321946175784319e+02
9.197006211673034670e+00,-1.033051184795701438e+01,-1.189505706563582166e+01,-5.151765120348702487e-01,2.639817987487114159e-01,8.154169310089415257e-01,4.460521810033358747e+02
9.094662190502013743e+00,-1.115017361558452791e+01,-1.176038841123486378e+01,-5.120761988208566429e-01,2.894172775910656692e-01,8.087110769811577393e-01,4.476721673890933175e+02
9.000206408961846094e+00,-1.194662472351787130e+01,-1.159066759519977374e+01,-5.086166409044990955e-01,3.146497170499344964e-01,8.014378754179780628e-01,4.492921537748507603e+02
8.914942369614337281e+00,-1.271850936297447454e+01,-1.138737505297277153e+01,-5.048002652927637834e-01,3.396614156166151144e-01,7.936024287391792997e-01,4.509121401606082031e+02
8.840173561070674424e+00,-1.346450937897095912e+01,-1.115265908811070972e+01,-5.006297493055599235e-01,3.644348266342493092e-01,7.852102337879647287e-01,4.525321265463656459e+02
8.777217167371111017e+00,-1.418331445309873651e+01,-1.088866823269330730e+01,-4.961080186978195639e-01,3.889525706058867272e-01,7.762671779753436141e-01,4.541521129321230887e+02
8.727404047901291761e+00,-1.487362217577883960e+01,-1.059755123169117574e+01,-4.912382456073621229e-01,4.131974473853444185e-01,7.667795351506260237e-01,4.557720993178805315e+02
8.692078717151201062e+00,-1.553413811842938941e+01,-1.028145702733271705e+01,-4.860238463299823564e-01,4.371524482423194691e-01,7.567539612009229755e-01,4.573920857036379743e+02
8.672599324316873748e+00,-1.616357590554510892e+01,-9.942534743469876091e+00,-4.804684789233185094e-01,4.608007677933031454e-01,7.461974893827362232e-01,4.590120720893954172e+02
8.670059215633196814e+00,-1.674944947506314108e+01,-9.590349642182689038e+00,-4.745760406411778654e-01,4.841258157899324677e-01,7.351175253889024042e-01,4.606000465072955876e+02
8.685070556173100087e+00,-1.730357646162037355e+01,-9.220566146042058264e+00,-4.683506652001171444e-01,5.071112287565232579e-01,7.235218421543485601e-01,4.621880209251957581e+02
8.718930810593166214e+00,-1.782478810004609926e+01,-8.835180871209550091e+00,-4.617967198801889994e-01,5.297408814686237477e-01,7.114185744042946791e-01,4.637759953430959285e+02
8.772949761506799504e+00,-1.831192320270950091e+01,-8.436190542828116534e+00,-4.549188024618848192e-01,5.519988982645478437e-01,6.988162129487186514e-01,4.653639697609960990e+02
8.848449490625396763e+00,-1.876382822332055511e+01,-8.025591981064943425e+00,-4.477217380014182346e-01,5.738696641819563959e-01,6.857235987270774435e-01,4.669519441788962695e+02
8.946328102872298516e+00,-1.917955175423951530e+01,-7.605752892741233673e+00,-4.155996827564571450e-01,6.496941831791921418e-01,6.365315169225875813e-01,4.685399185967964399e+02
9.066620892375093277e+00,-1.955853551233505527e+01,-7.179782660368763558e+00,-3.796536753964396271e-01,7.195408125592271942e-01,5.814826788647069478e-01,4.701278930146966104e+02
9.208932754348538197e+00,-1.990041468582567674e+01,-6.751161514825760435e+00,-3.402144587717883528e-01,7.827668935286450358e-01,5.210835944821042842e-01,4.717158674325967809e+02
9.372873167633807512e+00,-2.020482177366933030e+01,-6.323369705439765731e+00,-2.976449162040969987e-01,8.387906838532420695e-01,4.558900004817633689e-01,4.733038418504969513e+02
9.558056202472499763e+00,-2.047138660955213396e+01,-5.899887475657791924e+00,-2.523367325345757251e-01,8.870967100839478592e-01,3.865017469203968492e-01,4.748918162683971218e+02
9.764100528228610187e+00,-2.069973638591028120e+01,-5.484195038716460857e+00,-2.047067902348309598e-01,9.272405100364664587e-01,3.135572779886562911e-01,4.764797906862972923e+02
9.984417980500239764e+00,-2.088555571540866396e+01,-5.089778155865678499e+00,-1.551933337374797606e-01,9.588527219241665955e-01,2.377277577875576975e-01,4.780273217028186536e+02
1.022346196264830631e+01,-2.103519721520142483e+01,-4.709032225556997631e+00,-1.042519372711110115e-01,9.816424825521946618e-01,1.597108951343983452e-01,4.795748527193400150e+02
1.048089844947396188e+01,-2.114831651057087214e+01,-4.345119591960627581e+00,-5.235131328737443329e-02,9.954001033328228054e-01,8.022452419748639374e-02,4.811223837358613764e+02
1.075639750645941284e+01,-2.122456697616503618e+01,-4.001202487410591146e+00,3.099996898509767827e-05,9.999989995192798409e-01,0.000000000000000000e+00,4.826699147523827378e+02
1.104900341257620333e+01,-2.126403681419003178e+01,-3.679962971418766049e+00,-1.250287230845365805e-01,9.918572269843428657e-01,2.418800700943102636e-02,4.842174457689040992e+02
1.135649917533242714e+01,-2.126768119331680040e+01,-3.383122872877389664e+00,-2.480515460159346541e-01,9.675568006092399864e-01,4.798195613274977567e-02,4.857649767854254605e+02
1.167602802455590272e+01,-2.123687776887047107e+01,-3.111923818618905990e+00,-3.670332781377397824e-01,9.274936086877367813e-01,7.099421513952018647e-02,4.873125078019468219e+02
1.200472053143686146e+01,-2.117298710228615732e+01,-2.867607265164403785e+00,-4.800355628040064992e-01,8.723203293703275518e-01,9.284988643505782957e-02,4.888600388184681833e+02
1.233969465230406470e+01,-2.107735259772881875e+01,-2.651414490482398190e+00,-5.852174533637521936e-01,8.029357984678163751e-01,1.131929141661673077e-01,4.904075698349895447e+02
1.267805577253170490e+01,-2.095130043889509608e+01,-2.464586585748535175e+00,-6.808654026550391425e-01,7.204703679083384049e-01,1.316918844625042662e-01,4.919551008515109061e+02
1.305473581606784528e+01,-2.077516017777370649e+01,-2.294044896612560169e+00,-7.509180029328682560e-01,6.516661881072643991e-01,1.070108973325659130e-01,4.936770253197187799e+02
1.342728780730156757e+01,-2.056126708067399278e+01,-2.165346845323247393e+00,-8.132732689535777659e-01,5.761820812897966437e-01,8.123299332820275998e-02,4.953989497879266537e+02
1.379098699552251617e+01,-2.031140719256403671e+01,-2.079547943181162317e+00,-8.672920361650814369e-01,4.947917912715399380e-01,5.462240651779062123e-02,4.971208742561345275e+02
1.412402288115273841e+01,-2.004322542447955158e+01,-2.038052131578128812e+00,-9.124205887067221576e-01,4.083295999119490594e-01,2.745190591690239296e-02,4.987552758590562689e+02
1.444138683560652225e+01,-1.974699904586912425e+01,-2.035656265731095704e+00,-9.481963343960251311e-01,3.176817769973940830e-01,0.000000000000000000e+00,5.003896774619780103e+02
1.473924211692948383e+01,-1.942414103744949827e+01,-2.072826139281385593e+00,-8.695153985263810448e-01,4.839543351319641196e-01,9.863657146402546316e-02,5.020240790648997518e+02
1.501393617269002334e+01,-1.907609306821701267e+01,-2.149217822772468978e+00,-7.529526719992817307e-01,6.291427259332842414e-01,1.929759159359659970e-01,5.036584806678214932e+02
1.526256527100989224e+01,-1.870455964871134569e+01,-2.263749385107992840e+00,-7.850902804396689971e-01,5.922479880462416801e-01,1.813107062842963801e-01,5.052928822707432346e+02
1.547093737538714997e+01,-1.833784949141397647e+01,-2.403321626943825340e+00,-8.152415032925393046e-01,5.538547930581317891e-01,1.691867592780297025e-01,5.068231062550965476e+02
1.565556731890656472e+01,-1.795545162455736943e+01,-2.571714060141836899e+00,-8.433300554756985035e-01,5.140602810652323829e-01,1.566347501731440162e-01,5.083533302394498605e+02
1.581569198580912960e+01,-1.755926785734531848e+01,-2.767295803260782616e+00,-8.692848707474952752e-01,4.729651374583084822e-01,1.436864372097123588e-01,5.098835542238031735e+02
1.595052918298015499e+01,-1.715119540274036325e+01,-2.988435798292374379e+00,-8.930402814791260635e-01,4.306733381770344593e-01,1.303745812600681786e-01,5.114137782081564865e+02
1.605927765176016919e+01,-1.673312678236851170e+01,-3.233502821249680803e+00,-9.145361847676635181e-01,3.872918866433884832e-01,1.167328629415831376e-01,5.129440021925098563e+02
1.614111707995160572e+01,-1.630694973147280180e+01,-3.500865492756329633e+00,-9.337181944710026826e-01,3.429305430400444998e-01,1.027957974038998384e-01,5.144742261768632261e+02
1.619520811402132310e+01,-1.587454710391656043e+01,-3.788892288636469985e+00,-9.505377787808201306e-01,2.977015466184645409e-01,8.859864700613571953e-02,5.160044501612165959e+02
1.622069237149878163e+01,-1.543779677723711607e+01,-4.095951550505438910e+00,-9.649523829861758051e-01,2.517193317389230800e-01,7.417733210487856277e-02,5.175346741455699657e+02
1.621669245356987688e+01,-1.499857155775077544e+01,-4.420411496361083437e+00,-9.769255371177942848e-01,2.051002383604572377e-01,5.956834017854463481e-02,5.190648981299233355e+02
1.618231195786630749e+01,-1.455873908570983311e+01,-4.760640231175675474e+00,-9.864269482012401058e-01,1.579622177126918658e-01,4.480863351785251136e-02,5.205951221142767054e+02
1.611663549145043817e+01,-1.412016174051240824e+01,-5.115005757488421345e+00,-9.934325768860391426e-01,1.104245338936031412e-01,2.993555571577048713e-02,5.221253460986300752e+02
1.600365633175954727e+01,-1.363562141361669511e+01,-5.524963477879479612e+00,-9.979246982572367308e-01,6.260746214753155903e-02,1.498673719331456745e-02,5.238300899341836612e+02
1.584570876503870984e+01,-1.315815185075353178e+01,-5.949219517517078337e+00,-9.998919466757844043e-01,1.463198458611079077e-02,0.000000000000000000e+00,5.255348337697372472e+02
1.564217438781223990e+01,-1.269041765142362621e+01,-6.385376943160872898e+00,-8.493181259816701134e-01,0.000000000000000000e+00,5.278794567685451966e-01,5.272395776052908332e+02
1.539409281855452427e+01,-1.223481886805204155e+01,-6.831110057088082499e+00,-8.414917291808247102e-01,9.581311622510501821e-03,5.401831802034204877e-01,5.289443214408444192e+02
1.510332052435971306e+01,-1.179363298333354670e+01,-7.284128750067637270e+00,-8.334091529485657679e-01,1.915970501680499746e-02,5.523224506320058014e-01,5.306490652763980052e+02
1.477168776726787591e+01,-1.136914959543152648e+01,-7.742142854047433964e+00,-8.250728573255344811e-01,2.873226495411271633e-02,5.642935734546538074e-01,5.323538091119515911e+02
