-1.306997043846819118e+01,-2.240504553490655582e+00,9.525229829556382199e+00,8.100698276632177786e-01,2.791947859574680710e-02,-5.856666091078468472e-01,7.928280214455985231e+01
-1.367324603596500765e+01,-2.227051564899983127e+00,8.983576481042033990e+00,8.368731543270864215e-01,2.917201423584217176e-02,-5.466171577540857029e-01,8.090625770224450264e+01
-1.424797087332897938e+01,-2.187680558046102064e+00,8.425075096130358432e+00,8.617978295332173744e-01,3.035906325034801526e-02,-5.063406247668585936e-01,8.252971325992915297e+01
-1.479188210612995213e+01,-2.120793462445810906e+00,7.850938185451233231e+00,8.847879010077014383e-01,3.147796090132271712e-02,-4.649274225150952233e-01,8.415316881761380330e+01
-1.530269928530840495e+01,-2.024805896397990246e+00,7.262378373803414888e+00,8.849807075248073973e-01,-1.526297770909593003e-02,-4.653753203399219052e-01,8.577662437529845363e+01
-1.576619457888068432e+01,-1.902409193098415718e+00,6.676640409225301553e+00,7.552808229331580137e-01,-7.839105318888551707e-03,-6.553529025925360907e-01,8.735730461409399084e+01
-1.619524495876028070e+01,-1.751622954022825862e+00,6.079926060487553130e+00,5.855745249370150063e-01,-0.000000000000000000e+00,-8.106173423650142595e-01,8.893798485288952804e+01
-1.658973968857574377e+01,-1.573219237933930703e+00,5.474120444321796342e+00,6.676917627050223958e-01,-0.000000000000000000e+00,-7.444365050264132311e-01,9.051866509168506525e+01
-1.694957425100679771e+01,-1.367970524231972629e+00,4.861108740381843596e+00,7.423821461995215865e-01,-0.000000000000000000e+00,-6.699751853646215283e-01,9.209934533048060246e+01
-1.727465034823084267e+01,-1.136649681664230638e+00,4.242776178189454406e+00,8.088148877796487168e-01,-0.000000000000000000e+00,-5.880616271329009992e-01,9.368002556927613966e+01
-1.756487590230474538e+01,-8.800299370329605075e-01,3.621008024079736209e+00,8.662510496230177992e-01,-0.000000000000000000e+00,-4.996069645503359302e-01,9.526070580807167687e+01
-1.782016505548203611e+01,-5.988848439020379999e-01,2.997689568146091332e+00,9.140517624632589211e-01,-0.000000000000000000e+00,-4.055950881580278611e-01,9.684138604686721408e+01
-1.804043817046535025e+01,-2.939882513025559585e-01,2.374706111185345581e+00,9.516853314543215481e-01,-0.000000000000000000e+00,-3.070717015530153304e-01,9.842206628566275128e+01
-1.822562183059486074e+01,3.388572756202259950e-02,1.753942951642444736e+00,9.787331501618884433e-01,-0.000000000000000000e+00,-2.051326906517000337e-01,1.000027465244582885e+02
-1.837564883997278642e+01,3.839627466109148402e-01,1.137285372554502461e+00,9.948943569144396148e-01,-0.000000000000000000e+00,-1.009119347719607956e-01,1.015834267632538257e+02
-1.848732790724480424e+01,7.436151738333449668e-01,5.449877234068388754e-01,9.956158532669954209e-01,-0.000000000000000000e+00,-9.352578634184718909e-02,1.031159297517043143e+02
-1.856611292360253529e+01,1.121756660990620436e+00,-4.064728464937898689e-02,9.962825151378277289e-01,-0.000000000000000000e+00,-8.613448797207412522e-02,1.046484327401548029e+02
-1.861309086359737464e+01,1.516687412988667161e+00,-6.187654121496952708e-01,9.968943058348063158e-01,-0.000000000000000000e+00,-7.873844665621446137e-02,1.061809357286052915e+02
-1.862936411889128152e+01,1.926713987547881590e+00,-1.188512468581056636e+00,9.974511916913868514e-01,-0.000000000000000000e+00,-7.133806964896749481e-02,1.077134387170557801e+02
-1.861605048218654090e+01,2.350149370791608572e+00,-1.749034317939098582e+00,9.979531420623094506e-01,-0.000000000000000000e+00,-6.393376444317012963e-02,1.092459417055062687e+02
-1.857428313100202999e+01,2.785313052768492614e+00,-2.299476884284643585e+00,9.984001293252741105e-01,-0.000000000000000000e+00,-5.652593874741783375e-02,1.107784446939567573e+02
-1.850521061129609635e+01,3.230531102908026142e+00,-2.838986157300001700e+00,9.987921288824478383e-01,-0.000000000000000000e+00,-4.911500046367404948e-02,1.123109476824072459e+02
-1.840999682093563550e+01,3.684136245408861754e+00,-3.366708197845055484e+00,9.991291191618084655e-01,-0.000000000000000000e+00,-4.170135766486918888e-02,1.138434506708577345e+02
-1.828982099301177300e+01,4.144467934559259881e+00,-3.881789143512799356e+00,9.994110816183233714e-01,-0.000000000000000000e+00,-3.428541857249064323e-02,1.153759536593082231e+02
-1.814587767900275850e+01,4.609872429988659093e+00,-4.383375214184378699e+00,9.996380007349621177e-01,-0.000000000000000000e+00,-2.686759153416442072e-02,1.169084566477587117e+02
-1.797937673178414997e+01,5.078702871849830380e+00,-4.870612717583913565e+00,9.998098640235444368e-01,-0.000000000000000000e+00,-1.944828500123040038e-02,1.184409596362092003e+02
-1.779154328848597544e+01,5.549319355931200626e+00,-5.342648054833071924e+00,9.999266620254225746e-01,-0.000000000000000000e+00,-1.202790750631175035e-02,1.199734626246596889e+02
-1.758361775319718490e+01,6.020089008698651156e+00,-5.798627726005035399e+00,9.999883883119979888e-01,-0.000000000000000000e+00,-4.606867640880129948e-03,1.215059656131101775e+02
-1.735685577951752379e+01,6.489386062266187416e+00,-6.237698335677763772e+00,9.999950394850740665e-01,-0.000000000000000000e+00,2.814425967182330492e-03,1.230384686015606661e+02
-1.708839289793298732e+01,7.001119215341293334e+00,-6.700338106407679462e+00,9.999466151770413092e-01,-0.000000000000000000e+00,1.023556467602310983e-02,1.247214020487907504e+02
-1.680182958672278204e+01,7.507048399654378201e+00,-7.142440749311143477e+00,9.998431180508986493e-01,-0.000000000000000000e+00,1.765613985225994442e-02,1.264043354960208347e+02
-1.649875907289210986e+01,8.005078168338828348e+00,-7.562977382364198142e+00,9.996845538001093434e-01,-0.000000000000000000e+00,2.507574289342124826e-02,1.280872689432509333e+02
-1.618094836509532186e+01,8.493367579569998327e+00,-7.960759845454155048e+00,9.994709311482899983e-01,-0.000000000000000000e+00,3.249396525038473343e-02,1.297702023904810176e+02
-1.585048773845995917e+01,8.970575898985776675e+00,-8.334281262354618747e+00,9.957306258303528779e-01,1.690376264263117323e-02,9.073468792364811075e-02,1.314531358377111019e+02
-1.550963274898338184e+01,9.435620356901530670e+00,-8.681875499908679572e+00,9.883143665325663241e-01,3.374511967487106578e-02,1.486404379842284629e-01,1.331360692849411862e+02
-1.516064961883588680e+01,9.887432577386217503e+00,-9.001876628461696228e+00,9.772495329385270102e-01,5.046189783831069031e-02,2.059974447384042007e-01,1.348190027321712705e+02
-1.483225865078660810e+01,1.029286081037255229e+01,-9.271006315490456728e+00,9.625769740005722941e-01,6.699238382727830399e-02,2.625939634376109888e-01,1.363766605072500795e+02
-1.450053747232735901e+01,1.068511078810051629e+01,-9.511630915913285023e+00,9.443508571209621172e-01,8.327555210429159194e-02,3.182210569360791053e-01,1.379343182823288885e+02
-1.416743116816848591e+01,1.106336060068536042e+01,-9.722323931443009215e+00,9.226384681677733957e-01,9.925129017549000343e-02,3.726733669803178883e-01,1.394919760574076975e+02
-1.383489289936331978e+01,1.142679955939433789e+01,-9.901659065069347676e+00,8.975199630704039366e-01,1.148606204948527804e-01,4.257498722848651052e-01,1.410496338324865064e+02
-1.350488387537912693e+01,1.177462823712775730e+01,-1.004821023065261087e+01,8.690880719118480036e-01,1.300459181784709706e-01,4.772546305973440761e-01,1.426072916075653154e+02
-1.317937332608417300e+01,1.210605850878369694e+01,-1.016055156251643332e+01,8.374477566099703951e-01,1.447511237256110250e-01,5.269975020149790801e-01,1.441649493826441244e+02
-1.286017991867658594e+01,1.242042975712170971e+01,-1.023749984917014366e+01,8.027158234510215484e-01,1.589219499617261222e-01,5.747948508838659487e-01,1.457226071577229334e+02
-1.254881163127558708e+01,1.271732384776393054e+01,-1.027835696539885824e+01,7.650204919050347385e-01,1.725060824398725878e-01,6.204702236912520430e-01,1.472802649328017424e+02
-1.224662196857754815e+01,1.299644714801805456e+01,-1.028266745282845562e+01,7.245009213138593474e-01,1.854533725610937600e-01,6.638550004495455958e-01,1.488379227078805513e+02
-1.195496772506791494e+01,1.325751376532531545e+01,-1.024997609885840966e+01,6.813066971978913866e-01,1.977160227011562077e-01,7.047890171684276783e-01,1.503955804829593603e+02
-1.167520896593753754e+01,1.350024556385902308e+01,-1.017982793972434585e+01,6.355972790764422564e-01,2.092487626604653816e-01,7.431211571179329178e-01,1.519532382580381693e+02
-1.140870900796397258e+01,1.372437218104412437e+01,-1.007176826355857102e+01,5.446331803844381980e-01,1.820671853376717719e-01,8.186722414054754537e-01,1.535108960331169783e+02
-1.115111896043514506e+01,1.393410679618983750e+01,-9.922002105707505848e+00,4.456513720901530973e-01,1.522053419866805091e-01,8.821714053545011147e-01,1.551040573606738917e+02
-1.090995899137993597e+01,1.412387178594556403e+01,-9.732519586844652792e+00,3.401089830736247488e-01,1.201028340899310543e-01,9.326838633086107500e-01,1.566972186882308051e+02
-1.068667116618512303e+01,1.429340263076186268e+01,-9.502845859811802853e+00,2.295597212613609273e-01,8.623224814474107769e-02,9.694660044344645122e-01,1.582903800157877185e+02
-1.048270097769232834e+01,1.444244328164523772e+01,-9.232506360205947615e+00,1.156310034642898527e-01,5.109219933360076987e-02,9.919763395386808069e-01,1.598835413433446320e+02
-1.029949732481897406e+01,1.457074617801338157e+01,-8.921026809721670503e+00,0.000000000000000000e+00,1.519999199371748627e-02,9.998834733319879042e-01,1.614767026709015454e+02
-1.013749413671961364e+01,1.467853471441511104e+01,-8.568838495575752390e+00,8.253690959945483852e-02,-1.536709558851336310e-01,9.846679114661884835e-01,1.630698639984584588e+02
-9.995085776297761626e+00,1.476695757664928799e+01,-8.178183543559445212e+00,1.621386968337479584e-01,-3.170771599005071661e-01,9.344362566053123764e-01,1.646630253260153722e+02
-9.869636068156523834e+00,1.483761407556410461e+01,-7.752209626178264479e+00,2.359746179345681982e-01,-4.692076815036486659e-01,8.509748123820475296e-01,1.662561866535722856e+02
-9.758493576752352183e+00,1.489208756582131343e+01,-7.294064664418868915e+00,3.014189705558497634e-01,-6.046525595256716512e-01,7.372515760906440674e-01,1.678493479811291991e+02
-9.658991647965427418e+00,1.493194536763047253e+01,-6.806896805599016886e+00,3.561444668835859195e-01,-7.185951948485984619e-01,5.973106935663486938e-01,1.694425093086861125e+02
-9.568448450835921548e+00,1.495873868866079093e+01,-6.293854401216284700e+00,3.982049949768915464e-01,-8.069836348364768375e-01,4.361286451054638968e-01,1.710356706362430259e+02
-9.484167019465964188e+00,1.497400254613127402e+01,-5.758085984795655143e+00,4.261048252703424355e-01,-8.666746664979358972e-01,2.594372762961290046e-01,1.726288319637999393e+02
-9.403435295087103185e+00,1.497925568907985117e+01,-5.202740249736143241e+00,4.388518011076011915e-01,-8.955455941290179078e-01,7.351996667995323864e-02,1.742219932913568528e+02
-9.323609757078601845e+00,1.497582193895146574e+01,-4.630957921397355292e+00,4.036509170340362718e-01,-9.121897495125782518e-01,7.052515906667726486e-02,1.758151546189137662e+02
-9.242201452530110828e+00,1.496465220089472226e+01,-4.045863629242509418e+00,3.678344221304315487e-01,-9.274427232183818370e-01,6.742279321422448013e-02,1.774083159464706796e+02
-9.159846565534127905e+00,1.494724245253600436e+01,-3.471595517118346130e+00,3.314569401818852068e-01,-9.412812526477665198e-01,6.421760053619469943e-02,1.789451473100430405e+02
-9.071407659083790875e+00,1.492398772011158847e+01,-2.890393144455627006e+00,2.945739505668076297e-01,-9.536842323748427885e-01,6.091446927072001472e-02,1.804819786736154015e+02
-8.974634857446980973e+00,1.489554397017198895e+01,-2.305156677121643849e+00,2.572417036447615657e-01,-9.646327463379537059e-01,5.751843702547393411e-02,1.820188100371877624e+02
-8.867271510724467731e+00,1.486255426568114046e+01,-1.718786307375638645e+00,2.195171349681062367e-01,-9.741100966921580895e-01,5.403468309484001780e-02,1.835556414007601234e+02
-8.747054226886698203e+00,1.482564873248764492e+01,-1.134182234880494633e+00,1.814577784482435396e-01,-9.821018292785871351e-01,5.046852056094888045e-02,1.850924727643324843e+02
-8.611712903879578107e+00,1.478544452592765701e+01,-5.542446477139166827e-01,1.431216786089140602e-01,-9.885957556717789307e-01,4.682538819063025715e-02,1.866293041279048452e+02
-8.458970761799189830e+00,1.474254579755972472e+01,1.812629662010004430e-02,1.045673020603874737e-01,-9.935819717713251231e-01,4.311084214063873321e-02,1.881661354914772062e+02
-8.286544375135258989e+00,1.469754366203180673e+01,5.800304901792613377e-01,6.585344832958692218e-02,-9.970528729094330078e-01,3.933054748380534343e-02,1.897029668550495671e+02
-8.092143705083071126e+00,1.465101616408082741e+01,1.128567893571035041e+00,2.703916018217226644e-02,-9.990031654513216175e-01,3.549026956904008379e-02,1.912397982186219281e+02
-7.873472131923638706e+00,1.460352824566497176e+01,1.660838554940816669e+00,-1.181636642661234096e-02,-9.994298748707293178e-01,3.159586522836514005e-02,1.927766295821942890e+02
-7.628226487471910566e+00,1.455563171322909177e+01,2.173942628959502521e+00,-5.065387263495373105e-02,-9.983323502881841227e-01,2.765327384439179165e-02,1.943134609457666500e+02
-7.354097087592774251e+00,1.450786520510343713e+01,2.664980395810490066e+00,-8.941412705361014013e-02,-9.957122654650919502e-01,2.366850829186790267e-02,1.958502923093390109e+02
-7.048767764784696688e+00,1.446075415903602313e+01,3.131052280176139124e+00,-1.280380161032982633e-01,-9.915736162521063823e-01,1.964764576711454033e-02,1.973871236729113718e+02
-6.709915900831061819e+00,1.441481077985882742e+01,3.569258870223192659e+00,-1.664666341724986565e-01,-9.859227144956586031e-01,1.559681851934288134e-02,1.989239550364837328e+02
-6.336090037809666065e+00,1.436979852224538234e+01,3.977302863027058599e+00,-2.046413734581369048e-01,-9.787681784119298678e-01,1.152220449799102979e-02,2.004607864000560937e+02
-5.927597191983242197e+00,1.432400327060142864e+01,4.354091006053346646e+00,-2.425040133520692254e-01,-9.701209194429488702e-01,7.430017930350037159e-03,2.019976177636284547e+02
-5.413603387697501823e+00,1.426651891067278832e+01,4.755125223000194801e+00,-2.799968092370008765e-01,-9.599941256148575297e-01,3.326499843854012397e-03,2.037839543238071371e+02
-4.861704179685179206e+00,1.420099489714882779e+01,5.118592166135614185e+00,-3.170625805563667132e-01,-9.484032414237409947e-01,-7.820914525057567727e-04,2.055702908839858196e+02
-4.273628785913900607e+00,1.412371591180255770e+01,5.443828678880263894e+00,-3.536447980238081046e-01,-9.353659442797074286e-01,-4.889489913120790253e-03,2.073566274441645021e+02
-3.652603566914509159e+00,1.402944659608086297e+01,5.730082842093245254e+00,-3.896876698391996130e-01,-9.209021175451681529e-01,-8.989431312496987472e-03,2.091429640043431846e+02
-3.004833224239893852e+00,1.390991325312924332e+01,5.976424879962955572e+00,-4.251362267796909289e-01,-9.050338202084589057e-01,-1.307566279919765428e-02,2.109293005645218670e+02
-2.411244284524314718e+00,1.377422848594069649e+01,6.159283034206134211e+00,-4.599364060359562578e-01,-8.877852532390878570e-01,-1.714195243242255806e-02,2.125192776248340465e+02
-1.807060914116921824e+00,1.360332364167392427e+01,6.304905784212473385e+00,-4.940351336657539116e-01,-8.691827226759525349e-01,-2.118209868667365187e-02,2.141092546851462259e+02
-1.198478261758402663e+00,1.339025340698119493e+01,6.412486836629069487e+00,-5.273804055390135526e-01,-8.492545995048639274e-01,-2.518993991000763669e-02,2.156992317454584054e+02
-5.912370367525004999e-01,1.313046443279535858e+01,6.481782819843834531e+00,-5.599213666509788023e-01,-8.280312763866066739e-01,-2.915936372144636163e-02,2.172892088057705848e+02
1.087445559987143193e-02,1.282489779459957191e+01,6.513897230576074726e+00,-5.916083886824178295e-01,-8.055451213015781819e-01,-3.308431633320942783e-02,2.188791858660827643e+02
6.064963361362952776e-01,1.247837135371058537e+01,6.510939060797606537e+00,-6.223931456886038216e-01,-7.818304281817488599e-01,-3.695881178354874785e-02,2.204691629263949437e+02
1.195261835744316770e+00,1.209645992018043437e+01,6.475238838061352808e+00,-6.522286878016190226e-01,-7.569233646052841991e-01,-4.077694106610087882e-02,2.220591399867071232e+02
1.776859972651175790e+00,1.168474004507829633e+01,6.409127319387456723e+00,-6.810695128335714221e-01,-7.308619166336520756e-01,-4.453288114183212576e-02,2.236491170470193026e+02
2.351035555800028654e+00,1.124878973390323011e+01,6.314935474920866376e+00,-7.088716356715301092e-01,-7.036858308753903835e-01,-4.822090381983087232e-02,2.252390941073314821e+02
2.917589187630416525e+00,1.079418815999221870e+01,6.194994471590034024e+00,-7.355926553583452820e-01,-6.754365538649472755e-01,-5.183538449340184540e-02,2.268290711676436615e+02
3.476377266253777076e+00,1.032651537791954155e+01,6.051635656764914550e+00,-7.611918197570636258e-01,-6.461571688490957976e-01,-5.537081071813858280e-02,2.284190482279558410e+02
4.027311987021669815e+00,9.851352036888712860e+00,5.887190541914106845e+00,-7.856300877003390415e-01,-6.158923300773728737e-01,-5.882179061889238059e-02,2.300090252882680204e+02
4.569303822265202264e+00,9.375207065064479650e+00,5.704347269368783557e+00,-8.088701885300733085e-01,-5.846881946968083277e-01,-6.218306111281639986e-02,2.315958987753729446e+02
5.103454286130270745e+00,8.902709502811656961e+00,5.505108699578026510e+00,-8.308766789365192862e-01,-5.525923523548428307e-01,-6.544949593594651116e-02,2.331827722624778687e+02
5.629842431479189280e+00,8.439408622573280283e+00,5.291797642060902973e+00,-8.516159970101855325e-01,-5.196537526178469646e-01,-6.861611346107859832e-02,2.347696457495827929e+02
6.148602737217659708e+00,7.990853149884199702e+00,5.066737004544360268e+00,-8.710565134241529117e-01,-4.859226303159573934e-01,-7.167808429502278700e-02,2.363565192366877170e+02
6.659925106834908348e+00,7.562590979297238114e+00,4.832249776745991987e+00,-8.891685796687812671e-01,-4.514504289281238147e-01,-7.463073864365063481e-02,2.379433927237926412e+02
7.163332522175809736e+00,7.159437262729482221e+00,4.590570042047152022e+00,-9.059245732652887462e-01,-4.162897221242347068e-01,-7.746957343350666103e-02,2.395302662108975653e+02
7.656948886434223667e+00,6.784748244816094953e+00,4.343753989786192093e+00,-9.212989398892975634e-01,-3.804941335839924221e-01,-8.019025917912739332e-02,2.411171396980024895e+02
8.138206668056321647e+00,6.441161288310137678e+00,4.093768873010998455e+00,-9.352682323401469988e-01,-3.441182552148407958e-01,-8.278864658559854928e-02,2.427040131851074136e+02
8.604564375175250746e+00,6.131329223994433697e+00,3.842581966853026998e+00,-9.478111462965970180e-01,-3.072175638936746611e-01,-8.526077287628587575e-02,2.442908866722123378e+02
9.053506595860028483e+00,5.857920217247595041e+00,3.592160554792887872e+00,-9.589085528044358764e-01,-2.698483368593123100e-01,-8.760286783609411154e-02,2.458777601593172619e+02
9.463278933914471835e+00,5.633370557003649637e+00,3.355635057552812661e+00,-9.685435274464998523e-01,-2.320675658847571876e-01,-8.981135956104281670e-02,2.473929803015676043e+02
9.851963431165875917e+00,5.446975421559308472e+00,3.123513054883290341e+00,-9.767013761506618819e-01,-1.939328703601422288e-01,-9.188287990539500960e-02,2.489082004438179467e+02
1.021734583605477553e+01,5.301107703491196865e+00,2.897588095186621526e+00,-9.833696575964824271e-01,-1.555024094188880435e-01,-9.381426961803769615e-02,2.504234205860682891e+02
1.055730500800256166e+01,5.197667436601059343e+00,2.679296338978959469e+00,-9.885382021863891033e-01,-1.168347932410797874e-01,-9.560258316028463765e-02,2.519386407283186315e+02
1.086987731685379543e+01,5.137595655481830725e+00,2.469359201341610799e+00,-9.921991275525006149e-01,-7.798899366930021892e-02,-9.724509319776010463e-02,2.534538608705689740e+02
1.115317642370055395e+01,5.121359059644877476e+00,2.268140695737188572e+00,-9.943468505754795572e-01,-3.902425427320957430e-02,-9.873929475951710721e-02,2.549690810128193164e+02
1.142327785438373944e+01,5.153015578903627159e+00,2.062176142702338844e+00,-9.949780958971221612e-01,-0.000000000000000000e+00,-1.000829090580521719e-01,2.565934096239146811e+02
1.165749544044158270e+01,5.235852483635766497e+00,1.866365887246177691e+00,-9.956398520071559899e-01,3.140720966774391415e-02,-8.782295981981586008e-02,2.582177382350100743e+02
1.185428283117217418e+01,5.369740319616540525e+00,1.681036044071204216e+00,-9.951694070511272194e-01,6.277870076125549592e-02,-7.546314329378002450e-02,2.598420668461054674e+02
1.201332728304889663e+01,5.553089896758370614e+00,1.506328541277890842e+00,-9.935672962505118777e-01,9.407880084768957540e-02,-6.301751382013591474e-02,2.614663954572008606e+02
1.213491520478539698e+01,5.783578966703379010e+00,1.342293174280277723e+00,-9.908353414336272813e-01,1.252719186762764614e-01,-5.050022329449537634e-02,2.630907240682962538e+02
1.221930763417173260e+01,6.058884022263097080e+00,1.188979660395706794e+00,-9.869766489620227512e-01,1.563225846225980153e-01,-3.792550508598289266e-02,2.647150526793916470e+02
1.226674023607360553e+01,6.376680431528985338e+00,1.046437638483261212e+00,-9.819956062019435938e-01,1.871954909948865264e-01,-2.530765786313160862e-02,2.663393812904870401e+02
1.227742330072488741e+01,6.734642571990701931e+00,9.147166685826454424e-01,-9.758978765422207102e-01,2.178555321568113323e-01,-1.266102934559089864e-02,2.679637099015824333e+02
1.225154174231357374e+01,7.130443964660822864e+00,7.938662315534958935e-01,-9.686903929641765831e-01,2.482678444214204416e-01,-0.000000000000000000e+00,2.695880385126778265e+02
1.218963086785414163e+01,7.561789065597998238e+00,6.839794555227708406e-01,-9.812420369974732548e-01,1.927694395837902808e-01,-1.417036255421905405e-03,2.712123671237732196e+02
1.209295258044519095e+01,8.026441985109601163e+00,5.852368420126567994e-01,-9.906148190218223570e-01,1.366465307525880635e-01,-2.829481888635998130e-03,2.728366957348686128e+02
1.196942956363807475e+01,8.497679388564632674e+00,5.020752948033597729e-01,-9.967783742955725890e-01,8.008093574840113860e-02,-4.232761087223992601e-03,2.743826603265579251e+02
1.181591200778997575e+01,8.995305319360825891e+00,4.299366567187582477e-01,-9.997127348590858498e-01,2.325590659353830858e-02,-5.622327733582691868e-03,2.759286249182472375e+02
1.163380627866058603e+01,9.517391062213130581e+00,3.690238073732063917e-01,-9.994083942357662176e-01,-3.364446417069157091e-02,-6.993680133075795557e-03,2.774745895099365498e+02
1.142449834203783610e+01,1.006200005330285485e+01,3.195395519822525343e-01,-9.958663382364574268e-01,-9.043583989176381954e-02,-8.342375598289476085e-03,2.790205541016258621e+02
1.118935374481184830e+01,1.062718798222473815e+01,2.816866200192381653e-01,-9.890980417698460592e-01,-1.469342370054932956e-01,-9.664044842131364749e-03,2.805665186933151745e+02
1.092971759626076889e+01,1.121100289401141481e+01,2.556676638723021644e-01,-9.791254316690856108e-01,-2.029566210921559533e-01,-1.095440613313187171e-02,2.821124832850044868e+02
1.064691454954791183e+01,1.181148529123476543e+01,2.416852575017384985e-01,-9.659808156550380165e-01,-2.583214998576567334e-01,-1.220927916707717671e-02,2.836584478766937991e+02
1.034224878343014886e+01,1.242666823618362315e+01,2.399418950976679732e-01,-9.497067776663222771e-01,-3.128495111181935906e-01,-1.342459861002297597e-02,2.852044124683831114e+02
1.001700398417853322e+01,1.305457745311660034e+01,2.506399897380652830e-01,-9.303560398954069388e-01,-3.663640038830673351e-01,-1.459642726880351973e-02,2.867503770600724238e+02
9.672443327711151895e+00,1.369323143058895020e+01,2.739818720471453029e-01,-9.079912919779226099e-01,-4.186916106526827885e-01,-1.572096884635858227e-02,2.882963416517617361e+02
9.309809461938552744e+00,1.434064152385222357e+01,3.101697888542279680e-01,-8.826849878888617384e-01,-4.696628090772849151e-01,-1.679458024054757831e-02,2.898423062434510484e+02
8.930324489321979087e+00,1.499481205732590361e+01,3.594059018531928218e-01,-8.545191112040121384e-01,-5.191124711565046068e-01,-1.781378334660072699e-02,2.913882708351403608e+02
8.535189949643822160e+00,1.565374042714077163e+01,4.218922862624303605e-01,-8.235849094875177245e-01,-5.668803982002157404e-01,-1.877527632496730700e-02,2.929342354268296731e+02
8.125586802990374835e+00,1.631541720375316373e+01,4.978309294851625544e-01,-7.899825986665203192e-01,-6.128118398174120518e-01,-1.967594429805493914e-02,2.944802000185189854e+02
7.676405861101682326e+00,1.701898907029569941e+01,5.929996612199575079e-01,-7.538210383510977053e-01,-6.567579952516361397e-01,-2.051286944120626204e-02,2.961223233005255224e+02
7.214411940026494996e+00,1.772098111235023055e+01,7.028993961910547927e-01,-7.152173791518547930e-01,-6.985764954387725378e-01,-2.128334043522404559e-02,2.977644465825320594e+02
6.740875081327031282e+00,1.841897368144734770e+01,8.277576950859141247e-01,-6.742966831382449788e-01,-7.381318642255568774e-01,-2.198486124982613338e-02,2.994065698645385964e+02
6.257039953237240937e+00,1.911053926399463165e+01,9.678020067340776800e-01,-6.311915186676967382e-01,-7.752959572547496458e-01,-2.261515922958139482e-02,3.010486931465451335e+02
5.764125829720448735e+00,1.979324261673430030e+01,1.123259666404682333e+00,-5.860415308986195448e-01,-8.099483770953631590e-01,-2.317219245613907561e-02,3.026908164285516705e+02
5.263880354787110250e+00,2.046491546228910607e+01,1.294317166765539540e+00,-5.389929893790990079e-01,-8.419768632733551916e-01,-2.365415636291036405e-02,3.043329397105582075e+02
4.759137059985130591e+00,2.112392658812543189e+01,1.481079429147506010e+00,-4.901983141772999764e-01,-8.712776559395997156e-01,-2.405948958078397287e-02,3.059750629925647445e+02
4.253267173513444632e+00,2.176890050291373768e+01,1.683610530096877334e+00,-4.398155820890472523e-01,-8.977558319973903966e-01,-2.438687899594964986e-02,3.076171862745712815e+02
3.749627659431878701e+00,2.239844066125381161e+01,1.901974428233164982e+00,-3.880080145225220378e-01,-9.213256126010195279e-01,-2.463526400345676312e-02,3.092593095565778185e+02
3.251561161257451094e+00,2.301112953985031240e+01,2.136234963768835815e+00,-3.349434487192901044e-01,-9.419106410297366505e-01,-2.480383994274090037e-02,3.109014328385843555e+02
2.797654103560350602e+00,2.356306743680318050e+01,2.368330945020196143e+00,-2.807937940247731690e-01,-9.594442300373982047e-01,-2.489206070400137166e-02,3.124246130759309494e+02
2.354609189986682338e+00,2.409796284812923517e+01,2.615286557442663806e+00,-2.257344749696247876e-01,-9.738695778769999034e-01,-2.489964049699830081e-02,3.139477933132775433e+02
1.925241519697171499e+00,2.461462544449586076e+01,2.877156487548845565e+00,-1.699438629661076394e-01,-9.851399523007579040e-01,-2.482655477655055024e-02,3.154709735506241373e+02
1.512131201680101844e+00,2.511208160363739950e+01,3.153444576718519521e+00,-1.136026984603740742e-01,-9.932188419401288826e-01,-2.467304032174660877e-02,3.169941537879707312e+02
1.117402614512548853e+00,2.558980885377867409e+01,3.442553075222523074e+00,-5.689350541238605286e-02,-9.980800745757895109e-01,-2.443959446862062693e-02,3.185173340253173251e+02
7.429526988861339110e-01,2.604750571993515251e+01,3.742333401668530790e+00,-0.000000000000000000e+00,-9.997079019148148449e-01,-2.412697349878688280e-02,3.200405142626639190e+02
3.710891231567047810e-01,2.650882805009705478e+01,4.067888684295885682e+00,1.959998565696795844e-04,-9.951322717742601132e-01,-9.853792789113820227e-02,3.216490862012672096e+02
2.493987727283091330e-02,2.694718772619654246e+01,4.400032264395852266e+00,6.813423141552460427e-02,-9.880382375798641981e-01,-1.383335374721700317e-01,3.232576581398705002e+02
-2.936315418747038053e-01,2.736214078565313912e+01,4.736321007748027334e+00,1.356466451670930995e-01,-9.747693292750637672e-01,-1.772646111317075224e-01,3.248662300784737909e+02
-5.828505062314707219e-01,2.775321322586489359e+01,5.074296201202805001e+00,2.023113150430844720e-01,-9.554084732309692241e-01,-2.150878450404656861e-01,3.264748020170770815e+02
-8.409459204573028757e-01,2.811992009790522218e+01,5.411499119453981876e+00,2.677116131203193805e-01,-9.300766676391726273e-01,-2.515668589339115635e-01,3.280833739556803721e+02
-1.066150250989955195e+00,2.846176552457304965e+01,5.745471042675155182e+00,3.314388132610190940e-01,-8.989322263414406544e-01,-2.864736733263145707e-01,3.296919458942836627e+02
-1.256699555071125074e+00,2.877824271856838934e+01,6.073753274156358017e+00,3.930946453746740343e-01,-8.621697894741167101e-01,-3.195901342281930457e-01,3.313005178328869533e+02
-1.410833509734524593e+00,2.906883400079307123e+01,6.393887157940529420e+00,4.522937843454701290e-01,-8.200191071197249215e-01,-3.507092764684626718e-01,3.329090897714902439e+02
-1.526795440755836397e+00,2.933301081877646155e+01,6.703414096459760607e+00,5.086662580769818476e-01,-7.727436035628754141e-01,-3.796366171044948112e-01,3.345176617100935346e+02
-1.602832351564566160e+00,2.957023376522597147e+01,6.999875568171376905e+00,5.618597596102833380e-01,-7.206387311171049692e-01,-4.061913708394350175e-01,3.361262336486968252e+02
-1.637194952117739133e+00,2.977995259670213457e+01,7.280813145193550717e+00,6.115418488697745847e-01,-6.640301238031148801e-01,-4.302075798526238115e-01,3.377348055873001158e+02
-1.628137687735151440e+00,2.996160625241813946e+01,7.543768510940357608e+00,6.574020302792109582e-01,-6.032715624088886841e-01,-4.515351509828105514e-01,3.393433775259034064e+02
-1.574892432914439810e+00,3.011226687835896954e+01,7.782219656243890782e+00,6.991536932644440983e-01,-5.387427636405804909e-01,-4.700407937817885351e-01,3.409249258207854041e+02
-1.476825732348014508e+00,3.023477143581420279e+01,7.998394501563979908e+00,6.358628725514419155e-01,-6.360992596505865571e-01,-4.370974023971654354e-01,3.425064741156674017e+02
-1.335710934301527431e+00,3.032896631057510106e+01,8.190506241482729877e+00,5.633079906155771255e-01,-7.241882025445506299e-01,-3.977858154886578790e-01,3.440880224105493994e+02
-1.154470247649610481e+00,3.039484519491198355e+01,8.356964628239030191e+00,4.825461285083502139e-01,-8.017262074288277196e-01,-3.526787804556905659e-01,3.456695707054313971e+02
-9.360240845714320468e-01,3.043241885995432128e+01,8.496179591905992368e+00,3.947539337631477685e-01,-8.675836115178935382e-01,-3.024334783132578974e-01,3.472511190003133947e+02
-6.832910175736551794e-01,3.044171514589218575e+01,8.606561251417355507e+00,3.012104770503515883e-01,-9.208009309468450088e-01,-2.477819486631058776e-01,3.488326672951953924e+02
-3.991877365359652874e-01,3.042277895199618243e+01,8.686519925592937952e+00,2.032786171101254591e-01,-9.606028381098901114e-01,-1.895204243397478061e-01,3.504142155900773901e+02
-8.662900577934036506e-02,3.037567222645600395e+01,8.734466144163068435e+00,1.023851454490383450e-01,-9.864094561024712160e-01,-1.284977311238321984e-01,3.519957638849593877e+02
2.514723788427802309e-01,3.030047395603763860e+01,8.748810658791915884e+00,0.000000000000000000e+00,-9.978448059153464111e-01,-6.560292149536549322e-02,3.535773121798413854e+02
6.121471950920285288e-01,3.019713174599531413e+01,8.728223322081120727e+00,-8.095182334250169975e-02,-9.771542597845788158e-01,-1.965053558645551979e-01,3.551588604747233830e+02
9.923094140510158034e-01,3.006531386471467115e+01,8.671891964776758499e+00,-1.599513377560848326e-01,-9.328978953263498131e-01,-3.226686945566336617e-01,3.567404087696053807e+02
1.376181080417858693e+00,2.991009552078531897e+01,8.582218708564289145e+00,-2.350933361730670190e-01,-8.661430367708774503e-01,-4.410502954783338536e-01,3.582715807443294693e+02
1.772877120164022324e+00,2.972727739138442260e+01,8.456887299651587142e+00,-3.045656419763895784e-01,-7.784995913898213882e-01,-5.487951857792654486e-01,3.598027527190535579e+02
2.179456416503583238e+00,2.951647079255937456e+01,8.295379811843231366e+00,-3.666928108182435087e-01,-6.720812253756320853e-01,-6.433049113699913502e-01,3.613339246937776466e+02
2.592974522162765361e+00,2.927730356266985012e+01,8.097178554040779019e+00,-4.199765354728830502e-01,-5.494543922601784480e-01,-7.223002010791040872e-01,3.628650966685017352e+02
3.010483699526827372e+00,2.900942007858383676e+01,7.861766073610006345e+00,-4.418400806735804376e-01,-5.666228397563588537e-01,-6.954954353383551169e-01,3.643962686432258238e+02
3.429445748505913993e+00,2.871266892969310192e+01,7.589268794985667199e+00,-4.630447211342755276e-01,-5.829462984874613785e-01,-6.676535024316466727e-01,3.659274406179499124e+02
3.848147307727620703e+00,2.838728745996688119e+01,7.281100654090664648e+00,-4.835588355755185974e-01,-5.984004263169989679e-01,-6.388159220936624472e-01,3.674586125926740010e+02
4.265290807495208725e+00,2.803370941310641129e+01,6.939319453908145086e+00,-5.033518324664896237e-01,-6.129621774858063921e-01,-6.090256987389460752e-01,3.689897845673980896e+02
4.688434268243421243e+00,2.764392990469722022e+01,6.557995760823689402e+00,-5.223941956362462280e-01,-6.266098369712230776e-01,-5.783272573348922085e-01,3.705537608425730127e+02
5.107281882748027968e+00,2.722571540305331084e+01,6.146587884037028715e+00,-5.406575282818941730e-01,-6.393230528626742126e-01,-5.467663771580650867e-01,3.721177371177479358e+02
5.520487754552421578e+00,2.677955017422534212e+01,5.707243419020842978e+00,-5.581145953079208466e-01,-6.510828667051526963e-01,-5.143901235321323151e-01,3.736817133929228589e+02
5.926710624651339465e+00,2.630592611793460378e+01,5.242110150663474855e+00,-5.747393639336640936e-01,-6.618717417654421675e-01,-4.812467776491088367e-01,3.752456896680977820e+02
6.324613890134972216e+00,2.580534274420477914e+01,4.753336038706367894e+00,-5.905070425084564256e-01,-6.716735891790088786e-01,-4.473857645784544146e-01,3.768096659432727051e+02
6.712865622784468300e+00,2.527830714991591776e+01,4.243069203180604099e+00,-6.053941174766590549e-01,-6.804737919386417699e-01,-4.128575795712500773e-01,3.783736422184476282e+02
7.090138587618550758e+00,2.472533399528103004e+01,3.713457909842511118e+00,-6.193783884375366755e-01,-6.882592266891232047e-01,-3.777137127692154484e-01,3.799376184936225513e+02
7.455110261391265425e+00,2.414694548024555232e+01,3.166650555608325313e+00,-6.324390012477646428e-01,-6.950182832954722167e-01,-3.420065724306930455e-01,3.815015947687974744e+02
7.806462851040586237e+00,2.354367132080968972e+01,2.604795653988187798e+00,-6.445564791172614383e-01,-7.007408821556121437e-01,-3.057894067879311506e-01,3.830655710439723975e+02
8.142883312087716874e+00,2.291604872527393510e+01,2.030041820519608908e+00,-6.557127516520202537e-01,-7.054184892316579525e-01,-2.691162246520293899e-01,3.846295473191473206e+02
8.463063366987080727e+00,2.226462237040784942e+01,1.444537758200382216e+00,-6.658911818006597594e-01,-7.090441287774126300e-01,-2.320417148837779775e-01,3.861935235943222438e+02
8.765699523426890849e+00,2.158994437754250839e+01,8.504322429211454981e-01,-7.142513392199832944e-01,-6.601633892587224217e-01,-2.324377849633105508e-01,3.877574998694971669e+02
9.049815421444467489e+00,2.089264411190294979e+01,2.498658950798573197e-01,-7.709208131549379894e-01,-6.173088430743008947e-01,-1.568722158563457814e-01,3.893214761446720900e+02
9.315085112753251906e+00,2.017349547044017299e+01,-3.550370487482840676e-01,-8.192966258384439815e-01,-5.678132202434732489e-01,-7.961900405971375494e-02,3.908854524198470131e+02
9.552372562081565377e+00,1.946140290251469551e+01,-9.394417690670301413e-01,-8.588583464699565129e-01,-5.122090031070078986e-01,-1.509250182759674323e-03,3.923908549736837585e+02
9.771714299413600813e+00,1.873055701047335830e+01,-1.524023450426047477e+00,-8.891803681774242962e-01,-4.510943907407725662e-01,7.661673114464498391e-02,3.938962575275205040e+02
9.973129178016742813e+00,1.798171444440637856e+01,-2.106821628744538266e+00,-9.099364865207043573e-01,-3.851268631968778888e-01,1.539184516029008798e-01,3.954016600813572495e+02
1.015664274163192538e+01,1.721563160642860879e+01,-2.685875851134510661e+00,-9.209034085310874307e-01,-3.150161080282297132e-01,2.295642912999339702e-01,3.969070626351939950e+02
1.032228722350811445e+01,1.643306461854560752e+01,-3.259225688214964389e+00,-9.219631545751063584e-01,-2.415163852251129284e-01,3.027404453905997439e-01,3.984124651890307405e+02
1.047010154537275817e+01,1.563476929052382403e+01,-3.824910746425845165e+00,-9.131043272363950081e-01,-1.654184127187781350e-01,3.726596789531434473e-01,3.999178677428674860e+02
1.060013131633826333e+01,1.482150108776522579e+01,-4.380970680341921941e+00,-8.944222335990289485e-01,-8.754085975690689692e-02,4.385697959487435127e-01,4.014232702967042314e+02
1.071242883174440053e+01,1.399401509918655861e+01,-4.925445204986315773e+00,-8.661178596486622805e-01,-8.721539665698153226e-03,4.997617311732895362e-01,4.029286728505409769e+02
1.080705307193671061e+01,1.315306600510340296e+01,-5.456374108143672075e+00,-8.284957078513907058e-01,7.019160326129096628e-02,5.555771781717812052e-01,4.044340754043777224e+02
1.088406970098092330e+01,1.229940804511932662e+01,-5.971797262673075757e+00,-7.819605211923720267e-01,1.483496158003818066e-01,6.054156710809007746e-01,4.059394779582144679e+02
1.094355106531382482e+01,1.143379498602029543e+01,-6.469754638820552017e+00,-7.270129289260844896e-01,2.249116686482289518e-01,6.487410442403667155e-01,4.074448805120512134e+02
1.098575742986708903e+01,1.055710986366804072e+01,-6.948666076948274650e+00,-7.161305230572415637e-01,2.124300655788691761e-01,6.648522701939069135e-01,4.089502830658879589e+02
1.101184155889491834e+01,9.650507982217353842e+00,-7.418007609227956323e+00,-7.048658540521677285e-01,1.998350695663028420e-01,6.806086046773198728e-01,4.104894614825212784e+02
1.102165685631788783e+01,8.734889298501688160e+00,-7.866575790389219947e+00,-6.932249346667971324e-01,1.871334034613588437e-01,6.960016373998199057e-01,4.120286398991545980e+02
1.101607894558029521e+01,7.811599677896963634e+00,-8.293910095450572229e+00,-6.812139784705207868e-01,1.743318470477547844e-01,7.110231519713618997e-01,4.135678183157879175e+02
1.099599611617414041e+01,6.881979881620048367e+00,-8.699550138840537628e+00,-6.688393965296295374e-01,1.614372334243133200e-01,7.256651302854051355e-01,4.151069967324212371e+02
1.096230931077483284e+01,5.947365504179736639e+00,-9.083035677420209453e+00,-6.561077939868671383e-01,1.484564453591809829e-01,7.399197567972330969e-01,4.166461751490545566e+02
1.091593211224951432e+01,5.009086910881080712e+00,-9.443906613503893155e+00,-6.430259665375107625e-01,1.353964116175550569e-01,7.537794226943114184e-01,4.181853535656878762e+02
1.085779073053805988e+01,4.068469175383482295e+00,-9.781702997877964378e+00,-6.296008968038557807e-01,1.222641032648704162e-01,7.672367299564629706e-01,4.197245319823211958e+02
1.078882398940625542e+01,3.126832017312838996e+00,-1.009596503281890101e+01,-6.158397506100258267e-01,1.090665299474116862e-01,7.802844953037014752e-01,4.212637103989545153e+02
1.070998331307132290e+01,2.185489739928312858e+00,-1.038623307511031157e+01,-6.017498731590891214e-01,9.581073615232726937e-02,7.929157540296222217e-01,4.228028888155878349e+02
1.062223271269983371e+01,1.245751167844525220e+00,-1.065204763905915364e+01,-5.873387851145116523e-01,8.250379744903359180e-02,8.051237637183064066e-01,4.243420672322211544e+02
1.052654877277832313e+01,3.089195848093945207e-01,-1.089294939951134289e+01,-5.726141785880242141e-01,6.915281671400683172e-02,8.169020078427619014e-01,4.258812456488544740e+02
1.042392063735672991e+01,-6.237073284621436065e-01,-1.110847919486683111e+01,-5.575839130360381590e-01,5.576492034097020600e-02,8.282441992429799837e-01,4.274204240654877935e+02
1.031534999616412840e+01,-1.550837556397619998e+00,-1.129817803009366983e+01,-5.422560110667847821e-01,4.234725443849036292e-02,8.391442834817568475e-01,4.289596024821211131e+02
1.020185107059661433e+01,-2.471184810618956007e+00,-1.146158707974093893e+01,-5.266386541604061167e-01,2.890698101700569025e-02,8.495964420764861025e-01,4.304987808987544327e+02
1.008445059957745471e+01,-3.383468591936404035e+00,-1.159824769095109076e+01,-5.268387551153821402e-01,5.535391305986528399e-02,8.481596962932073103e-01,4.320379593153877522e+02
9.964187825289732459e+00,-4.286414252284240334e+00,-1.170770138647173653e+01,-5.266692545270801329e-01,8.176201000203696390e-02,8.461279277125480780e-01,4.335771377320210718e+02
9.842114478782109543e+00,-5.178753056597691362e+00,-1.178948986766641482e+01,-5.261302713787027185e-01,1.081127455467556370e-01,8.435025618148335180e-01,4.351163161486543913e+02
9.719294765447866524e+00,-6.059222244630465326e+00,-1.184315501752432809e+01,-5.252221838512491914e-01,1.343876336473911470e-01,8.402854404975140801e-01,4.366554945652877109e+02
9.596805350376854449e+00,-6.926565092712476890e+00,-1.186823890366928502e+01,-5.239456290584324494e-01,1.605682414745048803e-01,8.364788207834753520e-01,4.381946729819210304e+02
9.475735343580385717e+00,-7.779530975447156216e+00,-1.186428378136778683e+01,-5.223015025994248717e-01,1.866362023454993802e-01,8.320853732372857081e-01,4.397338513985543500e+02
9.357186285089060362e+00,-8.616875427347817862e+00,-1.183083209653581669e+01,-5.202909579303420795e-01,2.125732286078329814e-01,8.271081800914539262e-01,4.412730298151876696e+02
9.242272129923692958e+00,-9.437360204412650333e+00,-1.176742648874438046e+01,-5.179154055549081148e-01,2.383611244667747375e-01,8.215507330840122746e-01,4.428122082318209891e+02
9.126303548560331436e+00,-1.028139606519699889e+01,-1.166867697141488236e+01,-5.151765120348702487e-01,2.639817987487114159e-01,8.154169310089415257e-01,4.444321946175784319e+02
9.016518697763238777e+00,-1.110406736372696379e+01,-1.153741144597444546e+01,-5.120761988208566429e-01,2.894172775910656692e-01,8.087110769811577393e-01,4.460521810033358747e+02
8.914200261078272902e+00,-1.190399074808428281e+01,-1.137373876438097220e+01,-5.086166409044990955e-01,3.146497170499344964e-01,8.014378754179780628e-01,4.476721673890933175e+02
8.820633851406286752e+00,-1.267985434755336982e+01,-1.117899761445249496e+01,-5.048002652927637834e-01,3.396614156166151144e-01,7.936024287391792997e-01,4.492921537748507603e+02
8.737113019040837258e+00,-1.343038587241018789e+01,-1.095514171004397497e+01,-5.006297493055599235e-01,3.644348266342493092e-01,7.852102337879647287e-01,4.509121401606082031e+02
8.664944691892019435e+00,-1.415432075736787709e+01,-1.070412497674885977e+01,-4.961080186978195639e-01,3.889525706058867272e-01,7.762671779753436141e-01,4.525321265463656459e+02
8.605449155751040635e+00,-1.485040223191118436e+01,-1.042790153768317474e+01,-4.912382456073621229e-01,4.131974473853444185e-01,7.667795351506260237e-01,4.541521129321230887e+02
8.559960034401896678e+00,-1.551738139054500287e+01,-1.012842569926860037e+01,-4.860238463299823564e-01,4.371524482423194691e-01,7.567539612009229755e-01,4.557720993178805315e+02
8.529824269580004170e+00,-1.615401726295668183e+01,-9.807651937014234989e+00,-4.804684789233185094e-01,4.608007677933031454e-01,7.461974893827362232e-01,4.573920857036379743e+02
8.516402100777836992e+00,-1.675907688409153451e+01,-9.467534881296979066e+00,-4.745760406411778654e-01,4.841258157899324677e-01,7.351175253889024042e-01,4.590120720893954172e+02
8.520961837845856479e+00,-1.732032012718789105e+01,-9.117084707178713998e+00,-4.683506652001171444e-01,5.071112287565232579e-01,7.235218421543485601e-01,4.606000465072955876e+02
8.544567523875471693e+00,-1.784882584805263050e+01,-8.751468661209960587e+00,-4.617967198801889994e-01,5.297408814686237477e-01,7.114185744042946791e-01,4.621880209251957581e+02
8.588558565366978925e+00,-1.834345413278153458e+01,-8.372565224927367211e+00,-4.549188024618848192e-01,5.519988982645478437e-01,6.988162129487186514e-01,4.637759953430959285e+02
8.654286715387460305e+00,-1.880307279939583509e+01,-7.982252972678086422e+00,-4.477217380014182346e-01,5.738696641819563959e-01,6.857235987270774435e-01,4.653639697609960990e+02
8.742688762435616212e+00,-1.922674781560193580e+01,-7.582754164025186761e+00,-4.155996827564571450e-01,6.496941831791921418e-01,6.365315169225875813e-01,4.669519441788962695e+02
8.853856662911081088e+00,-1.961393031930786535e+01,-7.176978333750111183e+00,-3.796536753964396271e-01,7.195408125592271942e-01,5.814826788647069478e-01,4.685399185967964399e+02
8.987460990126521665e+00,-1.996426121616417859e+01,-6.768178665976189556e+00,-3.402144587717883528e-01,7.827668935286450358e-01,5.210835944821042842e-01,4.701278930146966104e+02
9.143176951778713146e+00,-2.027737915557694848e+01,-6.359608365889448223e+00,-2.976449162040969987e-01,8.387906838532420695e-01,4.558900004817633689e-01,4.717158674325967809e+02
9.320684396558810647e+00,-2.055292055481504576e+01,-5.954520636996057270e+00,-2.523367325345757251e-01,8.870967100839478592e-01,3.865017469203968492e-01,4.733038418504969513e+02
9.519667820710587591e+00,-2.079051962314565216e+01,-5.556168658379483816e+00,-2.047067902348309598e-01,9.272405100364664587e-01,3.135572779886562911e-01,4.748918162683971218e+02
9.739816374536516719e+00,-2.098980838599773691e+01,-5.167805561957585780e+00,-1.551933337374797606e-01,9.588527219241665955e-01,2.377277577875576975e-01,4.764797906862972923e+02
9.974657659287874623e+00,-2.114676644466017663e+01,-4.802218237482716034e+00,-1.042519372711110115e-01,9.816424825521946618e-01,1.597108951343983452e-01,4.780273217028186536e+02
1.022947823069880435e+01,-2.126655593665320865e+01,-4.452625404842209811e+00,-5.235131328737443329e-02,9.954001033328228054e-01,8.022452419748639374e-02,4.795748527193400150e+02
1.050399422350593426e+01,-2.134883106206439152e+01,-4.122116309484519014e+00,3.099996898509767827e-05,9.999989995192798409e-01,0.000000000000000000e+00,4.811223837358613764e+02
1.079727746442635805e+01,-2.139368103437540469e+01,-3.813309157878396860e+00,-1.072404435455144439e-01,9.940156066838430338e-01,2.074755256407161477e-02,4.826699147523827378e+02
1.110710109902416143e+01,-2.140206204185650307e+01,-3.527880187923964517e+00,-2.132278347660800377e-01,9.761304224621124570e-01,4.124668259747391041e-02,4.842174457689040992e+02
1.143057952643319020e+01,-2.137535281504519347e+01,-3.267034570030157070e+00,-3.166621472023066208e-01,9.465575965537791348e-01,6.125194638524517066e-02,4.857649767854254605e+02
1.176481413763826644e+01,-2.131491514497731288e+01,-3.031977311320178892e+00,-4.163049235680841842e-01,9.056512165686095850e-01,8.052381350354244349e-02,4.873125078019468219e+02
1.210689335850492832e+01,-2.122209381861622646e+01,-2.823913247631967050e+00,-5.109631032141448426e-01,8.539010685805581424e-01,9.883153459816018671e-02,4.888600388184681833e+02
1.245389269294202172e+01,-2.109821655446042143e+01,-2.644047035519390576e+00,-5.995033061376978667e-01,7.919267732854483599e-01,1.159559040487770504e-01,4.904075698349895447e+02
1.280287476619686338e+01,-2.094459393833001926e+01,-2.493583144254538198e+00,-6.808654026550391425e-01,7.204703679083384049e-01,1.316918844625042662e-01,4.919551008515109061e+02
1.318994167875935020e+01,-2.074052519772156700e+01,-2.360096232935370963e+00,-7.509180029328682560e-01,6.516661881072643991e-01,1.070108973325659130e-01,4.936770253197187799e+02
1.357191255631977000e+01,-2.050336359352602145e+01,-2.261514925245450058e+00,-8.132732689535777659e-01,5.761820812897966437e-01,8.123299332820275998e-02,4.953989497879266537e+02
1.394468459422291495e+01,-2.023470036897446178e+01,-2.198689887523179731e+00,-8.672920361650814369e-01,4.947917912715399380e-01,5.462240651779062123e-02,4.971208742561345275e+02
1.428593527836904187e+01,-1.995184683007914472e+01,-2.173794098613010650e+00,-9.124205887067221576e-01,4.083295999119490594e-01,2.745190591690239296e-02,4.987552758590562689e+02
1.461086174000639204e+01,-1.964310904093883892e+01,-2.184410580747047970e+00,-9.481963343960251311e-01,3.176817769973940830e-01,0.000000000000000000e+00,5.003896774619780103e+02
1.491582220978925655e+01,-1.930981871267092487e+01,-2.230935736558888660e+00,-8.695153985263810448e-01,4.839543351319641196e-01,9.863657146402546316e-02,5.020240790648997518e+02
