9.094931988903072195e-01,9.236941747556308258e+00,6.627250367344323934e+00,-3.689463081442820869e-01,1.608282804914330233e-01,-9.154293451165232964e-01,1.833994686236469818e+02
9.003267142755652097e-01,8.225072067078057714e+00,6.683177126279820079e+00,-3.618712223016566365e-01,1.007279574043482145e-01,-9.267691714008918780e-01,1.904179789722972487e+02
8.661985468780679653e-01,7.184175642659285543e+00,6.731804957061333639e+00,-3.534243914556861599e-01,4.024581775100427583e-02,-9.345958878947490112e-01,1.974364893209475156e+02
8.262097455364444398e-01,6.193192065502842958e+00,6.766027587375380570e+00,-3.436378313260367023e-01,-2.038889519202751952e-02,-9.388798292784813482e-01,2.040470072003405733e+02
7.887782322401661883e-01,5.146568551450456219e+00,6.785843678876554819e+00,-3.148323935669460338e-01,-1.062267644006286149e-01,-9.431831415388536310e-01,2.110655175489908402e+02
7.638203497202895598e-01,4.121657506367212065e+00,6.786242858447922188e+00,-2.834401661684620710e-01,-1.911918082526523344e-01,-9.397368592626460515e-01,2.180840278976411071e+02
7.569756411670793828e-01,3.134424380748246364e+00,6.764975442736887778e+00,-2.497190743694931991e-01,-2.745859387841581567e-01,-9.285693006530506555e-01,2.251025382462913740e+02
7.673254863272102044e-01,2.663668715049453795e+00,6.742443316353316618e+00,-2.139461760882915564e-01,-3.557239738340201018e-01,-9.097722177412340683e-01,2.286335005360879222e+02
8.204212818212406333e-01,1.791056741286668474e+00,6.672449475850847023e+00,-2.279433167819899797e-01,-4.662542446224481885e-01,-8.547788156620813593e-01,2.356520108847381891e+02
9.085825457880040146e-01,9.948948553189916888e-01,6.575172399893509656e+00,-2.384216563918834797e-01,-5.695868449973874315e-01,-7.865900709824129589e-01,2.426705212333884560e+02
1.037010977785444155e+00,2.908874141906407362e-01,6.449428438261096019e+00,-2.452194431456319046e-01,-6.641266406485021312e-01,-7.062586140239552890e-01,2.496890315820387229e+02
1.194745859663126630e+00,-2.610256973249955315e-01,6.307368764350610668e+00,-2.482317391505136639e-01,-7.484142254005243799e-01,-6.150245124341641167e-01,2.561927709839462750e+02
1.406181866845557238e+00,-7.319148098185994655e-01,6.128417027541513740e+00,-2.526279196203212174e-01,-7.467872851430680248e-01,-6.152120649325895085e-01,2.632112813325965703e+02
1.654818836218214795e+00,-1.069755558487296421e+00,5.927729818241982862e+00,-2.570185391948536791e-01,-7.451439095784373468e-01,-6.153860775074152523e-01,2.702297916812468657e+02
1.785313538245826059e+00,-1.167832053257224834e+00,5.826547652337422001e+00,-2.614035031770221007e-01,-7.434841340928245446e-01,-6.155465463636586865e-01,2.735219638801244173e+02
2.082706897183391970e+00,-1.259552356136966367e+00,5.603088441358294425e+00,-2.941255249231659041e-01,-6.035238359667147723e-01,-7.411121069103419057e-01,2.805404742287747126e+02
2.385780621296329507e+00,-1.248147918392436662e+00,5.380358945446579000e+00,-3.161336099430028801e-01,-4.415793703563931083e-01,-8.396816065274887997e-01,2.875589845774250080e+02
2.680478202535254262e+00,-1.156695406708000418e+00,5.169203119905542820e+00,-3.266260900726968286e-01,-2.635497786828038813e-01,-9.076645368420042104e-01,2.945774949260753033e+02
2.954702225712684704e+00,-1.024982157697932328e+00,4.982350538204902257e+00,-3.252207639973165865e-01,-7.592001369675641098e-02,-9.425845352994708382e-01,3.015960052747255986e+02
3.096426781381818927e+00,-9.490752562569835238e-01,4.894539317792868438e+00,-3.119688187346582597e-01,1.144752740488987064e-01,-9.431695859011505201e-01,3.056984539786553228e+02
3.296494108531196066e+00,-8.587081352500725018e-01,4.791760683128980958e+00,-3.701658918182298974e-01,3.648192115598301033e-01,-8.543314084192068503e-01,3.127169643273056181e+02
3.439185503188417314e+00,-8.471738365578406205e-01,4.744436466635995941e+00,-4.009886925694574056e-01,5.881842400016518146e-01,-7.023142944902683871e-01,3.197354746759559134e+02
3.476364127805300352e+00,-8.991005252781542056e-01,4.749283333983875366e+00,-4.021578426520245331e-01,7.680522916525062138e-01,-4.983600574691699481e-01,3.236072408917680150e+02
3.455794629031420762e+00,-1.104841499178905728e+00,4.808370806756070870e+00,-4.504513266015370831e-01,6.798804810386644970e-01,-5.786658222677001362e-01,3.306257512404183103e+02
3.419453293570340335e+00,-1.203445681338649154e+00,4.840453983129399340e+00,-4.912873302855886304e-01,5.804528514602045330e-01,-6.493914430659241122e-01,3.328217155200702564e+02
3.203207927648890951e+00,-1.619933797946221166e+00,4.978227655636062288e+00,-5.031255789149960966e-01,4.708111529287223318e-01,-7.247064992935287053e-01,3.398402258687205517e+02
2.886033206722003808e+00,-2.117833149271678206e+00,5.137432897016203093e+00,-5.059911670197119182e-01,3.527731076927932974e-01,-7.870972451900610789e-01,3.468587362173708470e+02
2.471174018044459242e+00,-2.672436946809510605e+00,5.300821756622650760e+00,-4.998329929737289623e-01,2.284437611441279548e-01,-8.354510321545349782e-01,3.538772465660211424e+02
2.379154638455409199e+00,-2.780687322785098115e+00,5.328888687677849845e+00,-4.847608751193016596e-01,1.000403516184641822e-01,-8.689055311137525717e-01,3.551547044580041756e+02
1.787498970077077809e+00,-3.400611051425113995e+00,5.465247207784608818e+00,-3.847328257718592437e-01,-3.275435642588325758e-02,-9.224455566093338055e-01,3.621732148066544710e+02
1.114856068276707024e+00,-4.022319113875737706e+00,5.573469090139768767e+00,-2.729678942544024878e-01,-1.645498125205241136e-01,-9.478448648937500831e-01,3.691917251553047663e+02
3.732279323124954584e-01,-4.621483862755538574e+00,5.640807568303865871e+00,-1.528756308244549889e-01,-2.913254105851684761e-01,-9.443286221686572057e-01,3.762102355039550616e+02
-7.471072447194231081e-02,-4.935031509251214032e+00,5.649344143620541381e+00,-2.811961787175435226e-02,-4.092136786345327848e-01,-9.120040856862162704e-01,3.801537196123343278e+02
-9.170336752058105834e-01,-5.433444016876350702e+00,5.602446979585662845e+00,1.037439378260125861e-01,-4.446733111706776542e-01,-8.896633305333803143e-01,3.871722299609846232e+02
-1.792156169104615504e+00,-5.850277225980171636e+00,5.485191856793587561e+00,2.336213308139741540e-01,-4.716198760151696923e-01,-8.502904011778461557e-01,3.941907403096349185e+02
-2.680319272487050597e+00,-6.167918059985508350e+00,5.294309062363216967e+00,3.590261513769170132e-01,-4.895375040688071944e-01,-7.946390719921320178e-01,4.012092506582852138e+02
-2.711099125832971080e+00,-6.175379764721918185e+00,5.285082244783597005e+00,4.775576116798762594e-01,-4.980831727584986712e-01,-7.237747443369956235e-01,4.014541580934391050e+02
-3.510639050561350061e+00,-6.274314019383585794e+00,4.973782600753555272e+00,5.260271057748995283e-01,-5.524306144563163601e-01,-6.466172748892067279e-01,4.079308790662713591e+02
-4.353358809693100184e+00,-6.269714873143626299e+00,4.565311124040014157e+00,6.673875074487373160e-01,-3.835950700137757963e-01,-6.383155467025243279e-01,4.149493894149216544e+02
-5.159744830468063093e+00,-6.161807299303175611e+00,4.089141046190138518e+00,7.763414094707657975e-01,-1.961332528950215093e-01,-5.990190005746162116e-01,4.219678997635719497e+02
-5.253978842627889279e+00,-6.138284174597544940e+00,4.022241657080783739e+00,8.475983557701721738e-01,8.522863731189308850e-04,-5.306357516252500073e-01,4.228373710671287995e+02
-5.961839101037209154e+00,-5.882889721051769882e+00,3.421189213028870135e+00,7.784329873940936118e-01,2.080780023439645354e-01,-5.922361261160801194e-01,4.298558814157790948e+02
-6.606923810847281864e+00,-5.580179425445086494e+00,2.762311603768637713e+00,6.691619565747040088e-01,4.045832817824223659e-01,-6.233238676442742765e-01,4.368743917644293902e+02
-6.949633656915062296e+00,-5.388586421532794546e+00,2.336379380335377842e+00,5.254149800318930197e-01,5.802440429457976778e-01,-6.222973159056360837e-01,4.410677709640517037e+02
-7.361248172612882001e+00,-5.123281106330065171e+00,1.702248481795543444e+00,4.749191306339391461e-01,6.893497504970328427e-01,-5.470344969341367491e-01,4.469065079916737773e+02
-7.768046644163746350e+00,-4.808836009587405869e+00,9.010435260587532635e-01,6.789499975236136242e-01,5.376650227567918439e-01,-4.999412207120389473e-01,4.539250183403240726e+02
-8.076383469565088902e+00,-4.487513355541377535e+00,7.880600207250681999e-02,8.375898079135860597e-01,3.500348528496678990e-01,-4.194245050903056549e-01,4.609435286889743679e+02
-8.275162125599502261e+00,-4.142511483040379083e+00,-7.436640319849846525e-01,9.402327691337025728e-01,1.390031795679015636e-01,-3.108672641457956853e-01,4.679620390376246633e+02
-8.295485492809397954e+00,-4.048002264635147007e+00,-9.435629597664618728e-01,9.800167024940126259e-01,-8.132156578864072061e-02,-1.815270386759675336e-01,4.697030094220715455e+02
-8.256205037857039741e+00,-3.621849886760128978e+00,-1.720092005592992690e+00,9.328778912686693792e-01,-1.826318908359977899e-01,-3.104552019674392538e-01,4.767215197707218408e+02
-8.125538569229069807e+00,-3.238560932826274552e+00,-2.301246345840445073e+00,8.585845164445401467e-01,-2.786260980004053311e-01,-4.303465180887708352e-01,4.822949598108953637e+02
-7.836784051292584152e+00,-2.688235400012956688e+00,-2.971878421341653365e+00,6.044847890188780326e-01,-3.455458514140837267e-01,-7.177703005944088277e-01,4.893134701595456590e+02
-7.686030689044278219e+00,-2.454167225052007240e+00,-3.195033108835727997e+00,2.587103740796171669e-01,-3.600609320610589359e-01,-8.963387013549698468e-01,4.919358046918497962e+02
-7.179427215424639463e+00,-1.751315545211217017e+00,-3.713429214063554529e+00,2.232078509596158444e-01,-4.582864244338321069e-01,-8.603195966894831015e-01,4.989543150405000915e+02
-6.585003622642567223e+00,-9.814849925897565219e-01,-4.153251117302307449e+00,1.849808446769565795e-01,-5.509180170683436462e-01,-8.137993767326843209e-01,5.059728253891503869e+02
-5.925628745630584504e+00,-1.543205123974246418e-01,-4.516706494841066899e+00,1.444959486078523925e-01,-6.368250659680602110e-01,-7.573458629906048012e-01,5.129913357378006822e+02
-5.444619364367939696e+00,4.461087462424349059e-01,-4.715144854106964267e+00,1.022473139984120816e-01,-7.149590009343742558e-01,-6.916481141165344848e-01,5.177964010943760513e+02
-4.713060441004629730e+00,1.362416086489731670e+00,-4.935577948197041209e+00,1.584271312526212006e-01,-8.923509891161305330e-01,-4.226210552102815932e-01,5.248149114430262898e+02
-3.963884923189714637e+00,2.303437588093669497e+00,-5.092202928964966624e+00,1.976552623414150889e-01,-9.742615395981700788e-01,-1.083736579113376702e-01,5.318334217916765283e+02
-3.468077570776908480e+00,2.934761863244397251e+00,-5.157279104786026025e+00,2.157343159162261603e-01,-9.519262641806172098e-01,2.174697507689765386e-01,5.364701734136885989e+02
-2.726054302266477158e+00,3.891388229813596222e+00,-5.202476818014477367e+00,2.143567609784592376e-01,-8.105002630456460411e-01,5.451041209039204638e-01,5.434886837623388374e+02
-1.995486816124574236e+00,4.826664275348561794e+00,-5.199055379963470891e+00,1.856813567682681909e-01,-5.658588881854494934e-01,8.033207033376444928e-01,5.505071941109890759e+02
-1.280973687800104788e+00,5.716482629486139722e+00,-5.151992135412113427e+00,1.333598488429613427e-01,-2.491566483564531809e-01,9.592362145462145495e-01,5.575257044596393143e+02
-7.686502093756691911e-01,6.326472059656172320e+00,-5.088287967081899232e+00,6.405525706141385056e-02,9.927516335718793161e-02,9.929951490232384881e-01,5.627246685012754597e+02
-1.047175275474665906e-01,7.063733566521730900e+00,-4.967714572246409332e+00,-4.440920222776705700e-02,2.126208581462981084e-01,9.761240666202117833e-01,5.697431788499256982e+02
8.998635497991830379e-02,7.260588720532332729e+00,-4.920989607179417469e+00,-1.517680289318035780e-01,3.206730441325958414e-01,9.349509421124507780e-01,5.719118072143065774e+02
6.813934729320725303e-01,7.787191442337720204e+00,-4.742913913886712685e+00,-1.777171388224901560e-01,3.077108090843140853e-01,9.347345486965946693e-01,5.789303175629568159e+02
1.228796375144969089e+00,8.191695627358949849e+00,-4.543472977145335712e+00,-2.035167069101554149e-01,2.944896619270181426e-01,9.337316472157713987e-01,5.859488279116070544e+02
1.721100959245542628e+00,8.465576706635088655e+00,-4.329620697656549666e+00,-2.291450313014872509e-01,2.810207240472774592e-01,9.319430815620532993e-01,5.929673382602572929e+02
1.865447744574146194e+00,8.512621593865230096e+00,-4.254340516374932157e+00,-2.545805540208987972e-01,2.673153250840696327e-01,9.293703559264321346e-01,5.953434600765066307e+02
2.217622498830440936e+00,8.511610855576030588e+00,-4.028126365614447479e+00,-3.764330003126565849e-01,1.657649499303695817e-01,9.114922806303557001e-01,6.023619704251568692e+02
2.486241212011278900e+00,8.370034948905587413e+00,-3.802651919537200609e+00,-4.886938496301019841e-01,5.999087377679644673e-02,8.703892326974786986e-01,6.093804807738071077e+02
2.659563667253614039e+00,8.103633906656336094e+00,-3.583852754326062762e+00,-5.885027217739454697e-01,-4.731180602551758596e-02,8.071085053902659068e-01,6.163797405699006049e+02
2.728020282120737772e+00,7.731759927904406915e+00,-3.378203404708094659e+00,-5.173662610600897604e-01,-5.222891034100449192e-02,8.541676023101134607e-01,6.233982509185508434e+02
2.681243910185659551e+00,7.275108119297006404e+00,-3.195722609639084055e+00,-4.424534831479353114e-01,-5.676478728999702350e-02,8.949919967067165860e-01,6.304167612672010819e+02
2.561463911228588408e+00,6.905789456730037301e+00,-3.089386052112688130e+00,-3.643111544612406827e-01,-6.088633079931531772e-02,9.292837227947944312e-01,6.353740428898266828e+02
2.267247788342003911e+00,6.333585973007568981e+00,-2.976460169644750131e+00,-3.522187836147960827e-01,-1.397441213387909109e-01,9.254250423542863535e-01,6.423925532384769213e+02
1.856786538269649789e+00,5.729323257517231482e+00,-2.902836585089587640e+00,-3.378793730111413485e-01,-2.177103746075404467e-01,9.156624498570310466e-01,6.494110635871271597e+02
1.345383393023422469e+00,5.109995815006577402e+00,-2.868572027872577479e+00,-3.213844004077552330e-01,-2.942877103247369952e-01,9.000582262956832169e-01,6.564295739357773982e+02
1.338833069954212807e+00,5.103107126273462413e+00,-2.868629992275237406e+00,-3.028390933026421927e-01,-3.689876074609786949e-01,8.787119147386122098e-01,6.565067645609104829e+02
6.699085573571612606e-01,4.476084976998309095e+00,-2.917111103024619290e+00,-2.857837801525260346e-01,-5.490150441178370810e-01,7.854349828815071488e-01,6.635252749095607214e+02
-5.692251439466487067e-02,3.858891289486678478e+00,-3.019495975233106755e+00,-2.568966186671414187e-01,-7.063124351777495535e-01,6.596399557568809469e-01,6.705437852582109599e+02
-8.143538899121799401e-01,3.257794666405048556e+00,-3.190112911585855748e+00,-2.173735827781086982e-01,-8.343674771810509760e-01,5.065349331814396061e-01,6.775622956068611984e+02
-1.574905843443029863e+00,2.678160025295892144e+00,-3.443280880850297709e+00,-1.688509801376718023e-01,-9.278785377971260351e-01,3.324586675098018529e-01,6.845808059555114369e+02
-1.760402737899517511e+00,2.537551240071624914e+00,-3.530659424501914945e+00,-1.133377078730331278e-01,-9.829741392936697242e-01,1.446181366710289906e-01,6.863459153387550487e+02
-2.458699000774191568e+00,1.999127142229835785e+00,-3.977622138338449354e+00,3.918176252771966850e-02,-8.231944101422522531e-01,5.664042307367075368e-01,6.933644256874052871e+02
-3.101960243739046330e+00,1.482015262892416585e+00,-4.524538255588813840e+00,1.828188891910884906e-01,-4.768000570381073500e-01,8.597889039549524437e-01,7.003829360360555256e+02
-3.284524155713603566e+00,1.319763702331505417e+00,-4.731947473829749562e+00,2.850117655835157082e-01,-2.231715696163444687e-02,9.582631360877233995e-01,7.026406468746947667e+02
-3.769823384370375674e+00,8.220477196405774345e-01,-5.465145587059568655e+00,1.057896792341279230e-02,-5.996577922315263764e-01,8.001853645589793729e-01,7.096591572233450051e+02
-4.119074127938309182e+00,3.928285264075217498e-01,-6.159288133856136938e+00,-2.684411376764574975e-01,-9.169718076413519992e-01,2.951271922314608331e-01,7.157224089935780285e+02
-4.443911632140456369e+00,-1.131220643458455966e-01,-7.008395385787684617e+00,-2.460067729862715491e-01,-9.453655350761478449e-01,2.139221183755325439e-01,7.227409193422282669e+02
-4.697338805235101944e+00,-6.386496631293764326e-01,-7.870416630987303819e+00,-2.216280241535298901e-01,-9.662872970133750128e-01,1.310262513215830760e-01,7.297594296908785054e+02
-4.856298116974695489e+00,-1.096145228590991838e+00,-8.565886654387067978e+00,-1.954975638362998203e-01,-9.795717367764800176e-01,4.709474532409687469e-02,7.355654455436230137e+02
-5.000041614114955735e+00,-1.676441790869229731e+00,-9.355152638164073053e+00,-4.899006941716919222e-02,-9.415821370235217813e-01,3.331982177873363260e-01,7.425839558922732522e+02
-5.110850909920135798e+00,-2.278950380700963230e+00,-1.006283378674815765e+01,1.026497696569829698e-01,-8.049495155304481342e-01,5.843948170857372615e-01,7.496024662409234907e+02
-5.203097260105657540e+00,-2.897271691299065033e+00,-1.065769186731128571e+01,2.435356929705590479e-01,-5.839879477343274949e-01,7.743684156462724566e-01,7.566209765895737291e+02
-5.288984813775478244e+00,-3.522216662110795760e+00,-1.111354318120854501e+01,3.589080664109078889e-01,-3.018460650784013377e-01,8.832168209800469461e-01,7.636394869382239676e+02
-5.364943618349860444e+00,-4.055159084627754318e+00,-1.137174037141590333e+01,4.366801449359839493e-01,1.191809139215833056e-02,8.995367752996824562e-01,7.696673601813268988e+02
-5.460637744149356543e+00,-4.659672866233860233e+00,-1.150921322424389182e+01,2.526716590359693870e-01,-3.816723363405399860e-02,9.667979597591305208e-01,7.766858705299771373e+02
-5.525154287224977701e+00,-5.034015421444054894e+00,-1.149137221693992039e+01,5.833096736561733942e-02,-8.669183228519437845e-02,9.945250245511227938e-01,7.812348674731907749e+02
-5.622682651810912979e+00,-5.575691966797380772e+00,-1.130265645495018134e+01,4.661299003386669242e-03,2.034361377662214365e-01,9.790761002816189551e-01,7.882533778218410134e+02
-5.712653824806406710e+00,-6.074191943442156294e+00,-1.096248633489341451e+01,-4.941526315202900144e-02,4.758054162427587941e-01,8.781602004429737152e-01,7.952718881704912519e+02
-5.786532597494931096e+00,-6.523085640260809726e+00,-1.048382173193566125e+01,-9.917819445631874398e-02,7.066399785803131328e-01,7.005866302012173641e-01,8.022903985191414904e+02
-5.834170785902690781e+00,-6.905515413140135728e+00,-9.896092845807105576e+00,-1.402835198458275145e-01,8.757894883705802380e-01,4.618563695775583788e-01,8.091169046551120800e+02
-5.849391432000766500e+00,-7.237198290406928969e+00,-9.179056027256386585e+00,2.494404614928362462e-02,8.631321604641422063e-01,5.043596614858381066e-01,8.161354150037623185e+02
-5.821829990636398833e+00,-7.501809464668715677e+00,-8.362154664515017544e+00,1.894415364833763882e-01,8.252136034540699105e-01,5.321018820952051476e-01,8.231539253524125570e+02
-5.747856630426523949e+00,-7.694978310125096144e+00,-7.459079231234118978e+00,3.483946350643103984e-01,7.631435864134257230e-01,5.442711133016465697e-01,8.301724357010627955e+02
-5.635202637494264977e+00,-7.814261394006030592e+00,-6.484863712545900327e+00,4.971512955766125286e-01,6.787387039135666100e-01,5.405112035067419773e-01,8.371909460497130340e+02
-5.632428761416520935e+00,-7.815100070734003701e+00,-6.464756186819296424e+00,6.313578844987145500e-01,5.744692118339168596e-01,5.209321897676363333e-01,8.373275260892681899e+02
-5.466380698359985857e+00,-7.781114784765545522e+00,-5.380418741737405419e+00,4.929628679141875303e-01,8.508524308957403637e-01,-1.817573979158673969e-01,8.443460364379184284e+02
-5.373291332886092952e+00,-7.724818398930175967e+00,-4.806294391586906301e+00,6.405758524746435478e-02,6.258158036943456404e-01,-7.773346805714926866e-01,8.479258966730147904e+02
-5.176337896539060068e+00,-7.541866969306554758e+00,-3.651206551637563802e+00,4.017264144826992456e-01,8.101870222077878214e-01,-4.268616602055792519e-01,8.549444070216650289e+02
-4.961977430119857146e+00,-7.293975227710130405e+00,-2.480221578861133036e+00,6.305897086176343036e-01,7.751232457281511667e-01,3.922465191548646368e-02,8.619629173703152674e+02
-4.806913350254935935e+00,-7.090879983780230766e+00,-1.703357250479651919e+00,6.886610164977837734e-01,5.301213166285202449e-01,4.946871678270997053e-01,8.666128459480917172e+02
-4.551617633188723033e+00,-6.727350429291602651e+00,-5.427039179757916498e-01,7.903258441619193109e-01,6.118587818208663931e-01,-3.181023669924522984e-02,8.736313562967419557e+02
-4.274527998255867267e+00,-6.300479173606944983e+00,5.900282197885926561e-01,6.594634734977128376e-01,5.135770698089059394e-01,-5.489485590556160144e-01,8.806498666453921942e+02
-3.978205093718828689e+00,-5.802271410247847427e+00,1.670204169773995329e+00,3.345758216168049914e-01,2.641923180484778699e-01,-9.045769390571941626e-01,8.876247268566925186e+02
-3.658756949392987678e+00,-5.216297821739119378e+00,2.693804024958771137e+00,4.569337020696529472e-01,-1.007803559279934896e-01,-8.837719795130914990e-01,8.946432372053427571e+02
-3.316521355371632396e+00,-4.537323007011202058e+00,3.637110562987772688e+00,5.113868242125477748e-01,-4.507760574713739476e-01,-7.316300035078507902e-01,9.016617475539929956e+02
-3.101713422551004129e+00,-4.078733518053287987e+00,4.139314774587503187e+00,4.898429406100003880e-01,-7.337821371784700730e-01,-4.707607340174161381e-01,9.058064787510287488e+02
-2.718157880797777093e+00,-3.210815689582873222e+00,4.892132174670284606e+00,5.042094060521783438e-01,-7.633408018778209403e-01,-4.038337467785050316e-01,9.128249890996789873e+02
-2.316471609428734091e+00,-2.265986885267914364e+00,5.546422570696837973e+00,5.157727975773185314e-01,-7.886557911079491445e-01,-3.346617164113445675e-01,9.198434994483292257e+02
-1.901971666328248434e+00,-1.258765556799420704e+00,6.101222407795842351e+00,5.244688312857935797e-01,-8.095863717247087088e-01,-2.636291936179367967e-01,9.268620097969794642e+02
-1.480446216812516314e+00,-2.034681670622091043e-01,6.555581694833382045e+00,5.302491637940841551e-01,-8.260161848815791297e-01,-1.911310718060530156e-01,9.338805201456297027e+02
-1.058151821186588348e+00,8.858024613614022824e-01,6.908564131578802225e+00,5.330816609479833712e-01,-8.378538928327204927e-01,-1.175703917932629100e-01,9.408990304942799412e+02
-6.418106100818088411e-01,1.995168744133186012e+00,7.159247234469821919e+00,5.329505764314588223e-01,-8.450336866465992802e-01,-4.335610123491363821e-02,9.479175408429301797e+02
-2.386073479298188582e-01,3.110989877433139927e+00,7.306722460964294896e+00,5.298566392799608504e-01,-8.475156520107602898e-01,3.109921877146697156e-02,9.549360511915804182e+02
1.438136150532636770e-01,4.219873322455910625e+00,7.350095332468503884e+00,5.238170498129512964e-01,-8.452859910966016299e-01,1.053816472710631807e-01,9.619545615402306566e+02
4.973515019908967827e-01,5.308686230025668529e+00,7.288485555827886486e+00,5.148653840089920664e-01,-8.383570992523583509e-01,1.790782244799552503e-01,9.689730718888808951e+02
8.134523791859532560e-01,6.364566803230564673e+00,7.121027143363601652e+00,5.030514068551200646e-01,-8.267674960986303168e-01,2.517792474694731109e-01,9.759915822375311336e+02
1.083112536266717996e+00,7.374935595988239001e+00,6.846868531443660366e+00,4.884407957076710716e-01,-8.105816114092393443e-01,3.230805477493336464e-01,9.830100925861813721e+02
1.296881976214400822e+00,8.327506745464624771e+00,6.465172697578305261e+00,4.711147752014049339e-01,-7.898894269665389656e-01,3.925857380925608653e-01,9.900286029348316106e+02
1.429703882950080551e+00,9.099189248596944779e+00,6.040595525573008828e+00,4.511696657349851258e-01,-7.648059763800968414e-01,4.599084161157083739e-01,9.961494440131456258e+02
1.526595851879204657e+00,9.909894980771099426e+00,5.457777251576335864e+00,3.214507962875265967e-01,-8.500125598921353109e-01,4.173080799509422123e-01,1.003167954361795864e+03
1.580972225038056012e+00,1.064108871578866200e+01,4.792205039267377842e+00,1.834057209626636931e-01,-9.132021256334473813e-01,3.638986387132742140e-01,1.010186464710446103e+03
1.605009580087057630e+00,1.128693778240396206e+01,4.057573565172448937e+00,4.061007816674373078e-02,-9.527379434150203830e-01,3.010635028183916706e-01,1.017204975059096341e+03
1.610661564831053605e+00,1.184118747166770191e+01,3.267586916404300101e+00,-1.032374461699141627e-01,-9.675959595677072755e-01,2.304302253117347377e-01,1.024223485407746693e+03
1.609653501579166646e+00,1.229716670450448213e+01,2.435956722227052840e+00,-2.444109204322417184e-01,-9.573913212842294351e-01,1.538283455794460797e-01,1.031241995756397046e+03
1.613477047297034339e+00,1.264779380308701207e+01,1.576400284845400179e+00,-3.792536748431389881e-01,-9.223883451887251450e-01,7.324200146441901815e-02,1.038260506105047398e+03
1.633384910222372977e+00,1.288558236494037068e+01,7.026387096147141964e-01,-5.042730152877533678e-01,-8.634936719022967555e-01,-9.241462964688321180e-03,1.045279016453697750e+03
1.674912505596906298e+00,1.299030918411739499e+01,-7.813964524147916368e-02,-6.162306904441540167e-01,-7.822327837100733205e-01,-9.148556303729840633e-02,1.051544555969296880e+03
1.758162987727176052e+00,1.297931707466351448e+01,-9.406122475740479327e-01,-7.503975674406134777e-01,-6.525941816991422950e-01,-1.049872601415492712e-01,1.058563066317947232e+03
1.883376155291828447e+00,1.283455288863012278e+01,-1.777250675213724929e+00,-8.583085701135343415e-01,-5.001217781401035012e-01,-1.148155281310554998e-01,1.065581576666597584e+03
2.045776466349431555e+00,1.255621765325913586e+01,-2.573305360463642000e+00,-9.361879742479524147e-01,-3.301504632824323049e-01,-1.206264832787761337e-01,1.072600087015247937e+03
2.235596341217654714e+00,1.214768236832495951e+01,-3.313688418431935290e+00,-9.813108318601385660e-01,-1.486274004019772776e-01,-1.222168037705289728e-01,1.079618597363898289e+03
2.443204176374484504e+00,1.161260371206587294e+01,-3.983319556502371128e+00,-9.920983156095074529e-01,3.809605636435385578e-02,-1.195308439453207361e-01,1.086637107712548641e+03
2.659107579766331053e+00,1.095492056811556125e+01,-4.567128130727527768e+00,-9.681729638234580770e-01,2.234865875090857046e-01,-1.126625817416910535e-01,1.093655618061198993e+03
2.746528401895980576e+00,1.064605810443063127e+01,-4.760363018862163287e+00,-9.103718922449879347e-01,4.010575026910484508e-01,-1.018523310740233473e-01,1.096450310686425610e+03
2.962875591927906171e+00,9.755437107844336708e+00,-5.136608430912946055e+00,-9.348726042369229772e-01,3.547365957893478527e-01,-1.315908259617133182e-02,1.103468821035075962e+03
3.165365688571129432e+00,8.755982520326149654e+00,-5.398123129302659251e+00,-9.494520496138896259e-01,3.046510807576582880e-01,7.567380310934361531e-02,1.110487331383726314e+03
3.348625477515353221e+00,7.662314638835713509e+00,-5.551420186257169931e+00,-9.539555093919286355e-01,2.513324876683021292e-01,1.637035941671550754e-01,1.117505841732376666e+03
3.508953227139437914e+00,6.492446314883991931e+00,-5.610204863853957669e+00,-9.483351951704573901e-01,1.953466566428067319e-01,2.499960826485346510e-01,1.124524352081027018e+03
3.643232280887625407e+00,5.264482866068447287e+00,-5.588195307865471584e+00,-9.326507558831055311e-01,1.372877328506688921e-01,3.336354986503010656e-01,1.131542862429677371e+03
3.748931966564342577e+00,3.996607582902813594e+00,-5.499120673716163310e+00,-9.070686444189199893e-01,7.777186119954557220e-02,4.137342286032379968e-01,1.138561372778327723e+03
3.824108366104706835e+00,2.707067219632047994e+00,-5.356719251312263452e+00,-8.718603508696218807e-01,1.743064763055205552e-02,4.894422346968901327e-01,1.145579883126978075e+03
3.867404945726119259e+00,1.414157471673157751e+00,-5.174736588929475190e+00,-8.273995211794133997e-01,-4.309554359791093608e-02,5.599560754867554113e-01,1.152598393475628427e+03
3.878053046382509361e+00,1.362084423167927993e-01,-4.966923616355011006e+00,-7.741579917927706722e-01,-1.031643855202285659e-01,6.245274319868462376e-01,1.159616903824278779e+03
3.855872234463707304e+00,-1.108429898671721592e+00,-4.747034767478076844e+00,-7.127007823882578474e-01,-1.621384048691684177e-01,6.824710487999472441e-01,1.166635414172929131e+03
3.820744661935185249e+00,-1.922184779283986567e+00,-4.597672272012087724e+00,-6.436800998317702138e-01,-2.193917469611217363e-01,7.331720060438209341e-01,1.171416650261072618e+03
3.740654897696704229e+00,-3.051195950990430728e+00,-4.390616528430446586e+00,-6.415416830471269982e-01,-2.779683624413152865e-01,7.149516475866668497e-01,1.178435160609722971e+03
3.627942686966266539e+00,-4.097949953277303159e+00,-4.207676667559784534e+00,-6.369860785047827267e-01,-3.354976413931940460e-01,6.940375122447174361e-01,1.185453670958373323e+03
3.529521577383840647e+00,-4.730600787529676943e+00,-4.108985636756360194e+00,-6.300304486993661968e-01,-3.917628514080629953e-01,6.705083906708328989e-01,1.190133528200938372e+03
3.340858854057891403e+00,-5.566952405361266898e+00,-4.005062427997192920e+00,-5.809101312528011096e-01,-4.382784652753922705e-01,6.858960608374675694e-01,1.197152038549588724e+03
3.217521313291318297e+00,-5.939805091267956527e+00,-3.978182588681594023e+00,-5.289937203924602871e-01,-4.826845142093773577e-01,6.979823088846596191e-01,1.200828234387649445e+03
2.927630723314522676e+00,-6.519823050133425113e+00,-3.986814442525707047e+00,-4.207629142057090488e-01,-3.566844296857943908e-01,8.341059810642303951e-01,1.207846744736299797e+03
2.753103643396928035e+00,-6.740567495543651866e+00,-4.023636280607301607e+00,-2.931266571218754113e-01,-2.142341729566389907e-01,9.317609575529187671e-01,1.211313378967863855e+03
2.332517674912700123e+00,-7.063936499168403493e+00,-4.162783692637702870e+00,-6.309067374458681154e-01,2.579479461992422729e-01,7.317223146096131225e-01,1.218331889316514207e+03
2.011067339408495691e+00,-7.209561707418197685e+00,-4.290312618406384004e+00,-7.307923571821249853e-01,6.328662882470983408e-01,2.557748851722303485e-01,1.222970356361650374e+03
1.563809811362948832e+00,-7.323655879074648212e+00,-4.479797817671908433e+00,-6.649340828685502691e-01,7.291917675597571202e-01,1.616787912864452448e-01,1.228714490883405915e+03
9.689999910918301040e-01,-7.399773352023371942e+00,-4.728374519791958441e+00,-5.873223722903783139e-01,7.920984382272427959e-01,1.662242315778947044e-01,1.235733001232056267e+03
3.468060672406589329e-01,-7.430876830357330931e+00,-4.966050161486449177e+00,-5.038365700851160645e-01,8.470829196877046607e-01,1.691071784899964570e-01,1.242751511580706619e+03
-2.785727744607957024e-01,-7.436517402781956498e+00,-5.163113068224328472e+00,-4.153116495898581673e-01,8.935952957966132315e-01,1.702987993020556312e-01,1.249770021929356972e+03
-8.835988119933152474e-01,-7.437030367920034912e+00,-5.289857089722326933e+00,-3.226329794464215528e-01,9.311703793650188965e-01,1.697871760916231654e-01,1.256788532278007324e+03
-1.254945694601941275e+00,-7.447770200850976074e+00,-5.309174746783751786e+00,-2.267274703372464117e-01,9.594323638747690453e-01,1.675774249183536735e-01,1.261412351612740167e+03
-1.426142183164540889e+00,-7.464125192323089131e+00,-5.280465355440033370e+00,-3.345669303645198989e-01,9.187703634991590818e-01,2.095805054101944342e-01,1.263778699238164108e+03
-1.869825957414354312e+00,-7.549045942241045637e+00,-5.083396756308586006e+00,-1.314683950887542419e-01,8.460978167440875719e-01,5.165583661058981146e-01,1.270797209586814461e+03
-2.242308559848060767e+00,-7.669275551791879586e+00,-4.796668473942506061e+00,9.013639874708236077e-02,6.543234867112527331e-01,7.508223520642963722e-01,1.277815719935464813e+03
-2.535223204272829101e+00,-7.825814226113452676e+00,-4.450084715896913679e+00,2.990530362961567601e-01,3.704427032220627414e-01,8.793960911398687186e-01,1.284834230284115165e+03
-2.668876380916089364e+00,-7.952719804276688897e+00,-4.203022262003539566e+00,4.658731841834236054e-01,3.441621467069522905e-02,8.841808075428003733e-01,1.289407388658835544e+03
-2.779351176421794634e+00,-8.187155545727582862e+00,-3.815883205723215266e+00,2.620153009964282242e-01,6.488412483886478732e-01,7.143885612422427034e-01,1.296425899007485896e+03
-2.784387413133706080e+00,-8.334338872520344665e+00,-3.617268989068309182e+00,-5.920096065969795290e-02,9.726461056641423353e-01,2.246170060205713304e-01,1.300178890579697281e+03
-2.688846186470716049e+00,-8.651603122802006496e+00,-3.284089514474808791e+00,-2.752487243098888370e-01,9.246504761548383078e-01,2.631684569069139834e-01,1.307197400928347633e+03
-2.648239674009990718e+00,-8.723323451533214978e+00,-3.229121770324240082e+00,-4.774056127207723099e-01,8.299909601076930210e-01,2.884387059328789027e-01,1.308597515293951574e+03
-2.344520884354096779e+00,-9.126784715542036963e+00,-3.019585316009674170e+00,-3.424280754500390045e-01,9.064562256805791529e-01,2.471398876490841223e-01,1.315616025642601926e+03
-1.967133277509620859e+00,-9.577115888915066932e+00,-2.874862383114916042e+00,-1.986256755479857694e-01,9.595607319954477799e-01,1.994719093610625715e-01,1.322634535991252278e+03
-1.840175482885864744e+00,-9.723838450940002431e+00,-2.850160199114956772e+00,-4.970435835000495961e-02,9.879359162619927304e-01,1.466632268799434313e-01,1.324714947361491113e+03
-1.381250625435014312e+00,-1.026150128520682792e+01,-2.819394484755271435e+00,-2.078290144818554716e-02,8.854879955167260785e-01,4.641950891636063004e-01,1.331733457710141465e+03
-9.204234757013366464e-01,-1.083942643238784598e+01,-2.824248132962074109e+00,1.046953664083406441e-02,6.837248828467302753e-01,7.296633973135269180e-01,1.338751968058791817e+03
-7.120733966809253968e-01,-1.112870439373726050e+01,-2.835624755740826064e+00,4.054773146176033488e-02,4.052759950314493986e-01,9.132936271126468331e-01,1.342083702606275665e+03
-3.162488072684193074e-01,-1.176011913818633481e+01,-2.868685432399684210e+00,2.205068923309237150e-01,4.305948764025841480e-01,8.751929860608694822e-01,1.349102212954926017e+03
1.012080641396998285e-02,-1.240138910347996415e+01,-2.902065801421021884e+00,3.928633618576694020e-01,4.410676754632464336e-01,8.069173963741305133e-01,1.356120723303576369e+03
2.402654375935560915e-01,-1.303564872494171389e+01,-2.925722474150657337e+00,5.516746631430652359e-01,4.363333182030875723e-01,7.108208645443975238e-01,1.363139233652226721e+03
3.439968386008350199e-01,-1.362047798024022605e+01,-2.929556942771840422e+00,6.914653198968483405e-01,4.165550310413721480e-01,5.902165852410014013e-01,1.369872217111204918e+03
3.048921789893263568e-01,-1.418723693008055520e+01,-2.904059207662788022e+00,7.187796387617360061e-01,3.803847956572709577e-01,5.819460783574328389e-01,1.376890727459855270e+03
1.659110244551414426e-01,-1.453181292195661101e+01,-2.861704591572203249e+00,7.445681566964357234e-01,3.434070959778010579e-01,5.724402383189077792e-01,1.381659299153875736e+03
-2.046159142326234859e-01,-1.496822611040505890e+01,-2.759601526421933126e+00,5.290189885711898965e-01,5.310452551291253709e-01,6.619122651353102071e-01,1.388677809502526088e+03
-7.219467595102460056e-01,-1.532933435586764404e+01,-2.616202230728558842e+00,2.660301016103363003e-01,6.710619478521644421e-01,6.920273456899607156e-01,1.395696319851176440e+03
-1.358044088558486129e+00,-1.561453679349768642e+01,-2.429440970630877050e+00,-2.081502510625148766e-02,7.509012114503850199e-01,6.600849228491011411e-01,1.402714830199826793e+03
-1.642324684261648571e+00,-1.569731682182057320e+01,-2.339281056633117917e+00,-3.057936112709762067e-01,7.634034559900686467e-01,5.689494096038711923e-01,1.405450117634733260e+03
-2.443974864962660032e+00,-1.583543952368047592e+01,-2.064101889603134232e+00,-2.808168046815457397e-01,8.099919427664377114e-01,5.148329582087576295e-01,1.412468627983383612e+03
-3.292216318438325739e+00,-1.589327086671606537e+01,-1.747443765239363511e+00,-2.542329089113458118e-01,8.519448943929172069e-01,4.577701660664258987e-01,1.419487138332033965e+03
-4.155674171850783694e+00,-1.586922330494578226e+01,-1.392150889493364518e+00,-2.261940555763116700e-01,8.890222285946109970e-01,3.980875861950702865e-01,1.426505648680684317e+03
-4.736043037734419592e+00,-1.579801147491161117e+01,-1.124911377242159949e+00,-1.968607015441104779e-01,9.210117610711783254e-01,3.361267620284502655e-01,1.431299089696804913e+03
-5.548033338015462057e+00,-1.561585870612380234e+01,-7.017006892955415243e-01,-7.490047058982612915e-02,9.683626210877509521e-01,2.380372945267053564e-01,1.438317600045455265e+03
-6.300521612642704383e+00,-1.536081888901514070e+01,-2.542169840660898905e-01,4.906242784322904782e-02,9.898214009019713489e-01,1.335832043740325104e-01,1.445336110394105617e+03
-6.972234276300630640e+00,-1.504286123843386669e+01,2.079733683772561070e-01,1.717134836077822413e-01,9.848143479584035020e-01,2.555737863809207783e-02,1.452354620742755969e+03
-7.542184168194606464e+00,-1.467263872871730968e+01,6.753019903507414545e-01,2.897732650487048200e-01,9.534753448976547308e-01,-8.315179815007618658e-02,1.459373131091406322e+03
-7.989678873504289847e+00,-1.426148108876800258e+01,1.138199801371500675e+00,4.000851008715229917e-01,8.966423288723780471e-01,-1.896376706646447086e-01,1.466391641440056674e+03
-8.118159507659896690e+00,-1.407862963130007117e+01,1.325344276571170044e+00,4.996994799376607288e-01,8.158348881638984862e-01,-2.910530278224594536e-01,1.469308409524450553e+03
-8.274642918492629562e+00,-1.361907992308973192e+01,1.756316774118646507e+00,5.267168227824196025e-01,7.820552904195637867e-01,-3.331019533282043588e-01,1.476326919873100906e+03
-8.268730965584229153e+00,-1.330690103582295691e+01,2.025744896153602426e+00,5.518173807611870263e-01,7.454297023918546872e-01,-3.739386808925712624e-01,1.480989963168976146e+03
-8.089781278875513237e+00,-1.284043959657089395e+01,2.405999750171704310e+00,6.747224904552528990e-01,6.135021883888417404e-01,-4.103201502684713509e-01,1.488008473517626499e+03
-7.740588664347912484e+00,-1.239717867749224922e+01,2.770243075448006742e+00,7.747988812980514117e-01,4.608173355000477756e-01,-4.328187574983705099e-01,1.495026983866276851e+03
-7.227483717846182820e+00,-1.199195970269901501e+01,3.126527452232886972e+00,8.486605633680575078e-01,2.925411123877302844e-01,-4.406732868547099113e-01,1.502045494214927203e+03
-6.566776689010183077e+00,-1.162311418593081846e+01,3.473409586049182707e+00,8.938084962472739869e-01,1.143670005911833626e-01,-4.336179899548963101e-01,1.509064004563577555e+03
-5.779370755573491003e+00,-1.128026710586198078e+01,3.804698977640812441e+00,9.087151382914623321e-01,-6.767663547163096927e-02,-4.118915760872570164e-01,1.516082514912227907e+03
-5.153568522587613998e+00,-1.105004008164506857e+01,4.021588063223117793e+00,8.928761286305652023e-01,-2.474305076462798569e-01,-3.762291360433521747e-01,1.520992770319711099e+03
-4.169040991185815059e+00,-1.072500741146176040e+01,4.305067871928219603e+00,8.214212497322026518e-01,-3.306900073597555112e-01,-4.646603593162349499e-01,1.528011280668361451e+03
-3.111956410188933209e+00,-1.039945114508076429e+01,4.557351350586687388e+00,7.336545496358372054e-01,-4.073826316867608655e-01,-5.438643150619022482e-01,1.535029791017011803e+03
-2.001582906578653009e+00,-1.007366645271594230e+01,4.775544743432620365e+00,6.313188866137030564e-01,-4.759854324849540630e-01,-6.122681859005112415e-01,1.542048301365662155e+03
-1.815517747671547610e+00,-1.002002445644341222e+01,4.805216648266580570e+00,5.164464182058836617e-01,-5.351361015180907676e-01,-6.685136124065710339e-01,1.543187414487395245e+03
-6.441833563465092505e-01,-9.687032393267752894e+00,4.951624556381174713e+00,4.615624563235499744e-01,-5.210978934881204117e-01,-7.179241494147008407e-01,1.550205924836045597e+03
5.395435368378252994e-01,-9.366615685803314051e+00,5.064584491921310772e+00,4.040703431559696801e-01,-5.041151050690734214e-01,-7.632778777229332068e-01,1.557224435184695949e+03
1.717836976074409883e+00,-9.074972039341409058e+00,5.155855322662897144e+00,3.442949467516605022e-01,-4.842837014485098512e-01,-8.043185228197297088e-01,1.564242945533346301e+03
2.872893402732456192e+00,-8.832219929145916026e+00,5.241712493409092843e+00,2.825740359757205611e-01,-4.617157432425083030e-01,-8.408141807990114902e-01,1.571261455881996653e+03
3.986237035527081751e+00,-8.657887567495423653e+00,5.338432164441949901e+00,2.192563722992707242e-01,-4.365387533825155764e-01,-8.725586284024651196e-01,1.578279966230647005e+03
4.570116266747015210e+00,-8.606323398533760383e+00,5.406086032812415176e+00,1.546997395265366504e-01,-4.088949966969831484e-01,-8.993724880518447762e-01,1.582168065685727697e+03
5.014286886350082462e+00,-8.603523650018820135e+00,5.476795146649191537e+00,1.662180774820267437e-01,-3.451891298788974938e-01,-9.236958456685177010e-01,1.585342279374474174e+03
5.917309487357079512e+00,-8.689497597393696537e+00,5.665582254290679742e+00,1.978545843313630481e-01,-3.697284520556031739e-01,-9.078284172653888762e-01,1.592360789723124526e+03
6.735200893277750289e+00,-8.866190831031000030e+00,5.874155553679781150e+00,2.291241010040560300e-01,-3.935819890183960279e-01,-8.902771277835019870e-01,1.599379300071774878e+03
7.462034005498247247e+00,-9.125045393848525421e+00,6.085590006554325804e+00,2.599686315344034715e-01,-4.167054994190853567e-01,-8.710745303170284171e-01,1.606397810420425230e+03
8.092105765340805945e+00,-9.457330922476472779e+00,6.282960156513166083e+00,2.903309680595225206e-01,-4.390560956693503880e-01,-8.502562401041725559e-01,1.613416320769075583e+03
8.619939102679115450e+00,-9.854150018736536509e+00,6.449342439899592883e+00,3.201547968506867625e-01,-4.605923234331311678e-01,-8.278608685296101610e-01,1.620434831117725935e+03
8.739568179495385891e+00,-9.981675074955415283e+00,6.483742970399831052e+00,3.493848026890321035e-01,-4.812742384637164750e-01,-8.039299515725244483e-01,1.622419288190083535e+03
9.054478400810179295e+00,-1.048063196021463739e+01,6.549844994616663918e+00,2.709362793435707295e-01,-3.672092735948875863e-01,-8.898027207872153399e-01,1.629437798538733887e+03
9.262347874932714831e+00,-1.101847471232646569e+01,6.546582782031995507e+00,1.852973329060262075e-01,-2.433988807251999120e-01,-9.520608611210134020e-01,1.636456308887384239e+03
9.380786028898230100e+00,-1.157558159124893749e+01,6.457758483938285110e+00,9.474072874600981964e-02,-1.131288544790135658e-01,-9.890521000429980392e-01,1.643474819236034591e+03
9.400702189328084657e+00,-1.178528398227943441e+01,6.387980803643591443e+00,1.669742939878941053e-03,2.014357643997199618e-02,-9.997947030689471326e-01,1.646117232088457740e+03
9.406394367582091576e+00,-1.232771439307938621e+01,6.106240234684647383e+00,-1.874669949303998662e-01,8.510200356997309201e-02,-9.785764021268820168e-01,1.653135742437108092e+03
9.385799361351971015e+00,-1.283934056887874142e+01,5.735858679756431044e+00,-3.690220244763594559e-01,1.466186656978322733e-01,-9.177819524920616256e-01,1.660154252785758445e+03
9.366855853646566032e+00,-1.330155747911568120e+01,5.286203772561272274e+00,-5.356528014921817515e-01,2.022056743895938313e-01,-8.198700759866347498e-01,1.667172763134408797e+03
9.378104795953449369e+00,-1.369668022571923061e+01,4.766653948189945922e+00,-6.806203760850775275e-01,2.496149580322274963e-01,-6.888006071315082579e-01,1.674191273483059149e+03
9.436762339222060092e+00,-1.400990950614978381e+01,4.187597488014223046e+00,-7.980619236837820374e-01,2.869291761650178407e-01,-5.298743377744494776e-01,1.681209783831709501e+03
9.451064829189487426e+00,-1.404018770712194097e+01,4.101901073811351495e+00,-8.832278398225161808e-01,3.126392571482551341e-01,-3.495186373468004426e-01,1.682166101446910034e+03
9.592668636754105194e+00,-1.416670763003384437e+01,3.430695955423421317e+00,-9.110811058067016521e-01,3.809271855970665643e-01,-1.575553804718098083e-01,1.689184611795560386e+03
9.756835703371175228e+00,-1.419135586626297219e+01,2.727614660408292924e+00,-9.004056454933532239e-01,4.331060718244261198e-01,4.107072087299398766e-02,1.696203122144210738e+03
9.926246451866076015e+00,-1.410458851085326515e+01,2.006068741896382068e+00,-8.516529160356858252e-01,4.669693298531760739e-01,2.379599873609300476e-01,1.703221632492861090e+03
1.008390978749324951e+01,-1.389626352598122416e+01,1.279472262441296637e+00,-7.668846074758961517e-01,4.810849146628474182e-01,4.247861858636775012e-01,1.710240142841511442e+03
1.016090243692600659e+01,-1.369219975435055048e+01,8.433376970168737774e-01,-6.496854623668502082e-01,4.748558817352888095e-01,5.936486263527711582e-01,1.714488048499634942e+03
1.024293621305423940e+01,-1.322745747123133064e+01,1.356673052976211102e-01,-6.788052097518036954e-01,3.023872586895292591e-01,6.691662222469831889e-01,1.721506558848285295e+03
1.027354969968878784e+01,-1.264191978504795522e+01,-5.532499577320667550e-01,-6.832867962514144189e-01,1.189431033083605954e-01,7.203955109828394932e-01,1.728525069196935647e+03
1.024840262884306874e+01,-1.194259650232077341e+01,-1.216927685574468398e+00,-6.629675650675056486e-01,-6.881823766299142997e-02,7.454770672756098060e-01,1.735543579545585999e+03
1.016288524920612169e+01,-1.113631839659218770e+01,-1.848882916667426990e+00,-6.185850322961743419e-01,-2.540817253007139342e-01,7.435005276983687184e-01,1.742562089894236351e+03
1.001678450058181369e+01,-1.022977644801733099e+01,-2.442653506782783257e+00,-5.517501172894330175e-01,-4.301229837723426486e-01,7.145376315507691034e-01,1.749580600242886703e+03
9.846870810298824495e+00,-9.378306065115058487e+00,-2.910695302199538759e+00,-4.648886740534870499e-01,-5.905523648492312372e-01,6.596396176003482825e-01,1.755554245541648470e+03
9.606076298715970907e+00,-8.289542765088672382e+00,-3.412389514283009184e+00,-5.441207713248320532e-01,-5.215387438970507938e-01,6.572122372776783017e-01,1.762572755890298822e+03
9.335742008639025258e+00,-7.119051150844345699e+00,-3.863360051690023500e+00,-6.173422259764296260e-01,-4.467639372836632039e-01,6.475249496117281289e-01,1.769591266238949174e+03
9.041419686485909324e+00,-5.876540562924006394e+00,-4.263809968669225903e+00,-6.837441961572584548e-01,-3.670539470524157299e-01,6.306847660875796180e-01,1.776609776587599526e+03
8.725887569994387860e+00,-4.572993338197111512e+00,-4.615370732541996368e+00,-7.425931718709324336e-01,-2.832892916576090214e-01,6.068777128246435337e-01,1.783628286936249879e+03
8.391540479783063944e+00,-3.219461677291418411e+00,-4.919680468589246125e+00,-7.932390776574250735e-01,-1.963952792341838727e-01,5.763667755624289901e-01,1.790646797284900231e+03
8.040389129291810377e+00,-1.827058045316042767e+00,-5.178383734654924631e+00,-8.351224535886032641e-01,-1.073317861217626956e-01,5.394889945129585085e-01,1.797665307633550583e+03
7.674059528246295336e+00,-4.069455603212200345e-01,-5.393131295091510680e+00,-8.677806352599363171e-01,-1.708265355914257225e-02,4.966517411786741665e-01,1.804683817982200935e+03
7.293792479720571542e+00,1.029671628734682765e+00,-5.565579894072624434e+00,-8.908528645200675111e-01,7.335518031966564712e-02,4.483282182701124885e-01,1.811702328330851287e+03
6.900443170858470587e+00,2.471557972741435183e+00,-5.697392028295842792e+00,-9.040842744924161289e-01,1.629826931357431785e-01,3.950522324381366412e-01,1.818720838679501639e+03
6.494480857299123500e+00,3.907456160144936241e+00,-5.790235719101387346e+00,-9.073287048780180886e-01,2.508098139148007832e-01,3.374122975663877422e-01,1.825739349028151992e+03
6.075988641345395180e+00,5.326096759834550554e+00,-5.845784284029751809e+00,-9.005503164490417101e-01,3.358663598371857684e-01,2.760451337623655577e-01,1.832757859376802344e+03
5.644663343909911646e+00,6.716207867437669954e+00,-5.865716107832770199e+00,-8.838239869052307851e-01,4.172127532838330044e-01,2.116286338586974569e-01,1.839776369725452696e+03
5.199815470256405447e+00,8.066524753247694690e+00,-5.851714412962266465e+00,-8.573344837246014150e-01,4.939504008015133674e-01,1.448743751162365478e-01,1.846794880074103048e+03
5.191925811024305837e+00,8.088297373573995586e+00,-5.850935216398387873e+00,-8.213744231466524326e-01,5.652316193453266191e-01,7.651975884288503282e-02,1.846912573571727080e+03
