-4.607241438515711884e+00,3.328251131511847927e+00,4.891928350320815966e+00,8.090119410307109460e-01,-1.907803028996861716e-01,-5.559681243513676652e-01,2.957369152817308233e+01
-4.468283780128055938e+00,3.987446576750060867e+00,4.999284915684792274e+00,8.141233899317504852e-01,-2.928358990436058171e-02,-5.799513577258053054e-01,3.659220187682335279e+01
-4.317397805353520468e+00,4.629675919264834683e+00,5.102192410568037850e+00,7.975119390761932214e-01,1.329944858077027059e-01,-5.884600018482222250e-01,4.361071222547361970e+01
-4.226415419213468638e+00,4.980939355257844703e+00,5.157729968445122104e+00,7.596208132497556109e-01,2.917239636128959313e-01,-5.812670205086121200e-01,4.757140132920569187e+01
-4.054536319013961609e+00,5.580651649591026775e+00,5.251548716099610381e+00,7.100578529923783355e-01,3.452947698028926982e-01,-6.136671470335322010e-01,5.458991167785595877e+01
-3.869685306380052925e+00,6.153620172457344495e+00,5.340576219796398405e+00,6.559675067682477767e-01,3.966639303345323442e-01,-6.421544646217340890e-01,6.160842202650622568e+01
-3.671469517876567057e+00,6.695982713015984800e+00,5.424920730972499605e+00,5.976946537265854786e-01,4.455039194389684987e-01,-6.665473416562378572e-01,6.862693237515649969e+01
-3.459327383826352964e+00,7.203803895215074249e+00,5.505172151641447797e+00,5.356108382428459436e-01,4.915033362783003401e-01,-6.866902506820468099e-01,7.564544272380676659e+01
-3.404503791017285952e+00,7.319313809952516792e+00,5.524033355367722109e+00,4.701119016526271732e-01,5.343688898412235488e-01,-7.024547597474067873e-01,7.736520942755934982e+01
-3.168996260074956162e+00,7.751800107275506946e+00,5.598248533149366324e+00,4.029999418002068179e-01,4.147090213645508450e-01,-8.158464772907013662e-01,8.438371977620961673e+01
-2.918867450067861302e+00,8.140670190899440328e+00,5.670236874972270691e+00,3.231208618577616765e-01,2.819110964423042209e-01,-9.033919649492355708e-01,9.140223012485988363e+01
-2.653793150647631993e+00,8.482753603550271748e+00,5.740785032773308316e+00,2.330052355603104419e-01,1.401821587743720954e-01,-9.623177866809641268e-01,9.842074047351015054e+01
-2.558943255705189657e+00,8.583391986523198014e+00,5.764527897782020460e+00,1.355079246827403938e-01,-5.987818014276891955e-03,-9.907571591378843134e-01,1.008117364049098370e+02
-2.268320157569357676e+00,8.831711649475110448e+00,5.833156968683335997e+00,1.427746536725091608e-01,-1.247667115210783079e-01,-9.818587810688702566e-01,1.078302467535601039e+02
-1.966331082685838672e+00,9.030919454541345814e+00,5.899844633683919426e+00,1.480082078513981769e-01,-2.417688486616000054e-01,-9.589783074828048814e-01,1.148487571022103708e+02
-1.808081035226669631e+00,9.107793499251192415e+00,5.932543508212375194e+00,1.511340612755058821e-01,-3.553281177353512787e-01,-9.224415560162636529e-01,1.184275233763773514e+02
-1.491973609495609754e+00,9.209249003496548625e+00,5.993699452864966304e+00,1.961642900146804980e-01,-2.128010727174891870e-01,-9.572007494625267565e-01,1.254460337250276183e+02
-1.172967310800868468e+00,9.258915745445218448e+00,6.051456834445898991e+00,2.365748560111741450e-01,-6.526260796686240984e-02,-9.694179333512192853e-01,1.324645440736778994e+02
-9.717186784071053518e-01,9.257446719091666054e+00,6.085642182303105052e+00,2.714141102304671316e-01,8.381281842281104733e-02,-9.588053985213557118e-01,1.368998017739878037e+02
-6.569729313244421220e-01,9.202163309268467373e+00,6.135773335599736811e+00,2.863441722200365525e-01,1.223523674521367760e-01,-9.502814915600124035e-01,1.439183121226380706e+02
-3.494248250820181090e-01,9.092122515516404491e+00,6.181735872584881442e+00,3.007642899648084733e-01,1.606740122679019556e-01,-9.400652656336234703e-01,1.509368224712883375e+02
-8.032661794795774302e-02,8.942575345585781932e+00,6.219838172022004841e+00,3.146487896970066589e-01,1.987095242606745082e-01,-9.281749102928028572e-01,1.572944390548497609e+02
2.030444040547993989e-01,8.722155085027772259e+00,6.258451436317266747e+00,2.401184303299312151e-01,2.129078436459796719e-01,-9.471068522189566297e-01,1.643129494035000278e+02
2.348320965671437388e-01,8.689743402246218551e+00,6.262668612032173954e+00,1.641197912766977351e-01,2.258042753625403021e-01,-9.602474281813683232e-01,1.651430091368838191e+02
4.882627292302318400e-01,8.363348379240088448e+00,6.295136688213575304e+00,-4.697311331268764177e-03,3.363665201258501658e-01,-9.417183758449642061e-01,1.721615194855340860e+02
7.252406460982983027e-01,7.986305316201988802e+00,6.323249480916773635e+00,-1.733214751062933934e-01,4.331153055818934283e-01,-8.845161379743677887e-01,1.791800298341843529e+02
8.593452233004930108e-01,7.732349574684219462e+00,6.336949435785349749e+00,-3.348279419399515788e-01,5.120775247923147200e-01,-7.909897963297988221e-01,1.833994686236469818e+02
1.069186704623847683e+00,7.269374263500735900e+00,6.353743386400888760e+00,-4.105447690300472741e-01,3.381274377286193067e-01,-8.468298698537267688e-01,1.904179789722972487e+02
1.265067670887013662e+00,6.771103904120919559e+00,6.363885269666921474e+00,-4.702052369530616560e-01,1.509532691885152045e-01,-8.695505423277800627e-01,1.974364893209475156e+02
1.437175116113956985e+00,6.274626445199295688e+00,6.366740082903610265e+00,-5.114760563896619816e-01,-4.212470087676576519e-02,-8.582632191321197812e-01,2.040470072003405733e+02
1.606698510150297077e+00,5.724593438884161500e+00,6.362515207499289893e+00,-5.064785998055351124e-01,-1.975551286096290660e-01,-8.393148390791678182e-01,2.110655175489908402e+02
1.762483788539786600e+00,5.157428691422226485e+00,6.351040896365697463e+00,-4.890508056905062406e-01,-3.481369860324832199e-01,-7.997674339514349029e-01,2.180840278976411071e+02
1.904433509921874546e+00,4.579087651295586703e+00,6.332337464255852311e+00,-4.596204000707419524e-01,-4.901746279947024609e-01,-7.405916026451825340e-01,2.251025382462913740e+02
1.970068917631912386e+00,4.285409475951803770e+00,6.319354359880316352e+00,-4.189096742668893536e-01,-6.201821005839195378e-01,-6.632396602436515520e-01,2.286335005360879222e+02
2.089219617341103952e+00,3.700723339196050343e+00,6.286461030785470250e+00,-4.018853425162040027e-01,-6.838848457269819381e-01,-6.089233853717902489e-01,2.356520108847381891e+02
2.195107932343015822e+00,3.119783959568175113e+00,6.246393911127254839e+00,-3.819280012367963772e-01,-7.425964880131893375e-01,-5.501631193191035551e-01,2.426705212333884560e+02
2.287766708659380033e+00,2.548079115415903484e+00,6.199357673961085169e+00,-3.591832983513369437e-01,-7.958885584687689363e-01,-4.873876903257360338e-01,2.496890315820387229e+02
2.360895175586441574e+00,2.031115920185566193e+00,6.149840546049663459e+00,-3.338172215780466634e-01,-8.433721357699396348e-01,-4.210552258095494049e-01,2.561927709839462750e+02
2.424863340399109113e+00,1.491114184674580345e+00,6.090725206041874173e+00,-3.211307901036138390e-01,-8.383986148202060562e-01,-4.404097845075366502e-01,2.632112813325965703e+02
2.471855920342667101e+00,9.717953614553547226e-01,6.026857615949102076e+00,-3.082644377482106068e-01,-8.329553558420823567e-01,-4.595175857012951393e-01,2.702297916812468657e+02
2.485797137723718464e+00,7.381951372358489527e-01,5.995265457116116359e+00,-2.952253675713431003e-01,-8.270454061549258329e-01,-4.783679321138948892e-01,2.735219638801244173e+02
2.495754223471017941e+00,2.608449806532066595e-01,5.925588660081619885e+00,-2.994106657915148739e-01,-6.843097789770188344e-01,-6.648844859127146512e-01,2.805404742287747126e+02
2.480910361974757894e+00,-1.966375411921704175e-01,5.854843916319896202e+00,-2.870746325406349775e-01,-5.038142987441230902e-01,-8.147130217036113731e-01,2.875589845774250080e+02
2.437831806940266244e+00,-6.360631063676753794e-01,5.784592912662642306e+00,-2.588979672144480215e-01,-2.955186091422626338e-01,-9.195860994075806261e-01,2.945774949260753033e+02
2.363204488729646613e+00,-1.061006865040186264e+00,5.715723914965152197e+00,-2.164354411918287813e-01,-7.091634125052675985e-02,-9.737168851059527785e-01,3.015960052747255986e+02
2.300160773516841228e+00,-1.303185409630407854e+00,5.676145590810426356e+00,-1.620301082142366622e-01,1.575990856804849460e-01,-9.741184590311839919e-01,3.056984539786553228e+02
2.156292713386068094e+00,-1.709611961824589077e+00,5.608752579731248744e+00,-1.417256429713557586e-01,4.293640033387701171e-01,-8.919408022742628672e-01,3.127169643273056181e+02
1.971825748340392037e+00,-2.110749294338290838e+00,5.540647361447026853e+00,-1.099383215673658681e-01,6.663410516802686923e-01,-7.374965547695629953e-01,3.197354746759559134e+02
1.846800277972870274e+00,-2.330797948156942745e+00,5.502106177440294843e+00,-6.924359763872457718e-02,8.493300143425546178e-01,-5.232990071870576854e-01,3.236072408917680150e+02
1.576455032100440912e+00,-2.727435778563363833e+00,5.428927600184541014e+00,-4.475930879534928408e-02,8.160744114020965778e-01,-5.762093016596420147e-01,3.306257512404183103e+02
1.478180176295712300e+00,-2.850725432748890231e+00,5.404459417736739546e+00,-2.007338183731379594e-02,7.791424541159517325e-01,-6.265238187997818065e-01,3.328217155200702564e+02
1.120417525622064980e+00,-3.240193518857265254e+00,5.319304777797975170e+00,3.837803385866212641e-02,7.241732727063671105e-01,-6.885478905731509114e-01,3.398402258687205517e+02
7.184062289185036976e-01,-3.619264012301767863e+00,5.224084835265827564e+00,9.643471441645351527e-02,6.617558466376184390e-01,-7.434901110937797153e-01,3.468587362173708470e+02
2.744203849571233422e-01,-3.982971324897181198e+00,5.115073896056296476e+00,1.534995503262081562e-01,5.925321366564834102e-01,-7.907854039350118436e-01,3.538772465660211424e+02
1.867709481810372329e-01,-4.046217043369186861e+00,5.092214343571638935e+00,2.089856320703308568e-01,5.172141012894133638e-01,-8.299473350838777463e-01,3.551547044580041756e+02
-3.299216308720063773e-01,-4.374057356130185426e+00,4.948049172473364621e+00,3.791587504149543375e-01,2.954988752575300470e-01,-8.768791574131704625e-01,3.621732148066544710e+02
-8.798097294627370557e-01,-4.674115618019151874e+00,4.782704467718060570e+00,5.188780944525662742e-01,5.004941765568586554e-02,-8.533806764217010121e-01,3.691917251553047663e+02
-1.457470730424331284e+00,-4.940578114564441847e+00,4.593083018300962550e+00,6.169215320599288344e-01,-1.994199846533407372e-01,-7.613392758829160556e-01,3.762102355039550616e+02
-1.794211930352162199e+00,-5.069870495430064850e+00,4.471563167948212403e+00,6.654142816483863410e-01,-4.328721600209319287e-01,-6.081476192974515360e-01,3.801537196123343278e+02
-2.410033723199672462e+00,-5.259915422635240034e+00,4.227374168681328648e+00,6.890223978649118175e-01,-4.967779978495502347e-01,-5.276909664669355848e-01,3.871722299609846232e+02
-3.036925527932226920e+00,-5.403978475882534660e+00,3.954404811377608908e+00,7.049723057989746300e-01,-5.551623324650422076e-01,-4.413692701880969071e-01,3.941907403096349185e+02
-3.667748389331160652e+00,-5.498095880750277331e+00,3.651757654918379004e+00,7.130867370022525575e-01,-6.073762631449480809e-01,-3.501419433278932791e-01,4.012092506582852138e+02
-3.689672633058687978e+00,-5.499713145269469194e+00,3.640142460293954496e+00,7.132755037448123003e-01,-6.528394651859803499e-01,-2.550229175012613814e-01,4.014541580934391050e+02
-4.263542775958150344e+00,-5.497671792300709903e+00,3.305090132573321959e+00,6.719614006449921018e-01,-7.024856228166702632e-01,-2.344777724052322931e-01,4.079308790662713591e+02
-4.874232553601476781e+00,-5.441924385088963589e+00,2.912686112513051651e+00,8.016855186573168535e-01,-5.584156208146275890e-01,-2.132377161870587789e-01,4.149493894149216544e+02
-5.466652537415717106e+00,-5.333711863045593304e+00,2.492919717551691061e+00,9.009169289945546666e-01,-3.931059056744403701e-01,-1.838870141532193692e-01,4.219678997635719497e+02
-5.537137283388661402e+00,-5.314567948754921112e+00,2.437770137962394390e+00,9.658813308064979619e-01,-2.128440847161189586e-01,-1.475420292651918042e-01,4.228373710671287995e+02
-6.078403460633685640e+00,-5.115567935127055321e+00,1.968893617373168814e+00,9.566649502215370804e-01,5.956494583842953522e-02,-2.850301567293402893e-01,4.298558814157790948e+02
-6.585515822798892138e+00,-4.870978412702402061e+00,1.479065180143982028e+00,8.582923959033401662e-01,3.264228000338155189e-01,-3.959549453571807320e-01,4.368743917644293902e+02
-6.864628641582533497e+00,-4.700497826294428805e+00,1.175972365665067132e+00,6.799314347826272975e-01,5.628598021570280219e-01,-4.699788155970878178e-01,4.410677709640517037e+02
-7.215835977041829885e+00,-4.431666498172740276e+00,7.423304656727978124e-01,5.791550822182854885e-01,6.947461567431137963e-01,-4.265034213486420533e-01,4.469065079916737773e+02
-7.586725578137938797e+00,-4.070861304079761211e+00,2.116928616820586695e-01,7.817271900315274635e-01,4.676761477847647952e-01,-4.125283277049704989e-01,4.539250183403240726e+02
-7.899566772957439476e+00,-3.672937332569921054e+00,-3.220557420335455889e-01,9.117614632115219608e-01,1.972096921717283735e-01,-3.602740228165541292e-01,4.609435286889743679e+02
-8.147697029370654320e+00,-3.238765268197609348e+00,-8.519718487864934575e-01,9.571918276737804154e-01,-9.155619117970416332e-02,-2.745892730818554339e-01,4.679620390376246633e+02
-8.192399530366607507e+00,-3.122647070079230147e+00,-9.810751050031131237e-01,9.138027085250557402e-01,-3.718264553794954907e-01,-1.634248970396822431e-01,4.697030094220715455e+02
-8.300782573931922315e+00,-2.621962158453734926e+00,-1.487746833422482373e+00,8.397356288995567741e-01,-4.422113587443621818e-01,-3.151050424087928903e-01,4.767215197707218408e+02
-8.325041105128695662e+00,-2.199352166682271736e+00,-1.874918980115560796e+00,7.375820014408809300e-01,-4.978056603959590265e-01,-4.562458938172403999e-01,4.822949598108953637e+02
-8.272960855795995272e+00,-1.638379376991548009e+00,-2.337434901435206047e+00,5.394203971650421980e-01,-4.964784070068561928e-01,-6.800976595296736038e-01,4.893134701595456590e+02
-8.221845162852812194e+00,-1.419027637481774962e+00,-2.499130511893170592e+00,2.930456589090507102e-01,-4.507761327670061768e-01,-8.431625702801001099e-01,4.919358046918497962e+02
-8.000965896703286617e+00,-8.097895156652504811e-01,-2.897041051738580730e+00,3.046213312560442921e-01,-4.995574792699418731e-01,-8.109538639428605089e-01,4.989543150405000915e+02
-7.701104308064237181e+00,-1.850215028149460594e-01,-3.254666617090547387e+00,3.151152835932710672e-01,-5.465648741136500677e-01,-7.758654499497833479e-01,5.059728253891503869e+02
-7.333182521611234961e+00,4.485842349026040732e-01,-3.570681791586745035e+00,3.244902546341899563e-01,-5.916314052138087476e-01,-7.380219204107436592e-01,5.129913357378006822e+02
-7.042653660406219096e+00,8.851077770211914775e-01,-3.759682237645233016e+00,3.327129555168885644e-01,-6.345970506191157545e-01,-6.975576482061908168e-01,5.177964010943760513e+02
-6.570821247675875831e+00,1.521196856261713748e+00,-3.997552078735258974e+00,4.528061892522167176e-01,-7.534272199134512960e-01,-4.767724606861330483e-01,5.248149114430262898e+02
-6.059141374556992865e+00,2.148166319367311505e+00,-4.199631729938787750e+00,5.379023621241743047e-01,-8.140255612265280272e-01,-2.191379348524488402e-01,5.318334217916765283e+02
-5.701623337947913761e+00,2.553094212724839274e+00,-4.311250577007747609e+00,5.814244844906772958e-01,-8.117084944322724427e-01,5.543364412707594419e-02,5.364701734136885989e+02
-5.139159951431837570e+00,3.146400524095258167e+00,-4.449457221365296533e+00,7.485472787379862103e-01,-5.866074082305081649e-01,3.091386745519280055e-01,5.434886837623388374e+02
-4.563081585852934552e+00,3.712678707359095220e+00,-4.559490359681993787e+00,8.086524724140181641e-01,-2.776407923247446452e-01,5.186470565776527542e-01,5.505071941109890759e+02
-3.983045218533177945e+00,4.245359108456956854e+00,-4.644327780270745443e+00,7.531470040980449143e-01,7.101931492192158080e-02,6.540059993049076592e-01,5.575257044596393143e+02
-3.557285651308284447e+00,4.610994277174238931e+00,-4.690746466540850257e+00,5.899663176808964682e-01,4.095260112742399872e-01,6.958636289478454806e-01,5.627246685012754597e+02
-2.995168038512479924e+00,5.059074080023355791e+00,-4.734115598627424149e+00,5.104631636775499581e-01,5.191024341413159604e-01,6.855348433103386485e-01,5.697431788499256982e+02
-2.827779822474302041e+00,5.182400867489823426e+00,-4.742363086687911178e+00,4.215498955273471182e-01,6.191094805478308816e-01,6.625685901639623010e-01,5.719118072143065774e+02
-2.311434674673672696e+00,5.528695873783432191e+00,-4.754679714690347225e+00,4.076096059124151849e-01,6.146946364190992718e-01,6.752798776083164256e-01,5.789303175629568159e+02
-1.824114284581087819e+00,5.814710993877771905e+00,-4.755524875766360182e+00,3.935163032213985224e-01,6.100490370786980643e-01,6.877376617836434836e-01,5.859488279116070544e+02
-1.372362494492887608e+00,6.035855187560230206e+00,-4.748630085269780032e+00,3.792752746165882205e-01,6.051744254087415564e-01,6.999372692412563213e-01,5.929673382602572929e+02
-1.233532881069277609e+00,6.088637148085516593e+00,-4.744809559465084980e+00,3.648918625727138876e-01,6.000726300395136104e-01,7.118741232005157960e-01,5.953434600765066307e+02
-8.693016237939650281e-01,6.177854767396954827e+00,-4.731802739078259101e+00,3.271078070440396335e-01,5.443477338083285710e-01,7.724532524782170562e-01,6.023619704251568692e+02
-5.546300234116030570e-01,6.197729560757845313e+00,-4.720021574036531220e+00,2.866405766137727351e-01,4.841577023484614495e-01,8.266961346775136832e-01,6.093804807738071077e+02
-2.940482457752318091e-01,6.150185775198943716e+00,-4.712652275865012896e+00,2.438220957560765789e-01,4.199962324617975695e-01,8.741578520691180021e-01,6.163797405699006049e+02
-8.916681307931442757e-02,6.038159501074459534e+00,-4.712544046925430052e+00,2.602487231909193510e-01,3.538636980289909806e-01,8.983591070882734897e-01,6.233982509185508434e+02
5.691946316643536896e-02,5.865469139035645263e+00,-4.722572148325423491e+00,2.753144917500092159e-01,2.858808061215041829e-01,9.178627867592542566e-01,6.304167612672010819e+02
1.181534028951014420e-01,5.703832367869508424e+00,-4.738672934916830393e+00,2.889406283493755057e-01,2.164030133627872499e-01,9.325669140012741165e-01,6.353740428898266828e+02
1.461796299278592393e-01,5.423374171742369576e+00,-4.775968754499545277e+00,2.577967469394576994e-01,1.357750538265610762e-01,9.566106689887251546e-01,6.423925532384769213e+02
1.180787526505247126e-01,5.096340595045901090e+00,-4.828426036056065129e+00,2.245778859181314646e-01,5.405426923197430289e-02,9.729547312859284647e-01,6.494110635871271597e+02
3.828624865843263669e-02,4.728313252708894687e+00,-4.896341000156215095e+00,1.895514139819349797e-01,-2.810159547200151778e-02,9.814675551369853590e-01,6.564295739357773982e+02
3.691204897023196707e-02,4.723851323552735515e+00,-4.897262185143907764e+00,1.529992474473179931e-01,-1.100312937286639925e-01,9.820806202536361829e-01,6.565067645609104829e+02
-1.304556554951206426e-01,4.283250612031735294e+00,-4.996902138989951503e+00,7.312131157153811678e-02,-3.003233669273425166e-01,9.510295206101173626e-01,6.635252749095607214e+02
-3.384443460864284825e-01,3.812501231811465274e+00,-5.112151707487580410e+00,-9.941466821348705560e-03,-4.775345790006475521e-01,8.785555720025259863e-01,6.705437852582109599e+02
-5.799056343907308397e-01,3.316078184720740563e+00,-5.242868109241980434e+00,-9.257122929418189206e-02,-6.339463777820460999e-01,7.678154450156582378e-01,6.775622956068611984e+02
-8.475684649005399418e-01,2.798210355128866844e+00,-5.388906426380155601e+00,-1.711689804099449652e-01,-7.627461431236748357e-01,6.236325050026683137e-01,6.845808059555114369e+02
-9.191361340074559738e-01,2.662971023090948464e+00,-5.429492048831653150e+00,-2.423113396952296938e-01,-8.583239054840059445e-01,4.522867319855046753e-01,6.863459153387550487e+02
-1.216036017024408222e+00,2.107755962606716604e+00,-5.606119267268988793e+00,-2.021848150511422471e-01,-6.490919000417253448e-01,7.333478068853886978e-01,6.933644256874052871e+02
-1.522833591170168699e+00,1.539705112067419890e+00,-5.796887699388079795e+00,-1.369097967611934974e-01,-3.591234594148393633e-01,9.231923139028920255e-01,7.003829360360555256e+02
-1.621781060409019481e+00,1.353128563144323726e+00,-5.862173722170021861e+00,-5.460541670019460059e-02,-2.448585836432579793e-02,9.982067377089379745e-01,7.026406468746947667e+02
-1.925754956677712793e+00,7.629747536604954972e-01,-6.074977212737332266e+00,-3.991758450998824648e-01,-4.802279310732353035e-01,7.810491526829032027e-01,7.096591572233450051e+02
-2.183462171522902118e+00,2.474253130871847672e-01,-6.264120736757977426e+00,-5.946190566761128116e-01,-7.565627188206049958e-01,2.721011391539797653e-01,7.157224089935780285e+02
-2.471852780200533672e+00,-3.534614513279463743e-01,-6.483427325788770013e+00,-6.939856959572701101e-01,-7.199781692143033540e-01,3.645498840077848485e-03,7.227409193422282669e+02
-2.748013331747759747e+00,-9.554321862131146537e-01,-6.695706391669340007e+00,-7.355566810946703171e-01,-6.234333045331265089e-01,-2.651137184230070165e-01,7.297594296908785054e+02
-2.964432623501440656e+00,-1.451954591371244163e+00,-6.859121391306382876e+00,-7.158699472141785147e-01,-4.749684064027107633e-01,-5.117941300900065160e-01,7.355654455436230137e+02
-3.211722687849916547e+00,-2.046386258351593046e+00,-7.034876375143208627e+00,-6.275568574027892144e-01,-3.799016437597624307e-01,-6.795918862048943021e-01,7.425839558922732522e+02
-3.446263943876441083e+00,-2.629934059286138659e+00,-7.181851869608131267e+00,-5.110080609754862335e-01,-2.677419422615550104e-01,-8.168127165832994585e-01,7.496024662409234907e+02
-3.668589436366571199e+00,-3.197615134322118191e+00,-7.292785320384366443e+00,-3.714674268474402186e-01,-1.435356942767192501e-01,-9.172826474210477032e-01,7.566209765895737291e+02
-3.879056732866235091e+00,-3.744428341235044755e+00,-7.360419062686338165e+00,-2.152132922419337513e-01,-1.287130300222411212e-02,-9.764812176386501452e-01,7.636394869382239676e+02
-4.049201597444961997e+00,-4.192193274242385748e+00,-7.375340281074711513e+00,-4.927599369264549362e-02,1.183722474103393457e-01,-9.917448701596363048e-01,7.696673601813268988e+02
-4.234873582245139545e+00,-4.683399457526737031e+00,-7.336961498390042635e+00,-3.124431861528035315e-01,-1.896284835151494652e-02,-9.497461059713659948e-01,7.766858705299771373e+02
-4.346367693830413437e+00,-4.979515362913678800e+00,-7.274003701584388359e+00,-5.475273333367857154e-01,-1.545935047956657205e-01,-8.223823122626702231e-01,7.812348674731907749e+02
-4.503898285537244028e+00,-5.398225916636967270e+00,-7.117447525262097230e+00,-5.410430144158411281e-01,3.324963773687834856e-02,-8.403361935211510758e-01,7.882533778218410134e+02
-4.646812312779502463e+00,-5.774784706158706094e+00,-6.902932177133964231e+00,-5.152707910087981347e-01,2.199073866776685149e-01,-8.283325136787939025e-01,7.952718881704912519e+02
-4.773091486768323399e+00,-6.105645005425746064e+00,-6.633016989195183122e+00,-4.711294372031513689e-01,3.987255296090576051e-01,-7.867992154535333738e-01,8.022903985191414904e+02
-4.877593730028316976e+00,-6.379687688524942502e+00,-6.319362505044459510e+00,-4.101925603165497702e-01,5.633293324734768293e-01,-7.172169313641525434e-01,8.091169046551120800e+02
-4.964890197847812381e+00,-6.609492520140900496e+00,-5.948262355699321269e+00,-1.385235515311014076e-01,7.396701291122320665e-01,-6.585570026737395111e-01,8.161354150037623185e+02
-5.032509318778507712e+00,-6.785438076725927914e+00,-5.533876282723458218e+00,1.481533022445911674e-01,8.358740830869093585e-01,-5.285481210428150112e-01,8.231539253524125570e+02
-5.081661998868949759e+00,-6.906033566893256648e+00,-5.082120889272428776e+00,4.187790422954806302e-01,8.415183121411490275e-01,-3.412756130540211541e-01,8.301724357010627955e+02
-5.113230966839828362e+00,-6.970246300146220264e+00,-4.598981492332420373e+00,6.440336967934703338e-01,7.559913020630436575e-01,-1.170288366163043242e-01,8.371909460497130340e+02
-5.113491870231984926e+00,-6.970399668010974992e+00,-4.589061465624519442e+00,7.995128608052411989e-01,5.885591688047491221e-01,1.198969983908232950e-01,8.373275260892681899e+02
-5.108453906926347265e+00,-6.922286963804663351e+00,-4.055815601375388546e+00,5.349907821304988875e-01,6.496441458879778086e-01,-5.401345635574299475e-01,8.443460364379184284e+02
-5.096636175911002375e+00,-6.869305259110888073e+00,-3.773804962375429284e+00,-2.026591266893236574e-03,3.798355619366082792e-01,-9.250507222940225205e-01,8.479258966730147904e+02
-5.055217798587767319e+00,-6.710189792683548760e+00,-3.206161978499355136e+00,4.948134141034027933e-01,6.499669674553015808e-01,-5.768020686855626078e-01,8.549444070216650289e+02
-4.995284701290638729e+00,-6.496762912155791270e+00,-2.629855830760874813e+00,7.733917797476607126e-01,6.333985386312791510e-01,2.587365992906380877e-02,8.619629173703152674e+02
-4.943667153302172323e+00,-6.319841992152966270e+00,-2.246652792396166998e+00,7.108276356382539074e-01,3.374385873809352399e-01,6.171363481108351756e-01,8.666128459480917172e+02
-4.847752228263694008e+00,-6.000000522324557828e+00,-1.672094937181895835e+00,9.055005252185064357e-01,3.396742181690326490e-01,2.543387983394885810e-01,8.736313562967419557e+02
-4.733348144949504288e+00,-5.628246114855318005e+00,-1.107957343545701301e+00,9.466684973801590131e-01,2.843265969588510411e-01,-1.515755334153051637e-01,8.806498666453921942e+02
-4.601687691419722448e+00,-5.208078340328019529e+00,-5.647315026635224555e-01,8.273524938507860194e-01,1.807784931622049007e-01,-5.317941211868614237e-01,8.876247268566925186e+02
-4.451637702285463405e+00,-4.736099747741631560e+00,-4.226454708525306109e-02,9.561662837991340425e-01,-1.460259904292749433e-01,-2.538118355105890012e-01,8.946432372053427571e+02
-4.284428496292830957e+00,-4.217736411899045912e+00,4.501039516507618909e-01,8.931074522612194588e-01,-4.435275623725419836e-01,7.510246421976166098e-02,9.016617475539929956e+02
-4.176621040835313714e+00,-3.885685489263414727e+00,7.203832589300419587e-01,6.508300062052954083e-01,-6.520270590830480328e-01,3.889460338489433289e-01,9.058064787510287488e+02
-3.978699225811568763e+00,-3.283195299339839668e+00,1.140743490426492368e+00,6.663193991321575416e-01,-6.073602959317470074e-01,4.325851699559644103e-01,9.128249890996789873e+02
-3.763766768015361919e+00,-2.646632517924531580e+00,1.522792093046320794e+00,6.790506126028268419e-01,-5.601794167404736680e-01,4.744336482418831102e-01,9.198434994483292257e+02
-3.532184633634681603e+00,-1.982563945484747014e+00,1.866137124001610248e+00,6.889709478112951979e-01,-5.106797231631644562e-01,5.143182413857819713e-01,9.268620097969794642e+02
-3.284521173333437627e+00,-1.297532750751021924e+00,2.170391919973348571e+00,6.960393412275980296e-01,-4.590661150846975791e-01,5.520738514408476405e-01,9.338805201456297027e+02
-3.021551736391687726e+00,-5.980533534939530549e-01,2.435175148324719707e+00,7.002265345399210084e-01,-4.055522424755211297e-01,5.875441931885457825e-01,9.408990304942799412e+02
-2.744258235750846264e+00,1.093936847107053190e-01,2.660110857768640535e+00,7.015151957373029212e-01,-3.503596210378520093e-01,6.205824410150443393e-01,9.479175408429301797e+02
-2.453828664019749972e+00,8.183667608020016582e-01,2.844828528484235175e+00,6.998999908326258845e-01,-2.937167153026437605e-01,6.510518366341153662e-01,9.549360511915804182e+02
-2.151656560502998694e+00,1.522468320713342482e+00,2.988963121677266965e+00,6.953876059298081946e-01,-2.358579929710817868e-01,6.788262551427987068e-01,9.619545615402306566e+02
-1.839340429318839343e+00,2.215349939087392528e+00,3.092155128579614942e+00,6.879967195443136285e-01,-1.770229544130678401e-01,7.037907270683801952e-01,9.689730718888808951e+02
-1.518683108679572902e+00,2.890717387303312957e+00,3.154050618882825230e+00,6.777579252916630104e-01,-1.174551413377483700e-01,7.258419142471257413e-01,9.759915822375311336e+02
-1.191691091413230597e+00,3.542335688894547197e+00,3.174301288600729798e+00,6.647136052637144799e-01,-5.740112873718942327e-02,7.448885375659962671e-01,9.830100925861813721e+02
-8.605737968107561864e-01,4.164034161436955372e+00,3.152564507356509171e+00,6.489177546162541166e-01,2.890495726533927074e-03,7.608517547974564810e-01,9.900286029348316106e+02
-5.707909770035820562e-01,4.675279981821600650e+00,3.096718028638776765e+00,6.304357580930631810e-01,6.317016066856714906e-02,7.736654869636800935e-01,9.961494440131456258e+02
-2.398010068292819041e-01,5.220396410573180823e+00,2.990070889414667032e+00,5.416594986070459861e-01,3.274099668737906477e-01,7.742129559495557478e-01,1.003167954361795864e+03
8.777741548892072088e-02,5.718293608842301090e+00,2.840484727832619960e+00,4.107938578914841488e-01,5.662087103100431618e-01,7.146006595902312242e-01,1.010186464710446103e+03
4.090647948987876092e-01,6.163072504410179064e+00,2.647902314529359646e+00,2.480076204311341126e-01,7.610106121062142348e-01,5.994606479732227378e-01,1.017204975059096341e+03
7.211974792372217724e-01,6.548866357376566860e+00,2.412797535658649295e+00,6.595000473301139421e-02,8.966785871789156870e-01,4.377397722037379979e-01,1.024223485407746693e+03
1.022169231758959906e+00,6.870406426701478608e+00,2.137468835219738406e+00,-1.212322413462941784e-01,9.626705385607103871e-01,2.420044996356633671e-01,1.031241995756397046e+03
1.311697885284700327e+00,7.123550359824287526e+00,1.827332408320695878e+00,-2.989941483402446809e-01,9.538585875286152982e-01,2.746441798201104331e-02,1.038260506105047398e+03
1.590311454212073761e+00,7.304681383639469949e+00,1.489365328602443084e+00,-4.535227865303693706e-01,8.709275402596825533e-01,-1.892096765875461994e-01,1.045279016453697750e+03
1.829501949500632163e+00,7.399140409443733191e+00,1.168881122625390345e+00,-5.728106195818700730e-01,7.203216232414364484e-01,-3.911812280580592160e-01,1.051544555969296880e+03
2.086979877106925230e+00,7.426157819167543472e+00,7.954586454784017269e-01,-5.370706864527400315e-01,7.323399141876052454e-01,-4.186064116056998352e-01,1.058563066317947232e+03
2.333648878783171288e+00,7.372119064132046873e+00,4.140424964637909322e-01,-5.001632092417414022e-01,7.427661493145459870e-01,-4.451215694056603889e-01,1.065581576666597584e+03
2.567901403663850779e+00,7.238041656398237045e+00,3.052768582797365376e-02,-4.621684198345902828e-01,7.515776644685433494e-01,-4.706690620557409943e-01,1.072600087015247937e+03
2.787605787233206733e+00,7.026554921639601936e+00,-3.495543735792482898e-01,-4.231689134035632738e-01,7.587553052982451973e-01,-4.951933535574424283e-01,1.079618597363898289e+03
2.990708639293357507e+00,6.740336981258477245e+00,-7.206727379342416917e-01,-3.832494689290846246e-01,7.642834688634254636e-01,-5.186411319828619915e-01,1.086637107712548641e+03
3.175235271380977942e+00,6.382112836624997065e+00,-1.077297686145346267e+00,-3.424968649828929457e-01,7.681501375356617478e-01,-5.409614253137680073e-01,1.093655618061198993e+03
3.241348463728400908e+00,6.212085789550265247e+00,-1.211669312824058986e+00,-3.009996911704578282e-01,7.703469051162865622e-01,-5.621057122014576635e-01,1.096450310686425610e+03
3.387449427530736745e+00,5.719443211510615299e+00,-1.527716910354820712e+00,-4.675405459247657936e-01,7.440317232465653019e-01,-4.773055967818809475e-01,1.103468821035075962e+03
3.510201562537002218e+00,5.166224410735816619e+00,-1.822492677741113232e+00,-6.174278839700602095e-01,6.912145060881245140e-01,-3.755040807628490795e-01,1.110487331383726314e+03
3.608321162588921549e+00,4.559856403394963564e+00,-2.096949051054263435e+00,-7.453227815877516704e-01,6.137765579204566002e-01,-2.603272713207979705e-01,1.117505841732376666e+03
3.680755459671960939e+00,3.907790679098414710e+00,-2.352041233316561009e+00,-8.466696656014297551e-01,5.144761670855935165e-01,-1.358777054958394404e-01,1.124524352081027018e+03
3.726682783211867189e+00,3.217497514393564906e+00,-2.588727062748743535e+00,-9.178585873258133798e-01,3.968503609913370811e-01,-6.588220755854959018e-03,1.131542862429677371e+03
3.745512664990347851e+00,2.496460283851968498e+00,-2.807966880747819083e+00,-9.563538145829210135e-01,2.650889197224822746e-01,1.229359425573156028e-01,1.138561372778327723e+03
3.736885889669420813e+00,1.752169769774244878e+00,-3.010723399608829176e+00,-9.607841590661466702e-01,1.238851356010456234e-01,2.480811820032360060e-01,1.145579883126978075e+03
3.700674490920107029e+00,9.921184715395696685e-01,-3.197961570004181020e+00,-9.309918198015263435e-01,-2.173136462504319730e-02,3.643898726004538569e-01,1.152598393475628427e+03
3.636981693157698814e+00,2.237949156264389672e-01,-3.370648448234104588e+00,-8.680380021673396174e-01,-1.665737785764528911e-01,4.677191497938707476e-01,1.159616903824278779e+03
3.546141798892250563e+00,-5.453220326687786557e-01,-3.529753063261851231e+00,-7.741651128798777703e-01,-3.054828845870404264e-01,5.543884786177551982e-01,1.166635414172929131e+03
3.467406441269751394e+00,-1.065313565171990939e+00,-3.629522428978803283e+00,-6.527168792357008753e-01,-4.335108130860303999e-01,6.213107519579672555e-01,1.171416650261072618e+03
3.327741143325447570e+00,-1.816549676304825889e+00,-3.764144656648092280e+00,-6.014556406375741737e-01,-5.120193430287137693e-01,6.132579430431724932e-01,1.178435160609722971e+03
3.162843204633416949e+00,-2.548857256334600585e+00,-3.887866618715909883e+00,-5.448678235486379418e-01,-5.859933254581900508e-01,5.997740219246767701e-01,1.185453670958373323e+03
3.037744441432573606e+00,-3.020887007153215453e+00,-3.963853340818762394e+00,-4.834545549605956394e-01,-6.547776669499570934e-01,5.809783990363975859e-01,1.190133528200938372e+03
2.828036152473591969e+00,-3.699298136256156333e+00,-4.069113906055481955e+00,-4.229015753633308394e-01,-6.834333702358608154e-01,5.950387264638969942e-01,1.197152038549588724e+03
2.707330849875447587e+00,-4.037000233285314543e+00,-4.120218372483454239e+00,-3.603670851253422680e-01,-7.088868359570589250e-01,6.063109909552043542e-01,1.200828234387649445e+03
2.456929713165504570e+00,-4.644915260386341060e+00,-4.210935229911076050e+00,-2.727510580129854367e-01,-6.183558262534338823e-01,7.370487992587407833e-01,1.207846744736299797e+03
2.323819057630154727e+00,-4.926143210987394383e+00,-4.252689610886867477e+00,-1.761438253138091770e-01,-5.074407935329128261e-01,8.434898896012488212e-01,1.211313378967863855e+03
2.036390758654334832e+00,-5.456619797674465921e+00,-4.331377791608029604e+00,-6.539017491998219134e-01,-1.261337765510331943e-01,7.459897940367431479e-01,1.218331889316514207e+03
1.835148941677916978e+00,-5.782013372048269595e+00,-4.379346191631685592e+00,-8.811141511953441974e-01,3.035020748317657224e-01,3.626600931124059346e-01,1.222970356361650374e+03
1.574732000917928865e+00,-6.155956544120779306e+00,-4.432723042108206002e+00,-8.579855182932275559e-01,4.776027434681218709e-01,1.890885237788844653e-01,1.228714490883405915e+03
1.245678250732776160e+00,-6.580067119814458465e+00,-4.488043799997755379e+00,-8.098152178865127837e-01,5.701671095827235414e-01,1.382272767163083838e-01,1.235733001232056267e+03
9.104903729390665390e-01,-6.975514340939356295e+00,-4.530258996837853935e+00,-7.507323239459725572e-01,6.550482052712930381e-01,8.550337158639685631e-02,1.242751511580706619e+03
5.748898113799364440e-01,-7.347414290612304555e+00,-4.556002488083265689e+00,-6.815330015827965049e-01,7.311022383888869935e-01,3.162727897653781761e-02,1.249770021929356972e+03
2.444268557254446472e-01,-7.701064067564799664e+00,-4.561910357950001327e+00,-6.031497322580695597e-01,7.973043613255625939e-01,-2.267500578424792509e-02,1.256788532278007324e+03
3.399098155152270595e-02,-7.925927017713109812e+00,-4.550744059904069161e+00,-5.166387497927711348e-01,8.527624791400014725e-01,-7.667174435461661386e-02,1.261412351612740167e+03
-6.822807727051868887e-02,-8.038648647337652164e+00,-4.536711121472480457e+00,-5.979823523311684763e-01,7.998761947204259259e-01,-5.111926645172703426e-02,1.263778699238164108e+03
-3.543444203885279253e-01,-8.367466549460818470e+00,-4.470861801791968126e+00,-5.000409479718803674e-01,8.221863687992065906e-01,2.719680593612154307e-01,1.270797209586814461e+03
-6.239738198906454869e-01,-8.691489447594374695e+00,-4.383689261430174788e+00,-3.448569169176232685e-01,7.503760197274139676e-01,5.639215689018424182e-01,1.277815719935464813e+03
-8.758900341615007967e-01,-9.013368462823796889e+00,-4.279166911299055798e+00,-1.501950841506224377e-01,5.926657085168655081e-01,7.913196538983124917e-01,1.284834230284115165e+03
-1.027182035057776721e+00,-9.223765025092268033e+00,-4.202154731970477286e+00,6.166048285364175707e-02,3.671094414302437103e-01,9.281307250961278177e-01,1.289407388658835544e+03
-1.238759931896559641e+00,-9.549988959592278448e+00,-4.073576851029488743e+00,-1.600934678312014858e-01,7.337432673917209103e-01,6.602945548129480757e-01,1.296425899007485896e+03
-1.340388002402976397e+00,-9.727370498412589939e+00,-4.000950148640587400e+00,-3.409704409766940447e-01,9.130290258615196830e-01,2.238641470060775684e-01,1.300178890579697281e+03
-1.509167556676139110e+00,-1.006608195423865659e+01,-3.860785053289900848e+00,-4.264837549602883970e-01,8.657512870411979700e-01,2.618860739616029609e-01,1.307197400928347633e+03
-1.538539388393426410e+00,-1.013530620590216103e+01,-3.832450091611470100e+00,-5.073085568750670404e-01,8.089560019393364776e-01,2.970289801362412385e-01,1.308597515293951574e+03
-1.665642496931548422e+00,-1.049124245584232185e+01,-3.690149468362235563e+00,-3.614572606660124698e-01,8.891778407420339869e-01,2.805519849227873785e-01,1.315616025642601926e+03
-1.778454274472704322e+00,-1.085506029942106387e+01,-3.548456354416231306e+00,-2.054925321130134375e-01,9.445207499732423129e-01,2.562252370761040066e-01,1.322634535991252278e+03
-1.808317256764702785e+00,-1.096512974117105799e+01,-3.506678414400432597e+00,-4.377815083514727951e-02,9.734362736473416433e-01,2.247293809352479688e-01,1.324714947361491113e+03
-1.901204845055268322e+00,-1.134219569793163984e+01,-3.365235738254166886e+00,1.025570438434746517e-01,8.851198728225131429e-01,4.539194460397885100e-01,1.331733457710141465e+03
-1.993839983669962734e+00,-1.172142189004161672e+01,-3.220858260451796795e+00,2.405090018291548004e-01,7.244520050659343235e-01,6.460051953315519846e-01,1.338751968058791817e+03
-2.039401647095862913e+00,-1.190100007678620031e+01,-3.149817711488135608e+00,3.588012962947322859e-01,5.045659209955921654e-01,7.852852100650812295e-01,1.342083702606275665e+03
-2.142670344552006334e+00,-1.227466631976894540e+01,-2.993120225956446667e+00,5.471157864409704752e-01,4.561949835880838022e-01,7.018179629906261541e-01,1.349102212954926017e+03
-2.259115938364967491e+00,-1.263832252398834122e+01,-2.827435443019679084e+00,7.109364332858866264e-01,3.874006871932339502e-01,5.869310823165361235e-01,1.356120723303576369e+03
-2.393350237267312330e+00,-1.298612856343939725e+01,-2.650594755356948440e+00,8.429292019779447420e-01,3.012628746299158000e-01,4.457679226041142417e-01,1.363139233652226721e+03
-2.542230679039604979e+00,-1.329928296275873656e+01,-2.468483239887255820e+00,9.371849352928273147e-01,2.016378247718868533e-01,2.846481770210755879e-01,1.369872217111204918e+03
-2.719242195615649393e+00,-1.359947636672234594e+01,-2.264457631847308416e+00,9.447142672305681721e-01,1.638274814300397786e-01,2.840308250815791191e-01,1.376890727459855270e+03
-2.853573172213931919e+00,-1.378305711362479613e+01,-2.115654748518396300e+00,9.508390951485211628e-01,1.257735774157119901e-01,2.829912054074268934e-01,1.381659299153875736e+03
-3.069995883283330063e+00,-1.401993033079441453e+01,-1.881014698173452793e+00,8.744730021633361217e-01,3.168014693507419377e-01,3.673306378522266935e-01,1.388677809502526088e+03
-3.300831771338187171e+00,-1.422041670703275784e+01,-1.630236490469965549e+00,7.548758755464177739e-01,4.921677461195463343e-01,4.335104637696998164e-01,1.395696319851176440e+03
-3.539613099757620951e+00,-1.438240242348555320e+01,-1.363035904750391270e+00,5.979601650100011545e-01,6.432029133661900655e-01,4.782589814089795999e-01,1.402714830199826793e+03
-3.633263157685345579e+00,-1.443040705257110723e+01,-1.252571144891278632e+00,4.114832098649455205e-01,7.624402943688678436e-01,4.993639609757772879e-01,1.405450117634733260e+03
-3.869752765578997611e+00,-1.451395570471908592e+01,-9.536758618259479903e-01,1.778875094781802169e-01,8.972909602907265247e-01,4.040086218785447492e-01,1.412468627983383612e+03
-4.096070302684972297e+00,-1.455606117110274056e+01,-6.407185181382523131e-01,-7.026727552275509325e-02,9.587033321469060621e-01,2.755874288153253304e-01,1.419487138332033965e+03
-4.303832391225931531e+00,-1.455622212132231041e+01,-3.153717715244485631e-01,-3.126710912604909187e-01,9.416511594765769599e-01,1.246109246665663695e-01,1.426505648680684317e+03
-4.427860555424029343e+00,-1.452811040646297691e+01,-8.592750263025417112e-02,-5.294845535100334288e-01,8.475300334540782909e-01,-3.656432670260195000e-02,1.431299089696804913e+03
-4.576976907829870100e+00,-1.444682056458353259e+01,2.583819356014928625e-01,-5.404505333718172544e-01,8.345016669452128832e-01,-1.073228253504616980e-01,1.438317600045455265e+03
-4.687136604870056011e+00,-1.432696087633904369e+01,6.082066106474934841e-01,-5.485538707579218354e-01,8.170531457783387630e-01,-1.775128385438824730e-01,1.445336110394105617e+03
-4.751390396427185081e+00,-1.417088463098903262e+01,9.604556773104576672e-01,-5.537516472451821103e-01,7.952768922558918208e-01,-2.467625940350291203e-01,1.452354620742755969e+03
-4.762858271187525361e+00,-1.398269847169061464e+01,1.312811059582523310e+00,-5.560163333426222376e-01,7.692882496730402142e-01,-3.147053001922622828e-01,1.459373131091406322e+03
-4.716117545667284361e+00,-1.376912304291513856e+01,1.664282869914300633e+00,-5.553359342065197213e-01,7.392248714346340011e-01,-3.809810882829296474e-01,1.466391641440056674e+03
-4.671812435176012634e+00,-1.367222380281357630e+01,1.809776447489463314e+00,-5.517140531379177704e-01,7.052459921020272082e-01,-4.452389181010739105e-01,1.469308409524450553e+03
-4.504441948780280036e+00,-1.342421703751239193e+01,2.157883339295029401e+00,-5.438042538333940357e-01,7.063358904665547611e-01,-4.531716487885846800e-01,1.476326919873100906e+03
-4.352102778938482075e+00,-1.325301827796420362e+01,2.387388670899854404e+00,-5.358255650119835289e-01,7.073363092977125177e-01,-4.610469708635481223e-01,1.480989963168976146e+03
-4.061375997255999515e+00,-1.299016834920839969e+01,2.729046063340345718e+00,-4.044107095773559757e-01,6.286665663814322569e-01,-6.642501985650917096e-01,1.488008473517626499e+03
-3.711685364164305057e+00,-1.272576492847410989e+01,3.064939616130436306e+00,-2.468100638481968978e-01,5.092903610800983971e-01,-8.244429152431012042e-01,1.495026983866276851e+03
-3.307323141516899323e+00,-1.246209134233763649e+01,3.392652547072806613e+00,-7.322833606370751647e-02,3.569373498907980613e-01,-9.312525645873850344e-01,1.502045494214927203e+03
-2.852618101473530565e+00,-1.220128734090745048e+01,3.709769177077118396e+00,1.050949783183969671e-01,1.814724547174838554e-01,-9.777631582910447650e-01,1.509064004563577555e+03
-2.352226613845708414e+00,-1.194544384033461171e+01,4.014121303627262272e+00,2.766133551634731846e-01,-5.742889339931781661e-03,-9.609630955283179343e-01,1.516082514912227907e+03
-1.973968370170112951e+00,-1.177040528123926322e+01,4.217052863062443535e+00,4.302208852735098787e-01,-1.925863902204065781e-01,-8.819401749418360748e-01,1.520992770319711099e+03
-1.397788027739886862e+00,-1.152767408342235278e+01,4.491613615258756909e+00,2.938396669253811044e-01,-2.070857319734732971e-01,-9.331515148961612161e-01,1.528011280668361451e+03
-7.907623537390796598e-01,-1.129555891081881569e+01,4.749312835762748541e+00,1.511607006577907752e-01,-2.171466631402091396e-01,-9.643628825616641365e-01,1.535029791017011803e+03
-1.585747418727071478e-01,-1.107578489445663017e+01,4.988728201501115400e+00,5.241951958444736673e-03,-2.225535545698683337e-01,-9.749053478603902922e-01,1.542048301365662155e+03
-5.285731719072591511e-02,-1.104160185089888557e+01,5.024458914433967749e+00,-1.407891792907723372e-01,-2.231905215498908579e-01,-9.645529524517487685e-01,1.543187414487395245e+03
6.142683942292148647e-01,-1.084117733407918927e+01,5.224957793361841851e+00,-6.286258185758762662e-02,-1.990276208907685029e-01,-9.779745916551094709e-01,1.550205924836045597e+03
1.293800158470339801e+00,-1.065694804993730394e+01,5.405845809043585248e+00,1.549375628704349056e-02,-1.735040646569737111e-01,-9.847102533548067749e-01,1.557224435184695949e+03
1.979633846890136217e+00,-1.049058650970489559e+01,5.567448562460927342e+00,9.374415566717544945e-02,-1.467943443387796365e-01,-9.847138943606905670e-01,1.564242945533346301e+03
2.665616999351787531e+00,-1.034356520226045717e+01,5.710094263579973628e+00,1.713536619344403211e-01,-1.190810599102091055e-01,-9.779854925871618310e-01,1.571261455881996653e+03
3.345551288181510596e+00,-1.021715542846067137e+01,5.834113685766785906e+00,2.477917023815703612e-01,-9.055367169263438265e-02,-9.645710470319891483e-01,1.578279966230647005e+03
3.715474610048641324e+00,-1.015770026479668786e+01,5.892712310076631432e+00,3.225357124935401276e-01,-6.140720535490788029e-02,-9.445622633236884225e-01,1.582168065685727697e+03
4.009919480914629908e+00,-1.011655321227756055e+01,5.932349293339814089e+00,3.467516535754635587e-01,-2.550167898384505041e-02,-9.376091696803722231e-01,1.585342279374474174e+03
4.641586368889082159e+00,-1.004350509585671070e+01,6.001044302167051647e+00,4.488134483820231391e-01,-9.111443349236170164e-02,-8.889671808119651297e-01,1.592360789723124526e+03
5.250319663307593032e+00,-9.989580223692312799e+00,6.049292203172570659e+00,5.432060315293422148e-01,-1.551702410787745012e-01,-8.251347790474986565e-01,1.599379300071774878e+03
5.831358626222475472e+00,-9.952678602710140154e+00,6.075485193575498322e+00,6.283164604668641795e-01,-2.165745407881961848e-01,-7.472027126482070347e-01,1.606397810420425230e+03
6.379996778467018181e+00,-9.929884359114824477e+00,6.077427343779038260e+00,7.026904005928401586e-01,-2.742780793322295851e-01,-6.565026550688627394e-01,1.613416320769075583e+03
6.891614535703967981e+00,-9.916805262463491033e+00,6.051743786084270660e+00,7.650569747273129328e-01,-3.272948391389399747e-01,-5.545844513632613992e-01,1.620434831117725935e+03
7.024598309073116553e+00,-9.913817097234536746e+00,6.035793131694749292e+00,8.143504784843025313e-01,-3.747188861513971458e-01,-4.431896372359834246e-01,1.622419288190083535e+03
7.450842068110555161e+00,-9.902184444289330756e+00,5.946110352158514800e+00,7.647948978355539884e-01,-5.162410364743306168e-01,-3.854633011116661567e-01,1.629437798538733887e+03
7.830085480122435548e+00,-9.887656147301518317e+00,5.819765209578605436e+00,6.954948832493559330e-01,-6.444355496618179302e-01,-3.177856033639294697e-01,1.636456308887384239e+03
8.159195886509357010e+00,-9.864488099881008054e+00,5.652998448619346306e+00,6.082395163337260824e-01,-7.559929037534039997e-01,-2.419037416903188353e-01,1.643474819236034591e+03
8.263657569924637514e+00,-9.849992716623440003e+00,5.574071686475698506e+00,5.052814109843181134e-01,-8.480330760928991296e-01,-1.597767115849202668e-01,1.646117232088457740e+03
8.490195360742523789e+00,-9.792273478363140882e+00,5.320807502055183491e+00,2.799956395506184026e-01,-9.322371464608554259e-01,-2.292037185373379249e-01,1.653135742437108092e+03
8.667869118912834736e+00,-9.712614629466537863e+00,5.023879594921573322e+00,3.716417894525210486e-02,-9.580232859955079006e-01,-2.842678442842197506e-01,1.660154252785758445e+03
8.799023097257146375e+00,-9.605367545525403727e+00,4.684690823112648062e+00,-2.079961140214211246e-01,-9.237756458383423741e-01,-3.215185417800720535e-01,1.667172763134408797e+03
8.887909302065777339e+00,-9.462670578334151372e+00,4.307281481240911702e+00,-4.401224651458959802e-01,-8.316403507885448132e-01,-3.386215330051711159e-01,1.674191273483059149e+03
8.939184079947180450e+00,-9.276328953417699807e+00,3.897262461156050684e+00,-6.446688780079081749e-01,-6.873910013796553642e-01,-3.345050806055759884e-01,1.681209783831709501e+03
