1.930262194938949571e+00,1.094293424237210033e+01,5.624081264872836661e-01,-6.351498033896425532e-01,3.430735634438356052e-01,-6.920139140959066237e-01,6.738911492779801620e+02
1.925979601078414039e+00,1.054406624953898408e+01,6.852485454504583240e-01,-6.596943018266187009e-01,3.348422796265045909e-01,-6.728165246888141438e-01,6.789938671462560933e+02
1.916510894909973173e+00,1.015491287488757166e+01,8.004325516756427561e-01,-6.835535616965171535e-01,3.262631839697234803e-01,-6.529202578108957988e-01,6.837170244028750403e+02
1.900113009710997947e+00,9.713960002828621043e+00,9.261204432526960462e-01,-8.662526356680378958e-01,2.283132135151609010e-01,-4.443843468575114364e-01,6.888197422711509716e+02
1.888122043457634014e+00,9.457051632338094649e+00,9.967976886288566485e-01,-9.740550365255445930e-01,1.106231502192220467e-01,-1.974267065361282325e-01,6.916667660166650649e+02
1.861620318807100105e+00,8.978043741837614888e+00,1.124201604144258626e+00,-9.709033290256038340e-01,8.506768448378182468e-02,-2.238486424735258162e-01,6.967694838849409962e+02
1.828943896990631535e+00,8.481657945774410123e+00,1.251975846801253178e+00,-9.664300907188698719e-01,5.939643582765025132e-02,-2.499658839880606609e-01,7.018722017532169275e+02
1.790133700666125316e+00,7.969147361943469399e+00,1.379707002068952360e+00,-9.606414104764384732e-01,3.364434355510449726e-02,-2.757428849825332984e-01,7.069749196214928588e+02
1.745259147288126700e+00,7.441761407134876549e+00,1.506981656901024591e+00,-9.535451670830302762e-01,7.846456937758887820e-03,-3.011445623616285094e-01,7.120776374897687901e+02
1.694418099690793156e+00,6.900745285368053317e+00,1.633386429416578967e+00,-9.451510185184976987e-01,-1.796211244265626811e-02,-3.261363437333263393e-01,7.171803553580447215e+02
1.687396626331950200e+00,6.828641273340513962e+00,1.649687619580247677e+00,-9.354703888281167279e-01,-4.374623843572411630e-02,-3.506842144179401766e-01,7.178445399228132828e+02
1.630385123221702592e+00,6.262438302709191440e+00,1.773523738463081312e+00,-9.599060162905036497e-01,-1.399212656731522175e-01,-2.429001426549947107e-01,7.229472577910892142e+02
1.567526144635407404e+00,5.685241794653301817e+00,1.895613960434141543e+00,-9.637380443410182851e-01,-2.330929869366260287e-01,-1.299024300422262079e-01,7.280499756593651455e+02
1.498860700331357876e+00,5.098297914967875322e+00,2.015558055017701022e+00,-9.468842259787793036e-01,-3.212615567640915160e-01,-1.411647045886476291e-02,7.331526935276410768e+02
1.424409842823029848e+00,4.502855151217411311e+00,2.132960218569885047e+00,-9.097063113243069044e-01,-4.025345167232071697e-01,1.019724962092868892e-01,7.382554113959170081e+02
1.344223269052633229e+00,3.900159820344466066e+00,2.247424828351033632e+00,-8.530022837071850050e-01,-4.751674133406011413e-01,2.158727247461880161e-01,7.433581292641929394e+02
1.316018021519987924e+00,3.694373777415046245e+00,2.284993500131937250e+00,-7.779892338259795093e-01,-5.376012399752347903e-01,3.251394452039055305e-01,7.450817012064642313e+02
1.229245262622042922e+00,3.079404077633028258e+00,2.392712854625239860e+00,-7.053289232087807115e-01,-6.496166319278398049e-01,2.837381567699854279e-01,7.501844190747401626e+02
1.136910334897202279e+00,2.460072839800873101e+00,2.496570736703510374e+00,-6.188857515784784713e-01,-7.489377929304821269e-01,2.367923326738268497e-01,7.552871369430160939e+02
1.039138411749919833e+00,1.837615761709576301e+00,2.596203307458328613e+00,-5.203489066891434645e-01,-8.336239026042132627e-01,1.852193410903450188e-01,7.603898548112920253e+02
9.360434150587968460e-01,1.213264182972306093e+00,2.691308819967620281e+00,-4.116438908964642485e-01,-9.020201190137430158e-01,1.300269663630239103e-01,7.654925726795679566e+02
8.484067732831408470e-01,7.041368844383801839e-01,2.764868700494195863e+00,-2.948948979731637610e-01,-9.527899126004731878e-01,7.229371753805147183e-02,7.696479731042927597e+02
7.364041478609498759e-01,7.920393964472904891e-02,2.850177285512391911e+00,-3.027483095991010953e-01,-9.524455373200320096e-01,3.448129156562852043e-02,7.747506909725686910e+02
6.194923357293347088e-01,-5.441826147636016353e-01,2.930198384663182498e+00,-3.101501469723459969e-01,-9.506805165976832672e-01,-3.382556544788966647e-03,7.798534088408446223e+02
4.978736146038600374e-01,-1.164806229619429478e+00,3.004662516295752539e+00,-3.170893707557485008e-01,-9.474974837232755798e-01,-4.124135407637277706e-02,7.849561267091205536e+02
3.717707914178328132e-01,-1.781471158496490181e+00,3.073324851597197593e+00,-3.235556314474087869e-01,-9.429011864378213925e-01,-7.903863591344975625e-02,7.900588445773964850e+02
2.414188952791295195e-01,-2.393018561997767524e+00,3.135989487611613225e+00,-3.295392848006008513e-01,-9.368984798512248746e-01,-1.167180286831366876e-01,7.951615624456724163e+02
2.299072123007843416e-01,-2.446262118100832161e+00,3.140958941485229694e+00,-3.350314061956408684e-01,-9.294983162286488687e-01,-1.542233347601395244e-01,7.956096880932685735e+02
9.825915557295267222e-02,-3.046671829724493019e+00,3.191374070244652028e+00,-3.371055646648770665e-01,-9.281412937890262116e-01,-1.578340170792550956e-01,8.007124059615445049e+02
-3.702548358375850474e-02,-3.639632080893777211e+00,3.235434736121253430e+00,-3.391732566667591819e-01,-9.267664693538391063e-01,-1.614416710624674289e-01,8.058151238298204362e+02
-1.756695033194963507e-01,-4.224057038025581079e+00,3.272978746719803489e+00,-3.412344428621761350e-01,-9.253738690450747928e-01,-1.650462280849732954e-01,8.109178416980963675e+02
-3.174352511106786068e-01,-4.798944042896757800e+00,3.303860158197128083e+00,-3.432890840464887794e-01,-9.239635193525872481e-01,-1.686476195858153115e-01,8.160205595663722988e+02
-4.491640162442260831e-01,-5.314030158084937838e+00,3.325841447554608976e+00,-3.453371411363901911e-01,-9.225354470953303077e-01,-1.722457770626964757e-01,8.206767168190084476e+02
-5.958809279705125084e-01,-5.867207100163483346e+00,3.343007880923362318e+00,-2.616223027617287644e-01,-9.459144533637223740e-01,-1.918270513083228379e-01,8.257794346872843789e+02
-7.449809026974186787e-01,-6.408069104053680576e+00,3.353112421962435086e+00,-1.758306759268372654e-01,-9.617846040749505887e-01,-2.098855611185436454e-01,8.308821525555603102e+02
-8.961943733164866588e-01,-6.935736976689333311e+00,3.356027994893417521e+00,-8.864327889979327357e-02,-9.700199249484265929e-01,-2.262779580681510139e-01,8.359848704238362416e+02
-1.049281402053694690e+00,-7.449468304339259994e+00,3.351646106543010539e+00,-7.522084705990824674e-04,-9.705550438304623162e-01,-2.408741187343873547e-01,8.410875882921121729e+02
-1.168911734620319498e+00,-7.837269608162015011e+00,3.342514041352611542e+00,8.714485266264547503e-02,-9.633857095324791509e-01,-2.535581773895541069e-01,8.450502774749064656e+02
-1.323688164991877025e+00,-8.321689353927835597e+00,3.323289910300455841e+00,2.672327207478852329e-01,-9.171164775396423163e-01,-2.957736289582121869e-01,8.501529953431823969e+02
-1.479618734764625021e+00,-8.790328005856334670e+00,3.296495004620421998e+00,4.376053918102768558e-01,-8.375057705511856909e-01,-3.272363142322041174e-01,8.552557132114583283e+02
-1.636415061563806672e+00,-9.242613513916641210e+00,3.262031146458242326e+00,5.920690593941636548e-01,-7.274478027932446134e-01,-3.468024266343919804e-01,8.603584310797342596e+02
-1.715166595713943920e+00,-9.462727322534821184e+00,3.240733729274322794e+00,7.250082696902283574e-01,-5.909436643383713106e-01,-3.537606457181254327e-01,8.629342386695808500e+02
-1.870099629805019648e+00,-9.882334969307791539e+00,3.190741450919665656e+00,5.798373586265461732e-01,-6.702671734068598175e-01,-4.631722722644210366e-01,8.680369565378567813e+02
-2.024963698067519857e+00,-1.028478818818633478e+01,3.132831768770472980e+00,4.118569357612033022e-01,-7.232238471500140875e-01,-5.543637175892220936e-01,8.731396744061327126e+02
-2.179346309797391079e+00,-1.066985584217906258e+01,3.066895654785362524e+00,2.276749586666763914e-01,-7.477304936231650156e-01,-6.237477231240795561e-01,8.782423922744086440e+02
-2.332716181249389731e+00,-1.103742319236802771e+01,2.992803497021454984e+00,3.453671430126278863e-02,-7.428230673324238698e-01,-6.685948743478161704e-01,8.833451101426845753e+02
-2.414945659015498958e+00,-1.122852911594709546e+01,2.947897089992556285e+00,-1.599601822474500112e-01,-7.086945949817989865e-01,-6.871409688984396746e-01,8.861277674418493007e+02
-2.562667767939148522e+00,-1.156183232643839176e+01,2.857186541886724829e+00,-3.669448247333712554e-01,-6.264944087968253861e-01,-6.876439859024661150e-01,8.912304853101252320e+02
-2.707783157685839104e+00,-1.187756781148324059e+01,2.757965950821858581e+00,-5.557290205396352434e-01,-5.132202081546043404e-01,-6.540399633600914031e-01,8.963332031784011633e+02
-2.849746870896991080e+00,-1.217574115624920594e+01,2.650165453806941684e+00,-7.169491276571421379e-01,-3.744903788457528693e-01,-5.879956670792256812e-01,9.014359210466770946e+02
-2.988114925778391662e+00,-1.245641605087251946e+01,2.533851951405182490e+00,-8.426086756780937215e-01,-2.171858869603698061e-01,-4.927868810931381738e-01,9.065386389149530260e+02
-3.093290861168842998e+00,-1.266317577854588450e+01,2.435992587252949537e+00,-9.264749772477328671e-01,-4.910899158294724370e-02,-3.731359316383484059e-01,9.105434102222230877e+02
-3.222581305298064525e+00,-1.290949104497066990e+01,2.303050409104487439e+00,-9.421788984637031739e-01,1.194564208552101187e-01,-3.130927766733890838e-01,9.156461280904990190e+02
-3.347185937206036410e+00,-1.313862196351562694e+01,2.161980679804558658e+00,-9.274823349148033635e-01,2.841673963130845193e-01,-2.429473385170535238e-01,9.207488459587749503e+02
-3.397059016722869362e+00,-1.322782628122838844e+01,2.099414621901792621e+00,-8.828594844277305453e-01,4.397094134365193141e-01,-1.649629124676880165e-01,9.228909053869982699e+02
-3.509875167103830851e+00,-1.342382796810034229e+01,1.942515187759713768e+00,-7.947636538329565514e-01,5.911517922929938607e-01,-1.374346863559897658e-01,9.279936232552742013e+02
-3.617383295611342309e+00,-1.360305162743481233e+01,1.777882754301886692e+00,-6.816697256049080167e-01,7.240003284848014475e-01,-1.055836613617711917e-01,9.330963411235501326e+02
-3.696994574415291002e+00,-1.373005526104963003e+01,1.643465819866122501e+00,-5.471348586042528161e-01,8.340765227315469765e-01,-7.041165192423705366e-02,9.370807486005321607e+02
-3.793639301491708249e+00,-1.387610586083251185e+01,1.464115418031373128e+00,-3.380944245575457918e-01,9.400333552953769045e-01,-4.502722527029359711e-02,9.421834664688080920e+02
-3.885586455482227031e+00,-1.400555257113786034e+01,1.278069779688353114e+00,-1.102663964129022012e-01,9.937532485581508368e-01,-1.714067684498945740e-02,9.472861843370840234e+02
-3.973229457232109851e+00,-1.411892493473273369e+01,1.086142632466838398e+00,1.236890366955156056e-01,9.922510622222457943e-01,1.169836401297122061e-02,9.523889022053599547e+02
-4.004011658085401493e+00,-1.415529434068698578e+01,1.013199992065385135e+00,3.507712004022750518e-01,9.356102634489440462e-01,3.988734006586505676e-02,9.542783250778740012e+02
-4.082875147122652315e+00,-1.423878836459792119e+01,8.117923238555913024e-01,3.596769789988216726e-01,9.326215369459386340e-01,-2.911253335907044298e-02,9.593810429461499325e+02
-4.158283859158351525e+00,-1.430768098820724177e+01,6.067680688936059052e-01,3.668385971823839853e-01,9.251103090029723086e-01,-9.797121918948208108e-02,9.644837608144258638e+02
-4.230653535056150716e+00,-1.436247125861724783e+01,3.990865350512619592e-01,3.722213287571843332e-01,9.131130025877320922e-01,-1.663548223499254908e-01,9.695864786827017952e+02
-4.258333323451854113e+00,-1.437897455627332022e+01,3.154887596327077826e-01,3.757990720157398656e-01,8.966877903478859269e-01,-2.339317509624314340e-01,9.716224547865216437e+02
-4.324983291113023043e+00,-1.440725309526957432e+01,1.048023013188034980e-01,4.304498013957163138e-01,8.834540617128048279e-01,-1.849861868235892770e-01,9.767251726547975750e+02
-4.389513229164003327e+00,-1.442254475624708832e+01,-1.062618013143267204e-01,4.827082847390586906e-01,8.653105318007169311e-01,-1.350125749444060774e-01,9.818278905230735063e+02
-4.424277153112288197e+00,-1.442406327266523824e+01,-2.232460869065151510e-01,5.322841184980351414e-01,8.423580267885522055e-01,-8.428862256198108027e-02,9.846617216642423500e+02
-4.485180856699822805e+00,-1.441441252033473042e+01,-4.328001537580674629e-01,4.457567463817742048e-01,8.884960453708740102e-01,-1.089665105064595158e-01,9.897644395325182813e+02
-4.544733016713265350e+00,-1.439249144109311018e+01,-6.405235918170140152e-01,3.546716573819193030e-01,9.255494317959581663e-01,-1.325302408835772605e-01,9.948671574007942127e+02
-4.561196576597183139e+00,-1.438301591231726917e+01,-6.984886721466427861e-01,2.599601317247293153e-01,9.531393420642767511e-01,-1.547388914237076696e-01,9.963080721445891186e+02
-4.583058324706658304e+00,-1.436588217826827751e+01,-7.760567232502741941e-01,2.372203381201480055e-01,9.631980253038152640e-01,-1.263885880242952009e-01,9.982628499524549852e+02
-4.638889414442557424e+00,-1.430988034894954453e+01,-9.753903686383721405e-01,2.195420802312051944e-01,9.617525842001460878e-01,-1.638024474271595476e-01,1.003365567820730917e+03
-4.693473065408920952e+00,-1.424258052552960230e+01,-1.170992445763218592e+00,2.014874416108726196e-01,9.586583054049654384e-01,-2.009354730811344636e-01,1.008468285689006848e+03
-4.746820687638801495e+00,-1.416440551817419369e+01,-1.362280987932101173e+00,1.830873709648976333e-01,9.539204936372509547e-01,-2.377240130972331777e-01,1.013571003557282779e+03
-4.760709439519136943e+00,-1.414097132315825611e+01,-1.411887653612626803e+00,1.643734088636888135e-01,9.475472696535265360e-01,-2.741050058304883019e-01,1.014927113146262741e+03
-4.811825942873514173e+00,-1.404344675441298484e+01,-1.593731987170049269e+00,9.515054332031319673e-02,9.168189832990208954e-01,-3.877980479148920301e-01,1.020029831014538672e+03
-4.861541979064949004e+00,-1.393719123888587852e+01,-1.770591989879084505e+00,2.415197733861006169e-02,8.689808705360296814e-01,-4.942539110935700863e-01,1.025132548882814717e+03
-4.899965145620783780e+00,-1.384666796986784654e+01,-1.907115598108324539e+00,-4.729733149408399395e-02,8.049256747756804442e-01,-5.914859427900635014e-01,1.029186408249044007e+03
-4.946954964082540762e+00,-1.372596310222025728e+01,-2.073996563329525866e+00,-4.544835483674566218e-02,8.626526572554419348e-01,-5.037487865702515721e-01,1.034289126117319938e+03
-4.992481876728471768e+00,-1.359942007622327509e+01,-2.235955697783941432e+00,-4.309791731840428852e-02,9.108614196412482267e-01,-4.104534611016004697e-01,1.039391843985595870e+03
-5.036576909066916130e+00,-1.346798580606496465e+01,-2.393099335176025022e+00,-4.027195242207517317e-02,9.490200575552374396e-01,-3.126293335631811221e-01,1.044494561853871801e+03
-5.065514993128137355e+00,-1.337654490439994959e+01,-2.496016367307547057e+00,-3.700163998711857721e-02,9.767075464933749895e-01,-2.113557362811921136e-01,1.047937477491331720e+03
-5.107260795330691217e+00,-1.323750375018818204e+01,-2.644159868603748187e+00,2.224913311406101490e-02,9.911356715423663699e-01,-1.309696784371475187e-01,1.053040195359607651e+03
-5.147770764108770436e+00,-1.309548896502452031e+01,-2.788143173247628948e+00,8.127337793532220245e-02,9.954732788489392137e-01,-4.925027040390109884e-02,1.058142913227883582e+03
-5.187179062532448093e+00,-1.295110142242324436e+01,-2.928237548249829292e+00,1.394701971308377475e-01,9.896762134744749861e-01,3.297054129279979734e-02,1.063245631096159514e+03
-5.213414172797591561e+00,-1.285187572552458590e+01,-3.020821233228588643e+00,1.962471164771475429e-01,9.738034894453631019e-01,1.148557060669069957e-01,1.066707081701501465e+03
-5.251545682955057082e+00,-1.270401271412766597e+01,-3.153936124927112061e+00,1.032946791383042018e-01,9.730438148660023323e-01,2.061890967352067450e-01,1.071809799569777397e+03
-5.289157915177365332e+00,-1.255480951486555696e+01,-3.283932409858625778e+00,8.588053135706409658e-03,9.557593753163083905e-01,2.940208527268032279e-01,1.076912517438053328e+03
-5.326494782977048814e+00,-1.240450915023731682e+01,-3.411076485651408419e+00,-8.626441450378496967e-02,9.222437084894693493e-01,3.768593808594555838e-01,1.082015235306329259e+03
-5.363804362320283126e+00,-1.225314233885981885e+01,-3.535587128168560245e+00,-1.796519008871408918e-01,8.730659902083408586e-01,4.532978835698092679e-01,1.087117953174605191e+03
-5.382278362656004234e+00,-1.217869864381999712e+01,-3.595225349283307725e+00,-2.699884601564997988e-01,8.090613695368348290e-01,5.220382473582869665e-01,1.089610721660217450e+03
-5.420783690715794911e+00,-1.202522494382185769e+01,-3.715020417457552071e+00,-2.630896724430854539e-01,6.894208204762481973e-01,6.748931445409501739e-01,1.094713439528493382e+03
-5.459870294496428578e+00,-1.187046896794781858e+01,-3.832667802807450119e+00,-2.462655255823834599e-01,5.437710867021617878e-01,8.022869163691654926e-01,1.099816157396769313e+03
-5.499781334823361512e+00,-1.171433729253120326e+01,-3.948362997196936508e+00,-2.201507303095055490e-01,3.776069693725105370e-01,8.994134936870050723e-01,1.104918875265045244e+03
-5.540789612879099657e+00,-1.155668111766356532e+01,-4.062272584871801762e+00,-1.857304963711899071e-01,1.971971945812570071e-01,9.626086687578329082e-01,1.110021593133321176e+03
-5.583242488752218513e+00,-1.139727260198313097e+01,-4.174476155030431457e+00,-1.443033647509146533e-01,9.347921094285229285e-03,9.894883300440957541e-01,1.115124311001597107e+03
-5.627543811684021513e+00,-1.123587906010828874e+01,-4.284966307829513710e+00,-9.743221946691600632e-02,-1.788540267573491827e-01,9.790384056425085468e-01,1.120227028869873038e+03
-5.633899575828228201e+00,-1.121381994033466789e+01,-4.299664265457391998e+00,-4.688532682701939541e-02,-3.603085152271298663e-01,9.316531221348687275e-01,1.120916268133958056e+03
-5.683935002502083833e+00,-1.104844720817936654e+01,-4.406784084397222578e+00,1.022698572862657390e-01,-3.754365178456299246e-01,9.211874387756046056e-01,1.126018986002233987e+03
-5.736680482026452310e+00,-1.088057846500833392e+01,-4.512113154227632705e+00,2.491151701614979508e-01,-3.820850229222788053e-01,8.899161012440344187e-01,1.131121703870509918e+03
-5.792540695452601973e+00,-1.070997634631522466e+01,-4.615615472378043371e+00,3.903340430803255989e-01,-3.801038741063081372e-01,8.385453951345349655e-01,1.136224421738785850e+03
-5.845515213570172008e+00,-1.055526451265296117e+01,-4.706232760638711099e+00,5.227369796895299237e-01,-3.695378139859056277e-01,7.682355459744446557e-01,1.140774273705619635e+03
-5.908757114043791780e+00,-1.037868593581601218e+01,-4.805887346801494431e+00,6.049589020276797680e-01,-2.473318573203185655e-01,7.568683367741876333e-01,1.145876991573895566e+03
-5.975999915386121408e+00,-1.019886504497793922e+01,-4.903431486305771081e+00,6.739781868208892801e-01,-1.197281642986292860e-01,7.289832442263908252e-01,1.150979709442171497e+03
-6.047499329606676355e+00,-1.001565729314606124e+01,-4.998734381749494915e+00,7.282885795092549630e-01,1.048847040219715553e-02,6.851888330558634221e-01,1.156082427310447429e+03
-6.093537419906762231e+00,-9.903027844067857188e+00,-5.054855047269228407e+00,7.667048192842148557e-01,1.404762304436850129e-01,6.264408581548822630e-01,1.159163147939665123e+03
-6.174600485244904569e+00,-9.713011676000071759e+00,-5.145266656314698039e+00,7.761874121460443643e-01,1.308524082726452986e-01,6.167728499603968295e-01,1.164265865807941054e+03
-6.260142587414266657e+00,-9.519228839604382486e+00,-5.232833074871833468e+00,7.854557683410279267e-01,1.211924722556138312e-01,6.069346098398974432e-01,1.169368583676216986e+03
-6.350150386409318948e+00,-9.321553972905233465e+00,-5.317259437223819774e+00,7.945073321174873637e-01,1.114990862157769491e-01,5.969288508336787480e-01,1.174471301544492917e+03
-6.352041156365056729e+00,-9.317563505588791983e+00,-5.318869663872610509e+00,8.033396073541340110e-01,1.017749231769932844e-01,5.867583320593546814e-01,1.174572544216097185e+03
-6.452504749325700395e+00,-9.112893974596138591e+00,-5.396562976312199389e+00,8.347042241278529451e-01,2.050626047093628002e-01,5.110931288640595538e-01,1.179675262084373117e+03
-6.556965192365989736e+00,-8.903983026787660293e+00,-5.470347733390298117e+00,8.515638979878530357e-01,3.047868219498264808e-01,4.265465048604720200e-01,1.184777979952649048e+03
-6.665008889835213779e+00,-8.690690222040418078e+00,-5.539759579372931952e+00,8.536256610692619651e-01,3.992146580270104494e-01,3.345876381152417811e-01,1.189880697820924979e+03
-6.700855965683397919e+00,-8.621057107312809720e+00,-5.560493238318942488e+00,8.408536800653912957e-01,4.867052279407081405e-01,2.368145050760310233e-01,1.191515502964395637e+03
-6.816177456756235209e+00,-8.399529128692995172e+00,-5.620178758535981700e+00,8.442227595102822502e-01,4.910915651479932365e-01,2.147440498509979590e-01,1.196618220832671568e+03
-6.933668149981880191e+00,-8.173196728009392231e+00,-5.674322689027076372e+00,8.471547869879866299e-01,4.952236649198966667e-01,1.925624277158740905e-01,1.201720938700947499e+03
-7.052587946909478767e+00,-7.941888559426286243e+00,-5.722391836738635718e+00,8.496482454753023772e-01,4.990993891986480469e-01,1.702811165200945331e-01,1.206823656569223431e+03
-7.112625376878372485e+00,-7.823950612250829550e+00,-5.743166962323503988e+00,8.517018445645068159e-01,5.027167323995834769e-01,1.479116456252625722e-01,1.209372830102821126e+03
-7.233369288789048390e+00,-7.582929888158849607e+00,-5.777894515250219243e+00,8.347535388261704270e-01,5.321088895650228912e-01,-1.415791618262990659e-01,1.214475547971097058e+03
-7.353277134471182919e+00,-7.336392358096030186e+00,-5.805288424867218744e+00,7.468877253703889441e-01,5.162950803050291304e-01,-4.190419021341322825e-01,1.219578265839372989e+03
-7.403957618945583796e+00,-7.228971846429537607e+00,-5.813700193019641915e+00,5.955691135292686678e-01,4.566187745140095067e-01,-6.609044755266978433e-01,1.221754794283229785e+03
-7.520858512171647803e+00,-6.971659949056003391e+00,-5.825467422174751775e+00,6.038590387302187334e-01,4.246666749930579909e-01,-6.745446438027784541e-01,1.226857512151505716e+03
-7.634149193202880213e+00,-6.708275523183656830e+00,-5.828925924393684177e+00,6.113786093746522710e-01,3.921728293820506694e-01,-6.873242814585969196e-01,1.231960230019781648e+03
-7.742604217404949196e+00,-6.438617518440403309e+00,-5.823731867518636918e+00,6.181182347790202813e-01,3.591786827027106943e-01,-6.992270888019646025e-01,1.237062947888057579e+03
-7.748085540968853380e+00,-6.424075417677449273e+00,-5.822992474807451302e+00,6.240693184756749279e-01,3.257263177243466812e-01,-7.102378838583076615e-01,1.237332328512091181e+03
-7.846585111192500683e+00,-6.142719243963845166e+00,-5.800061264211024969e+00,5.993988097880653676e-01,4.227015758571838200e-01,-6.797370407635056067e-01,1.242435046380367112e+03
-7.937277793573516149e+00,-5.855534290664111019e+00,-5.768116462284454293e+00,5.681689861331959968e-01,5.150511414626940399e-01,-6.417977289359225734e-01,1.247523903139578806e+03
-7.965259522527934344e+00,-5.756407304285966475e+00,-5.754268290995634416e+00,6.001067744184728214e-01,5.163125740080969361e-01,-6.109756011296679779e-01,1.249242141474109303e+03
-8.039522942602078004e+00,-5.455474094046356193e+00,-5.704085347460216227e+00,6.715823556335194233e-01,4.122617902474409735e-01,-6.156422304401613088e-01,1.254344859342385234e+03
-8.102745050416409356e+00,-5.147446620357643887e+00,-5.644960455997804161e+00,7.323413953679654975e-01,3.016325148110033938e-01,-6.104849765857666144e-01,1.259447577210661166e+03
-8.149034960295960417e+00,-4.859516198845684976e+00,-5.583123056001868534e+00,7.814143797408266146e-01,1.861900264146817974e-01,-5.955861324738589424e-01,1.264106096728943839e+03
-8.185605074954157345e+00,-4.536496110842914931e+00,-5.507158512165458042e+00,9.183070716930201716e-01,1.233344452820271248e-01,-3.761631782694162540e-01,1.269208814597219771e+03
-8.207019374909627629e+00,-4.205697983060497691e+00,-5.423282471903888791e+00,9.901496318464504398e-01,5.174223446427889117e-02,-1.300939957383111800e-01,1.274311532465495702e+03
-8.212883037216645477e+00,-3.923174643590459088e+00,-5.346857841087335750e+00,9.918529735096222044e-01,-2.351525453284489947e-02,1.251907015084811059e-01,1.278571302737332417e+03
-8.206655654187251514e+00,-3.577340420657861841e+00,-5.247820079239572166e+00,9.899392107408886421e-01,-1.129391597420945081e-01,8.522385362864974556e-02,1.283674020605608348e+03
-8.197036607149851051e+00,-3.388301681641956886e+00,-5.190897764940990200e+00,9.785243432704682220e-01,-2.012791092031158136e-01,4.443905734716883243e-02,1.286405957247521428e+03
-8.168191578220536542e+00,-3.028139859633414588e+00,-5.077463389633243729e+00,9.507337804677876703e-01,-2.941188730919820915e-01,9.796615314769124838e-02,1.291508675115797359e+03
-8.145467479470680061e+00,-2.814167054247059596e+00,-5.007291434712801248e+00,9.112903460394791155e-01,-3.833537103021456005e-01,1.502925081509932648e-01,1.294483184371301149e+03
-8.097099668432065300e+00,-2.440415186819473892e+00,-4.880146016658630792e+00,8.577921923884271882e-01,-5.096702454551809147e-01,6.653416845388147871e-02,1.299585902239577081e+03
-8.075996212853576495e+00,-2.298840796224222771e+00,-4.830361283554455376e+00,7.821343220214184155e-01,-6.228202516547575174e-01,-1.894297867373425856e-02,1.301485514201354135e+03
-8.011553539057029383e+00,-1.912248095813636750e+00,-4.690181980804857709e+00,8.166241175558001109e-01,-5.714686395403554275e-01,8.091133818331540384e-02,1.306588232069630067e+03
-7.938856046886798801e+00,-1.519911286380130733e+00,-4.543648878797170276e+00,8.398465813057068852e-01,-5.122322354799428989e-01,1.796492605133158393e-01,1.311690949937905998e+03
-7.858700733395679094e+00,-1.122206888642924838e+00,-4.390933644849978279e+00,8.514813127431670736e-01,-4.459283393831852127e-01,2.759084815344913233e-01,1.316793667806181929e+03
-7.813689828313775898e+00,-9.112031356307578323e-01,-4.307835631964545442e+00,8.513677815193410048e-01,-3.734717576852507048e-01,3.683608920617517657e-01,1.319465401882841434e+03
-7.722517530665808927e+00,-5.031785187288311256e-01,-4.143265464502208673e+00,8.537915046197203095e-01,-2.222042936482999109e-01,4.708113406886180186e-01,1.324568119751117365e+03
-7.647424267154049993e+00,-1.812317151322643261e-01,-4.010367279204224644e+00,8.277123553588102700e-01,-6.351879539573396238e-02,5.575442757440602914e-01,1.328549292295673922e+03
-7.546734553423774194e+00,2.357080810592243614e-01,-3.834327928777548689e+00,7.776447247587948697e-01,-3.821060836836431829e-01,4.992610768599635152e-01,1.333652010163949853e+03
-7.441745104406353839e+00,6.564542441494470859e-01,-3.652570643853148002e+00,6.440566938151184306e-01,-6.596544681817883005e-01,3.873563704914531058e-01,1.338754728032225785e+03
-7.428037459573914703e+00,7.108773554965102104e-01,-3.628554105047505196e+00,4.412958051473221399e-01,-8.663548425201326175e-01,2.338488811209612772e-01,1.339408458587705582e+03
-7.319269026892854413e+00,1.139482145046626593e+00,-3.435309816519753756e+00,4.990733898709275307e-01,-8.615119221970189978e-01,9.338607730096580573e-02,1.344511176455981513e+03
-7.207150920755418966e+00,1.570925626957991650e+00,-3.236095805681840964e+00,5.453265880994890846e-01,-8.367753652338767445e-01,-4.923312348429917384e-02,1.349613894324257444e+03
-7.136141574055125503e+00,1.840639914693474877e+00,-3.108524359679865956e+00,5.789873619227658974e-01,-7.927163674111455949e-01,-1.907154832999293226e-01,1.352784655488888802e+03
-7.019997306916867963e+00,2.276794817880432031e+00,-2.897041764317070722e+00,5.735954332648044440e-01,-7.908360624856962673e-01,-2.134586638779530365e-01,1.357887373357164734e+03
-6.901457694212384197e+00,2.714170864197867683e+00,-2.679574179477120399e+00,5.678881077683431977e-01,-7.885209076191626032e-01,-2.360844664043664498e-01,1.362990091225440665e+03
-6.802897108081848110e+00,3.073481273086218213e+00,-2.496956495740203508e+00,5.618685211446584615e-01,-7.857721748056225586e-01,-2.585804598615623062e-01,1.367173645337965127e+03
-6.681231495841448265e+00,3.512569688911558075e+00,-2.269769480910346804e+00,5.641566489916565175e-01,-7.802036152018471116e-01,-2.701991750345061338e-01,1.372276363206241058e+03
-6.557898529936842635e+00,3.952540680824357722e+00,-2.038921605452699737e+00,5.663481705663587773e-01,-7.745014554564861875e-01,-2.817716187923956506e-01,1.377379081074516989e+03
-6.433094767613233955e+00,4.393585391304583254e+00,-1.805244507186765102e+00,5.684427111708731939e-01,-7.686666706182206932e-01,-2.932958123844096043e-01,1.382481798942792921e+03
-6.372401279941631635e+00,4.608617511643666731e+00,-1.690716050679855975e+00,5.704399126200327963e-01,-7.627002583177900918e-01,-3.047697852748184055e-01,1.384960561083046514e+03
-6.247376887096348419e+00,5.052979552129222895e+00,-1.453476236177805303e+00,5.501252958731941423e-01,-8.164079446227259229e-01,-1.756081626677622742e-01,1.390063278951322445e+03
-6.121100551403311663e+00,5.498704205690255087e+00,-1.215466066181365434e+00,5.188192036636366522e-01,-8.538038232007064687e-01,-4.293792491395099359e-02,1.395165996819598377e+03
-6.003591340718802627e+00,5.911293528176943646e+00,-9.958650628981725594e-01,4.771471175514786500e-01,-8.741407421128816191e-01,9.059023782103003963e-02,1.399874300754311889e+03
-5.875084565505623857e+00,6.359787138991098487e+00,-7.585886523071871945e-01,5.073618908046391152e-01,-8.296007185013997143e-01,2.331191961585934169e-01,1.404977018622587821e+03
-5.760009837449821646e+00,6.758849259756975592e+00,-5.492785207115576940e-01,5.258001363969212472e-01,-7.658045884467578057e-01,3.702371522077905763e-01,1.409504863411869792e+03
-5.629015913688765416e+00,7.209611124507418367e+00,-3.154054342420331558e-01,5.355004632357446281e-01,-7.677685477004630998e-01,3.518077756270309719e-01,1.414607581280145723e+03
-5.595781572470937881e+00,7.324361620876479684e+00,-2.566622162043832867e-01,5.449664572592634038e-01,-7.693965343427462411e-01,3.332244489207749072e-01,1.415902937209048787e+03
-5.464788560468516465e+00,7.777351743745700041e+00,-2.802130736836058039e-02,5.805089567208933099e-01,-7.379258119117892978e-01,3.441988484522053304e-01,1.421005655077324718e+03
-5.331703049275857254e+00,8.230191460762172895e+00,1.975409048412218038e-01,6.146732526701559340e-01,-7.047031736007118852e-01,3.543560773625574756e-01,1.426108372945600649e+03
-5.196270725984562411e+00,8.682207722785442172e+00,4.196437668289112466e-01,6.473782409963504403e-01,-6.698074892675074388e-01,3.636720231202833498e-01,1.431211090813876581e+03
-5.058237044069658239e+00,9.132697046553460041e+00,6.379401248883407316e-01,6.785462812570585145e-01,-6.333215996719812058e-01,3.721245699704867627e-01,1.436313808682152512e+03
-5.029196801342910028e+00,9.226554192298065615e+00,6.827275039823282876e-01,7.081033808603353075e-01,-5.953321199905211580e-01,3.796936514033234511e-01,1.437380408982179233e+03
-4.889202675171685719e+00,9.673647603346749335e+00,8.928173389388995851e-01,7.372229154597003120e-01,-5.700223800485343384e-01,3.627324898022846189e-01,1.442483126850455164e+03
-4.746021558630872050e+00,1.011751821523523454e+01,1.098522030185454357e+00,7.650329778803542924e-01,-5.437001637912796115e-01,3.451270413083470379e-01,1.447585844718731096e+03
-4.599407448927660624e+00,1.055736847177865201e+01,1.299595239612024944e+00,7.914841764497846377e-01,-5.164122213649340321e-01,3.269085744484566680e-01,1.452688562587007027e+03
-4.449339239194650020e+00,1.099245244988965275e+01,1.495856453112101914e+00,8.165295322946733991e-01,-4.882070176150168916e-01,3.081094461961473852e-01,1.457791280455282958e+03
-4.388222013352039319e+00,1.116570864625166593e+01,1.572924275003096728e+00,8.401245626895560425e-01,-4.591346461026522552e-01,2.887630445655120504e-01,1.459845759992455896e+03
-4.235142333354308342e+00,1.159087455623850182e+01,1.759502896161725172e+00,8.668104129648573908e-01,-3.962497789878596799e-01,3.026942692277177493e-01,1.464948477860731828e+03
-4.079928829842460303e+00,1.200987516256174104e+01,1.941243916784800350e+00,8.892829269322743979e-01,-3.314388650556676086e-01,3.151541759092533757e-01,1.470051195729007759e+03
-3.923205087653452328e+00,1.242215486196698748e+01,2.118189908632964524e+00,9.074328789225338809e-01,-2.650169173376142329e-01,3.260822040080881834e-01,1.475153913597283690e+03
-3.826612194152831936e+00,1.267183904394721949e+01,2.224275005624706036e+00,9.211720498313986649e-01,-1.973067780748702094e-01,3.354252374677721416e-01,1.478296608368356374e+03
-3.670140130083085150e+00,1.306991658290887415e+01,2.391921603729781243e+00,9.598636440237666712e-01,-1.765806387715828860e-02,2.799070875518928081e-01,1.483399326236632305e+03
-3.513719950480193255e+00,1.345979570808465731e+01,2.555059658690305824e+00,9.631813492702601120e-01,1.626413664199799491e-01,2.140735255639474310e-01,1.488502044104908236e+03
-3.357919000924960873e+00,1.384092902054875296e+01,2.713817614334163242e+00,9.310029147280921569e-01,3.369469538115459906e-01,1.403507145880290019e-01,1.493604761973184168e+03
-3.203245657184166095e+00,1.421279306913816853e+01,2.868341469148044443e+00,8.645142128700223916e-01,4.988350334146389731e-01,6.145555454399002221e-02,1.498707479841460099e+03
-3.198987855897607702e+00,1.422301841146703083e+01,2.872578403581575568e+00,7.661655370476071480e-01,6.423395557573062797e-01,-1.970443986078148843e-02,1.498851174709319821e+03
-3.051548340220854083e+00,1.457714697463190312e+01,3.019048963288232912e+00,7.548431699307910359e-01,6.524385042413259894e-01,-6.733340170455474893e-02,1.503953892577595752e+03
-2.906337475280277971e+00,1.492105131392676753e+01,3.161638227198519502e+00,7.416346741162769263e-01,6.609071975258092868e-01,-1.147941043786643439e-01,1.509056610445871684e+03
-2.763839088248742026e+00,1.525425608595303295e+01,3.300629219686127769e+00,7.265730513003564317e-01,6.677244776295928608e-01,-1.619679693376070151e-01,1.514159328314147615e+03
-2.763204945580969962e+00,1.525574412746744102e+01,3.301254369379206910e+00,7.096959317627585806e-01,6.728733113402958210e-01,-2.087371344968482756e-01,1.514182834178953954e+03
-2.630584676375008701e+00,1.556843374904528332e+01,3.433863650035344772e+00,6.682567760444356741e-01,7.049860087638580852e-01,-2.375407516914361805e-01,1.519285552047229885e+03
-2.501517300541651334e+00,1.586969620408150661e+01,3.563584152239111624e+00,6.244265524318417526e-01,7.345761995747844830e-01,-2.654944210953493755e-01,1.524388269915505816e+03
-2.376279650711285996e+00,1.615919538836874736e+01,3.690770414059915794e+00,5.783620834868976601e-01,7.615380135592960675e-01,-2.924981269773827552e-01,1.529490987783781748e+03
-2.255012489816194510e+00,1.643668617316679104e+01,3.815764719183716291e+00,5.302281845499817736e-01,7.857749834951982537e-01,-3.184552521442098327e-01,1.534593705652057679e+03
-2.162261647495707706e+00,1.664727233255236172e+01,3.913453196449198312e+00,4.801970743500612038e-01,8.072003901200219822e-01,-3.432729234467981061e-01,1.538641903423643043e+03
-2.049787127711030887e+00,1.690049403375096304e+01,4.035031697732875955e+00,4.334612263041214830e-01,8.037777865455469906e-01,-4.074931105497907602e-01,1.543744621291918975e+03
-1.941536985627693168e+00,1.714116557414716269e+01,4.155357745539296488e+00,3.839858277312407364e-01,7.952751498851624579e-01,-4.691378476263876607e-01,1.548847339160194906e+03
-1.837604961351911648e+00,1.736908772572771298e+01,4.274767871620031023e+00,3.320835689991774586e-01,7.817462199777692744e-01,-5.278175354704726097e-01,1.553950057028470837e+03
-1.738019411942519854e+00,1.758413969353213346e+01,4.393557761655766392e+00,2.780824773924886473e-01,7.632765016572718997e-01,-5.831613136893813998e-01,1.559052774896746769e+03
-1.642668813307266884e+00,1.778635472414129737e+01,4.511941326962091381e+00,2.223238443441628298e-01,7.399827244186085728e-01,-6.348194040801840021e-01,1.564155492765022700e+03
-1.567384714405188673e+00,1.794302049297904134e+01,4.609585033970157397e+00,1.651600688903482050e-01,7.120121048680934095e-01,-6.824653208507058810e-01,1.568372327583289916e+03
-1.480375370250973655e+00,1.812005992609332949e+01,4.727673587685666590e+00,1.218108998319846759e-01,7.093426186688001067e-01,-6.942572678845803091e-01,1.573475045451565848e+03
-1.397088668486272889e+00,1.828463283321336519e+01,4.845747410266250554e+00,7.821503289046703722e-02,7.052364801497924551e-01,-7.046431122804085456e-01,1.578577763319841779e+03
-1.325424383023977359e+00,1.842170635340481510e+01,4.951800547068904379e+00,3.446074481595243905e-02,6.997020037587717844e-01,-7.136018238419717941e-01,1.583165645654285527e+03
-1.249071275367883871e+00,1.856247693992830250e+01,5.069345774790702919e+00,-2.119991541581878539e-02,6.401069583998321155e-01,-7.679919565949592242e-01,1.588268363522561458e+03
-1.175775341080318892e+00,1.869209707744978033e+01,5.186012103996865186e+00,-7.665688015817131995e-02,5.743617841879968822e-01,-8.150032291892932435e-01,1.593371081390837389e+03
-1.105317455058976384e+00,1.881122468508463541e+01,5.301249771625757390e+00,-1.313773228330934184e-01,5.030981580456762581e-01,-8.541839628654275263e-01,1.598473799259113321e+03
-1.037463934319992731e+00,1.892051081889444220e+01,5.414509111008525721e+00,-1.848354935615817429e-01,4.270007764753999124e-01,-8.851577131841967816e-01,1.603576517127389252e+03
-9.719666092868055607e-01,1.902059941333365956e+01,5.525240591404747548e+00,-2.365177701826531864e-01,3.468007774191755876e-01,-9.076268865395333840e-01,1.608679234995665183e+03
-9.086005179735842097e-01,1.911213252609063318e+01,5.632863936990156084e+00,-2.859275927665466122e-01,2.632687160171814367e-01,-9.213755992327165023e-01,1.613781952863941115e+03
-8.472014277429038565e-01,1.919575678866091906e+01,5.736737248067463213e+00,-3.325902342430543945e-01,1.772071617127942145e-01,-9.262717516602468892e-01,1.618884670732217046e+03
-8.447317811815087119e-01,1.919895519562120256e+01,5.740902899896856759e+00,-3.760573613365094103e-01,8.944298777908563092e-02,-9.222682976886216188e-01,1.619097848843839756e+03
-7.878489755215705159e-01,1.926879583428807408e+01,5.836101445302034563e+00,-4.192262473161527114e-01,-8.257026574718831502e-02,-9.041180812125879651e-01,1.624200566712115688e+03
-7.327039313855312486e-01,1.933207623426915944e+01,5.926177226543126508e+00,-4.490714561589761455e-01,-2.519593494379138154e-01,-8.572335233142038824e-01,1.629303284580391619e+03
-6.791251658794552615e-01,1.938943498961761591e+01,6.010458521279112176e+00,-4.646444471939483178e-01,-4.133407963094716253e-01,-7.831046697584211902e-01,1.634406002448667550e+03
-6.269265439885769453e-01,1.944150561250703646e+01,6.088274017809282235e+00,-4.654502743156904154e-01,-5.615856242863279668e-01,-6.840874423153603390e-01,1.639508720316943482e+03
-5.759073300024063480e-01,1.948891627126524639e+01,6.158952863432113567e+00,-4.514633193339154804e-01,-6.919823488593215277e-01,-5.633287673838752729e-01,1.644611438185219413e+03
-5.258522407609768079e-01,1.953228952914601635e+01,6.221824712779419286e+00,-4.231281083177038105e-01,-8.003867285095341844e-01,-4.246665618769510098e-01,1.649714156053495344e+03
-4.765315007186194940e-01,1.957224208386363884e+01,6.276219776123156180e+00,-3.813451843860372614e-01,-8.833534818322493765e-01,-2.725077548981453268e-01,1.654816873921771275e+03
-4.277266334627148336e-01,1.960928716363417124e+01,6.321532051037989319e+00,-3.274424857769432928e-01,-9.382457883764144801e-01,-1.116882227521321103e-01,1.659919591790047207e+03
-3.792593757782469210e-01,1.964373776431551022e+01,6.357282549469472244e+00,-2.631331391868981240e-01,-9.633190919012856179e-01,5.268090963309417230e-02,1.665022309658323138e+03
-3.309706749601044051e-01,1.967580506324791756e+01,6.383056148872213065e+00,-1.904610105150961741e-01,-9.577765424112436587e-01,2.153757142303799887e-01,1.670125027526599069e+03
-2.826965559991886923e-01,1.970569607473562357e+01,6.398438438749434631e+00,-1.117357444280863560e-01,-9.217943157099331986e-01,3.712254880017550329e-01,1.675227745394875001e+03
-2.588580197155845308e-01,1.971952768412234747e+01,6.400751056851063048e+00,-2.945935815352755324e-02,-8.565160073526962847e-01,5.152770860092570349e-01,1.677744865446570429e+03
-2.103546704427584901e-01,1.974586540502511767e+01,6.394436724981409803e+00,-3.119859402891495340e-02,-8.498513541691591344e-01,5.260963062964288950e-01,1.682847583314846361e+03
-1.614440599235521523e-01,1.977052511068090723e+01,6.376701376734999371e+00,-3.293269739893027459e-02,-8.430469033561567294e-01,5.368289822046750093e-01,1.687950301183122292e+03
-1.129347358095126874e-01,1.979314894257016988e+01,6.347809521654536269e+00,-3.466138377608531107e-02,-8.361037711912083781e-01,5.474733529820473565e-01,1.692951813752257749e+03
-6.269571627991771257e-02,1.981454553761457049e+01,6.306448260211011458e+00,-3.703773956488866370e-02,-8.390873346835306945e-01,5.427325773487421401e-01,1.698054531620533680e+03
-1.154484724650923014e-02,1.983404020684575642e+01,6.253145693349016376e+00,-3.941272355359913548e-02,-8.420398313938968204e-01,5.379717087935207420e-01,1.703157249488809612e+03
3.960280930030427027e-02,1.985099859430791014e+01,6.189242831939876233e+00,-4.178624886588152426e-02,-8.449611532978956729e-01,5.331909214500548666e-01,1.708155935915290456e+03
9.301021904155520881e-02,1.986568895692220593e+01,6.112215360081544979e+00,-5.546348847609732652e-02,-8.793049166284834239e-01,4.730165589364871970e-01,1.713258653783566388e+03
1.281494430961668263e-01,1.987321213854912472e+01,6.055279860768422395e+00,-6.886410268005577207e-02,-9.092631250589736647e-01,4.104830139708959824e-01,1.716537643190786184e+03
1.841870924768694295e-01,1.988143225755958809e+01,5.955314666392268919e+00,-1.177098198035590737e-01,-9.634672618036216329e-01,2.405685635223170082e-01,1.721640361059062116e+03
2.416661748656729058e-01,1.988534728060055556e+01,5.844269692488409440e+00,-1.625304508837773221e-01,-9.847256533627821717e-01,6.242787955311635689e-02,1.726743078927338047e+03
3.006344040100019654e-01,1.988413666422152914e+01,5.722531766128010844e+00,-2.017933576542133844e-01,-9.723113700801253589e-01,-1.178475303951209974e-01,1.731845796795613978e+03
3.611202859780209828e-01,1.987697828463766925e+01,5.590488478798516070e+00,-2.341559465585853206e-01,-9.266489117261321740e-01,-2.940931605607360888e-01,1.736948514663889910e+03
4.231331021282095373e-01,1.986304878280976638e+01,5.448528158578215930e+00,-2.585115781944690716e-01,-8.492996937583385808e-01,-4.602822982929439810e-01,1.742051232532165841e+03
4.866548926833972333e-01,1.984150410707925261e+01,5.297038938155805177e+00,-2.740274089846908012e-01,-7.429086585141669863e-01,-6.107321051247464050e-01,1.747153950400441772e+03
4.956186288490305736e-01,1.983743962831146490e+01,5.274920298957556319e+00,-2.801728710419755797e-01,-6.111138358276596572e-01,-7.402979413670173203e-01,1.747856583570608109e+03
5.622227558728833952e-01,1.979942928526059731e+01,5.105365056358895259e+00,-3.158872754065391586e-01,-3.682478507393633360e-01,-8.744179490734788063e-01,1.752959301438884040e+03
6.301055107691609924e-01,1.975187550050335616e+01,4.927108275222718881e+00,-3.268842144857576071e-01,-9.656724118866066853e-02,-9.401167365007688792e-01,1.758062019307159972e+03
6.991600685322885145e-01,1.969387709693493704e+01,4.740537697100521086e+00,-3.123031884512969536e-01,1.826695720299489345e-01,-9.322534772995585417e-01,1.763164737175435903e+03
7.692584456225683986e-01,1.962453429999326104e+01,4.546041657380691881e+00,-2.732851290872577166e-01,4.476128874393679458e-01,-8.514434456953817731e-01,1.768267455043711834e+03
8.402620006546825948e-01,1.954301250245502075e+01,4.344005031132459393e+00,-2.128831246349054129e-01,6.775314509400170992e-01,-7.040098779368691995e-01,1.773370172911987765e+03
9.120339694251586860e-01,1.944860568265577072e+01,4.134805179210069070e+00,-1.358235131633606096e-01,8.544346587025679618e-01,-5.014891696536909471e-01,1.778472890780263697e+03
9.725383407004829506e-01,1.935860611412991261e+01,3.954537186681170269e+00,-4.813604467150137123e-02,9.644802814682860159e-01,-2.597281422230463543e-01,1.782731635782065268e+03
1.045604264189234023e+00,1.923675434861033295e+01,3.732095129576209480e+00,-1.580908934317826475e-01,9.639636719246866825e-01,-2.139609978991255379e-01,1.787834353650341200e+03
1.118970359110956325e+00,1.910020225953823214e+01,3.503550848361720593e+00,-2.658031963218997484e-01,9.497732474030056160e-01,-1.651588306489391311e-01,1.792937071518617131e+03
1.192451676053725151e+00,1.894831479046569811e+01,3.269279532462847637e+00,-3.697450818479455226e-01,9.221103012616213013e-01,-1.140138884306387268e-01,1.798039789386893062e+03
1.252089446154132757e+00,1.881232835831545103e+01,3.074955395793195212e+00,-4.684421585876102911e-01,8.813672217286472321e-01,-6.125164910751867975e-02,1.802177916245050255e+03
1.278479576230020953e+00,1.874685335876205627e+01,2.987680393578701299e+00,-3.762799723920840500e-01,9.264899765705476575e-01,-5.263618188813399233e-03,1.803998349676221324e+03
1.352366990840278005e+00,1.854724828113532809e+01,2.738298879406917852e+00,-4.189797004435456551e-01,9.078462526042337943e-01,1.640707901856773565e-02,1.809101067544497255e+03
1.425001173551921241e+00,1.833121429739145469e+01,2.484525810228388476e+00,-4.605731107381152989e-01,8.868053847428328806e-01,3.803444819498828094e-02,1.814203785412773186e+03
1.495809376730410811e+00,1.809871471554813738e+01,2.226832412020463003e+00,-5.009503874986827032e-01,8.634229266731502372e-01,5.956138810788993293e-02,1.819306503281049118e+03
1.517124227678827486e+00,1.802236777635437193e+01,2.146640772988169577e+00,-5.400049249243688010e-01,8.377606126783215812e-01,8.093106260980550970e-02,1.820873097371532140e+03
1.584665759351130632e+00,1.775759752594137098e+01,1.882215044616853294e+00,-5.514467315457735053e-01,8.339861153496778146e-01,-1.927852871428440903e-02,1.825975815239808071e+03
1.648743087973590704e+00,1.747663652204379403e+01,1.614933327586397072e+00,-5.572708699969264323e-01,8.217156850598243967e-01,-1.192917028866798679e-01,1.831078533108084002e+03
1.709028061616423066e+00,1.717966482211930312e+01,1.345424012355433074e+00,-5.574180123965963851e-01,8.010743225306015125e-01,-2.180896357828977783e-01,1.836181250976359934e+03
1.748231886743943919e+00,1.696492528237454778e+01,1.159307555238003440e+00,-5.518866577875809476e-01,7.722722963350978631e-01,-3.146658819557059950e-01,1.839685101717162524e+03
1.802239514885180860e+00,1.663663807997528821e+01,8.873162249072121810e-01,-5.658678648380764953e-01,7.623467821759604135e-01,-3.140365316793086725e-01,1.844787819585438456e+03
1.852664982419024442e+00,1.629296634415493372e+01,6.149644882703614313e-01,-5.796824853421340684e-01,7.521968452534240068e-01,-3.133147333881491359e-01,1.849890537453714387e+03
1.899602890255915444e+00,1.593420918396868657e+01,3.428957556230545767e-01,-5.933264547180451265e-01,7.418254720178532047e-01,-3.125006994822236428e-01,1.854993255321990318e+03
1.943154151020631826e+00,1.556066124390224914e+01,7.175341602909780792e-02,-6.067957585185852487e-01,7.312357139722283073e-01,-3.115946694583282550e-01,1.860095973190266250e+03
1.975452100563392044e+00,1.525271199314497572e+01,-1.422584659075649682e-01,-6.200864335995085463e-01,7.204306867732030994e-01,-3.105969098372176607e-01,1.864146011794783135e+03
2.013309576056307559e+00,1.485060043566174670e+01,-4.099187088880974494e-01,-6.362892669724292682e-01,6.497317030893663414e-01,-4.159118689534500590e-01,1.869248729663059066e+03
2.047877806156020775e+00,1.443468981965293452e+01,-6.751436557850065689e-01,-6.420874018007582951e-01,5.684082233835626718e-01,-5.144257575577990682e-01,1.874351447531334998e+03
2.079182428371929792e+00,1.400536940208927383e+01,-9.374509749640513867e-01,-6.373860311052840233e-01,4.777900610901819611e-01,-6.045276708932411092e-01,1.879454165399610929e+03
2.107257752346619828e+00,1.356302582595929707e+01,-1.196358544564397164e+00,-6.222620348841294557e-01,3.793590139457875265e-01,-6.847442577198293856e-01,1.884556883267886860e+03
