-1.790511734432443047e+00,-5.879337208101590662e+00,4.134313353960174631e+00,4.267070669665064542e-01,4.610727065726855090e-01,-7.780302296525648531e-01,2.041087147310389938e+01
-1.738597275991239810e+00,-5.954503753057887039e+00,4.127400766248423558e+00,3.657010909706743806e-01,5.567936702735538645e-01,-7.458160100215763810e-01,2.084072950094657273e+01
-1.152158387903758241e+00,-6.805188510571322347e+00,3.974043182973970190e+00,3.816457573327076136e-01,3.850032534868942924e-01,-8.403076881205027160e-01,2.594344736922254668e+01
-6.063278099201647731e-01,-7.559756509668745572e+00,3.707192959893512274e+00,3.828226666413374613e-01,1.983151750034472804e-01,-9.022837121820426187e-01,3.104616523749852064e+01
-6.587442626464885820e-02,-8.193308333330593385e+00,3.382564179614707012e+00,3.691862813165617263e-01,3.953315829411161927e-03,-9.293459318153197701e-01,3.614888310577449460e+01
5.049239314694953240e-01,-8.681972586718517348e+00,3.055875102681154587e+00,3.412642617807759016e-01,-1.905615108299415494e-01,-9.204471816576609289e-01,4.125160097405046855e+01
1.142270714687733113e+00,-9.002915246189715504e+00,2.782844145449220097e+00,3.001370482147429630e-01,-3.777025746778806536e-01,-8.759317994973834232e-01,4.635431884232644251e+01
1.882840821355147298e+00,-9.134348868784229580e+00,2.619185857718585808e+00,2.473960532006531932e-01,-5.502284717253096424e-01,-7.975223017343208154e-01,5.145703671060241646e+01
1.944013161679116752e+00,-9.136731516658114671e+00,2.611974958021832105e+00,1.850820829150098823e-01,-7.014633273393957591e-01,-6.882527319101311436e-01,5.184623132217944175e+01
2.803561355727107962e+00,-9.109870876837112164e+00,2.641068092028064029e+00,8.330098780483480292e-02,-6.843061546378178539e-01,-7.244197900036002391e-01,5.694894919045541570e+01
3.697915381946243585e+00,-9.048931505904166173e+00,2.945946442609916893e+00,-1.947653777135610262e-02,-6.589634220116209473e-01,-7.519214539564788025e-01,6.176349971469307576e+01
4.681796049340582577e+00,-9.066250720726365842e+00,3.611186048879918342e+00,3.241630232872562412e-02,-6.093691793347276731e-01,-7.922224350632834922e-01,6.686621758296905682e+01
5.638944381398721895e+00,-9.209604790221042947e+00,4.511667239862680034e+00,8.408945826389108147e-02,-5.556454735575910853e-01,-8.271548045688431605e-01,7.196893545124503078e+01
6.495963766680699081e+00,-9.482157480058942767e+00,5.433015805391287145e+00,1.351927678998859905e-01,-4.981563640184289987e-01,-8.564818459797947092e-01,7.707165331952100473e+01
7.204717890690957915e+00,-9.849494877924978908e+00,6.206732382117377433e+00,1.853799305581710355e-01,-4.372914243339168228e-01,-8.800048247296911041e-01,8.217437118779697869e+01
7.358563899103870654e+00,-9.947255645576777994e+00,6.369933300806414955e+00,2.343108530826278069e-01,-3.734631031942941548e-01,-8.975643345616646229e-01,8.343200927517969490e+01
7.916847299079387668e+00,-1.028528982260669977e+01,6.901330118834008154e+00,1.203493290079034050e-01,-3.102430878214458287e-01,-9.430075638422986684e-01,8.853472714345566885e+01
8.369412317077449259e+00,-1.043584587801098884e+01,7.169914721432220084e+00,4.095283593929116735e-03,-2.411132304487068057e-01,-9.704873202429417089e-01,9.363744501173164281e+01
8.633203134329896500e+00,-1.040616952811614304e+01,7.212592541009423819e+00,-1.122367949413268368e-01,-1.673903652241391093e-01,-9.794801516562149368e-01,9.703638230980627100e+01
8.788093508270636178e+00,-1.035305146495037576e+01,7.202253694129601591e+00,-6.769582727068410022e-02,-3.974141048746009791e-02,-9.969131834066098374e-01,9.910712739086405065e+01
9.149675527335265457e+00,-1.011719790400730012e+01,7.011351578544253726e+00,-1.350909722309924788e-01,-1.981367934798509145e-01,-9.708193654277871287e-01,1.042098452591400246e+02
9.460123633439554425e+00,-9.771578167586376651e+00,6.542409594250464089e+00,-1.983912069918177534e-01,-3.505261941711632634e-01,-9.152979384804748042e-01,1.093125631274159986e+02
9.559412745346511642e+00,-9.636966820603609207e+00,6.314314209204136219e+00,-2.556777914353564052e-01,-4.922904250686591654e-01,-8.320318529662419360e-01,1.111781184873513268e+02
9.768757421824453502e+00,-9.327350494905941147e+00,5.541646465910663899e+00,-4.204890600948684165e-01,-5.893762825544522910e-01,-6.897989184543976693e-01,1.162808363556273008e+02
9.858466193369606501e+00,-9.184399260511298735e+00,4.903939733035859838e+00,-5.614086805575747574e-01,-6.529745263288782020e-01,-5.083724632173339808e-01,1.196977088128511326e+02
9.992877580802677073e+00,-9.108411233551116482e+00,3.844075750216777720e+00,-4.865659466929006527e-01,-6.834203493565038645e-01,-5.442317572463496456e-01,1.248004266811271066e+02
1.008114669922822237e+01,-9.127540105829750061e+00,3.277528788661768111e+00,-4.079210641164751627e-01,-7.085257243861002863e-01,-5.758382614277465228e-01,1.273911243274876597e+02
1.034064357254269417e+01,-9.203736157253105787e+00,2.204602441525416623e+00,-5.663913751747756686e-01,-7.046375585796159635e-01,-4.274163323580616458e-01,1.324938421957636479e+02
1.064761247524016774e+01,-9.327192594079717125e+00,1.199912243816339874e+00,-6.981522903153206672e-01,-6.675207187482974369e-01,-2.588386941109007688e-01,1.375965600640396360e+02
1.083818747103978453e+01,-9.500548873234460956e+00,2.376630937486960138e-01,-7.969903694657293203e-01,-5.989255181639790981e-01,-7.805494648301959659e-02,1.426992779323156242e+02
1.084556124329461468e+01,-9.516727130611155161e+00,1.603629086664964953e-01,-8.582446871037932024e-01,-5.020866772872889516e-01,1.064097060794114424e-01,1.431156141482020701e+02
1.081239877559237073e+01,-9.743479476484125712e+00,-7.596834682847686260e-01,-8.103697735729716856e-01,-4.910520259355511397e-01,3.196353201754403850e-01,1.482183320164780582e+02
1.056403496586803392e+01,-1.003306918270397041e+01,-1.592495567712888027e+00,-7.236951618122789975e-01,-4.565062889705850946e-01,5.175570701862040046e-01,1.533210498847540464e+02
1.016031135493575022e+01,-1.040012725177203201e+01,-2.272813571604325844e+00,-6.023707548665870881e-01,-4.001034888854698157e-01,6.906986838434704401e-01,1.584237677530300346e+02
9.670812648051533955e+00,-1.086114552200972838e+01,-2.735438840196779520e+00,-4.522054359780442456e-01,-3.245441323739118866e-01,8.307703351790292068e-01,1.635264856213060227e+02
9.391772180957108418e+00,-1.115119676350951572e+01,-2.897271473149018117e+00,-2.803889509450301909e-01,-2.334459151843997216e-01,9.310655405885263081e-01,1.663264260758911064e+02
8.941535222525661908e+00,-1.175113510573199704e+01,-3.015587950618030533e+00,-3.514882320092483914e-01,-1.025502507435793603e-01,9.305576117733300734e-01,1.714291439441670946e+02
8.636782370602306358e+00,-1.243291243532651436e+01,-2.881581563458343265e+00,-4.147882949063017577e-01,3.062087401809278006e-02,9.094014693637741953e-01,1.765318618124430827e+02
8.534909349905976939e+00,-1.283661230801997100e+01,-2.717540050045720079e+00,-4.688845975530485655e-01,1.631125702162300461e-01,8.680665433090407612e-01,1.794648759035239607e+02
8.525849429945415281e+00,-1.347016315467908143e+01,-2.319443278091565919e+00,-2.834914746867284174e-01,4.288645564203035221e-01,8.577329281462751087e-01,1.845675937717999489e+02
8.650516702640091538e+00,-1.396219955561828741e+01,-1.769252963179820615e+00,-6.830293586849053855e-02,6.495421169019781615e-01,7.572501220351272044e-01,1.896703116400759370e+02
8.656178607247030143e+00,-1.398072103665352905e+01,-1.741281508713107495e+00,1.540644032495137872e-01,8.019517218895296784e-01,5.771789977202975708e-01,1.898994675367348748e+02
8.684398655932001887e+00,-1.408044241926498508e+01,-1.587829724980027057e+00,1.445076404054829733e-01,6.284360255549473750e-01,7.643191111330710497e-01,1.911467155104153335e+02
8.693374422680044233e+00,-1.437598010361517353e+01,-8.728504433125746642e-01,-1.734350917021421773e-02,7.554707312909951789e-01,6.549512782262466581e-01,1.962494333786913216e+02
8.671479608031036790e+00,-1.442064980841287536e+01,-6.709372039013884459e-01,-1.782530162373581473e-01,8.414871312667953074e-01,5.100228133249771201e-01,1.975325835370915115e+02
8.648930767838836076e+00,-1.447024519982610258e+01,1.319523373166293090e-01,-2.431055416981296180e-01,7.309162470212160478e-01,6.376983106724540828e-01,2.026353014053674997e+02
8.851456009109522682e+00,-1.435177031798894198e+01,7.372642467789037868e-01,-3.000005048711362754e-01,5.964204343026627830e-01,7.445000756359256844e-01,2.077380192736434878e+02
9.087048825282112219e+00,-1.425462243854078004e+01,9.248576720017248620e-01,-3.470755994865815097e-01,4.424020818719700543e-01,8.269322379704147075e-01,2.106030028449035569e+02
9.662061428075480407e+00,-1.404274910622919847e+01,1.034107336249176390e+00,-6.164957503022359120e-01,4.803600027989202714e-01,6.238471427926429724e-01,2.157057207131795451e+02
1.033204293607172630e+01,-1.374387871582201193e+01,9.835497587573416300e-01,-8.148513277562562385e-01,4.629459559442011263e-01,3.488500473396891066e-01,2.208084385814555333e+02
1.089368149222163495e+01,-1.331375387805167243e+01,1.035995403165920870e+00,-9.192775206609142824e-01,3.921672716276591308e-01,3.364031913581654043e-02,2.259111564497315214e+02
1.102294131314412873e+01,-1.316435923263286867e+01,1.089667517948548658e+00,-9.177368762177290362e-01,2.761827090778558036e-01,-2.854472582391536783e-01,2.273938973369207019e+02
1.132664210564807306e+01,-1.261381604387863220e+01,1.431069532680903089e+00,-9.228414270515153950e-01,2.290493308529441829e-01,-3.096741909540671189e-01,2.324966152051966901e+02
1.140504903577413209e+01,-1.207839497234811610e+01,2.003533333930483717e+00,-9.253301265352855687e-01,1.812667133393069396e-01,-3.330233258364462823e-01,2.375993330734726783e+02
1.133415057235514922e+01,-1.171877766221848738e+01,2.653778719963204136e+00,-9.251959221372458853e-01,1.329702783429640434e-01,-3.554284889080627230e-01,2.423669567763948578e+02
1.114844903403728615e+01,-1.157621125419210451e+01,3.394107363958232426e+00,-8.354178322165003445e-01,5.624133476714020946e-02,-5.467284132711540678e-01,2.474696746446708460e+02
1.085991306034402548e+01,-1.167040147814953421e+01,4.146662921552763947e+00,-7.034150708625722670e-01,-2.333021637336607154e-02,-7.103949176951444011e-01,2.525723925129468341e+02
1.047166087131488332e+01,-1.192564006943077182e+01,4.894612325296800570e+00,-5.358594547439012867e-01,-1.017225905853821749e-01,-8.381558085020346383e-01,2.576751103812227939e+02
1.035246303936503764e+01,-1.201187510317421570e+01,5.094777305205520079e+00,-3.412197339037376653e-01,-1.749735989253559942e-01,-9.235536437440725610e-01,2.590543606268399799e+02
9.862521654837825835e+00,-1.234708374987316937e+01,5.817214532561291840e+00,-3.667756802632773927e-01,-1.930510995123651263e-01,-9.100576208828907721e-01,2.641570784951159681e+02
9.278763295875839034e+00,-1.266978246729209800e+01,6.455715466277020198e+00,-3.919054113298176545e-01,-2.109042623170886421e-01,-8.955040707274329881e-01,2.692597963633919562e+02
9.252689452600902698e+00,-1.268198920892841386e+01,6.479282373294016573e+00,-4.165797362516655555e-01,-2.285123490042176575e-01,-8.799098986141130618e-01,2.694701935292031294e+02
8.561759095281816556e+00,-1.290708727123154631e+01,6.889529965181566240e+00,-3.938528030661267998e-01,-1.773745716214671087e-01,-9.018959091026526043e-01,2.745729113974791176e+02
7.757890445573270455e+00,-1.297977811738815923e+01,6.958411493754582899e+00,-3.697021078403857630e-01,-1.255956038868329405e-01,-9.206215811830444906e-01,2.796756292657551057e+02
6.860743832839162337e+00,-1.291105721243454063e+01,6.719165921102052685e+00,-3.442149539927871760e-01,-7.336262209673252710e-02,-9.360192258304839141e-01,2.847783471340310939e+02
5.901735942524818590e+00,-1.274489186471015145e+01,6.276551194545612056e+00,-3.174834756314647288e-01,-2.086444330492368340e-02,-9.480331838623040630e-01,2.898810650023070821e+02
4.911367895292174879e+00,-1.252615092242883144e+01,5.735339942731775942e+00,-2.896043045652627601e-01,3.170915706248673971e-02,-9.566200270395909255e-01,2.949837828705830702e+02
3.919216750027636031e+00,-1.230058706707990268e+01,5.200311912779921997e+00,-2.606782210701413249e-01,8.416813104791458222e-02,-9.617487149838633842e-01,3.000865007388590584e+02
3.054395094373892228e+00,-1.212783617861164487e+01,4.805464131986465937e+00,-2.308097896736356347e-01,1.363228449845305390e-01,-9.634007073505270746e-01,3.046363360441407622e+02
2.133054882437688260e+00,-1.201072358444082511e+01,4.553930853637466747e+00,-3.406125073370887546e-01,8.019305726544084800e-02,-9.367764906364565158e-01,3.097390539124167503e+02
1.330675976180342834e+00,-1.197204885502349292e+01,4.535465217312428798e+00,-4.449939989743512680e-01,2.278691878110973568e-02,-8.952424795586867434e-01,3.148417717806927385e+02
9.102944357888465010e-01,-1.195220433871982380e+01,4.597790744885880798e+00,-5.422929643641797304e-01,-3.498191500859138686e-02,-8.394597110165802345e-01,3.181628790913359808e+02
5.782523815155720115e-01,-1.180289512508215388e+01,4.643054860304215659e+00,-4.891659334821691352e-01,8.440802713750332475e-02,-8.680956021502376219e-01,3.232655969596119689e+02
7.225764536655530090e-01,-1.143660962024668315e+01,4.528035028399937545e+00,-4.272845632057769572e-01,2.022873376536153400e-01,-8.811956281486909015e-01,3.283683148278879571e+02
1.053434771875029652e+00,-1.104869158889605707e+01,4.335188530460792222e+00,-3.577562862726856308e-01,3.165464409693232173e-01,-8.785253498556004903e-01,3.321363363200186996e+02
1.596017092817988425e+00,-1.043349310845211875e+01,3.961566046620285331e+00,-4.101290620692395472e-01,3.778560897226962423e-01,-8.300704355058982076e-01,3.372390541882946877e+02
2.102298619882737363e+00,-9.767390745710912370e+00,3.459813294006093276e+00,-4.588723166906493733e-01,4.358218204081516500e-01,-7.742696802964577074e-01,3.423417720565706759e+02
2.308245468409271250e+00,-9.446188284518797218e+00,3.178921370945827718e+00,-5.035547096471757467e-01,4.899306806082077137e-01,-7.116168790759637153e-01,3.448145525317626152e+02
2.582348079170858401e+00,-8.856051069236663409e+00,2.507553964246054257e+00,-4.819402743370549413e-01,-1.318935584587185156e-02,-8.761036541781508369e-01,3.499172704000386034e+02
2.600469867040374083e+00,-8.369396028215476235e+00,1.715718755154803210e+00,-3.250676445668767012e-01,-5.126077766060082030e-01,-7.947089365414008455e-01,3.550199882683145916e+02
2.589556897192269336e+00,-8.324515408176829112e+00,1.631903985881833385e+00,-7.696365819366535188e-02,-8.681610631526899269e-01,-4.902764156504291759e-01,3.555309778770503613e+02
2.414589340645238114e+00,-7.810435283452897615e+00,8.267901253923066740e-01,-4.754531080006972332e-01,-6.195041860984902282e-01,-6.246254121463929998e-01,3.606336957453263494e+02
2.166623964656647860e+00,-7.121470286213237522e+00,1.169148187524120530e-01,-7.604641314976667843e-01,-2.229876980025081723e-01,-6.098924423579072940e-01,3.657364136136023376e+02
2.052081987265433227e+00,-6.740586280368662919e+00,-1.772695394589854367e-01,-8.639720273661793959e-01,2.267501592930760423e-01,-4.495939292178969815e-01,3.681045877814036089e+02
1.890434950432187566e+00,-5.801808585395395568e+00,-7.457422508194755384e-01,-8.991278969426433898e-01,2.128989008289079166e-01,-3.824148048380513476e-01,3.732073056496795971e+02
1.901333618248481017e+00,-4.752629501093741382e+00,-1.219259318801458436e+00,-9.289421860234162720e-01,1.977828478818392521e-01,-3.129638319419371650e-01,3.783100235179555852e+02
1.924247028134378423e+00,-4.534375847582375663e+00,-1.307686910893379739e+00,-9.532377859981634449e-01,1.814917958988519486e-01,-2.416535771725674964e-01,3.793598141183315420e+02
2.091166719541763364e+00,-3.532555185525251495e+00,-1.650663923286528112e+00,-9.467523100874525310e-01,5.202718808680271284e-02,-3.177282408598558483e-01,3.844625319866075301e+02
2.122645413378096091e+00,-3.396669279012451526e+00,-1.687207663020712900e+00,-9.188791833032715628e-01,-7.861274071858695422e-02,-3.866252494136853679e-01,3.851959836842198115e+02
2.375372819796309098e+00,-2.468734594930719783e+00,-1.775623049811206222e+00,-9.763925175610514984e-01,-9.641494433449074308e-02,-1.932868597694834822e-01,3.902987015524957997e+02
2.664996944641778498e+00,-1.584604756913298607e+00,-1.575326025681486275e+00,-9.938693485777432279e-01,-1.102636983826132261e-01,7.977140867979244654e-03,3.954014194207717878e+02
2.935912607714385114e+00,-7.629944750553153687e-01,-1.158765634067807859e+00,-9.705930520355825486e-01,-1.195911444647335953e-01,2.089140624885055531e-01,4.005041372890477760e+02
3.052537920056033638e+00,-3.855235453225552278e-01,-9.049462845937169542e-01,-9.075180329163994308e-01,-1.240148141496288103e-01,4.012846194438318692e-01,4.029835074213354460e+02
3.250693508127599607e+00,3.563747096983818086e-01,-3.190010332544404581e-01,-9.520607802290256272e-01,-1.090492953959979611e-01,2.858085406751734170e-01,4.080862252896114342e+02
3.383154204174307456e+00,1.060994073314230013e+00,3.379884648006998837e-01,-9.818058536720386531e-01,-9.238885039639174734e-02,1.658902227903289173e-01,4.131889431578874223e+02
3.456418831244817191e+00,1.756942059378678644e+00,1.017051859073500486e+00,-9.962909400374175828e-01,-7.429242834812281593e-02,4.339352358639636531e-02,4.182916610261634105e+02
3.477541584133604147e+00,2.472623047953975473e+00,1.669217206752705795e+00,-9.952909051990261879e-01,-5.504129690998282864e-02,-7.977762632669303799e-02,4.233943788944393987e+02
3.454130036665687520e+00,3.236227741985936657e+00,2.245514507880166821e+00,-9.788212926745007980e-01,-3.493467071768140836e-02,-2.017088143551400425e-01,4.284970967627153868e+02
3.394343074627004686e+00,4.075722653050828370e+00,2.696979240459971283e+00,-9.471380820114776444e-01,-1.428506101440303253e-02,-3.205048995491320274e-01,4.335998146309913750e+02
3.378431465236657605e+00,4.262751944901622458e+00,2.775582873274860862e+00,-9.007337107568955670e-01,6.586581360386247960e-03,-4.343194668115629153e-01,4.346758570963635862e+02
3.324558855346180231e+00,4.879267124908769127e+00,2.995811518731737788e+00,-9.270878603597607626e-01,4.416181722969788996e-03,-3.748154165503886914e-01,4.381166199131892540e+02
3.213023756273517773e+00,5.860110973794085076e+00,3.222032840989617952e+00,-8.831183333822463233e-01,1.099775118938028928e-02,-4.690192519564181928e-01,4.432193377814652422e+02
3.075692924024576058e+00,6.691763208666522189e+00,3.357252596057938465e+00,-8.295660695712266941e-01,1.745998399883928742e-02,-5.581337520408561348e-01,4.473147056441579821e+02
2.821539854694765204e+00,7.736707893528402380e+00,3.542872108858837077e+00,-7.781347296813984071e-01,-9.888268863309075674e-02,-6.202632959892998565e-01,4.524174235124339702e+02
2.492948165751279976e+00,8.737976943173224598e+00,3.740386934078672621e+00,-7.111088691191469469e-01,-2.132436375602587142e-01,-6.699621834846064550e-01,4.575201413807099584e+02
2.141461878749658876e+00,9.627016656635925429e+00,3.907257378087600763e+00,-6.298317445993252273e-01,-3.233309816802045211e-01,-7.062344156014995766e-01,4.626228592489859466e+02
1.817218397988206613e+00,1.033373714172683222e+01,4.000945958260107460e+00,-5.359322123168991370e-01,-4.269384859069734195e-01,-7.283530689519617241e-01,4.677255771172619347e+02
1.699717054036273156e+00,1.056666778482945723e+01,4.015553189564482928e+00,-4.312920871160125236e-01,-5.219897721467272600e-01,-7.358748625712233649e-01,4.697893172940536601e+02
1.460100996336472168e+00,1.099737670387935928e+01,3.967974323149986215e+00,-5.399445766455666096e-01,-4.636488967522916504e-01,-7.024866936040469190e-01,4.748920351623296483e+02
1.295388043295242042e+00,1.121721942085900103e+01,3.759915518331553574e+00,-6.397830875827044128e-01,-3.977395120437304810e-01,-6.576312655294246357e-01,4.799947530306056365e+02
1.185440427205249225e+00,1.129863211158300551e+01,3.363822244107510073e+00,-7.291778873707129849e-01,-3.253375081940143021e-01,-6.020407912519120108e-01,4.850974708988816246e+02
1.111603890995344290e+00,1.131459792299073364e+01,2.752153546201160594e+00,-8.066697223009635653e-01,-2.476247562562055582e-01,-5.366227158921225149e-01,4.902001887671576128e+02
1.056712699251285859e+00,1.133861841435092010e+01,1.897384037277506819e+00,-8.709936360390007071e-01,-1.658698168091146674e-01,-4.624449046650156436e-01,4.953029066354336010e+02
1.039837828622427685e+00,1.135646187212678093e+01,1.555519242821113757e+00,-9.210996171908177876e-01,-8.140723384274978214e-02,-3.807182127087507806e-01,4.970480855765802630e+02
9.861643193263840423e-01,1.148777497065397846e+01,3.928453290018688593e-01,-9.707909633544045125e-01,-2.340936193268511045e-01,-5.256503457693831316e-02,5.021508034448562512e+02
8.797432576960241279e-01,1.150003859228732317e+01,-9.367284606821580928e-01,-8.909136624985657393e-01,-3.555361687421025318e-01,2.826037485419329864e-01,5.072535213131322394e+02
8.103135371841887480e-01,1.138976958714341059e+01,-1.465551472094566376e+00,-6.921287433508591658e-01,-4.295263513578354564e-01,5.800542354961473190e-01,5.092935532491214303e+02
5.328525590052971550e-01,1.063007949088171067e+01,-2.509746992163618184e+00,-5.689339041138162800e-01,-3.839881911090231581e-01,7.272312437167465227e-01,5.143962711173974185e+02
1.958679568204355903e-01,9.573365668104134585e+00,-3.058954978036079186e+00,-4.236008101500704504e-01,-3.235083480166121017e-01,8.461103370145107716e-01,5.194989889856733498e+02
5.438584751347795565e-02,9.118032283154727580e+00,-3.192115802706724903e+00,-2.617845749153326351e-01,-2.504401749498593177e-01,9.320657461284588274e-01,5.221589158503056751e+02
-4.534934059958933145e-02,8.721841208386065247e+00,-3.284449976446614183e+00,4.952002648136646402e-03,-3.352421291477608034e-01,9.421179291942001210e-01,5.260877688296433234e+02
9.767894104909094488e-02,8.815626829240953199e+00,-3.181882379794444216e+00,-1.320434008827725547e-01,-8.186553710610137979e-02,9.878565554353148093e-01,5.311904866979192548e+02
3.854599594779299365e-01,9.175593006299585852e+00,-2.945713545612584472e+00,-2.578072513908343799e-01,1.784745288213752112e-01,9.495684618239166319e-01,5.348946455001930644e+02
9.413313650428095647e-01,9.726339527439241905e+00,-2.385582948380501556e+00,-6.000137031675821797e-01,-4.618781961071736358e-02,7.986540185403842029e-01,5.399973633684689958e+02
1.488258482952510064e+00,1.021887068438414836e+01,-1.569732816813617982e+00,-8.280051685250509053e-01,-2.620581429522738648e-01,4.957125887124668173e-01,5.451000812367449271e+02
1.765286457780090634e+00,1.050916289791251579e+01,-8.909413263021076501e-01,-8.983825381479078054e-01,-4.280446824121015292e-01,9.841018752738465991e-02,5.487578508758375619e+02
1.963013937633654615e+00,1.083040838849472465e+01,3.647318890778037531e-02,-9.276334270401619397e-01,-3.208396969553923284e-01,1.911965321173711152e-01,5.538605687441134933e+02
1.983851603020531762e+00,1.107821674886755403e+01,7.670433445439529541e-01,-9.374430941777819326e-01,-2.069106373130909782e-01,2.799757727799827567e-01,5.589632866123894246e+02
1.922861838341132446e+00,1.129732031599727371e+01,1.083810636232124258e+00,-9.276059670599187124e-01,-8.864519163365935928e-02,3.628873101580757932e-01,5.640660044806653559e+02
1.885089852157792567e+00,1.141177085590421925e+01,1.063152716440072476e+00,-8.983282099994478465e-01,3.147807761504938656e-02,4.381935163227995145e-01,5.667325292824807548e+02
1.855710213413015008e+00,1.167664459469701477e+01,6.433249209936277024e-01,-9.982366580149379942e-01,-1.085506483563956209e-02,5.834159890070891863e-02,5.718352471507566861e+02
1.867421372017947556e+00,1.185518389946044238e+01,2.389645708218564035e-01,-9.423587055525790568e-01,-5.149415042388774677e-02,-3.306152182532485773e-01,5.745878449669344263e+02
1.944639731833264440e+00,1.230664136204560677e+01,-5.964064379582901809e-01,-9.056297368013607185e-01,-2.169678812055297890e-01,-3.643593258660526302e-01,5.796905628352103577e+02
2.093271168323254106e+00,1.295580563921155814e+01,-1.387422720694768241e+00,-8.418502643657145290e-01,-3.759608934037787509e-01,-3.872202719613850874e-01,5.847932807034862890e+02
2.288706922795843202e+00,1.381211428530095198e+01,-1.880824842350389714e+00,-7.529253338635059078e-01,-5.237242174149732143e-01,-3.985152264581302006e-01,5.898959985717622203e+02
2.321602023363626532e+00,1.396049738225231707e+01,-1.923113807101166861e+00,-6.415110450313380452e-01,-6.558442984581615010e-01,-3.979068173351796300e-01,5.906809412960609507e+02
2.503373502971228071e+00,1.497962718759361245e+01,-2.012379727015873421e+00,-7.843358113140022070e-01,-6.197686084376965443e-01,2.649919028071860000e-02,5.957836591643368820e+02
2.551220578895484259e+00,1.601856095145787506e+01,-1.890170618748754805e+00,-7.688649361110880820e-01,-4.586104060818218531e-01,4.455571853893790513e-01,6.008863770326128133e+02
2.326743367944501983e+00,1.690999738682519649e+01,-1.850635155429216416e+00,-5.982207024673512619e-01,-2.048948204032422782e-01,7.746922638771815972e-01,6.059890949008887446e+02
1.966774352809154802e+00,1.741888051005926741e+01,-1.966758102989377033e+00,-3.068427932658616131e-01,9.017288209179766256e-02,9.474778897452020843e-01,6.097110450391924132e+02
1.245434653352548882e+00,1.790603081781419093e+01,-2.289843828926854563e+00,-1.823504556441433999e-01,7.531818423570113552e-02,9.803435532757059923e-01,6.148137629074683446e+02
3.256394722586838375e-01,1.814857732501631205e+01,-2.684798481183008345e+00,-5.479480622759234226e-02,5.919820556703095371e-02,9.967402378090939319e-01,6.199164807757442759e+02
-6.677722798147578409e-01,1.818086916843584078e+01,-2.975280541584357508e+00,7.368133402336719817e-02,4.208374778946019634e-02,9.963925025752763398e-01,6.250191986440202072e+02
-1.599433794605445325e+00,1.803087011397040484e+01,-3.061369812119508982e+00,2.009196835231507883e-01,2.426231835685643476e-02,9.793061935271266671e-01,6.301219165122961385e+02
-2.313660653685702506e+00,1.771713722105727129e+01,-2.995988482294223321e+00,3.247827548263589881e-01,6.033300895915898014e-03,9.457683444941881179e-01,6.352246343805720699e+02
-2.512486378305711199e+00,1.756792197449711068e+01,-2.955680855642178084e+00,4.431897600354541833e-01,-1.229707382139736370e-02,8.963423556736175302e-01,6.371174584142792128e+02
-2.755840060430596594e+00,1.708383129678955825e+01,-2.892403298661084143e+00,3.387316058296883092e-01,8.539186967530444650e-02,9.369990009607037651e-01,6.422201762825551441e+02
-2.747561913194242589e+00,1.695716151046779174e+01,-2.888858247473137020e+00,2.267849012639841233e-01,1.811929945363109085e-01,9.569408065733121527e-01,6.433725468516915953e+02
-2.451206618893744693e+00,1.634522539793730544e+01,-2.878218074417211003e+00,2.007493795865944453e-01,1.648573934242499317e-01,9.656706096884047907e-01,6.484752647199675266e+02
-1.845241600607235855e+00,1.568000050459509076e+01,-2.854868515675650809e+00,1.745089165600024195e-01,1.483534912725014143e-01,9.734145466631547450e-01,6.535779825882434579e+02
-1.284331971209838663e+00,1.505237562765509196e+01,-2.782415254183037145e+00,1.480902948993063906e-01,1.316981330441605036e-01,9.801647138600206866e-01,6.586807004565193893e+02
-1.069389134077972869e+00,1.471887779399620655e+01,-2.723791993876569784e+00,1.215204790320544709e-01,1.149083181784864988e-01,9.859142212057783183e-01,6.617323382391290352e+02
-1.135851079317463652e+00,1.430426734607218542e+01,-2.670637975739460046e+00,2.046962519832224436e-01,-4.275440144804766862e-01,8.805132367581200992e-01,6.668350561074049665e+02
-1.237958060774388080e+00,1.423477552789722012e+01,-2.668095188811343110e+00,2.239489188503230033e-01,-8.364817468383409782e-01,5.001431484605504130e-01,6.680650890504787185e+02
-1.302262584855347738e+00,1.419558770540042758e+01,-2.668064930227773246e+00,4.106925973653061668e-01,-9.106933122796788682e-01,4.435404644374260630e-02,6.687884314097042306e+02
-1.974085059706645939e+00,1.393071904972077313e+01,-2.590283945937884802e+00,6.166488524290238971e-01,-7.806356483504617305e-01,-1.017358212328218769e-01,6.738911492779801620e+02
-2.816572864601401438e+00,1.343958009269901943e+01,-2.252321546276398134e+00,7.728566833000174441e-01,-5.875999719855841130e-01,-2.396180711062438906e-01,6.789938671462560933e+02
-3.498589297049570668e+00,1.259768962950431614e+01,-1.842651418630925075e+00,8.667140449190399165e-01,-3.471594600598832958e-01,-3.581690573324533555e-01,6.837170244028750403e+02
-4.116447792495474545e+00,1.146793553341009897e+01,-1.455720831964748774e+00,9.293153723624434370e-01,-3.634902233093426638e-01,6.515977477959818132e-02,6.888197422711509716e+02
-4.413867222785500921e+00,1.081484653936004037e+01,-1.185937854608400954e+00,8.214865245982579944e-01,-3.131593307543091287e-01,4.765386904173385951e-01,6.916667660166650649e+02
-4.761176301145979117e+00,9.653590011308336827e+00,-3.828557264783316039e-01,9.498373934800877771e-01,-2.658530447966793719e-01,1.647090905777504610e-01,6.967694838849409962e+02
-4.749489952309387419e+00,8.547091575256430929e+00,7.172835850224685839e-01,9.680548285908766593e-01,-1.877211275121831724e-01,-1.662186124559363043e-01,7.018722017532169275e+02
-4.295774186459552446e+00,7.553841117621057144e+00,1.748077857851604300e+00,8.740264196353059178e-01,-8.782294946358543131e-02,-4.778733590881852900e-01,7.069749196214928588e+02
-3.522087844272502544e+00,6.712466210707694891e+00,2.527683019564424871e+00,6.786547392026348602e-01,2.225828850653781277e-02,-7.341187325970763844e-01,7.120776374897687901e+02
-2.736114839291274414e+00,6.013728220813423953e+00,3.144653146025969015e+00,4.045931920229679513e-01,1.297586535093463722e-01,-9.052430838221477982e-01,7.171803553580447215e+02
-2.643250836097312817e+00,5.930818732538589266e+00,3.220042417550716518e+00,8.361925873258957420e-02,2.222134927125733739e-01,-9.714046444327955054e-01,7.178445399228132828e+02
-1.993602953668345057e+00,5.313116530362901990e+00,3.758211571058619693e+00,5.948480071265937336e-02,2.442560422278266252e-01,-9.678835386097675020e-01,7.229472577910892142e+02
-1.461099196878550055e+00,4.696251106469885528e+00,4.212811567833851356e+00,3.528605882431479907e-02,2.660346092288706221e-01,-9.633163970044297253e-01,7.280499756593651455e+02
-1.032296203229429166e+00,4.004952250692160654e+00,4.578104564254638298e+00,1.104918311772242617e-02,2.875256591051895128e-01,-9.577081553902885291e-01,7.331526935276410768e+02
-6.953044447410723361e-01,3.163558219173735697e+00,4.848359166977545875e+00,-1.319963517452374911e-02,3.087059678659881401e-01,-9.510648742475924511e-01,7.382554113959170081e+02
-4.397919407798072111e-01,2.096045693713760816e+00,5.017850845749530109e+00,-3.743419190627948756e-02,3.295526472052273670e-01,-9.433937322181766838e-01,7.433581292641929394e+02
-3.685793134822265560e-01,1.685505074646231005e+00,5.055567819517026606e+00,-6.162829830041045148e-02,3.500431692063336597e-01,-9.347030183606166442e-01,7.450817012064642313e+02
-2.099521449573381604e-01,3.857108785189355959e-01,5.115685301293341425e+00,2.151038412715782964e-04,3.874204516355403971e-01,-9.219020269972582060e-01,7.501844190747401626e+02
-1.549167483530523304e-01,-9.517111747255990739e-01,5.093952542669479833e+00,6.205733336978265513e-02,4.227112564175896092e-01,-9.041360965418034912e-01,7.552871369430160939e+02
-2.231382638442193922e-01,-2.128040517275387788e+00,5.008787627368965545e+00,1.235653459598240883e-01,4.557255298721543668e-01,-8.815009056702807211e-01,7.603898548112920253e+02
-4.176923593016417247e-01,-3.017253028433222184e+00,4.877734480896476654e+00,1.844078972423251750e-01,4.862854773874771830e-01,-8.541183535748961830e-01,7.654925726795679566e+02
-6.492628287198533021e-01,-3.551424429686901085e+00,4.749180680345162386e+00,2.442573260684980097e-01,5.142265205847282861e-01,-8.221359037201058095e-01,7.696479731042927597e+02
-9.911706795175987406e-01,-4.059925853936305451e+00,4.578041138018519085e+00,3.188084536774659083e-01,3.946424749568940293e-01,-8.617519868403810124e-01,7.747506909725686910e+02
-1.372067856797598795e+00,-4.474195926019740810e+00,4.403861593473624048e+00,3.865282415075880773e-01,2.666021739222802500e-01,-8.829027122943703398e-01,7.798534088408446223e+02
-1.759644715676321303e+00,-4.890548763451597836e+00,4.241556318343784326e+00,4.459656196596150646e-01,1.328492167971438431e-01,-8.851348776756162717e-01,7.849561267091205536e+02
-2.123545132297754101e+00,-5.406231284890952615e+00,4.106038730336738496e+00,4.958469892124346967e-01,-3.750392120590067841e-03,-8.684006551400559326e-01,7.900588445773964850e+02
-2.435375320056739401e+00,-6.119385681958394940e+00,4.012220316903119866e+00,5.351035108500095117e-01,-1.402696521846804045e-01,-8.330586157957998727e-01,7.951615624456724163e+02
-2.459907437016148446e+00,-6.192949788491051599e+00,4.006158752014261637e+00,5.628940067027858873e-01,-2.737832818714325267e-01,-7.798660473345451205e-01,7.956096880932685735e+02
-2.692221851824075252e+00,-7.209006702428011337e+00,3.970040941296399506e+00,4.274336438543153149e-01,-1.079656568094906205e-01,-8.975755662066400298e-01,8.007124059615445049e+02
-2.817592789918525575e+00,-8.556307261643206985e+00,3.987682535211344970e+00,2.664552406655779637e-01,6.429756353583478135e-02,-9.616992399109839385e-01,8.058151238298204362e+02
-2.806767733611862159e+00,-1.011429133149691850e+01,4.016799248731533822e+00,8.956930418297517904e-02,2.327221681570878775e-01,-9.684088662319363383e-01,8.109178416980963675e+02
-2.625869221985757118e+00,-1.168960041172547015e+01,3.996044449302165180e+00,-9.266397953059991865e-02,3.872531182900261770e-01,-9.173038805501251280e-01,8.160205595663722988e+02
-2.303830046430529244e+00,-1.301666602250322136e+01,3.903442762237762320e+00,-2.693651841412697534e-01,5.186648284491616190e-01,-8.114352674750552330e-01,8.206767168190084476e+02
-1.797836645981764958e+00,-1.427006598072094867e+01,3.728123138614175769e+00,-3.458456772520108746e-01,5.073184425246699547e-01,-7.893141107301585579e-01,8.257794346872843789e+02
-1.161098588338721482e+00,-1.526140301195660065e+01,3.501781071056288219e+00,-4.200894429948745512e-01,4.926910469870641740e-01,-7.620881786909614597e-01,8.308821525555603102e+02
-4.321798652688160769e-01,-1.594366278425455263e+01,3.255896092581389123e+00,-4.916163325251659555e-01,4.748772418197123035e-01,-7.299335495739827095e-01,8.359848704238362416e+02
3.436871790977321095e-01,-1.629811472293547325e+01,3.016399772129244372e+00,-5.599637667026099441e-01,4.539922326373168615e-01,-6.930581740968980720e-01,8.410875882921121729e+02
9.448733294245454939e-01,-1.638671955663475188e+01,2.842698842465121167e+00,-6.246897268309048457e-01,4.301710858358215317e-01,-6.517005309954690961e-01,8.450502774749064656e+02
1.655600419326923145e+00,-1.631962874382702111e+01,2.643093404653844125e+00,-4.861909929165373900e-01,5.877081684699646535e-01,-6.466957763278500249e-01,8.501529953431823969e+02
2.228934532226584775e+00,-1.607985055790890527e+01,2.481196979184830287e+00,-3.262877565961687654e-01,7.193713903465651649e-01,-6.132202725336152183e-01,8.552557132114583283e+02
2.593542413694876370e+00,-1.572988125411637483e+01,2.366286788146804820e+00,-1.520197262657527471e-01,8.193643221114450537e-01,-5.527477819736448250e-01,8.603584310797342596e+02
2.696714745215324172e+00,-1.553096105583738584e+01,2.325127894404679374e+00,2.894099425547771998e-02,8.832847938310646185e-01,-4.679405857989883399e-01,8.629342386695808500e+02
2.685379061123314592e+00,-1.513793548354402851e+01,2.283940382993058904e+00,-1.591252294625134511e-01,8.555564987565437152e-01,-4.926461598185973845e-01,8.680369565378567813e+02
2.280849314481001588e+00,-1.478260778237912731e+01,2.312960913643983929e+00,-3.413438532227776046e-01,7.963880550992223917e-01,-4.992478738687908812e-01,8.731396744061327126e+02
1.463103363566992110e+00,-1.450541425778282800e+01,2.409496029567037123e+00,-5.110186961775383674e-01,7.079538018281132938e-01,-4.875031349995099794e-01,8.782423922744086440e+02
3.228635773006973686e-01,-1.431802910733435397e+01,2.546934649130076611e+00,-6.619145373204375904e-01,5.935035279120072227e-01,-4.578435405681596793e-01,8.833451101426845753e+02
-3.780075824639281268e-01,-1.424645771380237846e+01,2.627099643255188077e+00,-7.884862387321093236e-01,4.572430529789160425e-01,-4.113590181733148277e-01,8.861277674418493007e+02
-1.694956795777319725e+00,-1.417484240992528655e+01,2.753865472807287773e+00,-6.481450827169834561e-01,5.350885357093683181e-01,-5.418359629097733166e-01,8.912304853101252320e+02
-2.990278783788448802e+00,-1.417716013904347605e+01,2.834747976646724954e+00,-4.800763744852706294e-01,5.900429925741577097e-01,-6.491332232873293639e-01,8.963332031784011633e+02
-4.201990536969593570e+00,-1.418494236639457817e+01,2.865341788831470282e+00,-2.914700538274913599e-01,6.197554871422704670e-01,-7.286606507002666433e-01,9.014359210466770946e+02
-5.294744150920177361e+00,-1.410495939092599293e+01,2.852632126907971966e+00,-9.039464986932353729e-02,6.229549186306196917e-01,-7.770160723104811984e-01,9.065386389149530260e+02
-6.056878823386055544e+00,-1.393627443064404581e+01,2.818854847777417572e+00,1.145478764158175261e-01,5.995044003636161856e-01,-7.921308338607325750e-01,9.105434102222230877e+02
-6.871943705528853030e+00,-1.350466970752305507e+01,2.751727674227783638e+00,3.306178997804523623e-01,5.475364506490381089e-01,-7.686960644848610524e-01,9.156461280904990190e+02
-7.444884653292398902e+00,-1.278665602430764991e+01,2.676745284243999379e+00,5.301780836364130556e-01,4.682266219009389441e-01,-7.068755407947977520e-01,9.207488459587749503e+02
-7.613408942984845496e+00,-1.242050580756197498e+01,2.650031229903830443e+00,7.032632257900093276e-01,3.655353142278449652e-01,-6.097563196084647696e-01,9.228909053869982699e+02
-7.772708230453019951e+00,-1.148934744361224070e+01,2.648081933697171486e+00,7.054553948354983506e-01,1.753532675726908741e-01,-6.867182227434635022e-01,9.279936232552742013e+02
-7.512246972367071507e+00,-1.059410297124795441e+01,2.755603633609000180e+00,6.779498523740590255e-01,-2.221061882437464982e-02,-7.347711793996419827e-01,9.330963411235501326e+02
-7.066232010929772933e+00,-1.006583642535970391e+01,2.889192289833960370e+00,6.219044980134618150e-01,-2.188395313126325070e-01,-7.518923160160914110e-01,9.370807486005321607e+02
-6.277856617882630275e+00,-9.907480869052598393e+00,3.050588912187948587e+00,6.916633100737559214e-01,8.111276819387790160e-02,-7.176493463620819968e-01,9.421834664688080920e+02
-5.363296600806966907e+00,-1.055039192139788717e+01,3.068935062791362967e+00,6.950152269398460758e-01,3.732773190776164651e-01,-6.145045788148397747e-01,9.472861843370840234e+02
-4.580749083206742789e+00,-1.196289077298398951e+01,2.675807140101631454e+00,6.316384742188105861e-01,6.296033258960876955e-01,-4.523610172281049002e-01,9.523889022053599547e+02
-4.354847820857340679e+00,-1.262103663142710452e+01,2.396522057684686846e+00,5.076178864906877308e-01,8.254808868458789473e-01,-2.467861154265548473e-01,9.542783250778740012e+02
-3.874607412316875887e+00,-1.410550560913704210e+01,1.089138639912160311e+00,4.050943334869503976e-01,9.142737995986495170e-01,1.856676227964683238e-05,9.593810429461499325e+02
-3.460412771764395767e+00,-1.455373424759186385e+01,-7.153116405727085736e-01,2.704435815865880444e-01,9.305575147130740188e-01,2.468217595556426724e-01,9.644837608144258638e+02
-2.917908683179365692e+00,-1.357089049597425046e+01,-2.057154737221483565e+00,1.143444851771004411e-01,8.730406034451270170e-01,4.740500431875027676e-01,9.695864786827017952e+02
-2.658312772454508366e+00,-1.286886285688999720e+01,-2.361737016778006737e+00,-5.082307989967507766e-02,7.462845727569293874e-01,6.636824172859753235e-01,9.716224547865216437e+02
-2.009453731348553429e+00,-1.102813841001802686e+01,-2.735082578136483367e+00,1.248047710647554043e-01,6.607345376661191150e-01,7.401700073995376439e-01,9.767251726547975750e+02
-1.492978891225741567e+00,-9.448382781496786009e+00,-2.761989408085614439e+00,2.949393889738585739e-01,5.461026959834287542e-01,7.840794617068722605e-01,9.818278905230735063e+02
-1.303207538040086488e+00,-8.765498258172474522e+00,-2.737813140840817727e+00,4.520924689538843855e-01,4.074344499504325423e-01,7.934781462066368141e-01,9.846617216642423500e+02
-1.271631854889999191e+00,-7.832476782783417413e+00,-2.639807426235462717e+00,2.972724399925144034e-01,6.942109980252614276e-01,6.555136815061697320e-01,9.897644395325182813e+02
-1.690132874156304865e+00,-7.302250366596516606e+00,-2.528497214305513552e+00,1.052207007157478641e-01,8.940414403649379338e-01,4.354497755782214541e-01,9.948671574007942127e+02
-1.865035601552729183e+00,-7.208013585502254017e+00,-2.506987278310109701e+00,-1.000093879414412218e-01,9.818981601291563166e-01,1.608481440933567930e-01,9.963080721445891186e+02
-2.105291039720558199e+00,-7.093334466473244504e+00,-2.493571213125479691e+00,-1.066498589785398327e-01,9.609070770805022699e-01,2.555022441738252215e-01,9.982628499524549852e+02
-2.742872919512360674e+00,-6.923305698951129017e+00,-2.747101892760297925e+00,5.276828673005245357e-02,9.562115635248585876e-01,2.878766292979355046e-01,1.003365567820730917e+03
-3.390152079170137167e+00,-6.900475834651549789e+00,-3.421433678013175772e+00,2.107888658627499745e-01,9.261914202701000409e-01,3.126267855534332063e-01,1.008468285689006848e+03
-4.034291168992749199e+00,-6.889050664598312501e+00,-4.333168945923080884e+00,3.632268437989137899e-01,8.716417117402545101e-01,3.290972292459993231e-01,1.013571003557282779e+03
-4.203916536670827320e+00,-6.877271834453264177e+00,-4.594895149937213041e+00,5.060450320364476839e-01,7.940071301377683577e-01,3.368517520219697636e-01,1.014927113146262741e+03
-4.834056746472378485e+00,-6.804638829675188738e+00,-5.471192895618317564e+00,4.914284697109053690e-01,8.653738673083570809e-01,-9.810264490584683084e-02,1.020029831014538672e+03
-5.451778920468377088e+00,-6.735019861803966279e+00,-5.952731161552851091e+00,3.812327523034351739e-01,7.684318526812868866e-01,-5.139767274461327640e-01,1.025132548882814717e+03
-5.934988054374986888e+00,-6.715092600191002070e+00,-5.939649733942866661e+00,1.968901333130726461e-01,5.220356215373854747e-01,-8.298861881307820765e-01,1.029186408249044007e+03
-6.520790940860644369e+00,-6.686495132751057113e+00,-5.470491924190437061e+00,4.481227538558579249e-01,3.525074783608829199e-01,-8.215366547979546796e-01,1.034289126117319938e+03
-7.058674309476658415e+00,-6.558945731051391448e+00,-4.623429097555019851e+00,6.581605360181718156e-01,1.505742263391141589e-01,-7.376653110937553270e-01,1.039391843985595870e+03
-7.522548866943064461e+00,-6.220686332770393179e+00,-3.605448905107063062e+00,8.076952684890223999e-01,-6.520093564244590356e-02,-5.859822448266909234e-01,1.044494561853871801e+03
-7.778806071891040119e+00,-5.864620836373420687e+00,-2.897040337262800413e+00,8.829806041559099539e-01,-2.749823645660580684e-01,-3.804312708785562713e-01,1.047937477491331720e+03
-7.946293350226918406e+00,-5.258325512153569470e+00,-1.932947346251560727e+00,9.146475025856253271e-01,-1.744822961829107510e-01,-3.646558299691330385e-01,1.053040195359607651e+03
-7.796176293180646866e+00,-4.728176823682654017e+00,-1.226116001837247227e+00,9.359313695166940894e-01,-7.200154544806462720e-02,-3.447408432514730836e-01,1.058142913227883582e+03
-7.513341329424563675e+00,-4.511409135555316752e+00,-8.550720210899740437e-01,9.465906024971347810e-01,3.129655596492605246e-02,-3.209123818845680542e-01,1.063245631096159514e+03
-7.376339539005374313e+00,-4.608079029014976236e+00,-7.621420807223714400e-01,9.465041992409696237e-01,1.342393992806932279e-01,-2.934409386872474657e-01,1.066707081701501465e+03
-7.408453731806661224e+00,-5.180353853655756957e+00,-8.281120838297771902e-01,9.491781883918927187e-01,2.954489957507035469e-01,-1.084834438590833311e-01,1.071809799569777397e+03
-7.710057930548592786e+00,-6.199942289190899736e+00,-1.115388316879267760e+00,8.947068383704753769e-01,4.388710473261567269e-01,8.300528412435531633e-02,1.076912517438053328e+03
-8.157257273993018032e+00,-7.422315162803314159e+00,-1.536005793648164364e+00,7.863696078816982959e-01,5.558708354246265637e-01,2.694966681146755971e-01,1.082015235306329259e+03
-8.623827038807043266e+00,-8.656706442939697155e+00,-2.001389280625351041e+00,6.306889355565993283e-01,6.394043888624714178e-01,4.397629976139341146e-01,1.087117953174605191e+03
-8.832384640128388753e+00,-9.240487154763673772e+00,-2.226090122208545186e+00,4.370375641362851393e-01,6.844425598143791811e-01,5.835533821758736028e-01,1.089610721660217450e+03
-9.115123737285239613e+00,-1.037053265331198304e+01,-2.623461797522331551e+00,4.437018920797781152e-01,6.529187986172191316e-01,6.138596528304844924e-01,1.094713439528493382e+03
-9.115374414858887775e+00,-1.137777348632306484e+01,-2.870779627413440060e+00,4.494980566674471323e-01,6.201175189312601033e-01,6.429648200041202522e-01,1.099816157396769313e+03
-8.834634157806641852e+00,-1.223228364224802611e+01,-2.892115782777755051e+00,4.544147176823222778e-01,5.861028986732836898e-01,6.708119382634055716e-01,1.104918875265045244e+03
-8.339429732601242762e+00,-1.291459672291139249e+01,-2.671790619897278507e+00,4.584422555008800249e-01,5.509414893942485847e-01,6.973465233522735396e-01,1.110021593133321176e+03
-7.706797824509003192e+00,-1.342672955509670452e+01,-2.313850672403050091e+00,4.615727899025953151e-01,5.147020861279358872e-01,7.225166587374637350e-01,1.115124311001597107e+03
-7.014011368953219083e+00,-1.378735862210785612e+01,-1.990745299501918142e+00,4.638001954826672657e-01,4.774555928585502151e-01,7.462730971395036272e-01,1.120227028869873038e+03
-6.919031498227584898e+00,-1.382658625793374796e+01,-1.955866104362744107e+00,4.651201136369044753e-01,4.392748838676384660e-01,7.685693568501410500e-01,1.120916268133958056e+03
-6.227845039359308998e+00,-1.405573200668502132e+01,-1.809579020855047737e+00,4.664991325647990794e-01,5.024028337150103773e-01,7.279889779297210595e-01,1.126018986002233987e+03
-5.553991582473240207e+00,-1.415774517888812944e+01,-1.851016642363466858e+00,4.652499808341791221e-01,5.627003229232302450e-01,6.833072529336670087e-01,1.131121703870509918e+03
-4.886393256275682440e+00,-1.412130038585424252e+01,-2.016692625819795914e+00,4.613796966001245670e-01,6.198276623427472209e-01,6.347759010514231193e-01,1.136224421738785850e+03
-4.287750768365318876e+00,-1.397002147087651025e+01,-2.217190848161326944e+00,4.549100824367882101e-01,6.734630197718239897e-01,5.826683258016941425e-01,1.140774273705619635e+03
-3.601876288996270326e+00,-1.365697980707027881e+01,-2.441178247924893796e+00,4.114000163326952397e-01,7.109824271071647495e-01,5.703087014067682592e-01,1.145876991573895566e+03
-2.889158765234796977e+00,-1.317443229446098663e+01,-2.605789533360841403e+00,3.664691548170469493e-01,7.460463749204455652e-01,5.559794645757742959e-01,1.150979709442171497e+03
-2.146300822058946789e+00,-1.252916546282545340e+01,-2.657649384104845414e+00,3.202726607975879269e-01,7.785337766756504907e-01,5.397301004344393638e-01,1.156082427310447429e+03
-1.687833192078292077e+00,-1.208307337106205281e+01,-2.631369621706025619e+00,2.729700667940269110e-01,8.083324417420498786e-01,5.216167235199679064e-01,1.159163147939665123e+03
-9.311508592120586458e-01,-1.129635696542023560e+01,-2.474010473813704980e+00,2.011264635175139537e-01,7.706086800400906434e-01,6.047382970492952703e-01,1.164265865807941054e+03
-1.864829921398074852e-01,-1.047896650081395720e+01,-2.222791832202227091e+00,1.265689076349737485e-01,7.224864789682245991e-01,6.796996390512983766e-01,1.169368583676216986e+03
5.046179199066512799e-01,-9.716841884215083880e+00,-2.018463907438538207e+00,5.030344665977258545e-02,6.646151788642098435e-01,7.454892536284375426e-01,1.174471301544492917e+03
5.173979271235226163e-01,-9.702836947342955654e+00,-2.015503743109607893e+00,-2.664082631181126024e-02,5.977756640877323058e-01,8.012193967918375126e-01,1.174572544216097185e+03
1.023118713504262978e+00,-9.059504450629573213e+00,-1.959019800468399630e+00,-2.093224116554733283e-01,7.728632886269967139e-01,5.990529735103325981e-01,1.179675262084373117e+03
1.162413466399261130e+00,-8.468418478730564303e+00,-2.198311276292361782e+00,-3.700461105374179827e-01,8.668777690491674681e-01,3.340461189787793383e-01,1.184777979952649048e+03
