9.526814522551301678e+00,-9.852868472537233302e+00,4.087678731686140488e+00,-5.947982611594905267e-01,-7.605956052937716816e-01,2.602063675776267737e-01,1.162808363556273008e+02
9.685994669693588577e+00,-9.908579928329773523e+00,3.761741347827867621e+00,-8.547351922029174931e-01,-4.246600927401170122e-01,2.984787376715157259e-01,1.196977088128511326e+02
9.885936903469566772e+00,-1.001637993207394928e+01,3.236883889398549208e+00,-8.081443794092347810e-01,-5.485960301795778093e-01,-2.143433173670034053e-01,1.248004266811271066e+02
9.969781868267183711e+00,-1.008480210008589673e+01,2.956548116737695686e+00,-5.348548726037732903e-01,-5.186410590762147166e-01,-6.670380177260901711e-01,1.273911243274876597e+02
1.010247201326462196e+01,-1.024727806164125177e+01,2.387509997457717414e+00,-6.112110816670285329e-01,-3.382672939247887700e-01,-7.155377359074561738e-01,1.324938421957636479e+02
1.020410613451315918e+01,-1.043762697277772133e+01,1.813612446195510763e+00,-6.626804411235165393e-01,-1.441202237305490019e-01,-7.349027106110809227e-01,1.375965600640396360e+02
1.027612993786124385e+01,-1.065519331843737660e+01,1.248570349878537211e+00,-6.871672679100215841e-01,5.589505549218105884e-02,-7.243444544439301414e-01,1.426992779323156242e+02
1.027976851573216521e+01,-1.067509808011656247e+01,1.204049257395254591e+00,-6.836745103281322011e-01,2.536345053691633211e-01,-6.842928478454114449e-01,1.431156141482020701e+02
1.029879218965463039e+01,-1.094364289599519502e+01,6.841311095949119681e-01,-7.598551220541076567e-01,2.658621553802310022e-01,-5.932415257067779057e-01,1.482183320164780582e+02
1.029565316029899513e+01,-1.123234989096479630e+01,1.974118085661001332e-01,-8.252128184221165785e-01,2.743030299036262609e-01,-4.937404703848984333e-01,1.533210498847540464e+02
1.027663091677683660e+01,-1.153524696034343400e+01,-2.466007704720820926e-01,-8.788167014311434322e-01,2.788369058526292132e-01,-3.872069023385902864e-01,1.584237677530300346e+02
1.024814114764240713e+01,-1.184651663468915572e+01,-6.384018359953153032e-01,-9.199032810729510512e-01,2.793992067971562410e-01,-2.751582030590166705e-01,1.635264856213060227e+02
1.023082267487188446e+01,-1.201919078198829638e+01,-8.201188368723036914e-01,-9.478873483416357937e-01,2.759819225580460444e-01,-1.591903052108066818e-01,1.663264260758911064e+02
1.020133835747421358e+01,-1.233301562898893877e+01,-1.083300896690327697e+00,-9.727453674304802345e-01,2.304382792570178751e-01,-2.574198114142600344e-02,1.714291439441670946e+02
1.017770777722692266e+01,-1.264022439787728835e+01,-1.272456234916165885e+00,-9.776614854267071664e-01,1.801705263623794850e-01,1.082340119428936015e-01,1.765318618124430827e+02
1.016893134234505780e+01,-1.280899872463208844e+01,-1.337301733048986252e+00,-9.625349342231308558e-01,1.262091660155101325e-01,2.399911390265146438e-01,1.794648759035239607e+02
1.016249222705654986e+01,-1.308212453079259596e+01,-1.373837531799389833e+00,-9.011398056260407907e-01,2.902422255685433439e-01,3.220318326069576131e-01,1.845675937717999489e+02
1.016185206848582645e+01,-1.332754043911964636e+01,-1.335208179881988144e+00,-8.060357850996450191e-01,4.434181992419981566e-01,3.920262921266139955e-01,1.896703116400759370e+02
1.016186826364374163e+01,-1.333707735051615373e+01,-1.330226988129892485e+00,-6.807803724389461797e-01,5.800072944221408289e-01,4.473562595037742784e-01,1.898994675367348748e+02
1.016178816171831301e+01,-1.338043856787947661e+01,-1.285837899030471743e+00,-6.598192386647309116e-01,3.113385498019297093e-01,6.838895230162145289e-01,1.911467155104153335e+02
1.016235039449758126e+01,-1.352223087820501846e+01,-1.035690461860772071e+00,-7.556342485562307365e-01,2.589354707662943622e-01,6.016371866689743664e-01,1.962494333786913216e+02
1.016341717727314276e+01,-1.354880940454928329e+01,-9.567602193915474285e-01,-8.373248742425113411e-01,2.016923532861787105e-01,5.081390061738003672e-01,1.975325835370915115e+02
1.017215311022589397e+01,-1.361956527135845896e+01,-5.842272222270948889e-01,-7.561381161741179691e-01,1.916849549315109424e-01,6.257076212732040066e-01,2.026353014053674997e+02
1.018281691508823705e+01,-1.365927733610037009e+01,-1.599131393241812193e-01,-6.594400844802044137e-01,1.777453641643285398e-01,7.304405249551676471e-01,2.077380192736434878e+02
1.018782906411491496e+01,-1.366668842651461091e+01,1.031251391099134579e-01,-5.492143931911229737e-01,1.601595313246605978e-01,8.201892920754525473e-01,2.106030028449035569e+02
1.019190476118053645e+01,-1.365729640660685718e+01,6.091181647411491040e-01,-7.604633800386252362e-01,4.264740904110218001e-01,4.897073593772730549e-01,2.157057207131795451e+02
1.018767883594900070e+01,-1.362972868418414407e+01,1.145007468230363257e+00,-8.007842542962001486e-01,5.969308275283082832e-01,4.915450352842705428e-02,2.208084385814555333e+02
1.016843042736634928e+01,-1.358943788574384826e+01,1.702597260860958750e+00,-6.611139480181688066e-01,6.332162819713098578e-01,-4.024468759744568302e-01,2.259111564497315214e+02
1.015575328829973323e+01,-1.357559092704361703e+01,1.869013555123840931e+00,-3.728459597500600187e-01,5.271745610365218271e-01,-7.635907755425337395e-01,2.273938973369207019e+02
1.008080701186796979e+01,-1.352489584247209287e+01,2.450180452641994577e+00,-3.041450237307205540e-01,6.143614390935143721e-01,-7.280479563128386955e-01,2.324966152051966901e+02
9.967993320529016543e+00,-1.347629662798221162e+01,3.029640663469034489e+00,-2.313123998971822470e-01,6.932023799818681775e-01,-6.826148504376057247e-01,2.375993330734726783e+02
9.820426956574420885e+00,-1.343664133876255562e+01,3.557827850260801394e+00,-1.553374668051348273e-01,7.626263925611566075e-01,-6.279086372810301908e-01,2.423669567763948578e+02
9.613216483547901703e+00,-1.339934550177775741e+01,4.096091681020843644e+00,-4.434005659359009643e-03,7.273363289099716855e-01,-6.862654036455855255e-01,2.474696746446708460e+02
9.354172725662383669e+00,-1.336352568183007072e+01,4.593844019819983693e+00,1.465910236199800543e-01,6.721006698652319811e-01,-7.258028391788411415e-01,2.525723925129468341e+02
9.040710384114568399e+00,-1.332546520708344495e+01,5.037402951665812090e+00,2.935961250659197552e-01,5.984341228380513078e-01,-7.454367283468595895e-01,2.576751103812227939e+02
8.940777773129815031e+00,-1.331413943002022116e+01,5.139846821936288279e+00,4.325500347242385302e-01,5.083568066431051191e-01,-7.446286487897473272e-01,2.590543606268399799e+02
8.517267379596349386e+00,-1.326597586641155324e+01,5.449837197632290575e+00,5.567193191395529706e-01,4.261743234510340650e-01,-7.130477163032385990e-01,2.641570784951159681e+02
8.047003069037796052e+00,-1.320707786262078187e+01,5.688518848767373903e+00,6.679897951972569858e-01,3.341176209877269598e-01,-6.649458991938699270e-01,2.692597963633919562e+02
8.025981345001483191e+00,-1.320422187907564293e+01,5.695374183564934967e+00,7.637834191459231814e-01,2.343195456042930502e-01,-6.014376436352966149e-01,2.694701935292031294e+02
7.481611452491451431e+00,-1.312268916962249499e+01,5.789801185297447361e+00,6.224971942882563392e-01,2.465803149418525353e-01,-7.427606555177409531e-01,2.745729113974791176e+02
6.910165771193561568e+00,-1.302312484874370213e+01,5.815070253042668114e+00,4.562585897485036401e-01,2.489570615572306578e-01,-8.543105294800737992e-01,2.796756292657551057e+02
6.322777763962046826e+00,-1.290219041632147956e+01,5.775845134357251887e+00,2.717312097952087613e-01,2.413545237511948993e-01,-9.316158776488652205e-01,2.847783471340310939e+02
5.730651949885264607e+00,-1.275681349903039852e+01,5.676794225790986026e+00,7.631173597469652348e-02,2.240774551297401163e-01,-9.715780015288948412e-01,2.898810650023070821e+02
5.145061515391346596e+00,-1.258418909925735996e+01,5.522590235893833466e+00,-1.221665725776658468e-01,1.978184049141024359e-01,-9.725950890385771652e-01,2.949837828705830702e+02
4.577345916750200416e+00,-1.238178081049012214e+01,5.317909847982523530e+00,-3.157478700645973690e-01,1.636299542483207192e-01,-9.346264069791018203e-01,3.000865007388590584e+02
4.096822698900390414e+00,-1.217309811171028144e+01,5.094468940977767701e+00,-4.966726200886751874e-01,1.228825225592589943e-01,-8.591939211284596034e-01,3.046363360441407622e+02
3.597559726263400481e+00,-1.190553480766870464e+01,4.802393256412568867e+00,-6.713950334766004557e-01,1.824544166307380533e-02,-7.408736821356168845e-01,3.097390539124167503e+02
3.147913536411552915e+00,-1.160223060330022093e+01,4.472676951244749510e+00,-8.088706897341791935e-01,-8.740381418059930962e-02,-5.814523029065700177e-01,3.148417717806927385e+02
2.891482235609638796e+00,-1.138091561063681567e+01,4.235166782592488133e+00,-9.014729564754712099e-01,-1.882042212460745545e-01,-3.897738829730268972e-01,3.181628790913359808e+02
2.558060460770490874e+00,-1.100245179951171792e+01,3.836574401970974435e+00,-9.247686855247204685e-01,-1.571717511476110329e-01,-3.465514664595027439e-01,3.232655969596119689e+02
2.288152485989755291e+00,-1.058427142741589577e+01,3.407283108283255313e+00,-9.449443464079368971e-01,-1.256090027873204562e-01,-3.021598262533352064e-01,3.283683148278879571e+02
2.132331450174378418e+00,-1.024758252544642190e+01,3.071856213248900680e+00,-9.619318760104620392e-01,-9.362245125333930329e-02,-2.567487147517965584e-01,3.321363363200186996e+02
1.972563342487305915e+00,-9.756177076910244494e+00,2.600269585755453861e+00,-9.414554619886322806e-01,1.801260238691607951e-01,-2.849811022085920742e-01,3.372390541882946877e+02
1.855979446263801291e+00,-9.231118724703831546e+00,2.120140431424446970e+00,-8.492827264594434711e-01,4.401571162665484649e-01,-2.915108291920242012e-01,3.423417720565706759e+02
1.815876312416532246e+00,-8.961181318318281797e+00,1.887482714208464030e+00,-6.924329410717053879e-01,6.666682730042029492e-01,-2.758405986911884322e-01,3.448145525317626152e+02
1.762549940812830895e+00,-8.371917809123530674e+00,1.415751655816704924e+00,-8.037637870675655716e-01,-7.093984892049830238e-02,-5.907023890486181594e-01,3.499172704000386034e+02
1.736833758390334159e+00,-7.748759352095467179e+00,9.629676978942897092e-01,-3.881468176274357473e-01,-7.620403516457288084e-01,-5.182996724145945144e-01,3.550199882683145916e+02
1.736342604673657419e+00,-7.682838909635955282e+00,9.204590022553498230e-01,2.819373613088805297e-01,-9.535470181248032473e-01,-1.061009355393754544e-01,3.555309778770503613e+02
1.751086384889825487e+00,-6.988923207353196609e+00,5.305029766231834643e-01,-1.797767178399123644e-01,-9.021649805867816285e-01,-3.921436975467922914e-01,3.606336957453263494e+02
1.788733045260710641e+00,-6.259117074809601000e+00,1.833934058548222501e-01,-5.879818765134277037e-01,-5.822615843710956529e-01,-5.614683964904252367e-01,3.657364136136023376e+02
1.815369521782769890e+00,-5.903531019931601342e+00,4.647188722469301758e-02,-8.211794661150491059e-01,-8.905324812559541059e-02,-5.636770382315483552e-01,3.681045877814036089e+02
1.891766101254829024e+00,-5.100956285041871041e+00,-1.896416734262305059e-01,-8.376429772233403570e-01,-5.298690113427292903e-02,-5.436401668422473632e-01,3.732073056496795971e+02
1.988373978037132561e+00,-4.262648204929357476e+00,-3.605415125409924815e-01,-8.524535562630186636e-01,-1.681600463155388803e-02,-5.225305315390481598e-01,3.783100235179555852e+02
2.011265576265244714e+00,-4.082831327711591740e+00,-3.811794264556335188e-01,-8.655819842171716960e-01,1.938808104284765396e-02,-5.003897789718214639e-01,3.793598141183315420e+02
2.135184404156103888e+00,-3.173341876488420699e+00,-4.080382107763807498e-01,-8.092559173261296701e-01,-7.080172773812244691e-02,-5.831723378362049237e-01,3.844625319866075301e+02
2.154270390583579164e+00,-3.037523215600476778e+00,-4.011442272053931113e-01,-7.382339151645135322e-01,-1.597057866754708344e-01,-6.553645918099294532e-01,3.851959836842198115e+02
2.291647565993538471e+00,-2.057902414093435883e+00,-2.796794031413333270e-01,-7.655894244453470554e-01,-2.933701122039464870e-01,-5.725424092957529520e-01,3.902987015524957997e+02
2.431120956606701355e+00,-1.046204042541624579e+00,-9.042723079727532642e-02,-7.734422777468128452e-01,-4.195611059903250339e-01,-4.751352663539708532e-01,3.954014194207717878e+02
2.562824170072087071e+00,-4.833554960380519357e-03,1.588002039331697923e-01,-7.615924307881609678e-01,-5.350642015291169340e-01,-3.656244926248566340e-01,4.005041372890477760e+02
2.617372409586390170e+00,5.146399858071961653e-01,3.053592891116794772e-01,-7.303417293075382677e-01,-6.369370826671665320e-01,-2.467997389667196673e-01,4.029835074213354460e+02
2.703977906607376802e+00,1.608410397087699950e+00,6.504930013837015856e-01,-6.750765426761626831e-01,-6.953409733959876604e-01,-2.465169208057447214e-01,4.080862252896114342e+02
2.761569349843501886e+00,2.721977972027762593e+00,1.026854256772323781e+00,-6.154467672127343914e-01,-7.492492291519525782e-01,-2.446402856057297015e-01,4.131889431578874223e+02
2.782254176652566802e+00,3.850260240594836070e+00,1.420353218282899510e+00,-5.518379287542719558e-01,-7.983133213111202053e-01,-2.411819674109433043e-01,4.182916610261634105e+02
2.758005188518880324e+00,4.988368233508505334e+00,1.816898810253734897e+00,-4.846612773361831938e-01,-8.422160396335668375e-01,-2.361643259124893146e-01,4.233943788944393987e+02
2.681389128212448902e+00,6.130677974298631483e+00,2.203631174949680194e+00,-4.143511286073067179e-01,-8.806735427005345507e-01,-2.296198018639411254e-01,4.284970967627153868e+02
2.546265486078971740e+00,7.269878803134784739e+00,2.570154040256534156e+00,-3.413620562127611668e-01,-9.134371926917581597e-01,-2.215907073512245473e-01,4.335998146309913750e+02
2.503359983910395048e+00,7.507923754530191118e+00,2.641642244529596617e+00,-2.661659532737019052e-01,-9.402951626614649561e-01,-2.121289522720123111e-01,4.346758570963635862e+02
2.316521380508185679e+00,8.259156856000078761e+00,2.848453498257955463e+00,-2.471589247134890199e-01,-9.533132102250827522e-01,-1.735061644518485491e-01,4.381166199131892540e+02
1.968361384086459775e+00,9.350586929977056982e+00,3.117298638063432215e+00,-1.457905957932113805e-01,-9.625312092043829537e-01,-2.286411456410051835e-01,4.432193377814652422e+02
1.630712934489997767e+00,1.019366199997137912e+01,3.297078322460375688e+00,-4.246861485585473606e-02,-9.588509025458269441e-01,-2.807122431120774864e-01,4.473147056441579821e+02
1.137245897010934925e+00,1.117683571513393481e+01,3.469087205584743927e+00,5.399717080953683052e-02,-9.606570998631661640e-01,-2.724339223105795571e-01,4.524174235124339702e+02
5.751390900253656735e-01,1.205711829047209704e+01,3.581247611761410266e+00,1.499565766661432042e-01,-9.534547770109905729e-01,-2.616008664132000727e-01,4.575201413807099584e+02
-5.181345387982855960e-02,1.279274175401497615e+01,3.625177735899092646e+00,2.445097623449496438e-01,-9.373114770164451270e-01,-2.483146616088778291e-01,4.626228592489859466e+02
-7.380980905867334796e-01,1.333991179924594128e+01,3.592836094653148571e+00,3.367700741777894802e-01,-9.123785810519448036e-01,-2.326998968080146724e-01,4.677255771172619347e+02
-1.035358340026194757e+00,1.347144818528934884e+01,3.545705529867415162e+00,4.258723580055296387e-01,-8.788898891157340687e-01,-2.149029955472907816e-01,4.697893172940536601e+02
-1.792593637812581520e+00,1.358170330400913706e+01,3.332680363288031522e+00,5.374667511631258110e-01,-8.199285460580413298e-01,-1.970905141126224613e-01,4.748920351623296483e+02
-2.526016234399647953e+00,1.351537594746186421e+01,3.003278446884171782e+00,6.403288701222346058e-01,-7.476457835353471637e-01,-1.760758940054032717e-01,4.799947530306056365e+02
-3.183356878566169001e+00,1.331219341890540164e+01,2.541440347486163098e+00,7.327875206893470494e-01,-6.632159821509944209e-01,-1.522005602535171642e-01,4.850974708988816246e+02
-3.728156438696020647e+00,1.300562291666731518e+01,1.954169843065529211e+00,8.133405316488541148e-01,-5.680108707408769719e-01,-1.258524147456703546e-01,4.902001887671576128e+02
-4.150636856276896047e+00,1.262162990735560086e+01,1.272860752692665409e+00,8.806791586324904664e-01,-4.635772413555183102e-01,-9.745953440983891325e-02,4.953029066354336010e+02
-4.253413433465413895e+00,1.246987314566500338e+01,1.019113088370972253e+00,9.337093461346031020e-01,-3.516118206058725382e-01,-6.748321680743518680e-02,4.970480855765802630e+02
-4.433377707686172897e+00,1.198153797341980820e+01,2.433784344681644563e-01,9.112158117929616274e-01,-3.956312809335292280e-01,1.147154474537371294e-01,5.021508034448562512e+02
-4.493958580392183322e+00,1.146715589024838877e+01,-5.321350110603899619e-01,8.562464716165230083e-01,-4.255503998862463222e-01,2.928256085113126184e-01,5.072535213131322394e+02
-4.468123426179984925e+00,1.125739446520314146e+01,-8.278951728685487454e-01,7.707604146163042902e-01,-4.403028688648590316e-01,4.604994754921774569e-01,5.092935532491214303e+02
-4.273218226905635575e+00,1.073377049915647952e+01,-1.502174763426544102e+00,8.047413824715453634e-01,-4.228130563614888593e-01,4.166754452801274544e-01,5.143962711173974185e+02
-3.954005678136652158e+00,1.022788699131150203e+01,-2.083361571579203542e+00,8.360013902671756814e-01,-4.038936532306948157e-01,3.714425828343836389e-01,5.194989889856733498e+02
-3.733077943098359164e+00,9.985685557440922011e+00,-2.330406568239843157e+00,8.644347570831554251e-01,-3.836086205630392931e-01,3.249538074361454920e-01,5.221589158503056751e+02
-3.346264918458828230e+00,9.674651091965442262e+00,-2.613181058492536124e+00,8.232811187906153849e-01,-4.286169192325259281e-01,3.721474653508251573e-01,5.260877688296433234e+02
-2.792496125326870082e+00,9.347685989151258923e+00,-2.879416711206697954e+00,8.312320984095646903e-01,-1.646094873003803305e-01,5.309942704622656606e-01,5.311904866979192548e+02
-2.371009925447344013e+00,9.179789500715003214e+00,-3.004610381595808732e+00,7.602196431821331979e-01,1.150351535878554043e-01,6.393989424122685783e-01,5.348946455001930644e+02
-1.781464913314075638e+00,9.059866203668468287e+00,-3.090960553189847637e+00,6.736530495154858800e-01,1.728509459578257135e-01,7.185486200372790400e-01,5.399973633684689958e+02
-1.198413427277357224e+00,9.057493657218556038e+00,-3.098747759687233483e+00,5.755662364670599551e-01,2.277107785681835583e-01,7.854102805289118194e-01,5.451000812367449271e+02
-7.953860689182654653e-01,9.135843166789015868e+00,-3.052184032816452230e+00,4.676365584865743164e-01,2.786765086344800690e-01,8.388405406864720693e-01,5.487578508758375619e+02
-2.662374980599566676e-01,9.342855463407580885e+00,-2.921887587387969720e+00,3.047489745222184410e-01,2.895608951293277555e-01,9.073480867556571461e-01,5.538605687441134933e+02
2.184173535692343626e-01,9.631061306199409700e+00,-2.742631256497290337e+00,1.323093355483148936e-01,2.913692332141986641e-01,9.474155422319823217e-01,5.589632866123894246e+02
6.501963869544611363e-01,9.984150681338833877e+00,-2.538205695967119091e+00,-4.427741385543238622e-02,2.840448476024819424e-01,9.577870510570277718e-01,5.640660044806653559e+02
8.460812966504656085e-01,1.019640481344156768e+01,-2.429327383308335087e+00,-2.194763489946578994e-01,2.678173126789542002e-01,9.381375268375693466e-01,5.667325292824807548e+02
1.163335906457174884e+00,1.064536722283322412e+01,-2.234306521827908565e+00,-4.230630978632810013e-01,3.202620235470811094e-01,8.476130316944038290e-01,5.718352471507566861e+02
1.303073916662452536e+00,1.090521754427416568e+01,-2.144272544807001246e+00,-6.044844226493768513e-01,3.559273157673246146e-01,7.126796816681070235e-01,5.745878449669344263e+02
1.504285061570282966e+00,1.141139376960127194e+01,-2.013056025315698605e+00,-8.762322087948672955e-01,2.719428158544131557e-01,3.978218460260939948e-01,5.796905628352103577e+02
1.650044338030078439e+00,1.193293728822119704e+01,-1.920748449553760784e+00,-9.902265949372912601e-01,1.389987688504830676e-01,1.134164611941103178e-02,5.847932807034862890e+02
1.741396411576165759e+00,1.245999842111666744e+01,-1.868514145868509280e+00,-9.259443750914363447e-01,-1.897010967799163741e-02,-3.771805259752475381e-01,5.898959985717622203e+02
1.746822965302943009e+00,1.254073729705213935e+01,-1.866261060610411304e+00,-6.949586307413803121e-01,-1.735236862152925719e-01,-6.977965547923066225e-01,5.906809412960609507e+02
1.726650473584756984e+00,1.305751782584222020e+01,-1.885555980885905702e+00,-8.151359307096774920e-01,2.915339572787871147e-01,-5.005590536771312715e-01,5.957836591643368820e+02
1.654255741637129073e+00,1.355788141551873949e+01,-1.933806263327393138e+00,-7.155326495503484541e-01,6.779870511890073725e-01,-1.683585039320701915e-01,6.008863770326128133e+02
1.530860033142912302e+00,1.403125975678684867e+01,-2.005354079353197427e+00,-4.230043547273195093e-01,8.816381522940006654e-01,2.092354757225115269e-01,6.059890949008887446e+02
1.404455987726811683e+00,1.434953785214617916e+01,-2.071565530324724236e+00,-1.642412812110115305e-02,8.475782806548158854e-01,5.304142778789503465e-01,6.097110450391924132e+02
1.183223970655341573e+00,1.473981646104138044e+01,-2.178398940798036865e+00,-7.877890313874134909e-02,8.196173253039021889e-01,5.674674655697919956e-01,6.148137629074683446e+02
9.166701350337156384e-01,1.507448145750888813e+01,-2.297864349901185488e+00,-1.406576149839656453e-01,7.867035242556675856e-01,6.010915074006099035e-01,6.199164807757442759e+02
6.089156955093082413e-01,1.534539110198874745e+01,-2.425126261726141319e+00,-2.016863446171966445e-01,7.490357702339816015e-01,6.310832221691289323e-01,6.250191986440202072e+02
2.684856430684967044e-01,1.554928292057399730e+01,-2.553009285903409253e+00,-2.614963092524692501e-01,7.068416813832577583e-01,6.572613770068786998e-01,6.301219165122961385e+02
-9.387015518767932720e-02,1.568516396156085690e+01,-2.673168319821378258e+00,-3.197260903571244595e-01,6.603762260895537084e-01,6.794677822817176693e-01,6.352246343805720699e+02
-2.332220255486868732e-01,1.570944396131562293e+01,-2.712278810010967156e+00,-3.760238171857335221e-01,6.099201826406354110e-01,6.975682473525939287e-01,6.371174584142792128e+02
-6.150631351874655817e-01,1.570351117165298049e+01,-2.797270852012427866e+00,-3.728145168964445144e-01,5.561579311051065844e-01,7.427622039716226254e-01,6.422201762825551441e+02
-7.012050703394825391e-01,1.568582417321197475e+01,-2.810586228569376566e+00,-3.677623266281101477e-01,4.996464927239015474e-01,7.842845487512620783e-01,6.433725468516915953e+02
-1.079477634334712777e+00,1.553654053296802928e+01,-2.837193157218727890e+00,-1.697977506516573087e-01,4.198290078581604079e-01,8.915774380471516158e-01,6.484752647199675266e+02
-1.454194092302940611e+00,1.532165546547866875e+01,-2.825574688926040245e+00,3.785760575665171601e-02,3.160507731749219729e-01,9.479856066746078502e-01,6.535779825882434579e+02
-1.826221380152960538e+00,1.504664961808818902e+01,-2.774634826955102884e+00,2.433523343857957599e-01,1.942346744231542854e-01,9.502897098258520359e-01,6.586807004565193893e+02
-2.049083266348863397e+00,1.485023558820305567e+01,-2.721469791154390361e+00,4.349583349331335724e-01,6.133305518079135848e-02,8.983582265523476496e-01,6.617323382391290352e+02
-2.425987788178383564e+00,1.447644207351697965e+01,-2.594052941121162803e+00,5.862974914021309436e-01,-3.733130026566657822e-01,7.189510787413488924e-01,6.668350561074049665e+02
-2.518146366249280899e+00,1.437683305087342411e+01,-2.554022122494658653e+00,5.945752829692506625e-01,-7.168676439223780061e-01,3.641140123356780833e-01,6.680650890504787185e+02
-2.572990571174165630e+00,1.431287451913017961e+01,-2.525297918310493994e+00,7.848338170622873866e-01,-6.189027543873106829e-01,-3.151603091834736387e-02,6.687884314097042306e+02
-2.964112776931223880e+00,1.382714171285228844e+01,-2.288399067221724259e+00,8.206022769587940635e-01,-5.532574367062683685e-01,-1.432344643469414258e-01,6.738911492779801620e+02
-3.353429297162455303e+00,1.331161607829337434e+01,-2.019243231378395897e+00,8.415426683185028844e-01,-4.776149210506764331e-01,-2.523646658837863654e-01,6.789938671462560933e+02
-3.701477845928455412e+00,1.280961141878539955e+01,-1.742349641911211666e+00,8.472766128318404144e-01,-3.933420153582007361e-01,-3.569347283457208198e-01,6.837170244028750403e+02
-4.053100114554148092e+00,1.224325494418608073e+01,-1.415438836316053273e+00,8.336895990543763402e-01,-5.507796085338773073e-01,4.001843639955574711e-02,6.888197422711509716e+02
-4.228812982108560270e+00,1.191460264441908734e+01,-1.218510556444206694e+00,6.679180934672811487e-01,-6.076760286271009059e-01,4.296664574420339666e-01,6.916667660166650649e+02
-4.494808562192820212e+00,1.130364304049644097e+01,-8.401718886221485327e-01,7.087507858428635510e-01,-6.280191683820484094e-01,3.213444378099408194e-01,6.967694838849409962e+02
-4.695941773350382320e+00,1.067048930037091736e+01,-4.373633711915527189e-01,7.397921948913374068e-01,-6.396863226597626628e-01,2.085831176763162653e-01,7.018722017532169275e+02
-4.813409598016657576e+00,1.001263488671851221e+01,-1.348471919176419224e-02,7.606134957420298548e-01,-6.425163163998768301e-01,9.294026713298686460e-02,7.069749196214928588e+02
-4.840225464851315884e+00,9.328250091284456147e+00,4.251610640342671776e-01,7.709270490032318346e-01,-6.364700551452817656e-01,-2.398653827052421236e-02,7.120776374897687901e+02
-4.783324040578873060e+00,8.616176502864799858e+00,8.706920573222229898e-01,7.705903739225740123e-01,-6.216310649337385419e-01,-1.405819857831507314e-01,7.171803553580447215e+02
-4.765740140966698846e+00,8.519814575957022740e+00,9.287436170184654172e-01,7.596081167708166326e-01,-5.982043386844563271e-01,-2.552353386862128426e-01,7.178445399228132828e+02
-4.559149473468991687e+00,7.750369200544996673e+00,1.370548469101628974e+00,7.804291705269700286e-01,-5.864544135760818566e-01,-2.167937512542787715e-01,7.229472577910892142e+02
-4.295883210684139364e+00,6.950132082756051766e+00,1.802653596354596210e+00,7.996508580688812540e-01,-5.735026488419076030e-01,-1.779078889660734297e-01,7.280499756593651455e+02
-3.993285674307093913e+00,6.118404500748773955e+00,2.219661731843727281e+00,8.172337905819869741e-01,-5.593755861795340900e-01,-1.386574379999230278e-01,7.331526935276410768e+02
-3.668625700076607821e+00,5.255460564681642133e+00,2.617006682830824271e+00,8.331419369359317484e-01,-5.441021753283958873e-01,-9.912283146127374989e-02,7.382554113959170081e+02
-3.335217624249118273e+00,4.363160399630408470e+00,2.989896564492970477e+00,8.473426974665735356e-01,-5.277137147782644533e-01,-5.938508466088535803e-02,7.433581292641929394e+02
-3.221580352976697093e+00,4.053059192337450156e+00,3.106220434443339062e+00,8.598069707424136343e-01,-5.102437876759452484e-01,-1.952562920300101451e-02,7.450817012064642313e+02
-2.889710501114064911e+00,3.111145408834622206e+00,3.418818371665154565e+00,8.276475364650333066e-01,-5.503413338927920506e-01,-1.100998255724856822e-01,7.501844190747401626e+02
-2.575558118677500730e+00,2.146682741952991691e+00,3.695501751268475576e+00,7.865116540080485663e-01,-5.844700096364735531e-01,-1.994798885698141067e-01,7.552871369430160939e+02
-2.287731209618986572e+00,1.163365731809550052e+00,3.933008721845406175e+00,7.368454700740537655e-01,-6.122596714581451938e-01,-2.866964386525481800e-01,7.603898548112920253e+02
-2.029716999507528818e+00,1.657010584311428836e-01,4.131351471359840488e+00,6.791876434920791628e-01,-6.334089236254345501e-01,-3.708035603900268762e-01,7.654925726795679566e+02
-1.843631040578464830e+00,-6.544191838626213231e-01,4.262271869681216074e+00,6.141635041489740265e-01,-6.476883864337543706e-01,-4.508890598013629569e-01,7.696479731042927597e+02
-1.645329419296296836e+00,-1.666475255151659285e+00,4.386962514724363160e+00,5.191101916912136405e-01,-6.426842562738723785e-01,-5.634532417334209287e-01,7.747506909725686910e+02
-1.479016434865577656e+00,-2.679052163166590894e+00,4.477141523023294489e+00,4.127761582474585023e-01,-6.237140150022215668e-01,-6.637730566031427859e-01,7.798534088408446223e+02
-1.343619300046327014e+00,-3.686988439205522106e+00,4.535107032102848379e+00,2.974721331073053032e-01,-5.911899060666374606e-01,-7.496684767212326017e-01,7.849561267091205536e+02
-1.234677062675344494e+00,-4.684697167126468997e+00,4.564439441782373486e+00,1.757037670451065681e-01,-5.458187056622747502e-01,-8.192729257062455472e-01,7.900588445773964850e+02
-1.145965993234017599e+00,-5.666479209857725685e+00,4.569361184462457537e+00,5.011718504957516501e-02,-4.885863644960314889e-01,-8.710738385412895024e-01,7.951615624456724163e+02
-1.139047051271531164e+00,-5.750883150999268167e+00,4.567946650015984211e+00,-7.655851319102920105e-02,-4.207365837812211407e-01,-9.039455299550178680e-01,7.956096880932685735e+02
-1.066612059405361634e+00,-6.688326036897499272e+00,4.533108992249800906e+00,-1.869330385127866700e-01,-4.549690593243395642e-01,-8.706648001204947418e-01,8.007124059615445049e+02
-1.002713079716310185e+00,-7.598598415483606594e+00,4.481897898121048662e+00,-2.946041031910049401e-01,-4.826217502443302387e-01,-8.247925003134328747e-01,8.058151238298204362e+02
-9.466256868095838106e-01,-8.476975597511787086e+00,4.416187634957803532e+00,-3.980145824334291871e-01,-5.032947504926775784e-01,-7.669920379613300865e-01,8.109178416980963675e+02
-8.994777529738618993e-01,-9.318920484286847383e+00,4.337069073701528943e+00,-4.956689674679634061e-01,-5.166890908902466162e-01,-6.980993181799991509e-01,8.160205595663722988e+02
-8.651244745303190431e-01,-1.004984296606660799e+01,4.253620375586373292e+00,-5.861549906958158918e-01,-5.226110621071355933e-01,-6.191106562194924612e-01,8.206767168190084476e+02
-8.378385686981570935e-01,-1.080555316270850241e+01,4.150879615164624781e+00,-4.587367083128180978e-01,-5.835214793265420807e-01,-6.701203739707050078e-01,8.257794346872843789e+02
-8.221186966884388436e-01,-1.151144649355682859e+01,4.037912954023138212e+00,-3.209750722046316174e-01,-6.312749181514640817e-01,-7.060205243022171784e-01,8.308821525555603102e+02
-8.210333083660695808e-01,-1.216328610126264387e+01,3.915887610890202097e+00,-1.759762516298233603e-01,-6.647946682522911654e-01,-7.260016583490138675e-01,8.359848704238362416e+02
-8.422800008780765291e-01,-1.275755684368880694e+01,3.786117442098642538e+00,-2.700959079122288581e-02,-6.833249465154539459e-01,-7.296132533573319590e-01,8.410875882921121729e+02
-8.828375688500837981e-01,-1.317196412057163357e+01,3.680354603474597752e+00,1.225661009792127221e-01,-6.864479368222045075e-01,-7.167738701450738770e-01,8.450502774749064656e+02
-9.747986914554526150e-01,-1.364178856209671586e+01,3.538977614604238209e+00,3.973839334888032426e-01,-5.008949431009500630e-01,-7.688876806018964949e-01,8.501529953431823969e+02
-1.116467500457618778e+00,-1.404415005992934518e+01,3.393709167430260631e+00,6.274281593197489348e-01,-2.589057395931893546e-01,-7.343702900437589776e-01,8.552557132114583283e+02
-1.316876088278006396e+00,-1.437752996402725181e+01,3.245741017446440502e+00,7.867795467998730530e-01,1.225456046299735688e-02,-6.171108251245321918e-01,8.603584310797342596e+02
-1.449344324411778295e+00,-1.451271806321110347e+01,3.169760924229255927e+00,8.574838695774842368e-01,2.820341397807065720e-01,-4.303209934608405174e-01,8.629342386695808500e+02
-1.769123422704470538e+00,-1.471997020831533654e+01,3.014744527445304634e+00,7.668417202561805812e-01,4.483808204526861796e-01,-4.592454854704920431e-01,8.680369565378567813e+02
-2.136224905970235621e+00,-1.487238773758379651e+01,2.851541165043885773e+00,6.480381519868824158e-01,5.982611874391412510e-01,-4.713046840141515981e-01,8.731396744061327126e+02
-2.538537657107312384e+00,-1.497777482794372617e+01,2.675974336702526379e+00,5.054360842597220849e-01,7.261710680025540432e-01,-4.660557313503166377e-01,8.782423922744086440e+02
-2.963353558463824200e+00,-1.504303961723084804e+01,2.483951359604349207e+00,3.442724000897926517e-01,8.274131193947217300e-01,-4.436913841736715991e-01,8.833451101426845753e+02
-3.200379815981984066e+00,-1.505979198196752300e+01,2.368370713787971038e+00,1.704656370747681393e-01,8.982693286502297925e-01,-4.050329366640479933e-01,8.861277674418493007e+02
-3.633336553952847492e+00,-1.505900463453941995e+01,2.133530961042994001e+00,5.867500627030058924e-02,9.516565172722452060e-01,-3.015047541451069124e-01,8.912304853101252320e+02
-4.051625231798793969e+00,-1.502929090730332184e+01,1.872374593765173234e+00,-5.464499599984792150e-02,9.802383250638588841e-01,-1.901177279686298849e-01,8.963332031784011633e+02
-4.440572017937082450e+00,-1.497521249131315813e+01,1.581063533064454685e+00,-1.665406456883429809e-01,9.832697661871866446e-01,-7.377520068195164704e-02,9.014359210466770946e+02
-4.785606313416387536e+00,-1.490167954518660132e+01,1.255761874812882928e+00,-2.740953456642422070e-01,9.606718236562585833e-01,4.449032161899306448e-02,9.065386389149530260e+02
-5.011230014998579563e+00,-1.483292176584415323e+01,9.709353617879930010e-01,-3.745056432194762697e-01,9.130335091560463079e-01,1.615962077348775672e-01,9.105434102222230877e+02
-5.230442940093122495e+00,-1.473495115550934109e+01,5.692331385329965077e-01,-3.468713839342482119e-01,8.979958788893193100e-01,2.707058265017338594e-01,9.156461280904990190e+02
-5.374128352941516695e+00,-1.462788927723036636e+01,1.318503514665186893e-01,-3.147643271867555104e-01,8.713788559862765126e-01,3.763247369858523372e-01,9.207488459587749503e+02
-5.401330223118814722e+00,-1.457894118075357248e+01,-6.438350995087242790e-02,-2.785984717673423705e-01,8.335256514232216585e-01,4.770910604327239235e-01,9.228909053869982699e+02
-5.389097747340192868e+00,-1.444704449180040129e+01,-5.530258511706048763e-01,-2.314412577490534972e-01,8.207173627274412242e-01,5.223561569677125371e-01,9.279936232552742013e+02
-5.305575090971915486e+00,-1.428832981878585251e+01,-1.048708748277382030e+00,-1.832572000794954747e-01,8.042677260248087823e-01,5.653036559998418920e-01,9.330963411235501326e+02
-5.190775427058295755e+00,-1.412967335855103634e+01,-1.426219916505641727e+00,-1.342600603524815028e-01,7.842497182672919509e-01,6.057430276811401892e-01,9.370807486005321607e+02
-4.989832592984003057e+00,-1.386002852874284130e+01,-1.873684950356150569e+00,-2.207126772809561363e-03,7.763851315525269747e-01,6.302533269207012401e-01,9.421834664688080920e+02
-4.746173722357367453e+00,-1.351213228346454898e+01,-2.265081661390583978e+00,1.298857230268782859e-01,7.544675001223259958e-01,6.433556483098112899e-01,9.472861843370840234e+02
-4.471896314268401618e+00,-1.309137580211206497e+01,-2.590530557758127905e+00,2.596275582713021834e-01,7.188935475007329767e-01,6.448128397814270052e-01,9.523889022053599547e+02
-4.363399971402126098e+00,-1.291201765101695997e+01,-2.684997410738574342e+00,3.846700014218720765e-01,6.703071722629418971e-01,6.345985225461316936e-01,9.542783250778740012e+02
-4.060078099935198637e+00,-1.237221409732538469e+01,-2.866212410386111742e+00,3.627121756489141147e-01,5.319990976032088481e-01,7.651240669233971836e-01,9.593810429461499325e+02
-3.755401597942591874e+00,-1.179119551299380397e+01,-2.978976383130130134e+00,3.274615833799807141e-01,3.741941967594087926e-01,8.676091369515624985e-01,9.644837608144258638e+02
-3.462367511529826469e+00,-1.118776894231485208e+01,-3.042653131788210619e+00,2.802100891179921116e-01,2.026757094017468397e-01,9.382978539753401570e-01,9.695864786827017952e+02
-3.355340763326053466e+00,-1.094363181578126110e+01,-3.055247717252778550e+00,2.226893612497120034e-01,2.372944959641140258e-02,9.745995903997556331e-01,9.716224547865216437e+02
-3.121089045269713314e+00,-1.033352455414356541e+01,-3.064434508138988988e+00,4.087682363551123910e-01,1.721560825968955488e-01,8.962526497432306005e-01,9.767251726547975750e+02
-2.928679703252905053e+00,-9.737388668360599908e+00,-3.061431155594906084e+00,5.691788040427113726e-01,3.097722789465229276e-01,7.616263022142951700e-01,9.818278905230735063e+02
-2.850526164042621602e+00,-9.419472388634666515e+00,-3.057605611280679980e+00,6.938482847759891436e-01,4.279365999358687445e-01,5.791742606058132292e-01,9.846617216642423500e+02
-2.767716470850041244e+00,-8.878494019559381556e+00,-3.052677395572867436e+00,5.691305611300347955e-01,6.455322935291777364e-01,5.092901554111781692e-01,9.897644395325182813e+02
-2.745642076005968768e+00,-8.376919087431028643e+00,-3.056161563905762879e+00,4.058335990315768971e-01,8.193697052814684634e-01,4.048831633495947324e-01,9.948671574007942127e+02
-2.757064201937539760e+00,-8.247912969123344595e+00,-3.061141250755482712e+00,2.150266353739734571e-01,9.376650962409276424e-01,2.730306088532626907e-01,9.963080721445891186e+02
-2.796304014067117372e+00,-8.090780794182053981e+00,-3.074312195982915163e+00,1.514945898399998603e-01,9.258325967824950764e-01,3.462389232395087779e-01,9.982628499524549852e+02
-2.955683447940693931e+00,-7.726988344081503257e+00,-3.125614272074082933e+00,1.544973378698918931e-01,9.729311050038422781e-01,1.718535350427152220e-01,1.003365567820730917e+03
-3.163791893235435193e+00,-7.408080282635659763e+00,-3.191101004666455854e+00,1.524576617597621919e-01,9.882754626038907642e-01,-8.140723884387532708e-03,1.008468285689006848e+03
-3.410995276698050915e+00,-7.131616877189281389e+00,-3.263575636811617997e+00,1.454421310929446820e-01,9.713648689765790323e-01,-1.878693104809197600e-01,1.013571003557282779e+03
-3.485079007159745945e+00,-7.069064109440157395e+00,-3.282666431568100229e+00,1.336797113889257871e-01,9.227512207097997576e-01,-3.614663462072875144e-01,1.014927113146262741e+03
-3.788875952428256699e+00,-6.872894278227918541e+00,-3.347912994762550998e+00,1.865259033610468242e-02,7.764962456452393358e-01,-6.298441564170005336e-01,1.020029831014538672e+03
-4.108697170073115856e+00,-6.712824256286895164e+00,-3.399822074460356003e+00,-9.836375718160134118e-02,5.474291261273170894e-01,-8.310498920888605978e-01,1.025132548882814717e+03
-4.368408729387806666e+00,-6.613603706656703274e+00,-3.425540072604090547e+00,-2.048897462639879818e-01,2.599795193903620127e-01,-9.436253713066626858e-01,1.029186408249044007e+03
-4.694426960438192076e+00,-6.524128550872180021e+00,-3.433412294874785609e+00,-8.949623628123655472e-02,1.445886636933352565e-01,-9.854352043752085955e-01,1.034289126117319938e+03
-5.011566647019774834e+00,-6.471973990326580939e+00,-3.411521780095110756e+00,2.843712049408121667e-02,2.509450158475859394e-02,-9.992795385510551132e-01,1.039391843985595870e+03
-5.312250351917971791e+00,-6.460572874718470970e+00,-3.358164248542161445e+00,1.455635415732819404e-01,-9.511189344890165487e-02,-9.847654457214805035e-01,1.044494561853871801e+03
-5.499869531268229750e+00,-6.483006454807377139e+00,-3.304427750056472046e+00,2.585591242122700084e-01,-2.126192163111812194e-01,-9.423047533249040431e-01,1.047937477491331720e+03
-5.750355486117413761e+00,-6.564096821107431090e+00,-3.206697772582422612e+00,5.445326994666381815e-01,9.931360629536920004e-02,-8.328378874753172845e-01,1.053040195359607651e+03
-5.968028617084576659e+00,-6.696111194658407761e+00,-3.099855249370544463e+00,7.264643396917835894e-01,3.922708033309105224e-01,-5.642439011715999486e-01,1.058142913227883582e+03
-6.148530228485237892e+00,-6.883002297323371543e+00,-2.993916725293486181e+00,7.695932654475711177e-01,6.102781593951621675e-01,-1.878424178482139550e-01,1.063245631096159514e+03
-6.244067833791792310e+00,-7.048065404533596201e+00,-2.928255895171028467e+00,6.656793948829248242e-01,7.116822221431503559e-01,2.244490096083707475e-01,1.066707081701501465e+03
-6.343078419334521101e+00,-7.343020517042337048e+00,-2.844770419117027327e+00,5.140278836255116612e-01,7.640364249610627212e-01,3.898995719267893678e-01,1.071809799569777397e+03
-6.397175961088255036e+00,-7.680359555576355746e+00,-2.776905271251284280e+00,3.350747607051063892e-01,7.758102565884232860e-01,5.346413288469114011e-01,1.076912517438053328e+03
-6.402073490276614542e+00,-8.050365517762168466e+00,-2.727191262750087386e+00,1.383247744144936731e-01,7.463783816220679324e-01,6.509866114068277865e-01,1.082015235306329259e+03
-6.355326829236997099e+00,-8.442943065931043378e+00,-2.696734395415839369e+00,-6.577208859671597463e-02,6.773040127460489002e-01,7.327559666629424040e-01,1.087117953174605191e+03
-6.307099245215622041e+00,-8.640991768368344594e+00,-2.690621467208707429e+00,-2.663756216271255806e-01,5.722558870551041066e-01,7.756063614577707321e-01,1.089610721660217450e+03
-6.158916606653796144e+00,-9.050759109541363756e+00,-2.693694765769171440e+00,-3.032413599661051840e-01,4.221242070931754964e-01,8.543148315417811167e-01,1.094713439528493382e+03
-5.965394481759924261e+00,-9.455171057237135912e+00,-2.709567687446357898e+00,-3.309814451713546934e-01,2.592892709647685590e-01,9.073138139118834822e-01,1.099816157396769313e+03
-5.729375243010820462e+00,-9.842554904261344717e+00,-2.735071311549667428e+00,-3.487610794331423292e-01,8.865137845338348643e-02,9.330083829052564504e-01,1.104918875265045244e+03
-5.453403996195554271e+00,-1.020117045747137219e+01,-2.767036018566546574e+00,-3.560452104312170074e-01,-8.465435530843196110e-02,9.306252996006744160e-01,1.110021593133321176e+03
-5.139727974813582456e+00,-1.051921544086868465e+01,-2.802291719004445625e+00,-3.526146323379455438e-01,-2.554125317372766824e-01,9.002362799250139824e-01,1.115124311001597107e+03
-4.790295972681001047e+00,-1.078483090691914370e+01,-2.837668082302585049e+00,-3.385725823687780744e-01,-4.184844162558764014e-01,8.427558364197358376e-01,1.120227028869873038e+03
-4.738311628801082698e+00,-1.081217944589845281e+01,-2.842107703854434231e+00,-3.143416344088943437e-01,-5.689625790226602309e-01,7.599137586261517363e-01,1.120916268133958056e+03
-4.321701383731602952e+00,-1.094943529937055438e+01,-2.868867712632197975e+00,-2.569017036215208161e-01,-5.717870151256411182e-01,7.791399899918404204e-01,1.126018986002233987e+03
-3.882919597930118982e+00,-1.102481435679017885e+01,-2.885306978702419922e+00,-1.985171618612951161e-01,-5.725090027800660009e-01,7.955013376335645647e-01,1.131121703870509918e+03
-3.433079769713664131e+00,-1.103817669979120097e+01,-2.893052300400639432e+00,-1.394026735431732889e-01,-5.711258878358416169e-01,8.089376458337405040e-01,1.136224421738785850e+03
-3.031724335949212534e+00,-1.099287049924576642e+01,-2.899737136654961578e+00,-7.977558647607839448e-02,-5.676427544877307163e-01,8.193995112726450980e-01,1.140774273705619635e+03
-2.591641366579817696e+00,-1.087811086864549459e+01,-2.916999529582238182e+00,3.274625221376366996e-02,-3.278508162123224823e-01,9.441607518188447346e-01,1.145876991573895566e+03
-2.172085268898374277e+00,-1.070507941025320342e+01,-2.953724817102790112e+00,1.424608379880181463e-01,-5.995330111774008208e-02,9.879820399811003462e-01,1.150979709442171497e+03
-1.783959996240639390e+00,-1.048156564767675825e+01,-3.019607848092642044e+00,2.399627014959524740e-01,2.130838092862508415e-01,9.471067480021311269e-01,1.156082427310447429e+03
-1.574950266633822649e+00,-1.031970657989748474e+01,-3.082272457616100247e+00,3.168933281565239901e-01,4.678539436444322241e-01,8.250389724045817941e-01,1.159163147939665123e+03
-1.278481313426164556e+00,-1.001317220303716482e+01,-3.229953544918276798e+00,3.291855783491255405e-01,4.111858307301702320e-01,8.500359213635787503e-01,1.164265865807941054e+03
-1.037885950008916369e+00,-9.676432118273103455e+00,-3.424845692348330140e+00,3.401652871346017570e-01,3.528782416486710982e-01,8.716435762365633000e-01,1.169368583676216986e+03
-8.601457620758352629e-01,-9.317883443075002603e+00,-3.669455642890111946e+00,3.497886792125424749e-01,2.931636484413279176e-01,8.897757892424977832e-01,1.174471301544492917e+03
-8.577922083263231912e-01,-9.310442171261675171e+00,-3.675289549137195078e+00,3.580173859044675222e-01,2.322801317519075648e-01,9.043602665851169231e-01,1.174572544216097185e+03
-7.985997977644508916e-01,-8.922141406024801213e+00,-4.017673986959812815e+00,2.822564690404805177e-01,4.640366499006591261e-01,8.396423484044220897e-01,1.179675262084373117e+03
-8.036511199012033035e-01,-8.525060189523482990e+00,-4.405605369966568929e+00,1.885329516842824404e-01,6.662621583236393308e-01,7.214901679964225156e-01,1.184777979952649048e+03
-8.675840152123558413e-01,-8.124584791649693827e+00,-4.832536188015950529e+00,8.281132078031371024e-02,8.260872027674188711e-01,5.574228364309748995e-01,1.189880697820924979e+03
-9.059456101438586595e-01,-7.996635024349212806e+00,-4.979994096955087102e+00,-2.818039070794294693e-02,9.333406324817511424e-01,3.578814459259624936e-01,1.191515502964395637e+03
-1.076611160031958558e+00,-7.599898103613007549e+00,-5.467791896250496109e+00,-4.265517949609016340e-02,8.894782927801671013e-01,4.549801120190745118e-01,1.196618220832671568e+03
-1.289405767309365070e+00,-7.205871815076283937e+00,-5.974657226295637003e+00,-5.663680312224632363e-02,8.353321756552952726e-01,5.468184605927682851e-01,1.201720938700947499e+03
-1.535624702311933820e+00,-6.815589026200125744e+00,-6.490453662519079181e+00,-6.996361522984589909e-02,7.715282868973640795e-01,6.323347175816129706e-01,1.206823656569223431e+03
-1.672097638405514841e+00,-6.623399275582664281e+00,-6.748191459821576643e+00,-8.248153948788540524e-02,6.988042824303030143e-01,7.105401962579173114e-01,1.209372830102821126e+03
-1.965783030495112049e+00,-6.245251994526163308e+00,-7.256631707944897869e+00,-5.427587960420169333e-01,6.909753749188363159e-01,4.774556739374313241e-01,1.214475547971097058e+03
-2.271267887953137610e+00,-5.873213896735564710e+00,-7.748001402955258854e+00,-8.585290374038562211e-01,4.991774690093145894e-01,1.172507840830930015e-01,1.219578265839372989e+03
-2.403881298497100527e+00,-5.717213017108806916e+00,-7.945955133827392380e+00,-9.457198907358076445e-01,1.744758639663387123e-01,-2.741715907239052896e-01,1.221754794283229785e+03
-2.713810175098663624e+00,-5.356373771401232275e+00,-8.373643067078884172e+00,-9.818606389205243312e-01,7.517211860829266235e-02,-1.740598699338211097e-01,1.226857512151505716e+03
-3.014399133776197726e+00,-4.999013121450431640e+00,-8.754231838995245596e+00,-9.971959690199242443e-01,-2.572449240032538206e-02,-7.025987375490803932e-02,1.231960230019781648e+03
-3.298230388559391546e+00,-4.647052422495400847e+00,-9.075956759614143721e+00,-9.914009345780494531e-01,-1.260760149236753724e-01,3.502892201362100416e-02,1.237062947888057579e+03
-3.312180129176154786e+00,-4.628970262497604793e+00,-9.089405311753022687e+00,-9.645983177539978470e-01,-2.237560431541963657e-01,1.395754940396959354e-01,1.237332328512091181e+03
-3.553304803376877707e+00,-4.297718875448985898e+00,-9.271167821113058594e+00,-9.674136069465295584e-01,6.624097635592940403e-02,2.443788987310133720e-01,1.242435046380367112e+03
-3.765187277516100384e+00,-3.980954750089709560e+00,-9.372235858922977059e+00,-8.782373911791534482e-01,3.499391497811663032e-01,3.259442838640081996e-01,1.247523903139578806e+03
-3.827270460254065920e+00,-3.880629130711170660e+00,-9.377797918355115669e+00,-7.823787992860591345e-01,4.843410131754118941e-01,3.915293058945169546e-01,1.249242141474109303e+03
-3.987244414349906840e+00,-3.606208010602835579e+00,-9.309832267376785708e+00,-7.276699938657354982e-01,-1.041567205500550236e-01,6.779717970463999821e-01,1.254344859342385234e+03
-4.129818747399507828e+00,-3.357297907399210857e+00,-9.161684565729087737e+00,-3.590637117947146351e-01,-6.477244713706746815e-01,6.719555491680034853e-01,1.259447577210661166e+03
-4.254679465730807131e+00,-3.154871229940823696e+00,-8.960855098259758122e+00,1.644332459541342217e-01,-9.118810304389747268e-01,3.760753833327627471e-01,1.264106096728943839e+03
-4.397424376170283367e+00,-2.960598295916857747e+00,-8.678889630198453276e+00,2.490889534487518153e-01,-7.750752012030234228e-01,5.806988253377065590e-01,1.269208814597219771e+03
-4.555226717865425989e+00,-2.792279448923038032e+00,-8.344815886085857670e+00,3.168680096185843009e-01,-5.857556420178674506e-01,7.459778765647087084e-01,1.274311532465495702e+03
-4.704102609794068357e+00,-2.670644179420791797e+00,-8.030442791468560770e+00,3.631782286374851676e-01,-3.567493843955683031e-01,8.607145002710046011e-01,1.278571302737332417e+03
-4.906479249477274429e+00,-2.543214948669129338e+00,-7.620484893784949421e+00,5.224397894550119048e-01,-4.359302499562468514e-01,7.328161321679301787e-01,1.283674020605608348e+03
