9.578702965840387051e+00,-1.091935819573106770e+01,-2.754315649244282849e+00,-4.471840724463355676e-01,-1.800537419603370215e-01,8.761307296039912984e-01,1.584237677530300346e+02
9.011281568153529875e+00,-1.153085371647284951e+01,-3.128886456967066909e+00,-2.105078863490317254e-01,-3.376127484471166951e-02,9.770079867154648490e-01,1.635264856213060227e+02
8.739799937560313481e+00,-1.186429463083337588e+01,-3.210860205364552744e+00,4.460741667258877330e-02,1.154884573686707078e-01,9.923056961402948462e-01,1.663264260758911064e+02
8.371461111626150142e+00,-1.242830801322891965e+01,-3.196797875201938588e+00,-8.515746417354663755e-02,1.855113022320990790e-01,9.789442083375120562e-01,1.714291439441670946e+02
8.217426107912698896e+00,-1.292743890654152317e+01,-2.966218206332202900e+00,-2.130556040287072406e-01,2.514675950381536351e-01,9.441235926697273406e-01,1.765318618124430827e+02
8.218329615920664466e+00,-1.318979891591675724e+01,-2.763761907190067202e+00,-3.362834411596202222e-01,3.119115563002809455e-01,8.886071281762762952e-01,1.794648759035239607e+02
8.397639209225703283e+00,-1.360471750924711465e+01,-2.328774044268021370e+00,-1.848716590348693511e-01,5.139054764843580259e-01,8.376882659585902502e-01,1.845675937717999489e+02
8.664804708522074961e+00,-1.398383576206043521e+01,-1.777263031091962597e+00,-2.119922496053382871e-02,6.818171974333639973e-01,7.312139920329564502e-01,1.896703116400759370e+02
8.674591983359276171e+00,-1.400061066032804646e+01,-1.749817028026898313e+00,1.438791771866405611e-01,8.045108818819665109e-01,5.762456275797467331e-01,1.898994675367348748e+02
8.723674963407351157e+00,-1.409208890744971043e+01,-1.599216447646950368e+00,1.242567406232430310e-01,6.308559295935385336e-01,7.658844942290893298e-01,1.911467155104153335e+02
8.741401378485836204e+00,-1.438123529904173203e+01,-8.778833527719646090e-01,-3.764414530290551009e-02,7.562231919754649478e-01,6.532284456763618463e-01,1.962494333786913216e+02
8.703567377858995258e+00,-1.442913450022039434e+01,-6.692392033564323883e-01,-1.974889185653241896e-01,8.402852943573750899e-01,5.048928115233192182e-01,1.975325835370915115e+02
8.613921666877848438e+00,-1.446049701486889383e+01,1.811517118473386367e-01,-2.516104003361648300e-01,7.314017947842887946e-01,6.338309088608280462e-01,2.026353014053674997e+02
8.778274452786199333e+00,-1.431575657628282805e+01,8.255699326747302225e-01,-2.978288220998968061e-01,5.995451305191978886e-01,7.428604372261512490e-01,2.077380192736434878e+02
9.017054847363006331e+00,-1.422219063854625354e+01,1.012138388425929847e+00,-3.346924943270626063e-01,4.488568539651484612e-01,8.285568531416025451e-01,2.106030028449035569e+02
9.634290206156107317e+00,-1.404793944283541762e+01,1.079094260602491362e+00,-5.963898713648128069e-01,4.826906566404000065e-01,6.413476836519634849e-01,2.157057207131795451e+02
1.037129979347041342e+01,-1.379810485273990572e+01,9.554135587673242558e-01,-7.956585123140547111e-01,4.659974992552063933e-01,3.870036982642771628e-01,2.208084385814555333e+02
1.098140274723718512e+01,-1.337357951714861315e+01,9.471710252529870200e-01,-9.116394395018327934e-01,4.005247721226967705e-01,9.214900575051170051e-02,2.259111564497315214e+02
1.111819150409788648e+01,-1.321418457909683930e+01,9.889129721908648252e-01,-9.321919928746482675e-01,2.931259851645078851e-01,-2.123517017625770054e-01,2.273938973369207019e+02
1.141535648685145787e+01,-1.260518936234739584e+01,1.325173395602434301e+00,-9.306387624663265967e-01,2.328711195861023486e-01,-2.822774086831253415e-01,2.324966152051966901e+02
1.142862506611161599e+01,-1.201023039389547975e+01,1.966044185536716338e+00,-9.211539968574129489e-01,1.706315853784592107e-01,-3.497973358102033914e-01,2.375993330734726783e+02
1.124660227424364933e+01,-1.165964881085481508e+01,2.756216107844688068e+00,-9.038185291587549353e-01,1.069378034701216756e-01,-4.143360623129394016e-01,2.423669567763948578e+02
1.090040789874803373e+01,-1.162899436737775538e+01,3.717207341244462171e+00,-7.476416041260817158e-01,1.037734511310560159e-01,-6.559429110983548972e-01,2.474696746446708460e+02
1.044188378183942234e+01,-1.189260150366020419e+01,4.709250169503149230e+00,-5.295784776880743117e-01,9.201922502488539546e-02,-8.432538752923470771e-01,2.525723925129468341e+02
9.922511106335312192e+00,-1.228289088361250592e+01,5.634048933661967240e+00,-2.676793671124051976e-01,7.264808502807464097e-02,-9.607642854333026117e-01,2.576751103812227939e+02
9.777270389690590591e+00,-1.239358978897594632e+01,5.866477874752821897e+00,1.637700509138683563e-02,4.726347837480965319e-02,-9.987471938964675999e-01,2.590543606268399799e+02
9.223140275111989084e+00,-1.275555109711076973e+01,6.600171051934371036e+00,2.059524167126066882e-02,2.917348347808048845e-02,-9.993611678711891155e-01,2.641570784951159681e+02
8.621511473798657121e+00,-1.299344193273573111e+01,7.047148605028378476e+00,2.480636358325249285e-02,1.107341442366652912e-02,-9.996299434217278401e-01,2.692597963633919562e+02
8.595407717230697742e+00,-1.299998024099813598e+01,7.058670269265874708e+00,2.900891809384047518e-02,-7.030484719025771254e-03,-9.995534277474542595e-01,2.694701935292031294e+02
7.925575933515704108e+00,-1.307201107163103160e+01,7.166675078145595457e+00,-8.979337664383860856e-03,4.587515995084386761e-03,-9.999481617499075270e-01,2.745729113974791176e+02
7.189297048819749847e+00,-1.299382938508286678e+01,6.976359360365132822e+00,-4.695341274931173065e-02,1.619827371047555947e-02,-9.987647335359356449e-01,2.796756292657551057e+02
6.399144294718936088e+00,-1.281043934435542475e+01,6.575444555009480219e+00,-8.485337783461821548e-02,2.778346474660344304e-02,-9.960050117102652312e-01,2.847783471340310939e+02
5.566895691692614001e+00,-1.256729524160090783e+01,6.051667298163661890e+00,-1.226194206207799897e-01,3.932480579173256580e-02,-9.916733521333236379e-01,2.898810650023070821e+02
4.703529621477652078e+00,-1.231028511686397486e+01,5.492773089078803572e+00,-1.601919401704287593e-01,5.080408273920192230e-02,-9.857765910573743628e-01,2.949837828705830702e+02
3.819220518821472954e+00,-1.208571431372071991e+01,4.986509955875628286e+00,-1.975116409106036364e-01,6.220317941460315470e-02,-9.783240343417054508e-01,3.000865007388590584e+02
3.020974972222475241e+00,-1.194561422255519645e+01,4.642079234894104900e+00,-2.345196261540458682e-01,7.350410614871279169e-02,-9.693274427781151115e-01,3.046363360441407622e+02
2.123046877452014147e+00,-1.190046695232046758e+01,4.458754186593652413e+00,-3.313039523067863867e-01,4.629823545535418500e-02,-9.423864199868751124e-01,3.097390539124167503e+02
1.288833211438656701e+00,-1.195982272065568885e+01,4.506372385793690150e+00,-4.244991812689105082e-01,1.859081055056701140e-02,-9.052363375721736993e-01,3.148417717806927385e+02
8.333607125022217677e-01,-1.200425379062321163e+01,4.605455395871610236e+00,-5.130957494275956154e-01,-9.318020398647907862e-03,-8.582796318279182213e-01,3.181628790913359808e+02
4.735381727205149049e-01,-1.191648426650871428e+01,4.685809829452536768e+00,-4.614487090317571094e-01,1.121333653875887237e-01,-8.800506788231488020e-01,3.232655969596119689e+02
6.453125370785927073e-01,-1.154748624384049904e+01,4.574698260844278330e+00,-4.015455023934064727e-01,2.315784494093285073e-01,-8.860759737596504149e-01,3.283683148278879571e+02
1.023152235844040803e+00,-1.112525108028806820e+01,4.372266421406813208e+00,-3.344578844818776320e-01,3.468801868817948386e-01,-8.762477158051000803e-01,3.321363363200186996e+02
1.628606052813848848e+00,-1.044652032660875385e+01,3.989263476225219929e+00,-4.040065911775754803e-01,3.849473919693393031e-01,-8.298145453631216029e-01,3.372390541882946877e+02
2.171588274414101960e+00,-9.719023208220278320e+00,3.487797204519741179e+00,-4.701445816943291556e-01,4.197647897477622680e-01,-7.763759357338606559e-01,3.423417720565706759e+02
2.383699263902307131e+00,-9.374532554737669443e+00,3.207726719276621896e+00,-5.323135356198724910e-01,4.510384605263496050e-01,-7.163830029506728092e-01,3.448145525317626152e+02
2.643046731227292057e+00,-8.772814819419712862e+00,2.514676447759319977e+00,-5.071551174441525367e-01,-5.847312281367623293e-02,-8.598677693451761694e-01,3.499172704000386034e+02
2.608403587025333703e+00,-8.304426987906039059e+00,1.655116366940988737e+00,-3.395756437334007116e-01,-5.515641042135468464e-01,-7.618815007113255433e-01,3.550199882683145916e+02
2.590660846635591152e+00,-8.261162087070704985e+00,1.562009600494631556e+00,-7.663535739603323516e-02,-8.897629444291141887e-01,-4.499410235993373530e-01,3.555309778770503613e+02
2.351177586614193515e+00,-7.672873199061850613e+00,6.493102417766418721e-01,-4.799628646997001757e-01,-6.924180640594831404e-01,-5.386936727617366305e-01,3.606336957453263494e+02
2.077485426124694445e+00,-6.777735362049479129e+00,-1.469854281442059818e-01,-7.827402641188451193e-01,-3.500147487687869652e-01,-5.145924159679354792e-01,3.657364136136023376e+02
1.974031881880219830e+00,-6.290416938426633742e+00,-4.541744364992199023e-01,-9.215371214961740609e-01,6.571507407839338732e-02,-3.826863764802220791e-01,3.681045877814036089e+02
1.875999211833600189e+00,-5.281550724356851134e+00,-9.548060828908657705e-01,-9.419593087953975763e-01,6.943941857144333984e-02,-3.284643477050062099e-01,3.732073056496795971e+02
1.936126673510015328e+00,-4.398640396891616788e+00,-1.312018725568298239e+00,-9.592061739813110277e-01,7.292968388966490634e-02,-2.731350892782600237e-01,3.783100235179555852e+02
1.960579605253193636e+00,-4.234546570062097892e+00,-1.382341019636665003e+00,-9.732195863196317909e-01,7.617410601457293151e-02,-2.168850902378383350e-01,3.793598141183315420e+02
2.109106219748734024e+00,-3.462541804123393963e+00,-1.687524989116695240e+00,-9.547389721374549554e-01,-8.483936490445242659e-03,-2.973205642026897078e-01,3.844625319866075301e+02
2.134638787175110242e+00,-3.354405361120306406e+00,-1.725324864644336209e+00,-9.229126250637961215e-01,-9.302338580890606723e-02,-3.735999681267193617e-01,3.851959836842198115e+02
2.363813682214583434e+00,-2.538726833978552477e+00,-1.812525800098361506e+00,-9.768446344016681326e-01,-1.088612307180500116e-01,-1.841786977013159243e-01,3.902987015524957997e+02
2.656239952329690013e+00,-1.647719712806897441e+00,-1.596486731274960436e+00,-9.926406347806460140e-01,-1.204491326563457143e-01,1.243288479597456572e-02,3.954014194207717878e+02
2.937146387586669238e+00,-7.762650710610748961e-01,-1.159867825758344129e+00,-9.696839549567392025e-01,-1.273347026333953302e-01,2.085591067401667831e-01,4.005041372890477760e+02
3.057279091972798568e+00,-3.751824496178777224e-01,-8.967926506982173418e-01,-9.088707963532123291e-01,-1.292491264969725662e-01,3.965432370312146904e-01,4.029835074213354460e+02
3.256996785743821121e+00,3.984195597924568011e-01,-2.952507143449528138e-01,-9.533841394240222256e-01,-1.106633568244702326e-01,2.807317298607459599e-01,4.080862252896114342e+02
3.384651906707499158e+00,1.111693187878383338e+00,3.717713488012790446e-01,-9.828919702962063409e-01,-9.033583732551198064e-02,1.605017483444549087e-01,4.131889431578874223e+02
3.451183562345355949e+00,1.799067449874113489e+00,1.055526339569607730e+00,-9.969298671484309038e-01,-6.858650637312103948e-02,3.774561074751035805e-02,4.182916610261634105e+02
3.468102593629770247e+00,2.494517964685122102e+00,1.707265850447229560e+00,-9.952768890745216090e-01,-4.575767985646173042e-02,-8.560460739974293243e-02,4.233943788944393987e+02
3.447486885192402539e+00,3.231555494426548325e+00,2.278243784359105906e+00,-9.779590528545292205e-01,-2.220866364711645072e-02,-2.076074810756818600e-01,4.284970967627153868e+02
3.401976593591013565e+00,4.043214552508616499e+00,2.719719873332661297e+00,-9.452489234455355716e-01,1.689901281406445185e-03,-3.263427905719693545e-01,4.335998146309913750e+02
3.390595184799346740e+00,4.224523432333396222e+00,2.795709352665761482e+00,-8.976613246411779823e-01,2.556187212188992114e-02,-4.399417426619982585e-01,4.346758570963635862e+02
3.353550947839275764e+00,4.825727170400592847e+00,3.006421075709968971e+00,-9.268580373484289758e-01,3.031581878077551154e-02,-3.741832835771124466e-01,4.381166199131892540e+02
3.261646284346114477e+00,5.824521507235495221e+00,3.220698892197377816e+00,-8.857695563198101363e-01,1.164493675096825616e-02,-4.639770344936903768e-01,4.432193377814652422e+02
3.116125333843428269e+00,6.739418789887190009e+00,3.358569042426469142e+00,-8.357349758924598193e-01,-7.143557315354879395e-03,-5.490847108150789246e-01,4.473147056441579821e+02
2.776565829973264510e+00,8.024045704801974210e+00,3.573419688793909366e+00,-7.241978607142322000e-01,-2.687300519402525678e-01,-6.350744977726504592e-01,4.524174235124339702e+02
2.235778239859675942e+00,9.425443440806533957e+00,3.810209194248698417e+00,-5.487412972293735924e-01,-5.065977504838811152e-01,-6.650110584944394221e-01,4.575201413807099584e+02
1.506251369168711607e+00,1.085003553589956660e+01,3.988721484494486269e+00,-3.248515306695434202e-01,-6.997518823117044873e-01,-6.362521404468590713e-01,4.626228592489859466e+02
6.129283508470686481e-01,1.215158903530031509e+01,4.042367788727533551e+00,-7.228961711173709226e-02,-8.311442245123767947e-01,-5.513360946990206735e-01,4.677255771172619347e+02
2.195657400625013467e-01,1.261870836614161995e+01,4.027724520123276086e+00,1.866527389323094643e-01,-8.891777992339409131e-01,-4.177578202726620615e-01,4.697893172940536601e+02
-7.878023123924330351e-01,1.341225318555138202e+01,3.883616047623148937e+00,3.970948351769836293e-01,-8.506340199134153623e-01,-3.445801155640969005e-01,4.748920351623296483e+02
-1.800871011776447261e+00,1.352391184019615622e+01,3.524582205109652477e+00,5.872348191645705429e-01,-7.686002416273699511e-01,-2.537852157467306857e-01,4.799947530306056365e+02
-2.692208294482274944e+00,1.301493552716865132e+01,2.881036652984562352e+00,7.473514961677230062e-01,-6.472705735670711835e-01,-1.500151518032227516e-01,4.850974708988816246e+02
-3.365418372014246540e+00,1.219584502353680477e+01,1.911281954165142460e+00,8.692586579146069914e-01,-4.928481812848927723e-01,-3.857532689634617096e-02,4.902001887671576128e+02
-3.831762946265888647e+00,1.163546795994470884e+01,6.586523677255721188e-01,9.467236104760544668e-01,-3.132281429050574606e-01,7.483672801407378894e-02,4.953029066354336010e+02
-3.957188950024243201e+00,1.156334888297312169e+01,1.865549616548634326e-01,9.757858291157001096e-01,-1.175938060800961193e-01,1.844226463016633566e-01,4.970480855765802630e+02
-4.127529383622258408e+00,1.134195026640888493e+01,-1.134209655336563705e+00,8.781539845861583427e-01,-1.484485721629001109e-01,4.547599375256993204e-01,5.021508034448562512e+02
-3.836967810974567517e+00,1.075580321996493893e+01,-2.147235749538018990e+00,7.071380049751415653e-01,-1.668980213030576421e-01,6.870945294535981684e-01,5.072535213131322394e+02
-3.591325894538942354e+00,1.038336090149292090e+01,-2.433615803653095711e+00,4.770290267579941346e-01,-1.714004070446190631e-01,8.620111415144828815e-01,5.092935532491214303e+02
-2.715004091527743135e+00,9.418422286468464577e+00,-2.883763470658232908e+00,4.111006318359217704e-01,-1.016706587366593001e-01,9.059014006239817229e-01,5.143962711173974185e+02
-1.627146640255151988e+00,8.691199159454665590e+00,-3.074597526775379563e+00,3.405945679149373073e-01,-3.080879610970103238e-02,9.397042930546291029e-01,5.194989889856733498e+02
-1.083484288813909568e+00,8.478050267570747422e+00,-3.140208227089386295e+00,2.662958997555655571e-01,4.039615291527688667e-02,9.630434281997058976e-01,5.221589158503056751e+02
-4.099256701696416538e-01,8.402663179726301834e+00,-3.195121697712508535e+00,1.739954610809752167e-01,-2.093964402212180054e-01,9.622248751411478507e-01,5.260877688296433234e+02
2.285439540629487232e-01,8.814287818494120685e+00,-3.121103790859919513e+00,-1.053466968011231297e-01,-5.698218192311254454e-02,9.928006367924575581e-01,5.311904866979192548e+02
6.242185361078269601e-01,9.321433427937940053e+00,-2.926233185074678111e+00,-3.739227257040601549e-01,1.012555045248788588e-01,9.219149190701416696e-01,5.348946455001930644e+02
1.215292018067389401e+00,9.931987649554624653e+00,-2.400269762235959448e+00,-6.626545492534537951e-01,-1.072836642105248900e-01,7.411998136449323704e-01,5.399973633684689958e+02
1.725633020585336519e+00,1.037797158135386155e+01,-1.576680441456961734e+00,-8.456844058669047426e-01,-2.987096946928635144e-01,4.422537777904994027e-01,5.451000812367449271e+02
1.956388407848235422e+00,1.062752633597015084e+01,-8.705475411018585019e-01,-8.938166815241009866e-01,-4.424876961386987051e-01,7.276248068031157534e-02,5.487578508758375619e+02
2.085512802019930501e+00,1.091138201450216449e+01,1.067679425700205353e-01,-9.286237901975965547e-01,-3.337390083097640514e-01,1.620929690332718054e-01,5.538605687441134933e+02
2.041954850231275653e+00,1.113662834746034491e+01,8.798663798240229372e-01,-9.439132772703452412e-01,-2.179759012881507252e-01,2.480165951083410925e-01,5.589632866123894246e+02
1.929410006026509361e+00,1.133148996434774425e+01,1.204380141659719072e+00,-9.393638069368681620e-01,-9.763143620094397179e-02,3.287274568409933040e-01,5.640660044806653559e+02
1.870807306356258026e+00,1.142887097358362603e+01,1.169792360083754978e+00,-9.150709962499522510e-01,2.476504196090996077e-02,4.025292095205856291e-01,5.667325292824807548e+02
1.813995265652551536e+00,1.164952402691220712e+01,6.887697923398705679e-01,-9.993960636388690144e-01,-7.153127231455467649e-04,3.471305677173334991e-02,5.718352471507566861e+02
1.816492193284133139e+00,1.180015094999567182e+01,2.376405668924403414e-01,-9.407585436531901157e-01,-2.609334378855002190e-02,-3.380687799140765781e-01,5.745878449669344263e+02
1.881753506656912878e+00,1.220931625743766702e+01,-6.758717776645697395e-01,-9.105480329626858271e-01,-1.977019503139835210e-01,-3.630622791052962595e-01,5.796905628352103577e+02
2.030272418717803173e+00,1.284139439401521798e+01,-1.515232218788424623e+00,-8.521224564664450218e-01,-3.631843398994020200e-01,-3.768055923641268623e-01,5.847932807034862890e+02
2.245258390497876899e+00,1.372158196584978285e+01,-2.006327153103788952e+00,-7.672922421866484877e-01,-5.174127630468648986e-01,-3.788728648448932423e-01,5.898959985717622203e+02
2.283043911153910699e+00,1.387749596109789429e+01,-2.043427394787225015e+00,-6.586859927956348892e-01,-6.556081880042273768e-01,-3.692000361805773956e-01,5.906809412960609507e+02
2.509717448980628429e+00,1.496115511340687831e+01,-2.072692642726381873e+00,-7.986106231358103269e-01,-6.017900213970656109e-01,8.236671758277282207e-03,5.957836591643368820e+02
2.626437401492073054e+00,1.607424028602874699e+01,-1.855567839567365374e+00,-8.068171270197596057e-01,-4.487161436468742326e-01,3.843149047048031730e-01,6.008863770326128133e+02
2.491483368173294188e+00,1.701000467920661308e+01,-1.717913544266728820e+00,-6.819519379263433434e-01,-2.216336401549187096e-01,6.970065164043524053e-01,6.059890949008887446e+02
2.205258765444111368e+00,1.752104593511914032e+01,-1.774169106871544388e+00,-4.446095782437357036e-01,4.200382521710281647e-02,8.947379513583989530e-01,6.097110450391924132e+02
1.581828724608487002e+00,1.797639959367988283e+01,-2.050105296288922574e+00,-3.129777159442536094e-01,3.418841728995002799e-02,9.491438781581533757e-01,6.148137629074683446e+02
7.379968437165892459e-01,1.816400197489481627e+01,-2.457246247989921084e+00,-1.749773903652157570e-01,2.567734283808452075e-02,9.842365502893632989e-01,6.199164807757442759e+02
-2.236604581652993085e-01,1.814365045390956155e+01,-2.837070165357496787e+00,-3.341663304703332282e-02,1.664378542054652590e-02,9.993019128584313959e-01,6.250191986440202072e+02
-1.196158157098864194e+00,1.797006077669894353e+01,-3.047128370488417559e+00,1.088240812042886863e-01,7.271559722647305199e-03,9.940334218571769132e-01,6.301219165122961385e+02
-2.062478203195667881e+00,1.768847112120164766e+01,-3.040153327899947744e+00,2.488504432283708268e-01,-2.248628529127185988e-03,9.685382803867561563e-01,6.352246343805720699e+02
-2.346310350953251245e+00,1.756607180195149454e+01,-2.997835876146127010e+00,3.838131996570411930e-01,-1.172306283275910931e-02,9.233352574045999850e-01,6.371174584142792128e+02
-2.922080299296369255e+00,1.720659536933910871e+01,-2.884890539432778400e+00,3.481008224569033804e-01,5.824187460581201070e-02,9.356450723631197786e-01,6.422201762825551441e+02
-3.010750114663048649e+00,1.711921748172030888e+01,-2.861128240637377473e+00,3.101877507864564398e-01,1.278386016769209321e-01,9.420397290842132954e-01,6.433725468516915953e+02
-3.078490814356829475e+00,1.664249408763073745e+01,-2.789157208864205817e+00,2.817772182010122584e-01,1.138028996802099568e-01,9.527058829014279917e-01,6.484752647199675266e+02
-2.567020853875784603e+00,1.598434247551090870e+01,-2.803430369099246366e+00,2.530516855691042344e-01,9.963997749323932895e-02,9.623069776862287483e-01,6.535779825882434579e+02
-1.755040660939703567e+00,1.524723999398350394e+01,-2.812648984207995362e+00,2.240432589153336651e-01,8.536566475700167744e-02,9.708322828392514925e-01,6.586807004565193893e+02
-1.281251273424250936e+00,1.483630492879038343e+01,-2.752527573412246742e+00,1.947843602431706400e-01,7.099591553081213702e-02,9.782722693452425844e-01,6.617323382391290352e+02
-8.659182580064471724e-01,1.433073140021413039e+01,-2.633458417662654316e+00,1.557544175504401440e-01,-4.698451420073505580e-01,8.688982126497469816e-01,6.668350561074049665e+02
-8.497642596281034244e-01,1.424716022896570244e+01,-2.616197283056814538e+00,6.906428868614084005e-02,-8.669156335786970535e-01,4.936450225466370578e-01,6.680650890504787185e+02
-8.454215478950100060e-01,1.420064368347509642e+01,-2.608756349311984302e+00,1.170092260370840104e-01,-9.931148570864075653e-01,5.451756957511349165e-03,6.687884314097042306e+02
-1.176192776721572519e+00,1.404320458824616580e+01,-2.637077797609450602e+00,2.844210968050022714e-01,-9.569170431418756451e-01,-5.841585602494895474e-02,6.738911492779801620e+02
-1.991768866752293254e+00,1.394716790189784916e+01,-2.590406562404545809e+00,4.423286541880877554e-01,-8.887427706755667289e-01,-1.203314142462545838e-01,6.789938671462560933e+02
-2.819282584491803689e+00,1.343655243812511735e+01,-2.250596957891655148e+00,5.854553067532953792e-01,-7.908701468033842996e-01,-1.782259652457101329e-01,6.837170244028750403e+02
-3.631488224382958041e+00,1.221000578645448442e+01,-1.643633003547786187e+00,6.991060707443010891e-01,-6.933539640761808842e-01,1.746682064601780826e-01,6.888197422711509716e+02
-4.084582697102062454e+00,1.134018833035037943e+01,-1.257330584871871215e+00,7.100158693678153554e-01,-4.939421815172649888e-01,5.018930031025298222e-01,6.916667660166650649e+02
-4.742887299905434340e+00,9.840629318448709029e+00,-4.132834379622930543e-01,8.633214329507274964e-01,-4.727840382818905285e-01,1.764918030761587209e-01,6.967694838849409962e+02
-4.856699596114167683e+00,8.527004213926813847e+00,6.430876926735415999e-01,9.045363845724864182e-01,-3.902412244081079895e-01,-1.718246657374521147e-01,7.018722017532169275e+02
-4.331471166063649569e+00,7.447749166762839934e+00,1.684732441882392573e+00,8.283093495469264766e-01,-2.570307568579574542e-01,-4.978321117412776164e-01,7.069749196214928588e+02
-3.473947409187525981e+00,6.585423466484531474e+00,2.513357548209972148e+00,6.445373647821607266e-01,-9.044826769363045749e-02,-7.592026714058188741e-01,7.120776374897687901e+02
-2.663345147119940748e+00,5.899567553483888283e+00,3.151284702177009400e+00,3.770808979853682019e-01,8.787765448145128111e-02,-9.220008211584015401e-01,7.171803553580447215e+02
-2.571738953036076136e+00,5.820345712180669651e+00,3.225319689311467730e+00,6.066572148507266837e-02,2.547937524012326427e-01,-9.650895367653425927e-01,7.178445399228132828e+02
-1.956386565260259003e+00,5.268458625388333871e+00,3.733967678409438662e+00,6.830978000841932130e-02,1.285120086443873044e-01,-9.893515237715456712e-01,7.229472577910892142e+02
-1.497221682988835179e+00,4.810721768243523044e+00,4.132521635556531514e+00,7.482029243619742198e-02,9.772969527521995110e-05,-9.971960260091534689e-01,7.280499756593651455e+02
-1.162087641094577961e+00,4.409835435173445894e+00,4.436916526096279512e+00,8.008922304663236569e-02,-1.283181661154321473e-01,-9.884928753391842848e-01,7.331526935276410768e+02
-9.195157286673374397e-01,4.027258568520029058e+00,4.663094109375524710e+00,8.402913871157559333e-02,-2.546047343483209824e-01,-9.633864920656055597e-01,7.382554113959170081e+02
-7.387377298644965951e-01,3.623223162827089894e+00,4.827001787277878542e+00,8.657465967516250749e-02,-3.766663630926264661e-01,-9.222934886554101652e-01,7.433581292641929394e+02
-6.862780421357700389e-01,3.478274313714499577e+00,4.872328981711013363e+00,8.768354446363484100e-02,-4.924775455865194052e-01,-8.658957576536341350e-01,7.450817012064642313e+02
-5.364370131844794498e-01,2.996025068886302378e+00,4.987480275296564791e+00,6.456261874027301173e-02,-5.466599183526141825e-01,-8.348608278775683234e-01,7.501844190747401626e+02
-3.790857883287713781e-01,2.394584866867695894e+00,5.077658231864007554e+00,4.115546279274932134e-02,-5.984186689089320277e-01,-8.001245681642989993e-01,7.552871369430160939e+02
-2.106494216804885022e-01,1.643610981186505837e+00,5.148344535616751649e+00,1.756584834180168614e-02,-6.475243354960609210e-01,-7.618409780978002699e-01,7.603898548112920253e+02
-7.752778282618535965e-02,7.397391863379659815e-01,5.184070539865503591e+00,-6.101644213385193881e-03,-6.937592173929939543e-01,-7.201797818716230148e-01,7.654925726795679566e+02
-3.552779791067128129e-02,-9.345036626930605661e-02,5.174168661456718610e+00,-2.974208923973073113e-02,-7.369183396256679952e-01,-6.753256761350505677e-01,7.696479731042927597e+02
-1.296304858143740857e-01,-1.222757800553001317e+00,5.090593539266606626e+00,8.118337646749719527e-02,-6.335426590004591407e-01,-7.694354804739528264e-01,7.747506909725686910e+02
-4.584840570111142766e-01,-2.463866734156610949e+00,4.899060215785911332e+00,1.895233292024155469e-01,-5.099901064736642731e-01,-8.390405228517098246e-01,7.798534088408446223e+02
-1.025996605838340736e+00,-3.803651861543836610e+00,4.606966363534658271e+00,2.918273993134699595e-01,-3.701955394267139599e-01,-8.819240509242918247e-01,7.849561267091205536e+02
-1.702789149114841472e+00,-5.243403069007877448e+00,4.288362712986859115e+00,3.848374441134432833e-01,-2.186110809833778368e-01,-8.967203225530242516e-01,7.900588445773964850e+02
-2.293037915756005685e+00,-6.797279690560483090e+00,4.050624805190038202e+00,4.655913092032815670e-01,-6.006433517124612487e-02,-8.829581011773507404e-01,7.951615624456724163e+02
-2.336758426262035560e+00,-6.939202123545475054e+00,4.035721324835048307e+00,5.315171647699363788e-01,1.003953559817279823e-01,-8.410756660681055763e-01,7.956096880932685735e+02
-2.706010968076381751e+00,-8.591703000515900968e+00,3.945379219088888778e+00,4.365435439315697996e-01,2.571121392979978659e-01,-8.621607054818826166e-01,8.007124059615445049e+02
-2.861579262499446052e+00,-1.025209958318378511e+01,3.971781008612531583e+00,3.267166520937234697e-01,4.050807010154878207e-01,-8.539109174319183815e-01,8.058151238298204362e+02
-2.887290062086251829e+00,-1.178870306769408494e+01,4.033997887835456986e+00,2.057733202730857025e-01,5.392664671177709312e-01,-8.166070157096035897e-01,8.109178416980963675e+02
-2.840491895527456734e+00,-1.310279613300422596e+01,4.071279822846962659e+00,7.782860358424985303e-02,6.551038197765129967e-01,-7.515182591117388622e-01,8.160205595663722988e+02
-2.744770386383500238e+00,-1.409131657513973046e+01,4.067336179388922446e+00,-5.276422671269428988e-02,7.486514329979117033e-01,-6.608592650855438233e-01,8.206767168190084476e+02
-2.565820313244496553e+00,-1.495152303569324914e+01,4.021218210727466769e+00,-5.621006180307720583e-03,6.815129152756203013e-01,-7.317831308528175427e-01,8.257794346872843789e+02
-2.289885461590361437e+00,-1.557701015117004317e+01,3.929398274865937957e+00,4.158831050160311654e-02,6.063596276369690452e-01,-7.941010101998298154e-01,8.308821525555603102e+02
-1.900294153373768280e+00,-1.597699832047248591e+01,3.791681651877282899e+00,8.830853566211852024e-02,5.240753849636687889e-01,-8.470800395494878510e-01,8.359848704238362416e+02
-1.380506272761879982e+00,-1.616129051393816596e+01,3.607876931318582781e+00,1.339902333437749116e-01,4.356278596521353519e-01,-8.900971774261247083e-01,8.410875882921121729e+02
-8.870227196144624404e-01,-1.617527567294975910e+01,3.436229985631921391e+00,1.780961797754558873e-01,3.420572034712008325e-01,-9.226465305311080112e-01,8.450502774749064656e+02
-1.218677464832602780e-01,-1.603635998466003443e+01,3.177813271324696043e+00,2.341322251794658582e-01,4.624125027870451543e-01,-8.551928311191898668e-01,8.501529953431823969e+02
7.443317195996987934e-01,-1.573324619891069887e+01,2.889688407282800853e+00,2.849762630077030678e-01,5.725135545060331399e-01,-7.687748431290563067e-01,8.552557132114583283e+02
1.505290609619396758e+00,-1.533869232130336080e+01,2.622358111430921568e+00,3.295008165864910521e-01,6.699188454198079512e-01,-6.653089150306192856e-01,8.603584310797342596e+02
1.797927003352125963e+00,-1.512919498564690812e+01,2.508059871412351871e+00,3.667185414151815093e-01,7.524683860691943060e-01,-5.470894253661203743e-01,8.629342386695808500e+02
1.983745368798863096e+00,-1.475289888349180600e+01,2.373241211493527736e+00,1.847243565251208419e-01,7.712423754811266186e-01,-6.091470350979591997e-01,8.680369565378567813e+02
1.496546811778391550e+00,-1.446109625380540642e+01,2.392485397701835659e+00,-4.164741057739614755e-03,7.612293091685212731e-01,-6.484678818529547861e-01,8.731396744061327126e+02
4.722106999860061216e-01,-1.426568658977858206e+01,2.526572751502607517e+00,-1.928983811541920002e-01,7.228029371428514871e-01,-6.635843040683303551e-01,8.782423922744086440e+02
-8.135141733630470995e-01,-1.416833107177431650e+01,2.700744101098909500e+00,-3.744319980849569740e-01,6.573975381618433200e-01,-6.539320726411861351e-01,8.833451101426845753e+02
-1.541039992357418065e+00,-1.415142763512344537e+01,2.791907150407709093e+00,-5.419897623992903091e-01,5.674543874187336634e-01,-6.198714509100153869e-01,8.861277674418493007e+02
-2.783059397169814542e+00,-1.417715844813523418e+01,2.915465865293891845e+00,-4.058889504298071604e-01,6.074234969680368801e-01,-6.828534654299012185e-01,8.912304853101252320e+02
-3.875454488397468200e+00,-1.424792817169931247e+01,2.973430839489908273e+00,-2.600112165001319808e-01,6.327611422052349388e-01,-7.293870743363061182e-01,8.963332031784011633e+02
-4.832228659655553926e+00,-1.428821185924154769e+01,2.975660514106310384e+00,-1.078704083551535048e-01,6.428570049687162280e-01,-7.583514001856578313e-01,9.014359210466770946e+02
-5.666040371314599255e+00,-1.422194891786563531e+01,2.932017351798291038e+00,4.686876778157958445e-02,6.374678990656937883e-01,-7.690487606562080858e-01,9.065386389149530260e+02
-6.248272851193670263e+00,-1.406030414976614651e+01,2.873846778215243258e+00,2.004790152252037272e-01,6.167236278905828817e-01,-7.612214731961859382e-01,9.105434102222230877e+02
-6.907593743133347175e+00,-1.364571298543298106e+01,2.778058986392854646e+00,3.734974134988373051e-01,5.819479680336269167e-01,-7.223809553204876277e-01,9.156461280904990190e+02
-7.443403015914814347e+00,-1.296802416924399459e+01,2.677719370597091419e+00,5.343198368536251630e-01,5.281697609540028093e-01,-6.599522827879389375e-01,9.207488459587749503e+02
-7.628233850296206597e+00,-1.262708814086467513e+01,2.640866767433073026e+00,6.776949572054586923e-01,4.571450226449366161e-01,-5.759739345207605110e-01,9.228909053869982699e+02
-7.898069800196712897e+00,-1.179200912792068046e+01,2.611936446083267693e+00,7.389717487773959093e-01,2.999623959652791827e-01,-6.032754889053534297e-01,9.279936232552742013e+02
-7.861245088621609867e+00,-1.098896227498661027e+01,2.680813672689812410e+00,7.786656384794571339e-01,1.340189166302923063e-01,-6.129573830496169995e-01,9.330963411235501326e+02
-7.649424986516734748e+00,-1.042476531371552539e+01,2.768894039224777615e+00,7.956173214239289360e-01,-3.583882955868083336e-02,-6.047368486739816973e-01,9.370807486005321607e+02
-7.208696694133451821e+00,-9.820417194781398962e+00,2.835369514317414907e+00,8.500441605706594572e-01,-4.303698826068934509e-03,-5.266919434105611364e-01,9.421834664688080920e+02
-6.620802948580147174e+00,-9.395424524497620666e+00,2.759441202890930978e+00,8.959299356650771706e-01,2.727466415552202983e-02,-4.433549853921127104e-01,9.472861843370840234e+02
-5.959444582309069816e+00,-9.159672115017452043e+00,2.445478608276233867e+00,9.328136134957031311e-01,5.857897491050171462e-02,-3.555633082492605235e-01,9.523889022053599547e+02
-5.708045839526655563e+00,-9.109327657778033327e+00,2.268086111082352030e+00,9.603246035340066156e-01,8.929470256575078313e-02,-2.641990006383625467e-01,9.542783250778740012e+02
-5.059597120165351569e+00,-9.019991637034102894e+00,1.570133361908480518e+00,9.712744114012202834e-01,-2.123551392493399359e-01,-1.073746366331435609e-01,9.593810429461499325e+02
-4.505510297033204381e+00,-8.963502617021172014e+00,4.424715264121758529e-01,8.698413202880715955e-01,-4.894340856920875726e-01,6.187368812886477609e-02,9.644837608144258638e+02
-3.930654237897169168e+00,-8.976860243853559851e+00,-8.923857851832888155e-01,6.677617789777883228e-01,-7.098822821134467276e-01,2.239628363770710118e-01,9.695864786827017952e+02
-3.647279298796711977e+00,-9.019357045601426037e+00,-1.387973938797192552e+00,3.884176862088433158e-01,-8.481923796635553181e-01,3.601380126019632644e-01,9.716224547865216437e+02
-2.747380278438899648e+00,-9.034401921214525899e+00,-2.233889484392882707e+00,5.474233157821980500e-01,-5.519990943923949178e-01,6.289854633679609064e-01,9.767251726547975750e+02
-1.865479904973547320e+00,-8.736045923121443124e+00,-2.596003842529132299e+00,6.049954694692835089e-01,-1.535245231252811149e-01,7.812865688855916702e-01,9.818278905230735063e+02
-1.506169061523494168e+00,-8.439153994934446956e+00,-2.688550008871770203e+00,5.504664702645909458e-01,2.733970311064244374e-01,7.888211004382968961e-01,9.846617216642423500e+02
-1.286283637718394823e+00,-7.863606322481174971e+00,-2.696513655571874502e+00,3.858740768015379019e-01,6.269320919215318755e-01,6.767978641896328362e-01,9.897644395325182813e+02
-1.678911835106619455e+00,-7.381245358722436478e+00,-2.554605142346154878e+00,1.577563238425463976e-01,8.772570436759477008e-01,4.533552929091937411e-01,9.948671574007942127e+02
-1.865850495608417647e+00,-7.277658389636636471e+00,-2.506390790747420994e+00,-9.633244946346049276e-02,9.831616262299757159e-01,1.552780599090275160e-01,9.963080721445891186e+02
-2.122316436989341693e+00,-7.152720751571079560e+00,-2.454221357699611694e+00,-9.593107062409321484e-02,9.683248500393032421e-01,2.305259518171597632e-01,9.982628499524549852e+02
-2.790720452969890797e+00,-6.987853937740425181e+00,-2.625969247166684895e+00,6.434004219259559232e-02,9.654138784503497606e-01,2.526547095645256813e-01,1.003365567820730917e+03
-3.448355325455545017e+00,-6.990823145545068229e+00,-3.268684699910877622e+00,2.229263755945463110e-01,9.372235166706242016e-01,2.681676916836822078e-01,1.008468285689006848e+03
-4.082507482411675603e+00,-6.961640091336366964e+00,-4.212047427425105184e+00,3.756753779173255259e-01,8.844919312841942327e-01,2.766586957224205778e-01,1.013571003557282779e+03
-4.246475507016026718e+00,-6.934153473456113659e+00,-4.492313603950045753e+00,5.185873425427445227e-01,8.085998799604303677e-01,2.779053836849691983e-01,1.014927113146262741e+03
-4.832231352907994548e+00,-6.779638265639738037e+00,-5.517964229875487625e+00,4.553673318728574393e-01,8.861845204487120986e-01,-8.553121523811377247e-02,1.020029831014538672e+03
-5.346099468860118442e+00,-6.635483910143822328e+00,-6.351416182266788724e+00,3.274384641413806696e-01,8.378400587469668759e-01,-4.368135622432522402e-01,1.025132548882814717e+03
-5.699244730386539004e+00,-6.604525671210907056e+00,-6.775515128153941191e+00,1.529797285019106334e-01,6.704363549676821687e-01,-7.260236198670789731e-01,1.029186408249044007e+03
-6.083372214057706451e+00,-6.655463665955699604e+00,-6.959377931157336938e+00,5.306525759085312099e-01,7.344414709736389879e-01,-4.230857707310464177e-01,1.034289126117319938e+03
-6.412109575241574433e+00,-6.732961899366189940e+00,-6.733302969399182381e+00,7.817620490166409253e-01,6.232783777318106067e-01,-1.923960936509862968e-02,1.039391843985595870e+03
-6.705710183614189468e+00,-6.737988359215590251e+00,-6.117971389436344332e+00,8.464170544207874070e-01,3.634600456810318514e-01,3.891952789778690969e-01,1.044494561853871801e+03
-6.893523903008873965e+00,-6.667603703634065404e+00,-5.518624515589861446e+00,7.091971358809445736e-01,1.695468089351162208e-02,7.048049100666000655e-01,1.047937477491331720e+03
-7.171474028819584845e+00,-6.369791908446079454e+00,-4.374737479654424277e+00,8.625210968464118721e-01,6.872694636932642764e-02,5.013301949192150442e-01,1.053040195359607651e+03
-7.460473820313075599e+00,-5.730795925045822692e+00,-2.897040426158806525e+00,9.575466351469991144e-01,1.158538967092305749e-01,2.639702940413940491e-01,1.058142913227883582e+03
-7.724905121811391773e+00,-5.070228046449689607e+00,-1.478059581147657120e+00,9.878509647315123487e-01,1.551502009010892469e-01,8.768502709808277326e-03,1.063245631096159514e+03
-7.861802978645036077e+00,-4.904823919067935023e+00,-8.344175751483685621e-01,9.513858104882112476e-01,1.839598046601504666e-01,-2.470259700342118392e-01,1.066707081701501465e+03
-8.005794146533277811e+00,-5.283057775980847026e+00,-5.162376353112180238e-01,9.347098642928804990e-01,3.432437969087275831e-01,-9.219091862963284256e-02,1.071809799569777397e+03
-8.135499120927530470e+00,-6.257550947232386918e+00,-7.762034288079939781e-01,8.716503818786472957e-01,4.854948248918483644e-01,6.721894654505247702e-02,1.076912517438053328e+03
-8.329783444323485497e+00,-7.499800221312398207e+00,-1.246871380490345071e+00,7.653365962925592347e-01,6.036539188237785014e-01,2.232931720061466507e-01,1.082015235306329259e+03
-8.621985629780022364e+00,-8.754246907920864018e+00,-1.657221575218787990e+00,6.210441504388045653e-01,6.918576254089240374e-01,3.682868302962866158e-01,1.087117953174605191e+03
-8.789900089782220149e+00,-9.341680014109625674e+00,-1.813658293381744668e+00,4.459333098840971843e-01,7.457289662494076543e-01,4.950048404133163826e-01,1.089610721660217450e+03
-9.117426096131431734e+00,-1.047211708341547265e+01,-2.057390098539698453e+00,5.075714788263447907e-01,6.931606892205821602e-01,5.117591746127094776e-01,1.094713439528493382e+03
-9.367729722588398644e+00,-1.147245508058377084e+01,-2.189986623715847625e+00,5.657361183747187106e-01,6.358488408237097378e-01,5.250113293907022749e-01,1.099816157396769313e+03
-9.482519915037919134e+00,-1.232069441040257729e+01,-2.229956684876483575e+00,6.200291900201230222e-01,5.741856271844798520e-01,5.346706173495677783e-01,1.104918875265045244e+03
-9.414391894195413002e+00,-1.299674577238615214e+01,-2.195877955248802582e+00,6.700791491963089541e-01,5.085930309136197369e-01,5.406709375559735076e-01,1.110021593133321176e+03
-9.115558041342252338e+00,-1.348235001658534493e+01,-2.106333451547016455e+00,7.155434874966108971e-01,4.395199236642954865e-01,5.429712277850869961e-01,1.115124311001597107e+03
-8.567298619263318926e+00,-1.376089034402313871e+01,-1.980054270849568754e+00,7.561110762657268225e-01,3.674389947661051425e-01,5.415557454893527023e-01,1.120227028869873038e+03
-8.476489927637480548e+00,-1.378380892324590512e+01,-1.961140041688345992e+00,7.915042955491348176e-01,2.928435169255578785e-01,5.364341755711354853e-01,1.120916268133958056e+03
-7.720263937826756795e+00,-1.387946911754234769e+01,-1.845869017572440152e+00,7.664176383310856711e-01,3.580013808326744651e-01,5.333263681577907755e-01,1.126018986002233987e+03
-6.834960901728114990e+00,-1.389184952427886799e+01,-1.833413683804504757e+00,7.375873776626344913e-01,4.214105541851456693e-01,5.276134997606573007e-01,1.131121703870509918e+03
-5.878118442671047994e+00,-1.388482072958215774e+01,-1.977925840090958065e+00,7.051543303600712465e-01,4.827613274386077236e-01,5.193234744353002474e-01,1.136224421738785850e+03
-4.989437399390247663e+00,-1.382833857795944787e+01,-2.199183267680604459e+00,6.692769077741876904e-01,5.417540432900933567e-01,5.084967819898662533e-01,1.140774273705619635e+03
-3.964523218710978458e+00,-1.360414168921590239e+01,-2.454534359607073224e+00,5.614256719250405592e-01,6.281937565676127821e-01,5.386759871313022696e-01,1.145876991573895566e+03
-2.917509320139745732e+00,-1.309856881006001572e+01,-2.624093804058263757e+00,4.423377949872078219e-01,7.020604438512135781e-01,5.580738376813147994e-01,1.150979709442171497e+03
-1.863578404397617572e+00,-1.227351597579307985e+01,-2.614172797005493543e+00,3.143967426490014705e-01,7.618757212886205776e-01,5.663021044651254110e-01,1.156082427310447429e+03
-1.231033847089660904e+00,-1.166738710220676722e+01,-2.510060569473456571e+00,1.801631636216979027e-01,8.064424250832754604e-01,5.631961021689664282e-01,1.159163147939665123e+03
-2.147912579874861339e-01,-1.062973367713536277e+01,-2.236054893882174266e+00,2.484406780585092858e-02,7.029601031151965218e-01,7.107938278595692383e-01,1.164265865807941054e+03
6.750476615996114926e-01,-9.646216081261846043e+00,-1.997238501728847648e+00,-1.318816351982728396e-01,5.596777265498269482e-01,8.181479552633098562e-01,1.169368583676216986e+03
1.229597129468132488e+00,-8.819864181398854086e+00,-2.001986001908851343e+00,-2.811405091706273840e-01,3.847075980198638723e-01,8.791803444850896376e-01,1.174471301544492917e+03
1.235918717307622705e+00,-8.805386456207051182e+00,-2.005221380799087960e+00,-4.144818577322036957e-01,1.879560992718942725e-01,8.904354521001691669e-01,1.174572544216097185e+03
1.294880291691263174e+00,-8.162943374285605458e+00,-2.338008065989721107e+00,-5.146619821354095903e-01,4.127479192911690520e-01,7.515052889136663028e-01,1.179675262084373117e+03
9.282874339053663881e-01,-7.639788391804367862e+00,-2.957070539957932009e+00,-5.737364751985604139e-01,6.045738770911432969e-01,5.525530600456076691e-01,1.184777979952649048e+03
3.252505026722569137e-01,-7.132063981301714151e+00,-3.756383814475672711e+00,-5.869871279148559662e-01,7.481130353403891986e-01,3.094688966859927559e-01,1.189880697820924979e+03
1.093782844471317961e-01,-6.961913150831137820e+00,-4.033806601914863066e+00,-5.533556158201166086e-01,8.319010558804967870e-01,4.166768130142975424e-02,1.191515502964395637e+03
-5.553493787149492711e-01,-6.415453683561458398e+00,-4.915344420579360829e+00,-4.405636116766561416e-01,8.358428948586902330e-01,3.275184867770927211e-01,1.196618220832671568e+03
-1.199304763056514567e+00,-5.943064190131488900e+00,-5.807137544201268042e+00,-2.861610900137848135e-01,7.608406916770367179e-01,5.824356380328686855e-01,1.201720938700947499e+03
-1.813949503134258956e+00,-5.743409538671762071e+00,-6.679528550291427003e+00,-1.047311202786370687e-01,6.139783050953709909e-01,7.823426572273920465e-01,1.206823656569223431e+03
-2.110077013503753651e+00,-5.764712404322054340e+00,-7.103885964206739345e+00,8.659055034046644894e-02,4.091266331604913598e-01,9.083586706970852021e-01,1.209372830102821126e+03
-2.694726618934542461e+00,-5.950444001838942398e+00,-7.927581708980842912e+00,-2.597825881480242960e-01,5.495213013948625491e-01,7.940638174659303550e-01,1.214475547971097058e+03
-3.290680566673175544e+00,-6.157088732593079428e+00,-8.715976314768088429e+00,-5.664742988957919279e-01,6.059773423754510890e-01,5.584767938044422619e-01,1.219578265839372989e+03
-3.552172355663326897e+00,-6.203320480327217723e+00,-9.044003395457941963e+00,-7.866378766365205166e-01,5.698711446003749126e-01,2.375831003928199348e-01,1.221754794283229785e+03
-4.151910319791131343e+00,-6.133267549782386752e+00,-9.763535537005894938e+00,-6.852606174422432028e-01,4.927681864981232063e-01,5.362792188383970204e-01,1.226857512151505716e+03
-4.676454438223264454e+00,-5.765374446918480444e+00,-1.035694113249500603e+01,-5.116282793215188862e-01,3.637068889443312858e-01,7.784290608224675445e-01,1.231960230019781648e+03
-5.040754855660646960e+00,-5.103604772835832470e+00,-1.075443462866054922e+01,-2.840489678090838410e-01,1.962957063578314176e-01,9.384999624678126429e-01,1.237062947888057579e+03
-5.054589307282822297e+00,-5.060973082216364993e+00,-1.076930614821618271e+01,-2.651901988305815222e-02,8.186749222928084088e-03,9.996137847796512377e-01,1.237332328512091181e+03
-5.185289402453977736e+00,-4.181722242720169902e+00,-1.092145202765066436e+01,-5.963027279475936054e-02,-2.191955338192698444e-02,9.979788393177925210e-01,1.242435046380367112e+03
-5.041230351993914560e+00,-3.294339794919078024e+00,-1.082282335027649189e+01,-9.262194132701326299e-02,-5.198189754536810397e-02,9.943425256379436750e-01,1.247523903139578806e+03
-4.938360706995701399e+00,-3.020616130401037935e+00,-1.074384343921390261e+01,-1.414167024254648838e-02,-7.989596474214687161e-02,9.967018851986910732e-01,1.249242141474109303e+03
-4.523306793634598755e+00,-2.371264424233705537e+00,-1.039780724883004304e+01,-1.205858290213872169e-01,-4.303609971113170896e-01,8.945649613106008147e-01,1.254344859342385234e+03
-3.999530648751904671e+00,-2.025385635420183128e+00,-9.895920820887198488e+00,-2.095946704426761842e-01,-7.186008073558117770e-01,6.630844243304904184e-01,1.259447577210661166e+03
-3.548671404863740886e+00,-1.975527364672186259e+00,-9.369122156867309315e+00,-2.682985808703561847e-01,-9.029393677644484972e-01,3.357296079346573925e-01,1.264106096728943839e+03
-3.229144956703591696e+00,-2.219977204563520434e+00,-8.792644982359695049e+00,-1.843390522197786985e-01,-7.455844789583899734e-01,6.404068227019530379e-01,1.269208814597219771e+03
-3.206784483910381844e+00,-2.784270895258963208e+00,-8.247115616051125642e+00,-7.740386202371733748e-02,-4.953013433775687591e-01,8.652648273173118021e-01,1.274311532465495702e+03
-3.432607609387340108e+00,-3.469015112491707686e+00,-7.784959603634680647e+00,3.917880756206196941e-02,-1.832847486546959059e-01,9.822778231990533238e-01,1.278571302737332417e+03
-4.007768063357261212e+00,-4.516795354686842678e+00,-7.135393876855655293e+00,4.523829711358356431e-01,-3.662231567004607061e-03,8.918151352642970098e-01,1.283674020605608348e+03
-4.442449922614411406e+00,-5.143915374677462182e+00,-6.716423056791353652e+00,7.700502576999925797e-01,1.767337005290930685e-01,6.130137027124976656e-01,1.286405957247521428e+03
-5.410783655006707882e+00,-5.913008520693609604e+00,-5.651011671005839787e+00,8.377291971114706470e-01,3.374752656636799131e-01,4.293229988841207323e-01,1.291508675115797359e+03
-6.036078929646358837e+00,-6.030766946670739870e+00,-4.875994738749745316e+00,8.516588507850427758e-01,4.765641862696284314e-01,2.180866301331618462e-01,1.294483184371301149e+03
-7.010776865116670642e+00,-5.680302202283514568e+00,-3.457754673600295092e+00,9.276098192602058035e-01,3.126486302442886833e-01,-2.044232306237331043e-01,1.299585902239577081e+03
-7.324704195133358908e+00,-5.391839680574971538e+00,-2.909493422918508543e+00,8.076942609352173452e-01,8.271675120596475028e-02,-5.837687212605362497e-01,1.301485514201354135e+03
-7.779488895605216392e+00,-4.525326957210595857e+00,-1.590213945780874383e+00,8.196797897477761108e-01,2.660403189353224146e-02,-5.722021214223409480e-01,1.306588232069630067e+03
-7.490344237458249843e+00,-3.613406927890573161e+00,-7.549763855294068238e-01,8.288570253678615440e-01,-2.959982061344140769e-02,-5.586751132029275091e-01,1.311690949937905998e+03
-6.785406661246045523e+00,-2.759832470239235391e+00,-4.562696238789071268e-01,8.351945292224643991e-01,-8.570226115535163613e-02,-5.432340386830744050e-01,1.316793667806181929e+03
-6.432636551463762231e+00,-2.352854529663831240e+00,-4.289033302189039776e-01,8.386705890977697031e-01,-1.415110919355591079e-01,-5.259317958019313899e-01,1.319465401882841434e+03
-6.324231658014675794e+00,-1.698904012235030514e+00,-4.501028589634151200e-01,9.720220732939535146e-01,4.323971473214642189e-03,-2.348454647207601498e-01,1.324568119751117365e+03
