2.154527579465391529e+00,-9.224644621398866207e+00,2.564623405745733109e+00,-1.213942372431243699e-01,-3.051193477626253370e-01,-9.445441349057740466e-01,4.635431884232644251e+01
2.704861272564498709e+00,-9.235398479137074901e+00,2.533077223486829066e+00,-1.776404630646849503e-01,-5.128040155177020498e-01,-8.399249416173886207e-01,5.145703671060241646e+01
2.747135847374632345e+00,-9.230579667634986052e+00,2.537352667256193239e+00,-2.237182178750401762e-01,-6.911348235113338179e-01,-6.872269019186592054e-01,5.184623132217944175e+01
3.335682017549551848e+00,-9.146866848569175090e+00,2.707555597421900551e+00,-1.839367696474880909e-01,-6.513501827553535017e-01,-7.361441463363582738e-01,5.694894919045541570e+01
3.978013020163807756e+00,-9.087467280640309397e+00,3.098050302704497216e+00,-1.431329508315068721e-01,-6.079451527954171652e-01,-7.809696854343790573e-01,6.176349971469307576e+01
4.767503048218528328e+00,-9.117162586587442163e+00,3.756382987439057963e+00,-5.906209433958758276e-02,-5.760802558738232770e-01,-8.152553022229436230e-01,6.686621758296905682e+01
5.611854214901784488e+00,-9.259939305948234889e+00,4.571045917768786104e+00,2.555559052040826812e-02,-5.388815530481214644e-01,-8.419926267941792997e-01,7.196893545124503078e+01
6.421857790287894829e+00,-9.508978042302963729e+00,5.402872240865270292e+00,1.099366582179515800e-01,-4.966934558055290938e-01,-8.609341102186360839e-01,7.707165331952100473e+01
7.136202611402799434e+00,-9.832387643882038120e+00,6.132828498267924644e+00,1.932998541269209114e-01,-4.499065682937084532e-01,-8.719043790454449327e-01,8.217437118779697869e+01
7.293521675594010212e+00,-9.915973543418846958e+00,6.289795412882608794e+00,2.748733464803149174e-01,-3.989540716104633677e-01,-8.748018587873164220e-01,8.343200927517969490e+01
7.870684309385890920e+00,-1.020742911091132399e+01,6.797061253335889397e+00,1.354688289502695708e-01,-3.447848925499606421e-01,-9.288539036092536838e-01,8.853472714345566885e+01
8.378563639720510992e+00,-1.036754265564962907e+01,7.050647952543620534e+00,-7.361608552412760888e-03,-2.818962584166729846e-01,-9.594156066107148995e-01,9.363744501173164281e+01
8.689252623718198620e+00,-1.034510667479296764e+01,7.048391166356674731e+00,-1.500059023071647069e-01,-2.118785710180927651e-01,-9.657140883377139939e-01,9.703638230980627100e+01
8.871460611525851192e+00,-1.025788062428176239e+01,6.973977252114417880e+00,-1.222992326167985921e-01,-9.762179369146550822e-02,-9.876795447324677735e-01,9.910712739086405065e+01
9.299205633971945772e+00,-9.911266916178686159e+00,6.587671805116533719e+00,-2.354846563737113263e-01,-3.270976454113511678e-01,-9.151787295268346556e-01,1.042098452591400246e+02
9.660119999878249430e+00,-9.518353444194541879e+00,5.963159871422412550e+00,-3.320150323733976339e-01,-5.334389547077718063e-01,-7.779504482149257605e-01,1.093125631274159986e+02
9.757049821357458796e+00,-9.391291604755297229e+00,5.688924727613151155e+00,-4.050631284435382007e-01,-7.020519736137427191e-01,-5.857003400371558755e-01,1.111781184873513268e+02
9.916204901232953617e+00,-9.148763501853421687e+00,4.863817441903252714e+00,-5.466296576716822564e-01,-7.480720713884149164e-01,-3.762740933954965561e-01,1.162808363556273008e+02
9.965387155448983236e+00,-9.082519854706037066e+00,4.268131710419430291e+00,-6.521085655529197389e-01,-7.447056346399750781e-01,-1.420068183775078652e-01,1.196977088128511326e+02
1.003007461349550589e+01,-9.110221067370584791e+00,3.351348460321851519e+00,-5.614333160085619445e-01,-7.676409616297538152e-01,-3.090598416179309305e-01,1.248004266811271066e+02
1.009819718729215765e+01,-9.146575101358674686e+00,2.875387204270711372e+00,-4.501788573426758200e-01,-7.624385545610343762e-01,-4.647843014962715347e-01,1.273911243274876597e+02
1.032995294799240682e+01,-9.196816802617549413e+00,1.913103691802501949e+00,-5.602698027083771182e-01,-7.778944636482517661e-01,-2.845627375435201833e-01,1.324938421957636479e+02
1.057372925305478084e+01,-9.230410630353938828e+00,9.214196430640153590e-01,-6.452389126933250063e-01,-7.584705201137150743e-01,-9.158174307426583671e-02,1.375965600640396360e+02
1.067337883894776951e+01,-9.275210044648058982e+00,-9.435660770348022752e-02,-7.012762925476949682e-01,-7.050376669560547427e-01,1.055056855495313667e-01,1.426992779323156242e+02
1.067161903180014981e+01,-9.280119796754684458e+00,-1.781208710982485621e-01,-7.258692860632668387e-01,-6.199917404042838420e-01,2.978624202205611415e-01,1.431156141482020701e+02
1.051512335577526258e+01,-9.402193142121719305e+00,-1.169113344939363364e+00,-6.431884086399398681e-01,-5.639361251273574682e-01,5.179601507523979853e-01,1.482183320164780582e+02
1.015126304124954082e+01,-9.709972921947944258e+00,-2.010846869844315599e+00,-5.229315279700021968e-01,-4.749345380093420999e-01,7.077978536706720503e-01,1.533210498847540464e+02
9.664088446331822624e+00,-1.027403893820156533e+01,-2.594541944244610487e+00,-3.721242305713296505e-01,-3.581865863370868319e-01,8.562849563024609312e-01,1.584237677530300346e+02
9.137565212182007457e+00,-1.102739832520748919e+01,-2.904586236524564935e+00,-1.995768883776596614e-01,-2.205128480569657767e-01,9.547466415061427458e-01,1.635264856213060227e+02
8.866193564964355289e+00,-1.147927282304317487e+01,-2.965173165484154882e+00,-1.536995251166199325e-02,-6.995641011573454360e-02,9.974306317951781020e-01,1.663264260758911064e+02
8.470857871602994749e+00,-1.228572362144695518e+01,-2.907689244011634422e+00,-1.455315740575852668e-01,9.311417867025084671e-02,9.849610706428361118e-01,1.714291439441670946e+02
8.255890051680498942e+00,-1.300560728190825976e+01,-2.686456622268958316e+00,-2.693349434456270286e-01,2.521166035493117574e-01,9.294589320959518730e-01,1.765318618124430827e+02
8.267554585664759870e+00,-1.333863223144751409e+01,-2.505808380234548771e+00,-3.813711872529526037e-01,4.001041709896756005e-01,8.333490684512917523e-01,1.794648759035239607e+02
8.498650855462187792e+00,-1.376380369740265053e+01,-2.124384644718443127e+00,-2.324890967880400006e-01,5.899796860991824987e-01,7.732210485136226108e-01,1.845675937717999489e+02
8.760660620348033945e+00,-1.408189065205324830e+01,-1.647257963995175878e+00,-6.923128272570568120e-02,7.433743215897897771e-01,6.652816302082635858e-01,1.896703116400759370e+02
8.769771042995161636e+00,-1.409461943359483627e+01,-1.623331102074910826e+00,9.830741867491867014e-02,8.508031148796602050e-01,5.162051056931145077e-01,1.898994675367348748e+02
8.805350490719687784e+00,-1.416104624258104394e+01,-1.490213630020153612e+00,8.565485559566424212e-02,6.801848493592412837e-01,7.280177308346296172e-01,1.911467155104153335e+02
8.833711123354557770e+00,-1.437805458331977881e+01,-8.850732633154094753e-01,-9.486139246992557339e-02,7.616278959166911111e-01,6.410321866940529301e-01,1.962494333786913216e+02
8.827993201248428790e+00,-1.440870708827886482e+01,-7.188946889603049506e-01,-2.709395083021608475e-01,8.074376788908735891e-01,5.240555099846614384e-01,1.975325835370915115e+02
8.895404041814787277e+00,-1.441013235591791464e+01,-6.516221825119167255e-02,-3.406657086369369036e-01,6.839348476292329559e-01,6.451185930942080482e-01,2.026353014053674997e+02
9.186687436106240057e+00,-1.429773677651140851e+01,4.717792953587980342e-01,-3.985465898398698470e-01,5.366509600998932150e-01,7.437502018484827282e-01,2.077380192736434878e+02
9.493746778198460134e+00,-1.419119449136082523e+01,6.716090238262845125e-01,-4.425696062217326920e-01,3.707071793856302477e-01,8.165208697879448030e-01,2.106030028449035569e+02
1.016004275084502240e+01,-1.392890674067351320e+01,8.855893764145903457e-01,-7.208937692824328725e-01,3.826688265940803579e-01,5.778189531014027436e-01,2.157057207131795451e+02
1.075517982335536615e+01,-1.358176199410079121e+01,1.051762203469351675e+00,-9.021955177959830596e-01,3.431284906474553198e-01,2.613505052129346251e-01,2.208084385814555333e+02
1.117148017072646127e+01,-1.313644015508343443e+01,1.330718505300626742e+00,-9.620741001129765602e-01,2.574077428833753678e-01,-9.029219122136661335e-02,2.259111564497315214e+02
1.124845910121890391e+01,-1.298216448533541545e+01,1.449146840344718301e+00,-8.924706249042935191e-01,1.370434080171014368e-01,-4.297828381891685146e-01,2.273938973369207019e+02
1.137190216966259015e+01,-1.243405871850551669e+01,1.993112970829635344e+00,-8.502188923088128680e-01,1.473638764275806423e-01,-5.053807703901467274e-01,2.324966152051966901e+02
1.134029126057210313e+01,-1.200844098317825193e+01,2.704852718123322841e+00,-8.014997436893837035e-01,1.565633772269553470e-01,-5.771343602419980456e-01,2.375993330734726783e+02
1.119560006784880457e+01,-1.183545833441420037e+01,3.453753232307933185e+00,-7.466837550508372834e-01,1.645719360844354606e-01,-6.444978260560962902e-01,2.423669567763948578e+02
1.092365687006148178e+01,-1.187841405313076848e+01,4.277142114107550519e+00,-5.951273945130515219e-01,1.442554573678769270e-01,-7.905768446643678393e-01,2.474696746446708460e+02
1.052940363656349732e+01,-1.206992613464098696e+01,5.058366869358099649e+00,-4.169562235709259879e-01,1.174876986230173753e-01,-9.013002542425062602e-01,2.525723925129468341e+02
1.001009796246470707e+01,-1.232851376464667226e+01,5.731238913453136519e+00,-2.201382497210890021e-01,8.546574361993718172e-02,-9.717163977606720904e-01,2.576751103812227939e+02
9.844211117810335310e+00,-1.239995526055190211e+01,5.888481029131236610e+00,-1.347537494539233389e-02,4.962164632854441232e-02,-9.986761769889029861e-01,2.590543606268399799e+02
9.103002417874378693e+00,-1.261919269664257648e+01,6.324366762497557026e+00,1.305764349509159483e-01,-3.754235018278554575e-02,-9.907261814328365279e-01,2.641570784951159681e+02
8.127728000256956520e+00,-1.272221948776230427e+01,6.459811706695611555e+00,2.709183367119561425e-01,-1.236397007096412676e-01,-9.546279271211896011e-01,2.692597963633919562e+02
8.081714562417914749e+00,-1.272302276377785724e+01,6.458132063237946419e+00,4.035630258803544756e-01,-2.062242629876087641e-01,-8.914069987917770943e-01,2.694701935292031294e+02
6.843671430566512726e+00,-1.265989206009795609e+01,6.259562129869703284e+00,4.441271423716942612e-01,-1.652074983144218301e-01,-8.805995479821435712e-01,2.745729113974791176e+02
5.440089453023826849e+00,-1.248044807841231929e+01,5.827369872404175588e+00,4.831613932920151289e-01,-1.236216676797461111e-01,-8.667587618878621614e-01,2.796756292657551057e+02
4.015251522166911613e+00,-1.226599897965697927e+01,5.320913606898983517e+00,5.205313243126086231e-01,-8.161001616063903730e-02,-8.499323182871677540e-01,2.847783471340310939e+02
2.711498493000426890e+00,-1.210140933080455738e+01,4.899557003688014944e+00,5.561082138412075659e-01,-3.931725520015815628e-02,-8.301781784288002619e-01,2.898810650023070821e+02
1.636841211385694939e+00,-1.203494606612351525e+01,4.663607126082641052e+00,5.897695162604187358e-01,3.110935731986912492e-03,-8.075643873811880757e-01,2.949837828705830702e+02
8.338164106379003515e-01,-1.203705850260538845e+01,4.595256732850359960e+00,6.213992839061707185e-01,4.552841080390224865e-02,-7.821688396810857480e-01,3.000865007388590584e+02
3.667260954088373270e-01,-1.204083745433293018e+01,4.615352924441773474e+00,6.508885663370705954e-01,8.778906108783858520e-02,-7.540790110872680474e-01,3.046363360441407622e+02
1.342334708753211425e-01,-1.198241546515260580e+01,4.656068277313104353e+00,3.530467469480713660e-01,-3.470154548966874336e-02,-9.349608533036490865e-01,3.097390539124167503e+02
2.106184085701666153e-01,-1.179460247180077204e+01,4.642089011245845498e+00,7.037969077847414968e-03,-1.524577465407114252e-01,-9.882839179664295592e-01,3.148417717806927385e+02
4.422894842321810072e-01,-1.156421235482030241e+01,4.572913074002896927e+00,-3.399311171327166758e-01,-2.494138242078200451e-01,-9.067731689340051693e-01,3.181628790913359808e+02
9.918401034615859091e-01,-1.106488249286683079e+01,4.363420837501110761e+00,-5.185780454046778898e-01,-2.414802034318519197e-01,-8.202207764825091285e-01,3.232655969596119689e+02
1.607080471220024620e+00,-1.047488663381301066e+01,4.046227006580590313e+00,-6.767571484783756475e-01,-2.240155907144355807e-01,-7.012950713495126331e-01,3.283683148278879571e+02
2.017841441952897164e+00,-1.001227777393924967e+01,3.743019254440433929e+00,-8.082253129099418176e-01,-1.977092919643354818e-01,-5.546898948431132625e-01,3.321363363200186996e+02
2.445001939408182778e+00,-9.395813180287245103e+00,3.219797864703343393e+00,-8.715371695230160753e-01,-8.907120224610422243e-02,-4.821693510249949743e-01,3.372390541882946877e+02
2.693303446840791260e+00,-8.837251188321554096e+00,2.539299180960437052e+00,-9.164858236229769251e-01,2.144359605114436185e-02,-3.994895584167746927e-01,3.423417720565706759e+02
2.723601247500618605e+00,-8.604722637059381896e+00,2.142927298705472161e+00,-9.421242249591278428e-01,1.315066141184218773e-01,-3.083925342567052641e-01,3.448145525317626152e+02
2.616109615867187710e+00,-8.166631114549844028e+00,1.184614186242844314e+00,-8.897783994557167953e-01,-4.378603821320003475e-01,-1.287271751446461554e-01,3.499172704000386034e+02
2.366139723247671522e+00,-7.687739431034323445e+00,5.110454754229910856e-02,-5.178248892707876250e-01,-8.499482567357179441e-01,9.717687442682351739e-02,3.550199882683145916e+02
2.335119289464909098e+00,-7.633665935178818529e+00,-7.111931332058327171e-02,4.013067837706964930e-02,-9.567354338150851900e-01,2.881750133786729062e-01,3.555309778770503613e+02
2.006060146808625877e+00,-7.030660939768558215e+00,-1.308519205128473750e+00,-3.190653100440768442e-01,-7.907936280524984207e-01,5.223416178693197631e-01,3.606336957453263494e+02
1.687573857252615550e+00,-6.371270602561504681e+00,-2.462899914976961480e+00,-6.108131569291477270e-01,-4.576837143757797044e-01,6.460889295737167748e-01,3.657364136136023376e+02
1.569482266948098559e+00,-6.063796916348191068e+00,-2.897042550268914329e+00,-7.734394829580593100e-01,-2.782269994254052761e-02,6.332576597006984720e-01,3.681045877814036089e+02
1.425362367760593330e+00,-5.400731720094200661e+00,-3.410308985979994656e+00,-8.019324113924398700e-01,4.836413738870352919e-02,5.954521960393309721e-01,3.732073056496795971e+02
1.453028328188043838e+00,-4.707873057694932584e+00,-3.405478907448301396e+00,-8.239733475458737022e-01,1.241618396871333879e-01,5.528560030375855305e-01,3.783100235179555852e+02
1.486816178904397656e+00,-4.556582388598005018e+00,-3.355089159353113359e+00,-8.393849702326822149e-01,1.989606059460879428e-01,5.058117723262104404e-01,3.793598141183315420e+02
1.821127975703010771e+00,-3.759144495529050722e+00,-2.970150726902204497e+00,-9.546185672167627478e-01,1.050900479629783973e-01,2.786709043710475786e-01,3.844625319866075301e+02
1.891986063964893772e+00,-3.635700336592656345e+00,-2.897043001178031929e+00,-9.995124463473579191e-01,3.476074853822136261e-03,3.099655623869159576e-02,3.851959836842198115e+02
2.421242119344065191e+00,-2.729717734549990116e+00,-2.328883940382463269e+00,-9.949995990489779452e-01,-1.369104740056427925e-02,9.892599814381911050e-02,3.902987015524957997e+02
2.871342979525466799e+00,-1.797336418490044219e+00,-1.703384252252052367e+00,-9.855819088356575497e-01,-3.079067619188642635e-02,1.663677710101751639e-01,3.954014194207717878e+02
3.175387674526207960e+00,-8.959349777039622431e-01,-1.066856446071810183e+00,-9.713057990604662129e-01,-4.773852323146542120e-02,2.329894377571906094e-01,4.005041372890477760e+02
3.281028003753011291e+00,-4.900633284205598850e-01,-7.525464138403530345e-01,-9.522416378884351884e-01,-6.445104825949368732e-02,2.984626030922815088e-01,4.029835074213354460e+02
3.433341616989986633e+00,2.788413816735917372e-01,-1.022161300096259828e-01,-9.791450055841435240e-01,-5.002513381780426122e-02,1.969023718125685884e-01,4.080862252896114342e+02
3.521837595347529604e+00,1.002028056591057092e+00,5.398414830302029621e-01,-9.950365138787055086e-01,-3.503661924837731673e-02,9.312771531167612915e-02,4.131889431578874223e+02
3.557080070839104824e+00,1.707902476264670399e+00,1.156636921107359273e+00,-9.997374461781953769e-01,-1.965407056571072744e-02,-1.169428145651112486e-02,4.182916610261634105e+02
3.550271566451961291e+00,2.424597499427064040e+00,1.731182503277182594e+00,-9.931949366135015556e-01,-4.050484981394206381e-03,-1.163847561160943345e-01,4.233943788944393987e+02
3.513250454612996787e+00,3.179961506453094167e+00,2.246493597529326980e+00,-9.754825643094779952e-01,1.159865454095854349e-02,-2.197663257654724478e-01,4.284970967627153868e+02
3.458488334879659121e+00,4.001546878500640503e+00,2.685589846329942798e+00,-9.467995259581560852e-01,2.711735267428403220e-02,-3.206763272033322232e-01,4.335998146309913750e+02
3.445508281589586996e+00,4.189214724779159127e+00,2.767843569502507428e+00,-9.074683959960352375e-01,4.233108088334876923e-02,-4.179798916918079366e-01,4.346758570963635862e+02
3.399581972899151872e+00,4.845431170556117273e+00,3.002483421639368544e+00,-9.307645227667402654e-01,2.035623305419771017e-02,-3.650493485877748245e-01,4.381166199131892540e+02
3.293697366861542797e+00,5.947168272670643852e+00,3.281580171092593368e+00,-8.768539500777677853e-01,-4.817870453081905813e-02,-4.783345718826804704e-01,4.432193377814652422e+02
3.123679130010743155e+00,6.962118945162352190e+00,3.471808911873708769e+00,-8.050231382455215190e-01,-1.157290162588656135e-01,-5.818440870886496530e-01,4.473147056441579821e+02
2.734591783723722358e+00,8.390098761687394102e+00,3.687290429700986305e+00,-6.648613579194170287e-01,-3.869873744797308057e-01,-6.389038634559262020e-01,4.524174235124339702e+02
2.120995441270526527e+00,9.917648068707597631e+00,3.849919477788078304e+00,-4.605521574514129801e-01,-6.209082304909684380e-01,-6.343206441348270275e-01,4.575201413807099584e+02
1.247264734154455157e+00,1.144717790862542550e+01,3.905778146045621124e+00,-2.118078093039809651e-01,-7.949223415837793905e-01,-5.685366503306142905e-01,4.626228592489859466e+02
1.110610651537259352e-01,1.279857841083167536e+01,3.811912716539828327e+00,5.737222548538242067e-02,-8.922404390948113218e-01,-4.478989021946955251e-01,4.677255771172619347e+02
-4.236424244383544813e-01,1.317480870371961110e+01,3.726194159566958763e+00,3.210168321857469476e-01,-9.034730737864281602e-01,-2.840468243033746898e-01,4.697893172940536601e+02
-1.799236787701809392e+00,1.347626868318365467e+01,3.374920067036346172e+00,5.306509892880537649e-01,-8.284301847233147553e-01,-1.791953029725943947e-01,4.748920351623296483e+02
-2.991334581390594050e+00,1.314134702472011718e+01,2.768117309346826538e+00,7.081426135596858851e-01,-7.032077294782339560e-01,-6.348959019785564706e-02,4.799947530306056365e+02
-3.810710232670974751e+00,1.242659425147701135e+01,1.869234443305298976e+00,8.427407107619564464e-01,-5.353906691791338046e-01,5.606180322583841080e-02,4.850974708988816246e+02
-4.344296089301341368e+00,1.163748276199703113e+01,7.717676920807626795e-01,9.262924267814296453e-01,-3.351439952488317608e-01,1.722174280861065165e-01,4.902001887671576128e+02
-4.637834880636927615e+00,1.093992685323091507e+01,-3.586645310912742191e-01,9.537368783165784958e-01,-1.145970186048572287e-01,2.779415231057972280e-01,4.953029066354336010e+02
-4.633906241457616204e+00,1.072692496431548648e+01,-7.288260856677022392e-01,9.234116994315789695e-01,1.128913219958340985e-01,3.668301824706081127e-01,4.970480855765802630e+02
-4.249292968378314939e+00,1.013836506335081644e+01,-1.690118602680765747e+00,7.886002429679753734e-01,1.174547725061632908e-01,6.035826647663864453e-01,5.021508034448562512e+02
-3.509478311633928982e+00,9.587107376049637253e+00,-2.432583949905176457e+00,5.952377460083714267e-01,1.132975786746278218e-01,7.955210144260400629e-01,5.072535213131322394e+02
-3.143924620944610560e+00,9.380953119239627824e+00,-2.660663219926209688e+00,3.576806899348005664e-01,1.007283969998794132e-01,9.283944819339026155e-01,5.092935532491214303e+02
-2.181686200818034660e+00,8.920890449788853260e+00,-3.062488908864904325e+00,2.862898258205880397e-01,7.699012271808100549e-02,9.550437982782831181e-01,5.143962711173974185e+02
-1.254229520122524422e+00,8.580273944359836591e+00,-3.251627201955340496e+00,2.130751994086781953e-01,5.276139593413065737e-02,9.756091402248370237e-01,5.194989889856733498e+02
-8.274104747287439610e-01,8.501268889611624857e+00,-3.277664052634222447e+00,1.385031816376407210e-01,2.819655161799694554e-02,9.899595058116033020e-01,5.221589158503056751e+02
-3.115218958682812178e-01,8.578825371635872443e+00,-3.234830226434461053e+00,1.246075468207035741e-01,-2.822065960359142478e-01,9.512257336851140943e-01,5.260877688296433234e+02
2.315837039090846983e-01,8.939757475684272592e+00,-3.030575394488609131e+00,-1.449094921132388358e-01,-8.619372436320178743e-02,9.856824442867564429e-01,5.311904866979192548e+02
6.084010992105748361e-01,9.304535195311716578e+00,-2.756291722825994661e+00,-3.981607598118536151e-01,1.194942394186458562e-01,9.094982881185080803e-01,5.348946455001930644e+02
1.152955557421017962e+00,9.812391693250310354e+00,-2.192263265644190273e+00,-6.762898265617868221e-01,-8.448599592772135236e-02,7.317733166637274689e-01,5.399973633684689958e+02
1.623786317287085890e+00,1.026386889752924070e+01,-1.463717970959756309e+00,-8.526033329704495456e-01,-2.757468421620244414e-01,4.438797535877894163e-01,5.451000812367449271e+02
1.831596759840540711e+00,1.053540371258451103e+01,-8.840432915212241838e-01,-9.005572594134187980e-01,-4.254939811274766059e-01,8.915993798546620330e-02,5.487578508758375619e+02
1.942362303115828803e+00,1.084783660377506109e+01,-1.065590386387639255e-01,-9.209552927247615095e-01,-3.265322504961286065e-01,2.126406315522595403e-01,5.538605687441134933e+02
1.934261339636561106e+00,1.111136605122755405e+01,5.006924596453874443e-01,-9.179085388270779022e-01,-2.192580159263528006e-01,3.307080839643815051e-01,5.589632866123894246e+02
1.881624238514719050e+00,1.134456848893105985e+01,7.836203484162425070e-01,-8.914945757134451476e-01,-1.064021420410285884e-01,4.403566800238456480e-01,5.640660044806653559e+02
1.859247320097312750e+00,1.146267948003553627e+01,7.615971550750784136e-01,-8.423858196307104640e-01,9.162423034128650695e-03,5.387951195844964403e-01,5.667325292824807548e+02
1.854022182395951290e+00,1.172731462402777503e+01,4.369440952404413103e-01,-9.895881283453584754e-01,-4.107554366271119750e-02,1.379352599976840787e-01,5.718352471507566861e+02
1.877884202743135278e+00,1.192211797841796184e+01,1.455750783910122470e-01,-9.538340189425839055e-01,-8.371941023893360312e-02,-2.884262898151057075e-01,5.745878449669344263e+02
1.976748376889190695e+00,1.242149941498088062e+01,-4.888678068062440318e-01,-9.051368961221052389e-01,-2.372629548308720360e-01,-3.527484791500350991e-01,5.796905628352103577e+02
2.124172069903313975e+00,1.307371793609028821e+01,-1.119700464353992508e+00,-8.292092665027226417e-01,-3.836685387674595438e-01,-4.064584169451135875e-01,5.847932807034862890e+02
2.299452423467216899e+00,1.387790023422949126e+01,-1.591932522718369825e+00,-7.283353657815533344e-01,-5.185316705819397187e-01,-4.479402879344179800e-01,5.898959985717622203e+02
2.327721811382779116e+00,1.401799336970443477e+01,-1.644591992299876848e+00,-6.055499007498807984e-01,-6.377950989821628003e-01,-4.759461412967730953e-01,5.906809412960609507e+02
2.478683342536646794e+00,1.499164337298284266e+01,-1.868728557360176845e+00,-7.893492392432494009e-01,-6.134537429938405895e-01,-2.450068800270988750e-02,5.957836591643368820e+02
2.508684936283812394e+00,1.596426508662405119e+01,-1.957378839773139090e+00,-7.851427792650187421e-01,-4.430010055482628828e-01,4.327804584897683715e-01,6.008863770326128133e+02
2.303402092826365877e+00,1.680624323301130119e+01,-2.064903725379457988e+00,-5.939322856936890549e-01,-1.670349962677392941e-01,7.869826872505089055e-01,6.059890949008887446e+02
1.939284206485101691e+00,1.726233726607724606e+01,-2.218304704295489760e+00,-2.612600762378851638e-01,1.487150426055310892e-01,9.537426323002253792e-01,6.097110450391924132e+02
1.176747154106894566e+00,1.766156577712504117e+01,-2.508709128953635403e+00,-1.217802712332579640e-01,1.335546366941497143e-01,9.835297273369884019e-01,6.148137629074683446e+02
2.312734067110593650e-01,1.786425490365596502e+01,-2.799940764280632433e+00,2.020474093464585605e-02,1.156467798208222486e-01,9.930838790156247819e-01,6.199164807757442759e+02
-7.979578696838885987e-01,1.790228823360816079e+01,-2.992305684519887876e+00,1.617740896780945903e-01,9.535986787293772304e-02,9.822085519420171718e-01,6.250191986440202072e+02
-1.800125676154873400e+00,1.780294111490267284e+01,-3.027909916438374260e+00,3.000154581959881273e-01,7.311123686912603115e-02,9.511274740469083389e-01,6.301219165122961385e+02
-2.642532556513523367e+00,1.758607477936005026e+01,-2.939543598693062254e+00,4.320849915413960685e-01,4.935857801688101065e-02,9.004800335713427639e-01,6.352246343805720699e+02
-2.873400882956015590e+00,1.746886918484405271e+01,-2.890183574625263319e+00,5.552657964305488525e-01,2.459052275580159153e-02,8.313081266922482948e-01,6.371174584142792128e+02
-3.181753220275000515e+00,1.706032168870428833e+01,-2.800000622222376112e+00,4.631896710134732476e-01,1.036959860454359783e-01,8.801707056813327101e-01,6.422201762825551441e+02
-3.182919207672494810e+00,1.695032501145075443e+01,-2.793443072531684557e+00,3.631822272315072264e-01,1.810258310843818885e-01,9.139618801120789060e-01,6.433725468516915953e+02
-2.878603525247716011e+00,1.640692767525406026e+01,-2.814201474860355656e+00,3.241102150705587603e-01,1.447647613570334224e-01,9.348763192797550081e-01,6.484752647199675266e+02
-2.263553815344730769e+00,1.583228429136854842e+01,-2.841109210285376552e+00,2.839754847833964591e-01,1.080290298333691085e-01,9.527253816023311117e-01,6.535779825882434579e+02
-1.596601877212019405e+00,1.526292351029786154e+01,-2.812152560933754319e+00,2.429096248193647334e-01,7.093908061629410067e-02,9.674505470592802414e-01,6.586807004565193893e+02
-1.301594238723533969e+00,1.494077964754907661e+01,-2.768024662111575829e+00,2.010472758175117503e-01,3.361651892497600352e-02,9.790035355070010326e-01,6.617323382391290352e+02
-1.199074315347776087e+00,1.445225246971150312e+01,-2.694892069575451909e+00,2.473573416053947982e-01,-4.694433759714186083e-01,8.476056054031025910e-01,6.668350561074049665e+02
-1.268582427763199849e+00,1.434773402675408249e+01,-2.684630364868483277e+00,2.262675163163431480e-01,-8.445894241975963057e-01,4.852522185354070094e-01,6.680650890504787185e+02
-1.336234776577186478e+00,1.429243865476015252e+01,-2.681080282050997798e+00,4.055775384807538964e-01,-9.127125514261350547e-01,4.960502743190017133e-02,6.687884314097042306e+02
-2.052583742561997937e+00,1.391326370210293284e+01,-2.578237945305390522e+00,6.217140440035739957e-01,-7.770578565173568153e-01,-9.823815507734497132e-02,6.738911492779801620e+02
-2.908646848951046415e+00,1.336885912943737331e+01,-2.254910712396448247e+00,7.837769533219632878e-01,-5.738186496754892341e-01,-2.375370386396491729e-01,6.789938671462560933e+02
-3.596065936756215553e+00,1.256827924619991244e+01,-1.816826103298244455e+00,8.776709321249097639e-01,-3.206715997177600475e-01,-3.561761643301871727e-01,6.837170244028750403e+02
-4.221508621593818233e+00,1.149837841841214470e+01,-1.289809506872148903e+00,9.353517278663431300e-01,-3.531941158099962119e-01,1.921097952689013177e-02,6.888197422711509716e+02
-4.503353391983905496e+00,1.087117616872756187e+01,-9.318198181406094349e-01,8.571253850017993559e-01,-3.343973246369426611e-01,3.918067172224101724e-01,6.916667660166650649e+02
-4.790309164920685703e+00,9.746576231420018388e+00,-1.104392660084494993e-01,9.609650236945244117e-01,-2.617693100790416394e-01,8.956032344938064105e-02,6.967694838849409962e+02
-4.744131639818536250e+00,8.657350200375322657e+00,8.405316683497050523e-01,9.615868215451642831e-01,-1.610244667169664079e-01,-2.223058832977275190e-01,7.018722017532169275e+02
-4.298427801736806053e+00,7.630854782677747750e+00,1.752412548839932471e+00,8.589239242919926021e-01,-4.298386039612582532e-02,-5.102941112964344272e-01,7.069749196214928588e+02
-3.555233013668880115e+00,6.681624504955992805e+00,2.530327376433777253e+00,6.640034228654485560e-01,7.967366853515409075e-02,-7.434712912848565614e-01,7.120776374897687901e+02
-2.766469768415460440e+00,5.800390522072468968e+00,3.195693818506774253e+00,3.977619196972795867e-01,1.937733727699939290e-01,-8.967916899949489595e-01,7.171803553580447215e+02
-2.670237191179956060e+00,5.690349027609350685e+00,3.276671686207849987e+00,8.879664792912314586e-02,2.870597317492672995e-01,-9.537871176131543782e-01,7.178445399228132828e+02
-1.982521293420335562e+00,4.861098344339765731e+00,3.850947279459620454e+00,5.150141437043660730e-02,3.428391973585539487e-01,-9.379802178457957718e-01,7.229472577910892142e+02
-1.386870589126944386e+00,4.032245917794812229e+00,4.330370506133474073e+00,1.396144539218444405e-02,3.969894293875702584e-01,-9.177158988460901723e-01,7.280499756593651455e+02
-8.883854047699109024e-01,3.169465025214375231e+00,4.706783338993946408e+00,-2.364486737138416644e-02,4.492531042808308728e-01,-8.930904593258455204e-01,7.331526935276410768e+02
-4.929967246224009614e-01,2.238561483269643215e+00,4.972035182519896068e+00,-6.113881716984715525e-02,4.993818630661026603e-01,-8.642209207566340368e-01,7.382554113959170081e+02
-2.081975133138417033e-01,1.227092020466426847e+00,5.124263064709917437e+00,-9.834223112957808655e-02,5.471374912406588020e-01,-8.312444714119266997e-01,7.433581292641929394e+02
-1.428239243704627626e-01,8.673409091886241651e-01,5.151727771614590168e+00,-1.350783167135375107e-01,5.922930504955439268e-01,-7.943178146597187350e-01,7.450817012064642313e+02
-4.687065114783232206e-02,-2.161022981524886311e-01,5.173485330295101825e+00,-4.018727810273534096e-02,6.030468666326996852e-01,-7.966915710118614991e-01,7.501844190747401626e+02
-8.260419626156641215e-02,-1.278205747855230001e+00,5.115655315739631170e+00,5.507047464450810781e-02,6.082975137194402970e-01,-7.917950351091335159e-01,7.552871369430160939e+02
-2.574338385971353671e-01,-2.265925497107232900e+00,4.995236964610740849e+00,1.498256713422536912e-01,6.079970793039449761e-01,-7.796728927973497481e-01,7.603898548112920253e+02
-5.638707631466188808e-01,-3.150876067315482310e+00,4.830074719962426322e+00,2.432136280182990162e-01,6.021483045558312375e-01,-7.604357635361509438e-01,7.654925726795679566e+02
-8.916522578426401280e-01,-3.804326035636653724e+00,4.675144365855357087e+00,3.343821359870922105e-01,5.908045592919859423e-01,-7.342591911922405901e-01,7.696479731042927597e+02
-1.346284393309065130e+00,-4.567088534772651087e+00,4.478286310217111321e+00,3.759402948445600967e-01,5.900207643536886648e-01,-7.145224925352247070e-01,7.747506909725686910e+02
-1.810287459105997643e+00,-5.335418698921563951e+00,4.293174960306228805e+00,4.167024896116950372e-01,5.879877566039308778e-01,-6.932729860816386758e-01,7.798534088408446223e+02
-2.237427185982201916e+00,-6.158839706127856140e+00,4.140181452986828603e+00,4.565824219915856630e-01,5.847098408669266778e-01,-6.705556605659270808e-01,7.849561267091205536e+02
-2.582621471843921324e+00,-7.088017981533756284e+00,4.039674600625674294e+00,4.954956613609684535e-01,5.801939571830548870e-01,-6.464186117494032935e-01,7.900588445773964850e+02
-2.812894982679980060e+00,-8.147577003162083997e+00,3.998696259114586926e+00,5.333598234055473286e-01,5.744496661187805664e-01,-6.209129406510894844e-01,7.951615624456724163e+02
-2.827190927650743202e+00,-8.247177884848875706e+00,3.997618064027645968e+00,5.700947444319367508e-01,5.674891285406610253e-01,-5.940926454301153070e-01,7.956096880932685735e+02
-2.922286690808936882e+00,-9.425204240847186554e+00,3.996128774361585201e+00,4.119966938747774976e-01,6.482979796809106299e-01,-6.402862280089042235e-01,8.007124059615445049e+02
-2.890965362526370264e+00,-1.064379075551069853e+01,3.998732059419426221e+00,2.400312890611554228e-01,7.072857741441059831e-01,-6.649284277011433542e-01,8.058151238298204362e+02
-2.731020763427226772e+00,-1.184705584826448010e+01,3.972492744463653302e+00,5.998669237365646112e-02,7.424670593805774432e-01,-6.671898249171192008e-01,8.109178416980963675e+02
-2.442942616895614538e+00,-1.298132804721113587e+01,3.895381825930305020e+00,-1.220770041665178718e-01,7.526576747843485293e-01,-6.469943041804442352e-01,8.160205595663722988e+02
-2.070147106232118173e+00,-1.390948798213459270e+01,3.779329450934899359e+00,-3.000317457474852567e-01,7.375146072673177677e-01,-6.050216158211308981e-01,8.206767168190084476e+02
-1.550844623031495617e+00,-1.476418489425143221e+01,3.612297633599284463e+00,-4.063975030282785394e-01,6.504176090912898722e-01,-6.417133342200446178e-01,8.257794346872843789e+02
-9.289888257502584290e-01,-1.540947989666126716e+01,3.414625387672378665e+00,-5.045353674384431830e-01,5.501523497259431794e-01,-6.654129958862683436e-01,8.308821525555603102e+02
-2.125383969008493301e-01,-1.579738023588782525e+01,3.197008293768877074e+00,-5.924584680835101036e-01,4.387487773254482026e-01,-6.756407876905349275e-01,8.359848704238362416e+02
5.615147227519445838e-01,-1.591312477735304753e+01,2.973135977215057846e+00,-6.683867357664433628e-01,3.184623381193512626e-01,-6.721896389043627851e-01,8.410875882921121729e+02
1.139475720772587852e+00,-1.582845595303225039e+01,2.807362321649190751e+00,-7.307829390721293228e-01,1.917283171924496210e-01,-6.551294134342396935e-01,8.450502774749064656e+02
1.739760874415633873e+00,-1.556749540030524237e+01,2.624438808174879512e+00,-4.897058176261014917e-01,4.006379452333986846e-01,-7.743871441485197238e-01,8.501529953431823969e+02
2.070610203057060339e+00,-1.522802545470253932e+01,2.495203295798980925e+00,-1.918306644477444090e-01,5.630799485511205349e-01,-8.038283198030897747e-01,8.552557132114583283e+02
1.999761065288091944e+00,-1.488594017648738799e+01,2.442316894927551996e+00,1.282937754439595346e-01,6.602136712667696639e-01,-7.400382526971249764e-01,8.603584310797342596e+02
1.747242667725726006e+00,-1.473790844317683479e+01,2.449988368252345339e+00,4.335382079058882621e-01,6.807731557930066790e-01,-5.904155592779520845e-01,8.629342386695808500e+02
8.646907262923483328e-01,-1.450683403187487563e+01,2.518572199112980581e+00,4.274559928245559304e-01,6.652923811437215784e-01,-6.120991927606682648e-01,8.680369565378567813e+02
-3.117162130396770592e-01,-1.433329894425147444e+01,2.625174135690296673e+00,4.210545425577043588e-01,6.493147502474215793e-01,-6.333256881657014503e-01,8.731396744061327126e+02
-1.621123693526799414e+00,-1.421436665021344581e+01,2.729261849508778148e+00,4.143386370016829967e-01,6.328521933143949063e-01,-6.540791964988896812e-01,8.782423922744086440e+02
-2.933263921092683191e+00,-1.413811738054479505e+01,2.802307656872724984e+00,4.073132906969813005e-01,6.159170024007748490e-01,-6.743442217168796882e-01,8.833451101426845753e+02
-3.618712617749125560e+00,-1.410538855623921073e+01,2.825958683842755281e+00,3.999837490910118087e-01,5.985218222498475127e-01,-6.941056322644151289e-01,8.861277674418493007e+02
-4.789895515606196419e+00,-1.402561568863897534e+01,2.845440840513803860e+00,5.037366599916490717e-01,4.974946012671910833e-01,-7.062198659693604830e-01,8.912304853101252320e+02
-5.832339982782355214e+00,-1.388258516393390352e+01,2.840940865004881299e+00,5.968516589930045191e-01,3.859613342395999402e-01,-7.034201771550021576e-01,8.963332031784011633e+02
-6.704500374077912106e+00,-1.363144395916982532e+01,2.819952236833370929e+00,6.773623656592278053e-01,2.662773654146218250e-01,-6.857656963248417448e-01,9.014359210466770946e+02
-7.370313914293279645e+00,-1.324446099613282968e+01,2.790149892441069479e+00,7.435685710557941031e-01,1.409701587012698043e-01,-6.536292484988550644e-01,9.065386389149530260e+02
-7.718529002945248685e+00,-1.283883365429206869e+01,2.765660984362781072e+00,7.940721394634776553e-01,1.268592724286120473e-02,-6.076894803902974651e-01,9.105434102222230877e+02
-7.925010553154808512e+00,-1.221173990039398660e+01,2.740390212106100343e+00,7.821293135924025641e-01,-9.517392420248518836e-02,-6.158032648238127571e-01,9.156461280904990190e+02
-7.871785554329869150e+00,-1.149387098528269924e+01,2.729006426192889467e+00,7.609243318997006567e-01,-2.019066873575039445e-01,-6.166245622090802403e-01,9.207488459587749503e+02
-7.756125156558565159e+00,-1.116830692524470336e+01,2.728514451557058962e+00,7.307082978914566374e-01,-3.062484534175214934e-01,-6.101436455193797181e-01,9.228909053869982699e+02
-7.296602033212357341e+00,-1.040170168384437943e+01,2.703566440979196628e+00,5.911901976505983258e-01,-4.658264382936552206e-01,-6.584055585940005173e-01,9.279936232552742013e+02
-6.693149912576981109e+00,-9.754633714807447120e+00,2.589454719549289852e+00,4.237326218485639728e-01,-6.033895729966451960e-01,-6.755513958087572268e-01,9.330963411235501326e+02
-6.176190180252649320e+00,-9.405893130311996586e+00,2.393225327269715930e+00,2.362495006703073108e-01,-7.124367061969427706e-01,-6.607708476428861832e-01,9.370807486005321607e+02
-5.520554672913702277e+00,-9.147439182550792580e+00,1.976795420834945416e+00,5.953432964537345162e-01,-6.545131372239075818e-01,-4.660224378381513377e-01,9.421834664688080920e+02
-4.929494446102854255e+00,-9.013583516988752820e+00,1.369654618452781580e+00,8.530913239875246301e-01,-4.851713061098107405e-01,-1.919426910949424969e-01,9.472861843370840234e+02
-4.463903836689592453e+00,-8.932441730595980900e+00,5.588020033055376423e-01,9.656169696948486703e-01,-2.332384568375762968e-01,1.148115416212211193e-01,9.523889022053599547e+02
-4.334985349640893659e+00,-8.913254515083917084e+00,2.080175564286157464e-01,9.137650062603823731e-01,5.839867761379580885e-02,4.020212777790974079e-01,9.542783250778740012e+02
-3.980214122900300300e+00,-8.949920739241646217e+00,-7.659043613792861915e-01,7.645536588456407490e-01,-2.095698360797613458e-01,6.095376826345660914e-01,9.593810429461499325e+02
-3.445400877599039013e+00,-9.050313865928133694e+00,-1.618342052283058941e+00,5.104956531057331937e-01,-4.487990896412228370e-01,7.334654492869159270e-01,9.644837608144258638e+02
-2.695718129061890345e+00,-9.066839756229628122e+00,-2.206835963588306804e+00,1.864310970614042051e-01,-6.264825166180114646e-01,7.568098191888921189e-01,9.695864786827017952e+02
-2.367214956722304642e+00,-9.007646383546250135e+00,-2.363070049367748116e+00,-1.631996013574794069e-01,-7.182535969303122103e-01,6.763694704920204526e-01,9.716224547865216437e+02
-1.630522783211741489e+00,-8.693110050273652689e+00,-2.606855193840686091e+00,3.892961216231061866e-02,-4.942102129461699578e-01,8.684691996362121635e-01,9.767251726547975750e+02
-1.128016111973174640e+00,-8.268481293026971102e+00,-2.679059098290501151e+00,2.360776077336214085e-01,-2.069305635286216305e-01,9.494446297728814654e-01,9.818278905230735063e+02
-1.034531779707003940e+00,-8.022601779671758138e+00,-2.659991823260540400e+00,4.030185154940728598e-01,1.068267975449033458e-01,9.089346024302084048e-01,9.846617216642423500e+02
-1.234769333571033245e+00,-7.620452743134380924e+00,-2.577061228528437997e+00,2.837280585598348503e-01,5.211419225458242543e-01,8.049270062255350355e-01,9.897644395325182813e+02
-1.719605893150794262e+00,-7.288821364861487240e+00,-2.526843686514992360e+00,1.086268336571177412e-01,8.329456927850638071e-01,5.425861073420030767e-01,9.948671574007942127e+02
-1.888494015397514492e+00,-7.217142402756628883e+00,-2.534414967139699382e+00,-8.784186533979901346e-02,9.809047422131849103e-01,1.735156863147147288e-01,9.963080721445891186e+02
-2.129113274506916120e+00,-7.151054564830525706e+00,-2.583601515587680364e+00,-9.120863215575814031e-02,9.528777375283883355e-01,2.893147122568851537e-01,9.982628499524549852e+02
-2.775892101050630334e+00,-7.059047655237205454e+00,-2.962155607372848998e+00,6.686275857884757534e-02,9.495860820812919156e-01,3.062901308101882436e-01,1.003365567820730917e+03
-3.431535880510681480e+00,-7.013985021724011837e+00,-3.611803205855232957e+00,2.232434505466802388e-01,9.222835668964572964e-01,3.155208139249378041e-01,1.008468285689006848e+03
-4.085547713523825841e+00,-6.964114778844108677e+00,-4.365125338031055513e+00,3.739792988371756222e-01,8.716605536579193902e-01,3.167733625748738180e-01,1.013571003557282779e+03
-4.257460432350082868e+00,-6.942547346883246817e+00,-4.565284507011371673e+00,5.152588863929103979e-01,7.989970563889587929e-01,3.100161026036265532e-01,1.014927113146262741e+03
-4.886864503523991488e+00,-6.834649568366402583e+00,-5.183042333225781562e+00,4.966659313414698018e-01,8.527287262287128744e-01,-1.617858835289636144e-01,1.020029831014538672e+03
-5.479204972502230930e+00,-6.728189404262215234e+00,-5.428385974674815984e+00,3.659107704754778756e-01,7.138884130418955420e-01,-5.970516240451352319e-01,1.025132548882814717e+03
-5.903093887261825046e+00,-6.661516687540548709e+00,-5.237667786305365780e+00,1.525219099046763171e-01,4.138305309185885683e-01,-8.974850186376609473e-01,1.029186408249044007e+03
-6.339728437605086420e+00,-6.566993297109807948e+00,-4.550039660045146483e+00,2.425157598173829920e-01,2.440578947572429602e-01,-9.389461380967057957e-01,1.034289126117319938e+03
-6.626903702967679166e+00,-6.396826087816348760e+00,-3.520100252586666034e+00,3.231386063384180107e-01,6.485471499707329279e-02,-9.441256839193918893e-01,1.039391843985595870e+03
-6.709776341454012361e+00,-6.084080510837019062e+00,-2.300541713655507525e+00,3.912751430819524923e-01,-1.168545017616813286e-01,-9.128235250167722192e-01,1.044494561853871801e+03
-6.625105575521054391e+00,-5.766975937855089995e+00,-1.472187245061940208e+00,4.442925330450098742e-01,-2.940484146739573701e-01,-8.462491801518494672e-01,1.047937477491331720e+03
-6.372952490820266824e+00,-5.235567195441991117e+00,-5.647466691611616740e-01,5.902010640224840676e-01,-1.606419554996387777e-01,-7.911098951219630582e-01,1.053040195359607651e+03
-6.135932168732225023e+00,-4.814823987471106292e+00,-2.373562987620558840e-01,7.112461664553928475e-01,-2.046816288269905082e-02,-7.026435405031076220e-01,1.058142913227883582e+03
-6.084372331541410439e+00,-4.691536267079426281e+00,-3.528617583786132217e-01,8.023286080040100687e-01,1.205678892454667278e-01,-5.845769315164430768e-01,1.063245631096159514e+03
-6.235096831510502646e+00,-4.883983418694176848e+00,-5.455967011895587193e-01,8.596113696936185100e-01,2.565248041871116547e-01,-4.418838285453327019e-01,1.066707081701501465e+03
-6.681394400547683077e+00,-5.550198815701050670e+00,-9.030473353194707897e-01,8.620064021864545234e-01,4.554835027240164980e-01,-2.224359263614112681e-01,1.071809799569777397e+03
-7.219644618890038501e+00,-6.504391940672868522e+00,-1.330661773376243140e+00,7.887622260141199382e-01,6.144744925786125300e-01,1.653023847350860651e-02,1.076912517438053328e+03
-7.686542782569617316e+00,-7.648445707051706677e+00,-1.810156611982471908e+00,6.463058691143883649e-01,7.195466653182499561e-01,2.540459013213804962e-01,1.082015235306329259e+03
-7.965578651092448226e+00,-8.894065272814097867e+00,-2.299630927913630885e+00,4.471375702400874341e-01,7.614801717976917850e-01,4.692695826912868240e-01,1.087117953174605191e+03
-8.008538271347859450e+00,-9.516768053186439147e+00,-2.520135658166827497e+00,2.087339105856977628e-01,7.365954377039416467e-01,6.433158755431193088e-01,1.089610721660217450e+03
-7.925372524597789514e+00,-1.075936016892270075e+01,-2.852436727713845599e+00,1.514314348964406753e-01,7.162435812450612671e-01,6.812207078832573925e-01,1.094713439528493382e+03
-7.672224256409108101e+00,-1.189757251234697932e+01,-2.946268749297642930e+00,9.335143481786867259e-02,6.922141343647357781e-01,7.156277676290627721e-01,1.099816157396769313e+03
-7.272667828182620475e+00,-1.285489424695417249e+01,-2.784557311699545235e+00,3.479212124253142080e-02,6.646304770932025541e-01,7.463603936550895490e-01,1.104918875265045244e+03
-6.748867653936417632e+00,-1.356805052957516544e+01,-2.533649951354161267e+00,-2.394583423811635567e-02,6.336342375705513730e-01,7.732607904191601822e-01,1.110021593133321176e+03
-6.123421474030246614e+00,-1.400372447442665447e+01,-2.376472648750716843e+00,-8.256084284968255582e-02,5.993845649700393352e-01,7.961908379918418710e-01,1.115124311001597107e+03
-5.421722172072867885e+00,-1.417522042838660035e+01,-2.345685127989047825e+00,-1.407519468566808540e-01,5.620573125137711124e-01,8.150328011216406709e-01,1.120227028869873038e+03
-5.322145037500220610e+00,-1.417606104854975335e+01,-2.348963711863518711e+00,-1.982203645554555527e-01,5.218441347664452001e-01,8.296899337001988339e-01,1.120916268133958056e+03
-4.565448745780388506e+00,-1.403725851937143432e+01,-2.404185972990631637e+00,-2.619442823291617817e-01,4.357357835015963632e-01,8.611141155092112420e-01,1.126018986002233987e+03
-3.791692864469358160e+00,-1.371076930693382501e+01,-2.495094972862577087e+00,-3.224036070718578895e-01,3.441969215486526124e-01,8.818063241672982056e-01,1.131121703870509918e+03
-3.030180927024137105e+00,-1.323125139624296764e+01,-2.579202555359678239e+00,-3.788448560334911064e-01,2.483683664334652430e-01,8.915086817355777349e-01,1.136224421738785850e+03
-2.380909954520335159e+00,-1.269893240919599364e+01,-2.617924784114044723e+00,-4.305646190694541464e-01,1.494443942548545068e-01,8.901002650425020590e-01,1.140774273705619635e+03
-1.690525859973274869e+00,-1.202414988561975839e+01,-2.597668106956683598e+00,-3.993532689480970288e-01,2.720025948642779134e-01,8.755167359712928699e-01,1.145876991573895566e+03
-1.034464803113617215e+00,-1.131539431960237430e+01,-2.494463069546412726e+00,-3.616694621659926057e-01,3.901523180823492365e-01,8.467433901896926907e-01,1.150979709442171497e+03
-4.010058646886436873e-01,-1.061803487039644445e+01,-2.326488280964563948e+00,-3.181239479053907804e-01,5.019786977094730096e-01,8.042465671753287193e-01,1.156082427310447429e+03
-2.167092837350127754e-02,-1.022702745033762817e+01,-2.218489444219351459e+00,-2.694224725775100637e-01,6.056693468431890714e-01,7.487150149173941172e-01,1.159163147939665123e+03
5.774286851556096334e-01,-9.647997949605443324e+00,-2.077754985069619753e+00,-3.135476876798810597e-01,4.872887183040380821e-01,8.150064739392667290e-01,1.164265865807941054e+03
1.051948623271671268e+00,-9.126402146109661828e+00,-2.035714799726212387e+00,-3.512904423923414732e-01,3.589890602803552655e-01,8.647079736429084118e-01,1.169368583676216986e+03
1.274464877047280620e+00,-8.631446632219143211e+00,-2.168918739110931693e+00,-3.818824708096972831e-01,2.233819624246425051e-01,8.968078263208135725e-01,1.174471301544492917e+03
1.275734623554151792e+00,-8.621721681148073912e+00,-2.173683234489096616e+00,-4.047010577030530354e-01,8.322775556537571895e-02,9.106526201553952760e-01,1.174572544216097185e+03
1.176885192478131392e+00,-8.129140943997704483e+00,-2.526952368569151286e+00,-5.156397528170452160e-01,3.421603770727106308e-01,7.855188868998005391e-01,1.179675262084373117e+03
8.064139151559013285e-01,-7.633017420547897558e+00,-3.081261331837783946e+00,-5.775864083727795251e-01,5.685835847279356869e-01,5.857513534265977873e-01,1.184777979952649048e+03
2.693275954749573264e-01,-7.138666706973562981e+00,-3.786841123251039054e+00,-5.846553578272032370e-01,7.409844643890977078e-01,3.303303438953226756e-01,1.189880697820924979e+03
7.476395762416108981e-02,-6.982964259061039236e+00,-4.037437531629833209e+00,-5.361749550378073215e-01,8.429828508085799310e-01,4.352391104575367708e-02,1.191515502964395637e+03
-5.549166829637542930e-01,-6.526319435420987247e+00,-4.868295894934350443e+00,-4.207491660449952375e-01,8.499746814713338150e-01,3.170349825022868995e-01,1.196618220832671568e+03
-1.193937748225262663e+00,-6.151468891630577751e+00,-5.754619775526766290e+00,-2.682215464369481217e-01,7.820153565757131942e-01,5.625897120521814454e-01,1.201720938700947499e+03
-1.824640694246718597e+00,-5.928387147090481868e+00,-6.666329984232804762e+00,-9.204204450355907285e-02,6.450975808498712327e-01,7.585350177977742137e-01,1.206823656569223431e+03
-2.131608997542064898e+00,-5.906143454046206998e+00,-7.123237156020944205e+00,9.225377923587627094e-02,4.512948037401119938e-01,8.875923841121797775e-01,1.209372830102821126e+03
