1.852407963573524663e+00,-5.773828419280389035e+00,-7.679499380797176755e-01,-9.478674272343498020e-01,-1.588184338187156874e-01,-2.762644484322803184e-01,3.681045877814036089e+02
1.833138155388815305e+00,-4.960011040778583791e+00,-1.055905654046007225e+00,-9.623092671657929031e-01,-9.530553319899494336e-02,-2.547071448964747242e-01,3.732073056496795971e+02
1.940684289654599937e+00,-4.245400791920610040e+00,-1.338996183649274085e+00,-9.722213400667069072e-01,-3.134403004939309567e-02,-2.319508950016010707e-01,3.783100235179555852e+02
1.972611117420807414e+00,-4.112516444315947872e+00,-1.407062681612630151e+00,-9.775569931908426602e-01,3.276502532060514977e-02,-2.081028067372556467e-01,3.793598141183315420e+02
2.127029986133180728e+00,-3.455206095791502729e+00,-1.724353718148112335e+00,-9.579636873506450767e-01,-2.963152015118244303e-02,-2.853516194521067417e-01,3.844625319866075301e+02
2.149305910174676981e+00,-3.358399126332806794e+00,-1.766872311759643877e+00,-9.285564022349126478e-01,-9.172450088445331662e-02,-3.596771104733063051e-01,3.851959836842198115e+02
2.361483275908051294e+00,-2.598096155490130510e+00,-1.870278434105369536e+00,-9.747309843811829966e-01,-1.272740366036768933e-01,-1.835724044988331083e-01,3.902987015524957997e+02
2.644028112070475611e+00,-1.699725252576349543e+00,-1.631876269585530004e+00,-9.873662456813783184e-01,-1.584442223428341179e-01,-1.151214501998904047e-03,3.954014194207717878e+02
2.914296552800047735e+00,-7.252069662973386066e-01,-1.123015416558008406e+00,-9.660274255543965793e-01,-1.841625364979154467e-01,1.813096059969863949e-01,4.005041372890477760e+02
3.028023402455353619e+00,-2.402004559492415814e-01,-8.084869717458840199e-01,-9.114487421241554976e-01,-2.035440443245532804e-01,3.575318342459592458e-01,4.029835074213354460e+02
3.213223726057770513e+00,7.498004838732807986e-01,-8.244827307290136797e-02,-9.493181312964713570e-01,-2.107636998389355310e-01,2.331775041070225651e-01,4.080862252896114342e+02
3.327466767581603868e+00,1.704974103359782944e+00,7.163687420113031834e-01,-9.710963409821181669e-01,-2.144108581885186549e-01,1.048707796373760104e-01,4.131889431578874223e+02
3.386782833492371303e+00,2.590246516374312691e+00,1.502949619227728961e+00,-9.764142333892786851e-01,-2.144237008939430811e-01,-2.521351482050858753e-02,4.182916610261634105e+02
3.406533296037420833e+00,3.369983013009751893e+00,2.192280786818697536e+00,-9.651816734763303263e-01,-2.108020111880754000e-01,-1.548704273395852260e-01,4.233943788944393987e+02
3.401405005938805903e+00,4.008001500999330169e+00,2.699355692505326587e+00,-9.375890560616113589e-01,-2.036071775515201909e-01,-2.819022511488822880e-01,4.284970967627153868e+02
3.378489547703102502e+00,4.547514532636213858e+00,2.985009092475221504e+00,-8.941040785941044566e-01,-1.929611531815714209e-01,-4.041557744285286247e-01,4.335998146309913750e+02
3.371792856330535493e+00,4.658017537117351559e+00,3.021506456415171016e+00,-8.354638142855157490e-01,-1.790443890288792583e-01,-5.195587760555165913e-01,4.346758570963635862e+02
3.346329597820036028e+00,5.053172976816922457e+00,3.118184125545797603e+00,-9.043359457275228497e-01,-7.835110203738215873e-02,-4.195659686675815570e-01,4.381166199131892540e+02
3.261002253801526862e+00,5.863562854977705463e+00,3.225580406708179027e+00,-8.762413803611299734e-01,-3.834977004411479345e-02,-4.803418974751450521e-01,4.432193377814652422e+02
3.115299174148974171e+00,6.721745378830195072e+00,3.327817930148023073e+00,-8.428165173371100494e-01,1.884850440595252970e-03,-5.381958430085302947e-01,4.473147056441579821e+02
2.775840013710364040e+00,7.989115520010323657e+00,3.531682538718496467e+00,-7.345969264617039363e-01,-2.612180113567577622e-01,-6.262032466986210411e-01,4.524174235124339702e+02
2.239376811803635459e+00,9.403520594900204088e+00,3.779748946692802036e+00,-5.612332473657061227e-01,-5.011560145250979481e-01,-6.586788983691923560e-01,4.575201413807099584e+02
1.521897646253808301e+00,1.083964860331510138e+01,3.973715474106452650e+00,-3.380994054874440491e-01,-6.966514515169841548e-01,-6.327428759841046135e-01,4.626228592489859466e+02
6.476193990372963727e-01,1.213455335244980304e+01,4.035351852949039753e+00,-8.498292628538148263e-02,-8.303678047298446163e-01,-5.506952070869280957e-01,4.677255771172619347e+02
2.628323108818124698e-01,1.259565707675630186e+01,4.021873956718062360e+00,1.756698281278676055e-01,-8.904471296892061405e-01,-4.198118872949980207e-01,4.697893172940536601e+02
-7.294099413709558277e-01,1.338653927911090946e+01,3.880940268780693980e+00,3.973587477916378785e-01,-8.556988314276033902e-01,-3.314868556177585912e-01,4.748920351623296483e+02
-1.745509248969057570e+00,1.350724741518643413e+01,3.528040507384243796e+00,5.959393211613288610e-01,-7.711875018899930767e-01,-2.238842612220345862e-01,4.799947530306056365e+02
-2.674810025487508014e+00,1.302926654332467926e+01,2.888043215985595324e+00,7.598631330892943181e-01,-6.418278874089555774e-01,-1.032617156373978468e-01,4.850974708988816246e+02
-3.402331115735214961e+00,1.226133556777585376e+01,1.858793376599701785e+00,8.795972257935864569e-01,-4.751428737423998294e-01,2.336599898407290196e-02,4.902001887671576128e+02
-3.919594629934420205e+00,1.159490498360457345e+01,4.351789587623657307e-01,9.481784827784814906e-01,-2.808259956612868535e-01,1.486348712691132889e-01,4.953029066354336010e+02
-4.064431624819063948e+00,1.142360402054566926e+01,-1.126563749787948404e-01,9.616185667301274664e-01,-7.017771484685218775e-02,2.652599111421773959e-01,4.970480855765802630e+02
-4.208222679784917375e+00,1.091127528101408473e+01,-1.514223292979363089e+00,8.476888454174117404e-01,-7.461802068568346158e-02,5.252178332310937225e-01,5.021508034448562512e+02
-3.754054058472767075e+00,1.028320888855193793e+01,-2.392327228190611166e+00,6.654541118281425138e-01,-7.304575805808462274e-02,7.428547248829201477e-01,5.072535213131322394e+02
-3.428405390156878507e+00,9.994686109228331006e+00,-2.601599592463704091e+00,4.295984108645611310e-01,-6.558761652266345554e-02,9.006339267101424184e-01,5.092935532491214303e+02
-2.472527311043533071e+00,9.286504899971754767e+00,-2.956846766662745818e+00,3.583265605232225925e-01,-4.099547306833021404e-02,9.326947234792551944e-01,5.143962711173974185e+02
-1.451565147460303740e+00,8.730713820517111756e+00,-3.121147403828106182e+00,2.846494998246321684e-01,-1.612815528064430112e-02,9.584949373112163773e-01,5.194989889856733498e+02
-9.632983182559032853e-01,8.544088063012351242e+00,-3.169274412409956110e+00,2.090617425464751100e-01,8.847429423403765578e-03,9.778613965127447294e-01,5.221589158503056751e+02
-3.563853486862963438e-01,8.472238596595680349e+00,-3.206664417382083965e+00,1.479783922688693021e-01,-2.395882088555990053e-01,9.595300337108297883e-01,5.260877688296433234e+02
2.354205206107158610e-01,8.839374340275819364e+00,-3.126606015915149417e+00,-1.163694651345297121e-01,-6.895327291339388431e-02,9.908085555433727709e-01,5.311904866979192548e+02
6.166728868225628268e-01,9.306392702383471160e+00,-2.933458640765913561e+00,-3.690833412338581643e-01,1.085752484500290410e-01,9.230313660143322219e-01,5.348946455001930644e+02
1.192915836179706535e+00,9.899636901514737630e+00,-2.400998488766429073e+00,-6.673472601072776289e-01,-1.143706587015274750e-01,7.359109911229173573e-01,5.399973633684689958e+02
1.687807463283057530e+00,1.036957068771201307e+01,-1.546575703587074857e+00,-8.497058876725501753e-01,-3.174525948876237291e-01,4.209771424360743142e-01,5.451000812367449271e+02
1.906457179813785929e+00,1.064697370500805818e+01,-8.037950954425558958e-01,-8.844870627210860148e-01,-4.653991901393464414e-01,3.292764334595268266e-02,5.487578508758375619e+02
2.022046505940303884e+00,1.096772339219001147e+01,2.212116844611919930e-01,-9.235890785324130103e-01,-3.588381294617365436e-01,1.349681846167390398e-01,5.538605687441134933e+02
1.976310802242693176e+00,1.121492463551362562e+01,1.003080871467925794e+00,-9.411746568287062686e-01,-2.439174173216861752e-01,2.338644027409529924e-01,5.589632866123894246e+02
1.882693368888384455e+00,1.140218861321519839e+01,1.253306954234252757e+00,-9.368341318231945269e-01,-1.233142870709847266e-01,3.273123829831867670e-01,5.640660044806653559e+02
1.841081896210990720e+00,1.148482289466823936e+01,1.154617991709525615e+00,-9.106686203301140869e-01,1.616546930597804988e-04,4.131351326290624293e-01,5.667325292824807548e+02
1.809288076645557020e+00,1.168245615357433209e+01,6.103560249016934947e-01,-9.980313704620566995e-01,-2.074033693385118546e-02,5.917112468939100117e-02,5.718352471507566861e+02
1.819812775593911303e+00,1.182570007601487383e+01,1.580873597414773901e-01,-9.522967225513401246e-01,-3.887639945911833955e-02,-3.026839569288528597e-01,5.745878449669344263e+02
1.893233168488916762e+00,1.222958473137971858e+01,-7.478090332465953116e-01,-9.198880186695382877e-01,-2.091851522916445272e-01,-3.317312242889461360e-01,5.796905628352103577e+02
2.042171940214365655e+00,1.286333450663517652e+01,-1.572356157076520544e+00,-8.590555294377302253e-01,-3.730302097726907462e-01,-3.505282584027268333e-01,5.847932807034862890e+02
2.253078409346854549e+00,1.373994994797625147e+01,-2.042414577978002299e+00,-7.716789289661328821e-01,-5.253489314383739117e-01,-3.584942549408822732e-01,5.898959985717622203e+02
2.290004103966367222e+00,1.389439020317959006e+01,-2.075857091096281248e+00,-6.604580590638708948e-01,-6.614348231756019825e-01,-3.553830706538219641e-01,5.906809412960609507e+02
2.510780738046159311e+00,1.496338280819094102e+01,-2.081312391462205813e+00,-7.988557072591735420e-01,-6.011641858392051674e-01,2.071667550152745535e-02,5.957836591643368820e+02
2.621622493752277183e+00,1.605813905552639653e+01,-1.843832511796515750e+00,-8.060510408198031662e-01,-4.421596424136329806e-01,3.934139934140150618e-01,6.008863770326128133e+02
2.482006346904357397e+00,1.698329759856781251e+01,-1.696820872015462500e+00,-6.808622787333888926e-01,-2.105357333953961907e-01,7.014978705324620423e-01,6.059890949008887446e+02
2.194024890502160208e+00,1.749572504638261705e+01,-1.753789400797807430e+00,-4.438501424361920855e-01,5.566612177619136709e-02,8.943692380363521544e-01,6.097110450391924132e+02
1.570311273346781888e+00,1.796337453755590019e+01,-2.037489949155370184e+00,-3.121824906695119806e-01,4.438914688748205051e-02,9.489835067890006748e-01,6.148137629074683446e+02
7.274091228143989563e-01,1.816873423540832633e+01,-2.455648644221124499e+00,-1.741318925327178802e-01,3.220458091447284121e-02,9.841945686554286477e-01,6.199164807757442759e+02
-2.328596933131626412e-01,1.816480146475989699e+01,-2.840904085324620798e+00,-3.252096282473943001e-02,1.936155252441255914e-02,9.992825012280760477e-01,6.250191986440202072e+02
-1.203482689021020624e+00,1.800004415086324983e+01,-3.048572343678750851e+00,1.097548927720195938e-01,6.122652965274214855e-03,9.939388193611895517e-01,6.301219165122961385e+02
-2.066187268936179766e+00,1.771505289922700399e+01,-3.038243864561707142e+00,2.497866748162411721e-01,-7.241432679832610249e-03,9.682727811607350077e-01,6.352246343805720699e+02
-2.348226132919325249e+00,1.758851281556174939e+01,-2.995538443429503150e+00,3.847112648958907477e-01,-2.045745967707974719e-02,9.228091541620858651e-01,6.371174584142792128e+02
-2.917284747509704790e+00,1.720981412433414803e+01,-2.884619800469448325e+00,3.476601965772782576e-01,5.435873001516807607e-02,9.360424756269817292e-01,6.422201762825551441e+02
-3.004039877616103915e+00,1.711640541610110589e+01,-2.861881407064509997e+00,3.081249671131263135e-01,1.287865010330976889e-01,9.425874186427799506e-01,6.433725468516915953e+02
-3.064515433918153064e+00,1.662030022579098798e+01,-2.790441585707169825e+00,2.797730662443742022e-01,1.136795861480115327e-01,9.533110631296284332e-01,6.484752647199675266e+02
-2.550351691409694865e+00,1.596392133581971251e+01,-2.802630632875564132e+00,2.511002589244161198e-01,9.844227886896056434e-02,9.629412119580245122e-01,6.535779825882434579e+02
-1.743438216266049334e+00,1.524537931811523706e+01,-2.812359298531705409e+00,2.221394271919685248e-01,8.309205336067132519e-02,9.714668216377757570e-01,6.586807004565193893e+02
-1.275890385500450419e+00,1.484575607035080225e+01,-2.753530052732699573e+00,1.929237831823173155e-01,6.764651320094690334e-02,9.788781145381976190e-01,6.617323382391290352e+02
-8.780846885062658647e-01,1.435576421042792283e+01,-2.639410010266477702e+00,1.584070540677323113e-01,-4.722338141611573947e-01,8.671219233675857563e-01,6.668350561074049665e+02
-8.675960085249698750e-01,1.427566257309008257e+01,-2.623900456968229378e+00,7.555205318132925119e-02,-8.680109576036371122e-01,4.907615151375024909e-01,6.680650890504787185e+02
-8.665827720230758757e-01,1.423100184588245476e+01,-2.617410449280548779e+00,1.292040759059970290e-01,-9.915512756619275780e-01,1.141816534852237164e-02,6.687884314097042306e+02
-1.222290936335440392e+00,1.406180087719389782e+01,-2.647272582128930907e+00,3.053147238966965604e-01,-9.501027577582155104e-01,-6.391923865817687733e-02,6.738911492779801620e+02
-2.052605838364208513e+00,1.391325878866820354e+01,-2.578234554593124450e+00,4.696985643621492401e-01,-8.721620213727321325e-01,-1.368015610650329394e-01,6.789938671462560933e+02
-2.873464082070382730e+00,1.336784090910500922e+01,-2.200561333320077750e+00,6.160418954916139223e-01,-7.607226539070333082e-01,-2.044295155551936749e-01,6.837170244028750403e+02
-3.664896851506398878e+00,1.217107523742871500e+01,-1.591126336185876511e+00,7.195850203587030869e-01,-6.769225351700759452e-01,1.548266122279475243e-01,6.888197422711509716e+02
-4.104880199258310824e+00,1.133859241964874442e+01,-1.225591124620178496e+00,7.174866711512027928e-01,-4.937442032685900872e-01,4.913527637639524825e-01,6.916667660166650649e+02
-4.748788895700174706e+00,9.901802509536546282e+00,-4.088997210185745246e-01,8.726637038356254150e-01,-4.605948770375699053e-01,1.621987029967316973e-01,6.967694838849409962e+02
-4.861914519955385039e+00,8.623816802768558887e+00,6.426758307577515872e-01,9.113213972324490930e-01,-3.659461767800013532e-01,-1.886125834747438557e-01,7.018722017532169275e+02
-4.333779181819485515e+00,7.530364547165294908e+00,1.690167702398356564e+00,8.282979249199325933e-01,-2.224356852299596565e-01,-5.142401321445388973e-01,7.069749196214928588e+02
-3.449479949377611376e+00,6.593960666630846568e+00,2.535910195515331367e+00,6.346786933851974455e-01,-4.922520391625474778e-02,-7.712054430960363360e-01,7.120776374897687901e+02
-2.579531192447990229e+00,5.765701772171026640e+00,3.225050991299196923e+00,3.563162152316610709e-01,1.305578309913996982e-01,-9.251980369245819125e-01,7.171803553580447215e+02
-2.478089182127384493e+00,5.663093449601758422e+00,3.308738922313507302e+00,3.037804298069603226e-02,2.929084823646272429e-01,-9.556567351635369967e-01,7.178445399228132828e+02
-1.777220696652897391e+00,4.885984489353158544e+00,3.901110024499214735e+00,3.135145158156599134e-03,3.446915591087484354e-01,-9.387096995030278501e-01,7.229472577910892142e+02
-1.218950042198914563e+00,4.106342958748342653e+00,4.390071833029873360e+00,-2.411938161080200149e-02,3.951955201450749189e-01,-9.182792365534355739e-01,7.280499756593651455e+02
-7.830708225709174242e-01,3.272930766993279672e+00,4.767871826582488204e+00,-5.128440222794526659e-02,4.442329577594852918e-01,-8.944411603485132867e-01,7.331526935276410768e+02
-4.503622171182334322e-01,2.333815596377884827e+00,5.026765504019584441e+00,-7.825911377740743524e-02,4.916219058236009909e-01,-8.672839286083185995e-01,7.382554113959170081e+02
-2.123515872738099830e-01,1.269088712047273360e+00,5.165080970314908093e+00,-1.049434194506489865e-01,5.371865147875894975e-01,-8.369083145968351234e-01,7.433581292641929394e+02
-1.507509006838640420e-01,8.879408641357036114e-01,5.189731995131524833e+00,-1.312382998548932422e-01,5.807577040032866345e-01,-8.034270333320159274e-01,7.450817012064642313e+02
-3.748205136133720555e-02,-2.521650966389188397e-01,5.208437415405748894e+00,-3.774048269461097171e-02,5.989885574282465264e-01,-7.998664663768400018e-01,7.501844190747401626e+02
-5.638130906171279211e-02,-1.367774502149017524e+00,5.139152633191412356e+00,5.610025977622501436e-02,6.117764587427453327e-01,-7.890375944018879206e-01,7.552871369430160939e+02
-2.255340429361973875e-01,-2.379564232516680367e+00,4.998422372455038065e+00,1.494312203595937749e-01,6.190052095551360489e-01,-7.710388193364254850e-01,7.603898548112920253e+02
-5.433109274085650142e-01,-3.243415546475877154e+00,4.805034347181477372e+00,2.414043242571172754e-01,6.206091235855928367e-01,-7.460336908949702917e-01,7.654925726795679566e+02
-8.823447403740056760e-01,-3.859156630100664565e+00,4.625246174781528552e+00,3.311838337818772127e-01,6.165736234593907072e-01,-7.142494207862236655e-01,7.696479731042927597e+02
-1.346227543739479504e+00,-4.566597278201694365e+00,4.400223203746351786e+00,3.757881652732422695e-01,6.102653540121579789e-01,-6.973933269886963826e-01,7.747506909725686910e+02
-1.818948914229695513e+00,-5.273593490924892713e+00,4.192088707959622518e+00,4.195231108914136975e-01,6.025452539914398775e-01,-6.789238369036227905e-01,7.798534088408446223e+02
-2.246486782112386837e+00,-6.048712473371065101e+00,4.026348862435528808e+00,4.622874962640247665e-01,5.934311835486347775e-01,-6.588836780385672887e-01,7.849561267091205536e+02
-2.576085664276541731e+00,-6.962384956434627625e+00,3.928506775856548838e+00,5.039823920730303053e-01,5.829442271207100346e-01,-6.373192108689089697e-01,7.900588445773964850e+02
-2.777185433113837032e+00,-8.048073363654289381e+00,3.909490187048859422e+00,5.445113427800279959e-01,5.711086446749985557e-01,-6.142803216421734991e-01,7.951615624456724163e+02
-2.789029065045265376e+00,-8.150922554987840130e+00,3.911220898418164005e+00,5.837805896395188432e-01,5.579518156222266212e-01,-5.898203070420473537e-01,7.956096880932685735e+02
-2.874825630403711418e+00,-9.362472331813807003e+00,3.951816106101447623e+00,4.607232472127574807e-01,6.117297649072049870e-01,-6.430542622545734055e-01,8.007124059615445049e+02
-2.877741064881043087e+00,-1.061260847599914392e+01,4.017344266697577382e+00,3.280510679171108057e-01,6.527414734205040370e-01,-6.828682638070789901e-01,8.058151238298204362e+02
-2.827520811011150936e+00,-1.181750015650644237e+01,4.075009749233267975e+00,1.885327822810443921e-01,6.801310766758349446e-01,-7.084314423744727529e-01,8.109178416980963675e+02
-2.740712225091834764e+00,-1.291009301518775132e+01,4.099971304747685785e+00,4.507998673633282355e-02,6.933269838557830633e-01,-7.192103226823206574e-01,8.160205595663722988e+02
-2.625861160335831723e+00,-1.378729650178177124e+01,4.087983481835310684e+00,-9.931361349813623562e-02,6.920538052293735420e-01,-7.149799555517231120e-01,8.206767168190084476e+02
-2.442001202808050664e+00,-1.460412778151604307e+01,4.035814840743768173e+00,-4.729236135207644243e-02,6.258091164815762220e-01,-7.785399041056677572e-01,8.257794346872843789e+02
-2.175428108460466081e+00,-1.525092580121632402e+01,3.940149929726795897e+00,5.255455780328812873e-03,5.525963962414119912e-01,-8.334312227438012144e-01,8.308821525555603102e+02
-1.805668129180667991e+00,-1.571517979839436663e+01,3.800020129026850046e+00,5.774475428401681237e-02,4.732308196390322408e-01,-8.790427376954393912e-01,8.359848704238362416e+02
-1.311991991135568192e+00,-1.598504038532329119e+01,3.614460024135405014e+00,1.095911022806001361e-01,3.885960665430965855e-01,-9.148665953933468042e-01,8.410875882921121729e+02
-8.406591530716227556e-01,-1.606826305652684539e+01,3.441568844226193136e+00,1.602172258327369259e-01,2.996344840388226460e-01,-9.405039162700916666e-01,8.450502774749064656e+02
-1.021024381724093544e-01,-1.600300234699817636e+01,3.181015543842289350e+00,2.230243657169468374e-01,4.340022583598421857e-01,-8.728689317613976817e-01,8.501529953431823969e+02
7.436419201231571074e-01,-1.574270268111521887e+01,2.889744784476365069e+00,2.799048465751299841e-01,5.568368349584796873e-01,-7.820383725217731063e-01,8.552557132114583283e+02
1.492139598007646173e+00,-1.536181244695216819e+01,2.618931593162465710e+00,3.293471436968919419e-01,6.648740443394374200e-01,-6.704259572105435439e-01,8.603584310797342596e+02
1.781516635998252163e+00,-1.515202643507381985e+01,2.502875041138347356e+00,3.700373883753275139e-01,7.552429298217383513e-01,-5.409976415453272569e-01,8.629342386695808500e+02
1.967025001448154953e+00,-1.476957428766967872e+01,2.365441335893406993e+00,1.880907129516586895e-01,7.748597592177945970e-01,-6.034999894335618675e-01,8.680369565378567813e+02
1.486199853733007004e+00,-1.446909520607745492e+01,2.383977751579978488e+00,-8.897801138105711650e-04,7.654999126237630458e-01,-6.434338288157411823e-01,8.731396744061327126e+02
4.690082657388296439e-01,-1.426884656735592927e+01,2.518477209572012931e+00,-1.898369930491944080e-01,7.275134177751262365e-01,-6.593058038780549301e-01,8.782423922744086440e+02
-8.167228472228102998e-01,-1.417346382427079554e+01,2.692745860991788920e+00,-3.716850745467750183e-01,6.623208113325880220e-01,-6.505223656684253619e-01,8.833451101426845753e+02
-1.548782947353236850e+00,-1.416016260691646700e+01,2.783588859623973732e+00,-5.396336438545505931e-01,5.723600194373622552e-01,-6.174119682753319571e-01,8.861277674418493007e+02
-2.809091893022104269e+00,-1.419588011544080608e+01,2.905692172669542828e+00,-3.957884611727105484e-01,6.157089562467880084e-01,-6.813603856988236229e-01,8.912304853101252320e+02
-3.929243430314790508e+00,-1.427899234166901010e+01,2.961932064906028561e+00,-2.413915783689337402e-01,6.426430764778952032e-01,-7.271437149197657046e-01,8.963332031784011633e+02
-4.913094956385717360e+00,-1.432826419877209823e+01,2.964429110681226831e+00,-8.055920130846470906e-02,6.524443252917816460e-01,-7.535413840518716544e-01,9.014359210466770946e+02
-5.762965531611938808e+00,-1.426234734329639942e+01,2.925307760742835494e+00,8.242089895129088573e-02,6.448514015911523956e-01,-7.598496333364583855e-01,9.065386389149530260e+02
-6.345374078980340116e+00,-1.409361413455896006e+01,2.874666201783055541e+00,2.432036908285277466e-01,6.200667241047886913e-01,-7.459002764610228597e-01,9.105434102222230877e+02
-6.979587294642700002e+00,-1.365655903305824204e+01,2.795560965429366274e+00,3.949936072912688112e-01,5.680639114131520451e-01,-7.219982290471088637e-01,9.156461280904990190e+02
-7.436454918824705551e+00,-1.291893560267488006e+01,2.717727764005443802e+00,5.363889155223841021e-01,5.011120369382063844e-01,-6.790962065410626192e-01,9.207488459587749503e+02
-7.568616163141993702e+00,-1.253756163164799098e+01,2.690386840462457574e+00,6.636687378345528243e-01,4.209729653599404986e-01,-6.183231912639169936e-01,9.228909053869982699e+02
-7.621141144941812939e+00,-1.152146546992759291e+01,2.672446615522770408e+00,6.694128166862913787e-01,1.412109804250827605e-01,-7.293448703207585648e-01,9.279936232552742013e+02
-7.224018509914879260e+00,-1.045787692194536334e+01,2.697835482823010445e+00,6.144908647375699751e-01,-1.513483132249892615e-01,-7.742691168048031480e-01,9.330963411235501326e+02
-6.686068244065366706e+00,-9.760369068231010914e+00,2.672436251005746222e+00,5.038802026381508092e-01,-4.301916075158646047e-01,-7.490246472657364762e-01,9.370807486005321607e+02
-5.892422698614862675e+00,-9.231506085955198060e+00,2.425015740962430666e+00,7.660836967426188915e-01,-3.537936240937677446e-01,-5.366039891165095277e-01,9.421834664688080920e+02
-5.122928605269517099e+00,-9.048946833283054048e+00,1.828825550732338323e+00,9.365792145118421175e-01,-2.350429946888430988e-01,-2.599464667815986618e-01,9.472861843370840234e+02
-4.547527722292440622e+00,-8.971437178753225439e+00,8.117767222018940076e-01,9.949567806730131858e-01,-8.815537466414913315e-02,4.782922235257668075e-02,9.523889022053599547e+02
-4.392291782479667006e+00,-8.941626767168997958e+00,3.405356542379573415e-01,9.342280456232152641e-01,6.928532471295217876e-02,3.498792685350765042e-01,9.542783250778740012e+02
-3.920526795326465752e+00,-8.981539426768961221e+00,-9.125186053950672393e-01,7.649629178955713593e-01,-1.972627473276536703e-01,6.131208223193840290e-01,9.593810429461499325e+02
-3.212704461312829274e+00,-9.141975683170583622e+00,-1.861152045330756843e+00,4.664228600139568304e-01,-4.304744065201988046e-01,7.727480190771318647e-01,9.644837608144258638e+02
-2.318601319957035667e+00,-9.158928187189777859e+00,-2.376634852259567054e+00,8.905966706359701168e-02,-5.909380308956970751e-01,8.017846464879647694e-01,9.695864786827017952e+02
-1.959833206697566998e+00,-9.093233176271278140e+00,-2.507222459199727194e+00,-3.033541424784779172e-01,-6.515360718298989218e-01,6.953236737993875316e-01,9.716224547865216437e+02
-1.228255879174626530e+00,-8.760660302954116574e+00,-2.741310372549439656e+00,-1.031283583782627578e-01,-4.524817077075413141e-01,8.857893913839934852e-01,9.767251726547975750e+02
-8.813816382453610876e-01,-8.256015954940185253e+00,-2.812863596959299883e+00,1.090593154092678735e-01,-2.009438135588169083e-01,9.735120181666739869e-01,9.818278905230735063e+02
-8.682990602838414063e-01,-7.962648929470739212e+00,-2.792809357539132176e+00,3.085972010306650137e-01,7.390170608506592409e-02,9.483165638927879559e-01,9.846617216642423500e+02
-1.174913726455504959e+00,-7.520877594439435931e+00,-2.678311787807649225e+00,2.339136859343526609e-01,5.031915889911396933e-01,8.319138250451683092e-01,9.897644395325182813e+02
-1.801208925380810344e+00,-7.239634209850392743e+00,-2.520011104762367449e+00,1.116480587558604382e-01,8.301235111370552922e-01,5.462853349977762063e-01,9.948671574007942127e+02
-2.000193783180420848e+00,-7.186834578112861749e+00,-2.479125936591338508e+00,-3.332873969311130752e-02,9.881938667703009660e-01,1.495328618998977843e-01,9.963080721445891186e+02
-2.266912013602353948e+00,-7.123135003513664465e+00,-2.436989181592220444e+00,-2.578651325385099627e-02,9.736212178506752357e-01,2.267041681615359072e-01,9.982628499524549852e+02
-2.922001987451064320e+00,-7.038427207295077537e+00,-2.645633126032633786e+00,1.162285669883815209e-01,9.584120852107989030e-01,2.606438089355824772e-01,1.003365567820730917e+03
-3.525730037953739959e+00,-7.029422154111188981e+00,-3.335845933262737706e+00,2.557387109721109275e-01,9.225477037268267066e-01,2.889661676693836001e-01,1.008468285689006848e+03
-4.111946357144654840e+00,-6.975011686723164850e+00,-4.317016370292597216e+00,3.897372937265006776e-01,8.668010046887936193e-01,3.110608624497340768e-01,1.013571003557282779e+03
-4.267655991414129879e+00,-6.944878158039194282e+00,-4.604175417773720191e+00,5.153364678761789275e-01,7.923733958468993643e-01,3.264517214372583132e-01,1.014927113146262741e+03
-4.860800533779834787e+00,-6.804499203070368374e+00,-5.572666870055604349e+00,4.996614048161163724e-01,8.607979640424139323e-01,-9.676438207209250852e-02,1.020029831014538672e+03
-5.467733739163968210e+00,-6.703457399201237621e+00,-6.100295466886414886e+00,3.920287509464759346e-01,7.708014202697264228e-01,-5.021719117411818090e-01,1.025132548882814717e+03
-5.954675664624326181e+00,-6.705306736983575711e+00,-6.063547124197202542e+00,2.122472023509441308e-01,5.389467348788705703e-01,-8.151598260818281316e-01,1.029186408249044007e+03
-6.541770512373263458e+00,-6.746463693504741066e+00,-5.478647713075048387e+00,3.986991839337813426e-01,3.772311491849009712e-01,-8.359028776211376854e-01,1.034289126117319938e+03
-7.053075457226369416e+00,-6.699159747618177896e+00,-4.419411377783164951e+00,5.606922690007578591e-01,1.923737281298980584e-01,-8.053660833487015225e-01,1.039391843985595870e+03
-7.433971179703599219e+00,-6.403501806536199936e+00,-3.105485361979951175e+00,6.882887621743686291e-01,-4.285170514323114084e-03,-7.254227851248618020e-01,1.044494561853871801e+03
-7.595863119073182901e+00,-6.039957702350205793e+00,-2.188912723761305745e+00,7.736610615053765017e-01,-2.006812186812500232e-01,-6.009772128616149844e-01,1.047937477491331720e+03
-7.542683921679053327e+00,-5.356278927584711802e+00,-1.103805987791513843e+00,8.117916734265702150e-01,-1.221782273518760009e-01,-5.710208049743886738e-01,1.053040195359607651e+03
-7.092124726217868158e+00,-4.699136205200708183e+00,-5.647477362837838299e-01,8.430106297595274523e-01,-4.263502324414690514e-02,-5.362026975899254477e-01,1.058142913227883582e+03
-6.561301765274141218e+00,-4.376212894743140680e+00,-4.689968758622257705e-01,8.670521407870594999e-01,3.727117660738680366e-02,-4.968193278728920137e-01,1.063245631096159514e+03
-6.352255412303090765e+00,-4.434907616735505265e+00,-4.888865221787042636e-01,8.837115191345988885e-01,1.168600650625875315e-01,-4.532059974660954671e-01,1.066707081701501465e+03
-6.489363408297335489e+00,-5.026686323569292902e+00,-5.647457075838701046e-01,9.139283493986193330e-01,3.099276416982797433e-01,-2.620645513558114148e-01,1.071809799569777397e+03
-7.093897826238631410e+00,-6.151722015885604300e+00,-8.797485236952078402e-01,8.758534008571912111e-01,4.798363719950314854e-01,-5.134078610700460593e-02,1.076912517438053328e+03
-7.862770758948722793e+00,-7.532244775945531323e+00,-1.415205816478779299e+00,7.723317745476265817e-01,6.138901229029366524e-01,1.632193218553074920e-01,1.082015235306329259e+03
-8.540911577341203653e+00,-8.947716474335742021e+00,-1.959608261973582843e+00,6.110989497293328743e-01,7.020719630782571441e-01,3.655831400648688057e-01,1.087117953174605191e+03
-8.810466844692392385e+00,-9.620903098647207941e+00,-2.200460653236751440e+00,4.042027654580830909e-01,7.377926522240116913e-01,5.406293801864180404e-01,1.089610721660217450e+03
-9.160722751364048122e+00,-1.090946360462750597e+01,-2.590815390353579328e+00,3.795621139695882773e-01,7.296748965873373072e-01,5.687751286091162761e-01,1.094713439528493382e+03
-9.115765518896427722e+00,-1.201346495384816571e+01,-2.771068826353189962e+00,3.543653142695303293e-01,7.204879892724678214e-01,5.960874779359098818e-01,1.099816157396769313e+03
-8.652923415396324813e+00,-1.286955797244068123e+01,-2.672911443891341499e+00,3.286492839895130968e-01,7.102453909310790792e-01,6.225264113188925252e-01,1.104918875265045244e+03
-7.910694812647221852e+00,-1.346313463610468020e+01,-2.323117007589141636e+00,3.024517013753601491e-01,6.989621087157992241e-01,6.480531914201885790e-01,1.110021593133321176e+03
-7.109283614208801616e+00,-1.387406626355142159e+01,-1.936823655364916741e+00,2.758109501172021916e-01,6.866546743039365630e-01,6.726304171289292366e-01,1.115124311001597107e+03
-6.402849443413860087e+00,-1.418740809380334333e+01,-1.730538035058605928e+00,2.487660631492052965e-01,6.733411196943083210e-01,6.962220783262160761e-01,1.120227028869873038e+03
-6.316942647914340903e+00,-1.422453933708058926e+01,-1.719273618675344784e+00,2.213566654996133864e-01,6.590409508103310943e-01,7.187936086168423833e-01,1.120916268133958056e+03
-5.723982993769170413e+00,-1.444247525319223691e+01,-1.724122121764299909e+00,2.597311631079617378e-01,6.794781070930232536e-01,6.861830840854866720e-01,1.126018986002233987e+03
-5.189736706571593139e+00,-1.453142227949121335e+01,-1.871151055944996200e+00,2.973384740514770641e-01,6.979082624715507999e-01,6.515457689341880299e-01,1.131121703870509918e+03
-4.664579454901735645e+00,-1.446083922964388258e+01,-2.099296081305109141e+00,3.340675261423420861e-01,7.142769847522276727e-01,6.149839648508530487e-01,1.136224421738785850e+03
-4.166614612570861631e+00,-1.424921758657638549e+01,-2.322723681634248916e+00,3.698098405002312461e-01,7.285359286394808009e-01,5.766056560107103435e-01,1.140774273705619635e+03
-3.527140043817347692e+00,-1.381926676041433666e+01,-2.537969548408464338e+00,3.227855815594327105e-01,7.508365584881813160e-01,5.762394734551936626e-01,1.145876991573895566e+03
-2.750492136291768475e+00,-1.315088059285387523e+01,-2.657737252034977793e+00,2.748869952975936393e-01,7.711033626806306218e-01,5.743124096447996818e-01,1.150979709442171497e+03
-1.824150872789593425e+00,-1.225805651062289314e+01,-2.618406524111633882e+00,2.262438150013939275e-01,7.892814498532749745e-01,5.708296848309364346e-01,1.156082427310447429e+03
-1.217065760933440766e+00,-1.164958511478874925e+01,-2.509198731598404120e+00,1.769877900705661700e-01,8.053215843868002377e-01,5.658007316002782172e-01,1.159163147939665123e+03
-2.141978530395522440e-01,-1.062787738829810813e+01,-2.235771224834829152e+00,2.319705200968415551e-02,7.030952498502811565e-01,7.107158126960002598e-01,1.164265865807941054e+03
6.727851930129805647e-01,-9.661034106635224106e+00,-1.995842142575090294e+00,-1.318718872570592837e-01,5.621267562120005890e-01,8.164688085296962772e-01,1.169368583676216986e+03
1.222866494587070862e+00,-8.835341437721142555e+00,-1.995684458111470994e+00,-2.796744021717947337e-01,3.901837605437873391e-01,8.772325015510933355e-01,1.174471301544492917e+03
1.229123861369248560e+00,-8.820704121650765117e+00,-1.998841401658141059e+00,-4.120662486897172516e-01,1.967406740066976190e-01,8.896586502033383415e-01,1.174572544216097185e+03
1.287185711685088219e+00,-8.164687316491772151e+00,-2.330729285156344588e+00,-5.126300633206938295e-01,4.180230800042980532e-01,7.499767481485551945e-01,1.179675262084373117e+03
9.224661937116904742e-01,-7.623789678352884458e+00,-2.953284053426997957e+00,-5.729061851498868929e-01,6.064529509551238595e-01,5.513540797843636820e-01,1.184777979952649048e+03
3.201557827025243164e-01,-7.107334465550987801e+00,-3.757043110618410342e+00,-5.881575248250360266e-01,7.472215925153624649e-01,3.094004164031837756e-01,1.189880697820924979e+03
1.039170416546961601e-01,-6.937271318168965806e+00,-4.035695457168372080e+00,-5.571854710607851979e-01,8.292659869461587174e-01,4.313089070197790448e-02,1.191515502964395637e+03
-5.636773425979898500e-01,-6.401938167141208780e+00,-4.919326904156713809e+00,-4.424128915759404923e-01,8.351501995827463887e-01,3.267919483469490793e-01,1.196618220832671568e+03
-1.209935898445989366e+00,-5.953826910424137253e+00,-5.810723542326085678e+00,-2.861990191988932897e-01,7.628049515654511392e-01,5.798419847484655998e-01,1.201720938700947499e+03
-1.823428468462454433e+00,-5.769961298349767453e+00,-6.681102020891448667e+00,-1.031765784754457016e-01,6.190069240188537103e-01,7.785775630411109205e-01,1.206823656569223431e+03
-2.118371586472589385e+00,-5.789619893119001048e+00,-7.104138487449074724e+00,8.951054001209916844e-02,4.172258183913327145e-01,9.043829275779726729e-01,1.209372830102821126e+03
-2.701452591783621848e+00,-5.954388690310466359e+00,-7.925386291640527325e+00,-2.613282842103089032e-01,5.513122431544252855e-01,7.923132830010403138e-01,1.214475547971097058e+03
-3.296565382644959019e+00,-6.133053675296724627e+00,-8.712474717693323711e+00,-5.720200479374121239e-01,6.007022428020257765e-01,5.585229451421578339e-01,1.219578265839372989e+03
-3.557764807222405512e+00,-6.170121350402357763e+00,-9.040484178379594837e+00,-7.948341511148724337e-01,5.578081494179959465e-01,2.389283169990021050e-01,1.221754794283229785e+03
-4.156387734147083179e+00,-6.090388887000674600e+00,-9.761167646226711625e+00,-6.932052836636056758e-01,4.795563516766659373e-01,5.380428795805278774e-01,1.226857512151505716e+03
-4.678668363813521580e+00,-5.728591344165810284e+00,-1.035700099318987455e+01,-5.181511031013592561e-01,3.505092480511041719e-01,7.801670983741219034e-01,1.231960230019781648e+03
-5.038589076290131530e+00,-5.083941285591146553e+00,-1.075720537199156190e+01,-2.882136126715710289e-01,1.843357015791081965e-01,9.396548635505218572e-01,1.237062947888057579e+03
-5.052123835636622040e+00,-5.042440589946853180e+00,-1.077221483247086731e+01,-2.774810239645052190e-02,-1.362960965199678945e-03,9.996130176977002790e-01,1.237332328512091181e+03
-5.175171163480547953e+00,-4.179022527760849037e+00,-1.092745131012707027e+01,-6.549707824953657220e-02,-2.986647279875510180e-02,9.974046954595106040e-01,1.242435046380367112e+03
-5.018747059490422657e+00,-3.280831271544887962e+00,-1.083433065048422428e+01,-1.030991881973393615e-01,-5.830301399861956280e-02,9.929598762954072733e-01,1.247523903139578806e+03
-4.910723751419794780e+00,-2.995172090454766956e+00,-1.075803762237384653e+01,-2.812629003445711595e-02,-9.219362002717905458e-02,9.953427792538839247e-01,1.249242141474109303e+03
-4.486775875977274453e+00,-2.301489206155190370e+00,-1.041439625519534928e+01,-1.226854700360978240e-01,-4.490182935552096133e-01,8.850586689563920695e-01,1.254344859342385234e+03
-3.983301544435979391e+00,-1.939376842454345162e+00,-9.889627873082426746e+00,-1.990346604702842859e-01,-7.391959661204601240e-01,6.434069688795885922e-01,1.259447577210661166e+03
-3.601340657452744232e+00,-1.957919838600584495e+00,-9.300317012909017578e+00,-2.458415131693200695e-01,-9.196561819267891069e-01,3.062555427193662805e-01,1.264106096728943839e+03
-3.445504619691127424e+00,-2.442122278909340860e+00,-8.584678494401758897e+00,-6.640446988021396491e-02,-6.997824833586757665e-01,7.112615006904678960e-01,1.269208814597219771e+03
-3.675390644454207045e+00,-3.418941042759573001e+00,-7.865779644629120604e+00,1.292732517129361325e-01,-3.087613504978107826e-01,9.423125038067805548e-01,1.274311532465495702e+03
-4.122735383902668360e+00,-4.476172528052959620e+00,-7.338385201583919937e+00,2.933343021320778399e-01,1.577742445133184512e-01,9.428999283917730567e-01,1.278571302737332417e+03
-4.827569297943604454e+00,-5.620170104138458633e+00,-6.677819205340608022e+00,6.245825024623112842e-01,3.031586053179760598e-01,7.197149141428764718e-01,1.283674020605608348e+03
-5.236086811873188473e+00,-6.051480620828088242e+00,-6.245118590654222146e+00,8.429849363128276707e-01,3.937701150922366944e-01,3.664962395573870269e-01,1.286405957247521428e+03
-5.982320580355145800e+00,-6.277660183326445598e+00,-5.285053325447828243e+00,8.699219286548036667e-01,4.278166259807076877e-01,2.453706840171280268e-01,1.291508675115797359e+03
-6.423140723478383940e+00,-6.125179818679803212e+00,-4.643847945822075829e+00,8.824563199849352335e-01,4.547801203536589454e-01,1.201827169116493899e-01,1.294483184371301149e+03
-7.171126351282532951e+00,-5.561422439639823523e+00,-3.401288191927221316e+00,9.303958986006133358e-01,2.700423688709142067e-01,-2.478680916976668536e-01,1.299585902239577081e+03
-7.430609035923552597e+00,-5.244489743270608351e+00,-2.897040507584934144e+00,8.184116112463314385e-01,3.888758874957260608e-02,-5.733133436596101751e-01,1.301485514201354135e+03
-7.822398645842993936e+00,-4.246066103990410845e+00,-1.678381275265955930e+00,8.524618612895040748e-01,-2.575262486284852007e-02,-5.221528295016852894e-01,1.306588232069630067e+03
-7.711107011433290026e+00,-3.159801546819415385e+00,-9.410820833171447131e-01,8.797306077998880980e-01,-9.018795330353306106e-02,-4.668385060984471258e-01,1.311690949937905998e+03
-7.649964362944819740e+00,-2.217889973388211367e+00,-6.997724808904510763e-01,9.000009326893386730e-01,-1.539058171995765500e-01,-4.078103978414972519e-01,1.316793667806181929e+03
-7.807325090524841471e+00,-1.815715276658814936e+00,-6.787002778712957207e-01,9.131115849283046870e-01,-2.163993442341432816e-01,-3.455380692219296446e-01,1.319465401882841434e+03
-8.070324527525130520e+00,-1.271321752497695190e+00,-9.909660798692693229e-01,9.960205001072360842e-01,-7.608887198728542245e-02,-4.638584833483260644e-02,1.324568119751117365e+03
-7.846055452563312826e+00,-1.075191898974422244e+00,-1.726993078932270276e+00,9.633380527792921866e-01,7.305195080522797202e-02,2.581495856097126285e-01,1.328549292295673922e+03
-6.846146499151823939e+00,-1.152365637249828545e+00,-2.897041277318449293e+00,8.673673617189752161e-01,-3.038194306745635176e-01,3.941644496525753549e-01,1.333652010163949853e+03
-5.908109117055521331e+00,-1.492182895308290735e+00,-3.615369990795164856e+00,6.241673015205623232e-01,-6.291196615653652513e-01,4.632727394795937981e-01,1.338754728032225785e+03
-5.834131581108637832e+00,-1.541750515082507711e+00,-3.661301048503463829e+00,2.750192348133341236e-01,-8.476313952244680650e-01,4.537438025061021896e-01,1.339408458587705582e+03
-5.475998020495379315e+00,-1.758957469517489658e+00,-4.112666699942235660e+00,4.061571248709809900e-01,-8.272686003085517603e-01,3.881508120023228758e-01,1.344511176455981513e+03
-5.245051223243601513e+00,-1.627417499251225808e+00,-4.575283829365391242e+00,5.283943605037132452e-01,-7.887768211935868301e-01,3.140517889354082492e-01,1.349613894324257444e+03
-5.001604295338596629e+00,-1.388714835969795169e+00,-4.770516421464478185e+00,6.390522504834097450e-01,-7.329995571065813786e-01,2.330705267318640972e-01,1.352784655488888802e+03
-4.457634502406271793e+00,-7.079018535912419141e-01,-4.803106378967781254e+00,4.988526408281577784e-01,-8.592912581244772641e-01,1.129715736325698910e-01,1.357887373357164734e+03
-3.905246246441357982e+00,4.764579473480959337e-01,-4.367416459991130928e+00,3.336958023819235342e-01,-9.425931267856473283e-01,-1.277923349384619753e-02,1.362990091225440665e+03
-3.580028419814766050e+00,1.709878116557656424e+00,-3.701206095207989488e+00,1.518443717358372858e-01,-9.787376762817044940e-01,-1.378907096150419342e-01,1.367173645337965127e+03
-3.383478748370069678e+00,2.760178832129088100e+00,-2.800361721311293017e+00,1.722688309035229626e-01,-9.221946852078155565e-01,-3.462346205591594894e-01,1.372276363206241058e+03
-3.401151503839629608e+00,2.774900773578100832e+00,-1.999917049275674374e+00,1.845929416945751855e-01,-8.222886927736048346e-01,-5.382980137558004419e-01,1.377379081074516989e+03
-3.601970065106015362e+00,2.220568388212604383e+00,-1.167386266964602459e+00,1.882372095271287182e-01,-6.837174204948657241e-01,-7.050498151629915888e-01,1.382481798942792921e+03
-3.742069350802095684e+00,1.959797474529557881e+00,-6.989104865586834858e-01,1.830302725004880615e-01,-5.129966624295227984e-01,-8.386491183351535428e-01,1.384960561083046514e+03
-3.906015230910572456e+00,1.575170756428719399e+00,3.146387670610976683e-01,2.100487455128641212e-01,-4.186668170878430351e-01,-8.835132261457570024e-01,1.390063278951322445e+03
-3.850639180025551500e+00,1.322326743251835968e+00,1.266440627506108196e+00,2.346220521591051711e-01,-3.194633176710431344e-01,-9.180924143569014761e-01,1.395165996819598377e+03
-3.756367398219027987e+00,1.140372338669052521e+00,1.988474280052722198e+00,2.564641465326539249e-01,-2.165409415244568536e-01,-9.419841623843360212e-01,1.399874300754311889e+03
-3.734443600903258886e+00,1.117493816976942389e+00,2.553464187901726579e+00,6.618146650847901435e-01,-1.735562722612645770e-01,-7.292993688722472223e-01,1.404977018622587821e+03
-3.766264520130482740e+00,1.397485563653141138e+00,2.840326836363861851e+00,9.272629017815576802e-01,-9.388318847362454866e-02,-3.624464897073078617e-01,1.409504863411869792e+03
-3.824904490214570796e+00,2.169319614528824935e+00,2.959011301790153148e+00,8.885581119454419863e-01,-4.635899702289617702e-02,-4.564135461229090751e-01,1.414607581280145723e+03
-3.839817424381261279e+00,2.435111798066147415e+00,2.966295410346481809e+00,8.386695376954852454e-01,1.748688337520054635e-03,-5.446359780842349174e-01,1.415902937209048787e+03
-3.873784915418806651e+00,3.650053685834712791e+00,3.009020880410251397e+00,8.271605977264284704e-01,-1.095111589542360625e-01,-5.511902136576146694e-01,1.421005655077324718e+03
-3.858364534668417001e+00,5.065903459178205281e+00,3.090439570124511981e+00,8.052673310942293217e-01,-2.193961552892296218e-01,-5.508247021652402653e-01,1.426108372945600649e+03
-3.788536321094137183e+00,6.468928536835723442e+00,3.229951140031182000e+00,7.732645921661764898e-01,-3.265268007076523316e-01,-5.435440358613766731e-01,1.431211090813876581e+03
-3.674303573483136187e+00,7.718076652684877637e+00,3.423446502000694114e+00,7.315541452793680177e-01,-4.295581735037349302e-01,-5.294396170474570118e-01,1.436313808682152512e+03
-3.646764955032996802e+00,7.958856795848622490e+00,3.468066102345638946e+00,6.806596215983394815e-01,-5.271968120169293615e-01,-5.086885107049055055e-01,1.437380408982179233e+03
-3.524565982805767828e+00,9.060968722432855671e+00,3.656387227765456771e+00,6.562174834118261746e-01,-5.985967181502984680e-01,-4.594111268594350261e-01,1.442483126850455164e+03
-3.446100851177779756e+00,1.010996079470532294e+01,3.757344654103145665e+00,6.264444789365786193e-01,-6.651338207481500842e-01,-4.064016674485658731e-01,1.447585844718731096e+03
-3.454485030083345176e+00,1.118670660256241511e+01,3.696318440176229458e+00,5.915824721748035309e-01,-7.262676096587139529e-01,-3.500907564823103058e-01,1.452688562587007027e+03
-3.377867477431010013e+00,1.219770532219335379e+01,3.502259839802167818e+00,5.519146649397084214e-01,-7.815014666689338307e-01,-2.909358352229797773e-01,1.457791280455282958e+03
-3.270066750848208859e+00,1.254872677316414809e+01,3.414144780193856032e+00,5.077632967196175073e-01,-8.303866987929396926e-01,-2.294174469608712963e-01,1.459845759992455896e+03
-2.718492593882003927e+00,1.322543905296415367e+01,3.262423291772611478e+00,3.659258735813754604e-01,-9.123818720319505360e-01,-1.834545573997231060e-01,1.464948477860731828e+03
-1.826580964728105938e+00,1.370156374306662883e+01,3.235543247919804077e+00,2.134935660178809425e-01,-9.679601997260749435e-01,-1.321799871948567684e-01,1.470051195729007759e+03
-8.348934362559569111e-01,1.420874290377312832e+01,3.349032108488180004e+00,5.487982148121597209e-02,-9.955125004910980735e-01,-7.707831445738864973e-02,1.475153913597283690e+03
-2.451558032053536007e-01,1.459319470378000716e+01,3.479190579253928384e+00,-1.053229403424153915e-01,-9.942410252214286537e-01,-1.974492348273259451e-02,1.478296608368356374e+03
6.234331616704799073e-01,1.532485737488813804e+01,3.737095446302327595e+00,-3.310844689422757225e-01,-9.236800591508657066e-01,-1.928632229133819542e-01,1.483399326236632305e+03
1.366800822498225099e+00,1.612426435219219911e+01,3.991145965117977923e+00,-5.284001317988380464e-01,-7.737590599658522583e-01,-3.494112445757917573e-01,1.488502044104908236e+03
1.989942127049361575e+00,1.686652296524190575e+01,4.142484540077363775e+00,-6.803171205746243455e-01,-5.573588194536873708e-01,-4.759388215206632466e-01,1.493604761973184168e+03
2.499431091828513640e+00,1.749426481636738728e+01,4.121504137254596856e+00,-7.737831465973764589e-01,-2.930718352026894236e-01,-5.615750541583551803e-01,1.498707479841460099e+03
2.512244635947865845e+00,1.751040232794831297e+01,4.118200807982214329e+00,-8.007678565075052601e-01,-3.604906284370872939e-03,-5.989623065228365517e-01,1.498851174709319821e+03
2.922205916083117305e+00,1.810315926231291428e+01,3.913899250251457129e+00,-8.137802624704389975e-01,-2.688683431983031336e-02,-5.805486909302215448e-01,1.503953892577595752e+03
3.252307311833297465e+00,1.880792205673703066e+01,3.544829568090627880e+00,-8.259378431433966883e-01,-5.014051423769813609e-02,-5.615252515094112384e-01,1.509056610445871684e+03
3.524724498654068228e+00,1.976878546991076391e+01,3.029151919137506255e+00,-8.372278310766666509e-01,-7.334152538569319035e-02,-5.419119665699474453e-01,1.514159328314147615e+03
3.525875590686749828e+00,1.977396726704082397e+01,3.026459673752015078e+00,-8.476383693084510451e-01,-9.646550237927217775e-02,-5.217294334359300345e-01,1.514182834178953954e+03
3.753690296732721698e+00,2.102659861327937207e+01,2.389955287470563849e+00,-9.250009544944659545e-01,-1.930696769789371214e-01,-3.272542345266362673e-01,1.519285552047229885e+03
3.926377551344484740e+00,2.239238791538826234e+01,1.673426023173469890e+00,-9.532107964471079331e-01,-2.794144923861227037e-01,-1.153894231784434732e-01,1.524388269915505816e+03
4.017843130301579357e+00,2.358694389403088465e+01,9.250680334102086011e-01,-9.307689019585996260e-01,-3.509117670556792246e-01,1.026069339219710524e-01,1.529490987783781748e+03
4.003335561483879701e+00,2.441696388017246377e+01,1.849070454667553209e-01,-8.588677932742782017e-01,-4.037622865643098469e-01,3.151509632298445385e-01,1.534593705652057679e+03
3.915080378421737173e+00,2.482424201683379295e+01,-3.832283294520632544e-01,-7.413281382287697507e-01,-4.351576807170525751e-01,5.109485144153373959e-01,1.538641903423643043e+03
3.700764012981440754e+00,2.509080246608423437e+01,-1.061425292458754832e+00,-7.012401011708312426e-01,-3.966013160593327425e-01,5.924252835664383099e-01,1.543744621291918975e+03
