-1.996906757225062057e+00,1.519394681326512853e+01,-2.801368301100901625e+00,4.110775114775933603e-01,-5.155493265518724944e-02,9.101403015330513657e-01,6.617323382391290352e+02
-2.086920412445117723e+00,1.453929854770797903e+01,-2.681664083215915095e+00,5.060519427411759308e-01,-4.497928654102982815e-01,7.359319326364573977e-01,6.668350561074049665e+02
-2.142305924221711511e+00,1.437539787060419805e+01,-2.642187214824923469e+00,5.008470422328158422e-01,-7.589886622542503236e-01,4.160365979765459632e-01,6.680650890504787185e+02
-2.196277172880459538e+00,1.427678129142076457e+01,-2.611222008713544263e+00,7.210035287582697849e-01,-6.929134638680199965e-01,4.779446225682767307e-03,6.687884314097042306e+02
-2.703635149840925234e+00,1.356576522685764807e+01,-2.324193398581028358e+00,8.358337468804247772e-01,-5.274106284391512078e-01,-1.523744617212019481e-01,6.738911492779801620e+02
-3.273828254694762130e+00,1.282765060573558280e+01,-1.966676060563135486e+00,8.961052034646274089e-01,-3.274812983325047222e-01,-2.995821482760522292e-01,6.789938671462560933e+02
-3.797306073601314225e+00,1.211123340118651726e+01,-1.584855065028196508e+00,8.978837301394444470e-01,-1.061757175231726469e-01,-4.272347412823577772e-01,6.837170244028750403e+02
-4.312891818277936551e+00,1.131049236914546618e+01,-1.121280944357922360e+00,9.703070738672652240e-01,-2.387543127749046368e-01,-3.871124558160003032e-02,6.888197422711509716e+02
-4.544025187834346724e+00,1.085468764187104895e+01,-8.258936916475514423e-01,8.741171835795082945e-01,-3.298438310341508251e-01,3.565391934968236698e-01,6.916667660166650649e+02
-4.798162191745894312e+00,1.002629531895263959e+01,-2.241862718526196618e-01,9.479551002165452767e-01,-2.939266413524951327e-01,1.224183706680364719e-01,6.967694838849409962e+02
-4.842320237037810671e+00,9.186979888679882578e+00,4.311362666883578054e-01,9.634418635700930933e-01,-2.399168678605113070e-01,-1.192378800421287632e-01,7.018722017532169275e+02
-4.658864406108712330e+00,8.331886906450797881e+00,1.107194681976117590e+00,9.196241928004121879e-01,-1.711390692367180388e-01,-3.535544696328008496e-01,7.069749196214928588e+02
-4.270876071265097274e+00,7.454504052978069950e+00,1.773796640992186813e+00,8.191992730156189007e-01,-9.182684510336890094e-02,-5.661081006392446602e-01,7.120776374897687901e+02
-3.742769026712213343e+00,6.548244685891349448e+00,2.414173806131002742e+00,6.683487315030930409e-01,-6.862238849140851055e-03,-7.438150864136048313e-01,7.171803553580447215e+02
-3.664834347735411946e+00,6.426273062873144148e+00,2.493779527606609925e+00,4.763581320864105906e-01,7.852477415155605101e-02,-8.757367126253454703e-01,7.178445399228132828e+02
-3.036848345361036650e+00,5.457660385930526381e+00,3.072461004083405278e+00,4.338370641402677363e-01,1.788521651862373663e-01,-8.830601931836531415e-01,7.229472577910892142e+02
-2.414861426471983652e+00,4.458105705532819485e+00,3.604117758208660760e+00,3.861415072614039490e-01,2.770463185587065391e-01,-8.798511656764972377e-01,7.280499756593651455e+02
-1.837030623607363911e+00,3.433681179580373666e+00,4.071540381999042779e+00,3.338403369875498905e-01,3.719360556275556617e-01,-8.661479088028883888e-01,7.331526935276410768e+02
-1.341370746697815308e+00,2.391372143305035891e+00,4.457524100485399821e+00,2.775573590527361523e-01,4.623896099582028296e-01,-8.421138646511295844e-01,7.382554113959170081e+02
-9.555693215413145758e-01,1.339371111432293260e+00,4.751975621195367872e+00,2.179638698497771698e-01,5.473281247157448792e-01,-8.080356893939614205e-01,7.433581292641929394e+02
-8.633428845202000268e-01,9.838385217470778654e-01,4.821466586866357318e+00,1.557706506340918728e-01,6.257385192228948068e-01,-7.643198348601386583e-01,7.450817012064642313e+02
-7.009496116003669508e-01,-6.251788113952869153e-02,4.945994178241900130e+00,1.997833720549182790e-01,6.155715605582352534e-01,-7.623360532441125770e-01,7.501844190747401626e+02
-6.512124743801854798e-01,-1.095357879233257448e+00,4.998149562825663139e+00,2.433876403224870810e-01,6.041461142847092125e-01,-7.587937329252625318e-01,7.552871369430160939e+02
-7.106702243495741644e-01,-2.105033986159435599e+00,4.989178349036520466e+00,2.864943168658901640e-01,5.914855377086581933e-01,-7.537001161461860388e-01,7.603898548112920253e+02
-8.686865551251434781e-01,-3.086542315093878219e+00,4.930521175737892392e+00,3.290152801620218059e-01,5.776157124691814193e-01,-7.470656156738897380e-01,7.654925726795679566e+02
-1.057841482795971677e+00,-3.866310282753284699e+00,4.851491302652792825e+00,3.708636057115937690e-01,5.625649916756580993e-01,-7.389037935298752302e-01,7.696479731042927597e+02
-1.335811020778129965e+00,-4.808516167720313206e+00,4.726958345981394416e+00,3.693239832160335467e-01,5.865202738559476270e-01,-7.208271386183544571e-01,7.747506909725686910e+02
-1.630771543019831515e+00,-5.744905613249581933e+00,4.586372974772588762e+00,3.674508641401759701e-01,6.099459267474703905e-01,-7.020995861545035188e-01,7.798534088408446223e+02
-1.911735192822505480e+00,-6.686472333337842855e+00,4.441756958204751804e+00,3.652459398708586824e-01,6.328208000179391668e-01,-6.827380452736586669e-01,7.849561267091205536e+02
-2.147980798062315344e+00,-7.644953237596781470e+00,4.305132350496538862e+00,3.627112012648117112e-01,6.551242404666849373e-01,-6.627599973003305278e-01,7.900588445773964850e+02
-2.315475061741170126e+00,-8.623221573769475512e+00,4.183448058547643456e+00,3.598489368528021703e-01,6.768361106431571850e-01,-6.421834799858594511e-01,7.951615624456724163e+02
-2.323399047766702363e+00,-8.710056505372117286e+00,4.173882748739830895e+00,3.566617307767134259e-01,6.979368070025879778e-01,-6.210270712469208032e-01,7.956096880932685735e+02
-2.333654407012490495e+00,-9.695879712011722162e+00,4.073231332713070252e+00,1.700492459293087566e-01,7.152545691085183677e-01,-6.778585068643347977e-01,8.007124059615445049e+02
-2.258181168252399118e+00,-1.065914555678655873e+01,3.975325509342020780e+00,-2.308528078031529818e-02,7.051394516261255685e-01,-7.086913457718243547e-01,8.058151238298204362e+02
-2.090990556771260778e+00,-1.157481877842078433e+01,3.871893991939024726e+00,-2.153343881873188703e-01,6.679794161382810458e-01,-7.123430359592948236e-01,8.109178416980963675e+02
-1.833681407413225051e+00,-1.242146868449125030e+01,3.757404915765289566e+00,-3.993245762531222876e-01,6.051996921596021206e-01,-6.886735187374294354e-01,8.160205595663722988e+02
-1.531746394807405265e+00,-1.311780025620892332e+01,3.642750120143253056e+00,-5.679990983512120950e-01,5.192081167367975647e-01,-6.385906010791277954e-01,8.206767168190084476e+02
-1.151524939232337230e+00,-1.378629040903475733e+01,3.508506190094887955e+00,-5.609727605509056136e-01,4.078497590105925052e-01,-7.203930427163759420e-01,8.257794346872843789e+02
-7.468922149424951362e-01,-1.434838327384881573e+01,3.368290750140269463e+00,-5.432084366327051272e-01,2.886844698252770125e-01,-7.884059051352266811e-01,8.308821525555603102e+02
-3.426454552554176747e-01,-1.479124284512904808e+01,3.224791626334460037e+00,-5.150461665551561152e-01,1.639932634096648023e-01,-8.413273179163809345e-01,8.359848704238362416e+02
3.673425976304976748e-02,-1.510142276026224195e+01,3.080696877431209568e+00,-4.770250189718275857e-01,3.616292620492982807e-02,-8.781442786025016600e-01,8.410875882921121729e+02
2.907621736201816964e-01,-1.523577537524116998e+01,2.971411931216729752e+00,-4.298727738139109245e-01,-9.235966587789812277e-02,-8.981520419456914262e-01,8.450502774749064656e+02
5.279155848765986203e-01,-1.528876797255992415e+01,2.841104931528953603e+00,-1.356700908506328906e-01,1.252313900697303861e-01,-9.828065554267507720e-01,8.501529953431823969e+02
6.274499870310595862e-01,-1.525205465054122733e+01,2.730639119375407375e+00,1.776712150095283993e-01,3.251563042112845525e-01,-9.288187752133928443e-01,8.552557132114583283e+02
5.382856614147260021e-01,-1.515618538684814709e+01,2.650003104722332914e+00,4.659487994585914117e-01,4.792121401264585745e-01,-7.438047062494927975e-01,8.603584310797342596e+02
3.817791037775206675e-01,-1.508985764629486859e+01,2.627541999984485344e+00,6.884960601043795814e-01,5.656666383285703370e-01,-4.538638887411313161e-01,8.629342386695808500e+02
-1.364900781987515854e-01,-1.493366499270591063e+01,2.617217538792828702e+00,5.859074925360290287e-01,6.201897576485383423e-01,-5.216081620310430988e-01,8.680369565378567813e+02
-8.184910261632697415e-01,-1.475876635176358853e+01,2.633334458845925319e+00,4.727219195319127265e-01,6.634958055801868371e-01,-5.799183587118350580e-01,8.731396744061327126e+02
-1.613660021174543768e+00,-1.457471836332507920e+01,2.667001935805071167e+00,3.509864575968351663e-01,6.948015351877898649e-01,-6.277398611556282981e-01,8.782423922744086440e+02
-2.474962040604953284e+00,-1.438530360192959989e+01,2.710264584221534712e+00,2.229028562964318894e-01,7.135407363124016689e-01,-6.642077493350900808e-01,8.833451101426845753e+02
-2.961207501667303621e+00,-1.427637480196168696e+01,2.736101414032340529e+00,9.078768067060956348e-02,7.193744758433799902e-01,-6.886624431042355221e-01,8.861277674418493007e+02
-3.854306399452515297e+00,-1.405441373375528613e+01,2.783619602585502673e+00,1.773566555919200705e-01,5.979228957349935758e-01,-7.816846086963344931e-01,8.912304853101252320e+02
-4.714940872510060998e+00,-1.379491436669442983e+01,2.826697687173336249e+00,2.584456772185683149e-01,4.579968020346851243e-01,-8.505543846531790075e-01,8.963332031784011633e+02
-5.505078339498877149e+00,-1.348415156483700272e+01,2.860189754691651487e+00,3.315492810845478977e-01,3.039195976000961807e-01,-8.931438587409045171e-01,9.014359210466770946e+02
-6.186342400852728574e+00,-1.310931269842922831e+01,2.878950580467623865e+00,3.944087315944395655e-01,1.404519156846112116e-01,-9.081371106953540773e-01,9.065386389149530260e+02
-6.611570858461879752e+00,-1.276151371081552277e+01,2.877885579571182628e+00,4.450818086503024462e-01,-2.735546531555552163e-02,-8.950708698897502646e-01,9.105434102222230877e+02
-6.997344801258113201e+00,-1.226055624891922591e+01,2.850050250811304142e+00,4.959682706579799372e-01,-7.907244829718723667e-02,-8.647317632737308024e-01,9.156461280904990190e+02
-7.216682899308431764e+00,-1.172099473551817361e+01,2.788241851009949368e+00,5.437873834215004587e-01,-1.303003951931800131e-01,-8.290446843432017765e-01,9.207488459587749503e+02
-7.236248749480926890e+00,-1.148609165309295932e+01,2.745275880030861870e+00,5.882434275671717394e-01,-1.807225064285288008e-01,-7.882303252142385253e-01,9.228909053869982699e+02
-7.113926049796523543e+00,-1.092486811438614858e+01,2.593561142511801698e+00,6.062841889832162323e-01,-2.636097281724221197e-01,-7.502848748285871894e-01,9.279936232552742013e+02
-6.844511292330477836e+00,-1.038887699780411289e+01,2.375909645096295542e+00,6.190893004992629178e-01,-3.442205055476892928e-01,-7.058602422310089608e-01,9.330963411235501326e+02
-6.544900673075672692e+00,-1.001335057283153063e+01,2.139200099512846176e+00,6.265481853342870222e-01,-4.218587472615069611e-01,-6.553400405951795848e-01,9.370807486005321607e+02
-6.078681962076817769e+00,-9.607154039564029802e+00,1.739814850996977080e+00,8.226021174827844451e-01,-3.311606762056094611e-01,-4.622297727834200343e-01,9.421834664688080920e+02
-5.565040516672467241e+00,-9.280366449336140633e+00,1.247725283353073644e+00,9.495944294115331585e-01,-2.126600547894244853e-01,-2.303130928268330713e-01,9.472861843370840234e+02
-5.042362055949187294e+00,-9.029685223350574219e+00,6.731188651488203556e-01,9.968635782713224369e-01,-7.630561249465654672e-02,2.093943213321677529e-02,9.523889022053599547e+02
-4.857618377119158559e+00,-8.961843926710223229e+00,4.334909654696941228e-01,9.604411489811056635e-01,6.645504308081330580e-02,2.704339597630707748e-01,9.542783250778740012e+02
-4.393394196924455208e+00,-8.830665522040899162e+00,-2.626265912079745468e-01,8.940687462268396279e-01,-2.338347324437167751e-01,3.820476343647948303e-01,9.593810429461499325e+02
-3.949558506226414689e+00,-8.729269778841317162e+00,-9.548674900947733413e-01,7.319978597832733636e-01,-5.090955024162815423e-01,4.527680451319884836e-01,9.644837608144258638e+02
-3.502145177355709738e+00,-8.630939569222116248e+00,-1.575011642641029441e+00,4.915760706251532941e-01,-7.298641949448089195e-01,4.750254979752523976e-01,9.695864786827017952e+02
-3.316942402349605246e+00,-8.583399973021933249e+00,-1.773384340094518619e+00,1.985373841187332289e-01,-8.725103819637149982e-01,4.464376109525233782e-01,9.716224547865216437e+02
-2.853603143480445414e+00,-8.425360241050210419e+00,-2.131716709099125140e+00,4.854476875789573986e-01,-6.316582155633255757e-01,6.044389475670230993e-01,9.767251726547975750e+02
-2.437625299797442135e+00,-8.220960160761707769e+00,-2.368182652875089111e+00,6.921173351000041718e-01,-2.863980146615579536e-01,6.625313363549756307e-01,9.818278905230735063e+02
-2.260683410663373305e+00,-8.086541914278015497e+00,-2.453245887451617424e+00,7.843855235983983043e-01,1.062015376487679408e-01,6.111125786386673031e-01,9.846617216642423500e+02
-2.082954335915043753e+00,-7.825968969614114812e+00,-2.567817866687517103e+00,6.296812899601095248e-01,5.060922030944468020e-01,5.893811627813445586e-01,9.897644395325182813e+02
-2.073733336059864207e+00,-7.568874158251508000e+00,-2.698597343917918501e+00,3.589151250375823277e-01,8.127006620263617087e-01,4.590158678754417410e-01,9.948671574007942127e+02
-2.117487903728980658e+00,-7.502492501042629769e+00,-2.754591825247958425e+00,2.199420282995881784e-02,9.695133288362307589e-01,2.440454061252402829e-01,9.963080721445891186e+02
-2.233744223115843308e+00,-7.423685216620345528e+00,-2.864843103780049471e+00,-3.505984385449543300e-02,9.305319416341347738e-01,3.645258741642973255e-01,9.982628499524549852e+02
-2.669967591779007332e+00,-7.243529370899907782e+00,-3.233032618809441150e+00,9.276550285196781542e-02,9.477304918664858358e-01,3.052858926741374712e-01,1.003365567820730917e+03
-3.213349028377281869e+00,-7.077975820570663323e+00,-3.640388383612994438e+00,2.187221148326590481e-01,9.458374630605279609e-01,2.398960815709459682e-01,1.008468285689006848e+03
-3.833906055716266525e+00,-6.914382322254685853e+00,-4.029204643910592409e+00,3.402726857405383720e-01,9.248909904156851214e-01,1.696736726346995128e-01,1.013571003557282779e+03
-4.012831318428199623e+00,-6.869562649589069814e+00,-4.115318804158409449e+00,4.549686608027398993e-01,8.853130144731231610e-01,9.603324471235163973e-02,1.014927113146262741e+03
-4.720234377929945602e+00,-6.692121512305103437e+00,-4.338399997203004510e+00,4.329610839560296687e-01,8.303592729063475897e-01,-3.507793860508051642e-01,1.020029831014538672e+03
-5.438827286258751670e+00,-6.504823408892849379e+00,-4.413644678362468987e+00,3.229991674989993733e-01,6.067213183070732097e-01,-7.263324168086560118e-01,1.025132548882814717e+03
-5.997679749855302056e+00,-6.351853042713511144e+00,-4.330141112436972861e+00,1.474212846495920326e-01,2.598303999518619123e-01,-9.543338661566929115e-01,1.029186408249044007e+03
-6.660152049818455211e+00,-6.157636647282560105e+00,-4.061821502974049203e+00,4.007203548197627585e-01,1.176579385381557319e-01,-9.086131226944639261e-01,1.034289126117319938e+03
-7.253765768119831314e+00,-5.964999070750016230e+00,-3.675935072404348247e+00,6.193715260090933983e-01,-3.468768208675280379e-02,-7.843300819687786252e-01,1.039391843985595870e+03
-7.749397683421907601e+00,-5.778913315667682404e+00,-3.220708845462156411e+00,7.844693829679623143e-01,-1.840340753048772260e-01,-5.922307373929137642e-01,1.044494561853871801e+03
-7.996959168228981341e+00,-5.666575096065246342e+00,-2.897040306236267959e+00,8.817389069980101635e-01,-3.174681725374176033e-01,-3.489247186885518492e-01,1.047937477491331720e+03
-8.195833987430489742e+00,-5.549572057208832732e+00,-2.445679962124485574e+00,9.461791379545851921e-01,-1.505073581723027909e-01,-2.865145267439664911e-01,1.053040195359607651e+03
-8.220785508497176153e+00,-5.526180456184374812e+00,-2.080257091172228456e+00,9.766292415032792329e-01,2.186016828279697261e-02,-2.138117342040952995e-01,1.058142913227883582e+03
-8.150647260039422193e+00,-5.644088032425850443e+00,-1.830403188632718781e+00,9.719953661448069715e-01,1.934423881623199004e-01,-1.334280729645263286e-01,1.063245631096159514e+03
-8.099627131752912490e+00,-5.839292253660191001e+00,-1.741503977463431552e+00,9.324439720919368568e-01,3.580754969188143511e-01,-4.825119081898288781e-02,1.066707081701501465e+03
-8.042887833162811972e+00,-6.288294624319276771e+00,-1.721376918515052257e+00,8.664510997698326999e-01,4.783470464807302869e-01,1.429845964828939109e-01,1.071809799569777397e+03
-7.993088008980830494e+00,-6.868046808834717076e+00,-1.796749520906429476e+00,7.524641765444924912e-01,5.721222088727468957e-01,3.263002315849478085e-01,1.076912517438053328e+03
-7.935948464411955783e+00,-7.545580632522981723e+00,-1.950740406560496965e+00,5.967971067328529111e-01,6.342066459553619140e-01,4.915415990756865638e-01,1.082015235306329259e+03
-7.858781403006168453e+00,-8.289673344134143917e+00,-2.161649633160461992e+00,4.080725069877311206e-01,6.611614048517816533e-01,6.295557368299887768e-01,1.087117953174605191e+03
-7.806292015246776295e+00,-8.673468381947211370e+00,-2.279431014693209523e+00,1.967440997290502425e-01,6.514934058515049475e-01,7.326978240407077125e-01,1.089610721660217450e+03
-7.663574559098095484e+00,-9.480920148462841368e+00,-2.523820808547152961e+00,1.881501502696520667e-01,5.800526935625802682e-01,7.925505622000168504e-01,1.094713439528493382e+03
-7.481759067865525026e+00,-1.028751178537314814e+01,-2.739996984943419811e+00,1.779080075214051482e-01,5.035307334919200128e-01,8.454605498119041052e-01,1.099816157396769313e+03
-7.252920833582183313e+00,-1.106692842475459493e+01,-2.891816752738193053e+00,1.661073925453413203e-01,4.225978542963422235e-01,8.909643021386278727e-01,1.104918875265045244e+03
-6.968477717851582653e+00,-1.179093146910773982e+01,-2.953034344626483509e+00,1.528516780810706688e-01,3.379630223949951495e-01,9.286632112886161750e-01,1.110021593133321176e+03
-6.619134291413990567e+00,-1.242794105063284071e+01,-2.929515459731191207e+00,1.382569830779600550e-01,2.503676320387584475e-01,9.582270375317341049e-01,1.115124311001597107e+03
-6.194833458520362157e+00,-1.294585533723810222e+01,-2.861664626135962397e+00,1.224511556089891151e-01,1.605790114201281760e-01,9.793968019043954865e-01,1.120227028869873038e+03
-6.126334887135958418e+00,-1.299611508679140570e+01,-2.852039090667961130e+00,1.055726530675155095e-01,6.938370165137254519e-02,9.919870547887289502e-01,1.120916268133958056e+03
-5.537227712668943092e+00,-1.321437857298428931e+01,-2.792956559746571976e+00,1.166122637860557143e-01,1.340891911030939743e-01,9.840831615056284676e-01,1.126018986002233987e+03
-4.878891683545341529e+00,-1.328518414251425028e+01,-2.744780982042460238e+00,1.271421426173270364e-01,1.982085451284127942e-01,9.718776919981781948e-01,1.131121703870509918e+03
-4.171014563557622346e+00,-1.321428825588948364e+01,-2.702900428102652963e+00,1.371162645209567654e-01,2.614615041181116983e-01,9.554239958588377490e-01,1.136224421738785850e+03
-3.512884449142007259e+00,-1.302888280350298977e+01,-2.667174002107283837e+00,1.464910331798449650e-01,3.235715945720714082e-01,9.347939882018404534e-01,1.140774273705619635e+03
-2.763323484288447318e+00,-1.268844740524784775e+01,-2.624556564592295249e+00,1.402701673112127789e-01,4.530006247461806357e-01,8.804048580855868833e-01,1.145876991573895566e+03
-2.023896328944453149e+00,-1.222704192903484888e+01,-2.575208453669822095e+00,1.312791387453927094e-01,5.734834029869050331e-01,8.086288235202181429e-01,1.150979709442171497e+03
-1.321840758474079447e+00,-1.166897950849175380e+01,-2.515453202551322764e+00,1.196955090238746161e-01,6.826405749836019776e-01,7.208833681702060403e-01,1.156082427310447429e+03
-9.373170847303531339e-01,-1.128936042096963988e+01,-2.477484964845049653e+00,1.057480378399095755e-01,7.783164449635341375e-01,6.189013362329524037e-01,1.159163147939665123e+03
-3.879469720963604762e-01,-1.061388182715209361e+01,-2.446406509956536190e+00,9.470306345368617595e-02,6.812672354122717433e-01,7.258817284690433080e-01,1.164265865807941054e+03
4.788667928020146763e-02,-9.919756320513725356e+00,-2.495325525756316942e+00,8.167071126212271936e-02,5.699213914823337834e-01,8.176291961836067435e-01,1.169368583676216986e+03
3.338878645411041957e-01,-9.235899405001783080e+00,-2.658421680664504461e+00,6.692446756903210059e-02,4.466155255767506049e-01,8.922184082125388382e-01,1.174471301544492917e+03
3.374507941735037653e-01,-9.222911236291457371e+00,-2.663194930859658527e+00,5.077378390122116308e-02,3.139372258100324165e-01,9.480840896869782153e-01,1.174572544216097185e+03
4.077805269056770654e-01,-8.605637268324763056e+00,-2.983075712917748756e+00,-9.520811079236056462e-02,5.500922854698946374e-01,8.296576963459570964e-01,1.179675262084373117e+03
3.181133146360598518e-01,-8.030004492278035144e+00,-3.423952929649532351e+00,-2.325160632057041987e-01,7.361312140567956019e-01,6.356454326453258030e-01,1.184777979952649048e+03
9.899950136006621659e-02,-7.499760338626790812e+00,-3.968208441409337262e+00,-3.486406656099483303e-01,8.551049855570286296e-01,3.837227514218429780e-01,1.189880697820924979e+03
-5.059594155759822298e-03,-7.345915662988443451e+00,-4.170853045737088927e+00,-4.330024045517290032e-01,8.961745019444478100e-01,9.684100225123361272e-02,1.191515502964395637e+03
-4.170226923270219377e-01,-6.915893389796298862e+00,-4.879062581847890989e+00,-3.726800981842292582e-01,8.713371036235083578e-01,3.191852068412581733e-01,1.196618220832671568e+03
-8.938096533525763387e-01,-6.530417043026282897e+00,-5.646029041092007539e+00,-2.923475981714545591e-01,7.997152568603815848e-01,5.243914470966675179e-01,1.201720938700947499e+03
-1.410400432139058635e+00,-6.183996512032051029e+00,-6.450400997922090873e+00,-1.963181654565435419e-01,6.851545343581653125e-01,7.014416882109015816e-01,1.206823656569223431e+03
-1.677853841664491474e+00,-6.029065503810375759e+00,-6.861612824891772711e+00,-8.974785960361314485e-02,5.338059809480846241e-01,8.408296476696667243e-01,1.209372830102821126e+03
-2.215723385597772932e+00,-5.744801314106720902e+00,-7.685645129142082865e+00,-5.266468677646651830e-01,4.495352033981876438e-01,7.214978708074089031e-01,1.214475547971097058e+03
-2.740597274788397097e+00,-5.460051032849232655e+00,-8.486325198945758430e+00,-8.517794048407070218e-01,2.698628003788994811e-01,4.490477863891264576e-01,1.219578265839372989e+03
-2.954470880863215410e+00,-5.329356329353682753e+00,-8.807875888762653815e+00,-9.961449277293439319e-01,3.291931566190045566e-02,8.129945642725208699e-02,1.221754794283229785e+03
-3.429976804882612473e+00,-4.998114176247101526e+00,-9.498165899754148711e+00,-9.394247181152711734e-01,-8.566265413206833323e-02,3.318751401974407433e-01,1.226857512151505716e+03
-3.881619468098429948e+00,-4.649086934915519720e+00,-1.010694578133892385e+01,-8.074874323831304768e-01,-1.973858362429063984e-01,5.558784743035817266e-01,1.231960230019781648e+03
-4.313265013857223273e+00,-4.292379320688461952e+00,-1.061359615081454422e+01,-6.108969198526033040e-01,-2.933048901782643880e-01,7.353741868682630578e-01,1.237062947888057579e+03
-4.335357814421435307e+00,-4.273674463939385326e+00,-1.063528303066916081e+01,-3.653935895271600010e-01,-3.657398602684606148e-01,8.559905836766606990e-01,1.237332328512091181e+03
-4.750315384244278683e+00,-3.939212927657335772e+00,-1.095380086273640075e+01,-2.014510894108471895e-01,-1.324939716172301718e-01,9.704951344851612260e-01,1.242435046380367112e+03
-5.183082710086861944e+00,-3.666780454932607736e+00,-1.118255744460863710e+01,-1.849317391478288650e-02,1.132583105295522641e-01,9.933924489411258829e-01,1.247523903139578806e+03
-5.345888783287585433e+00,-3.611569689137309691e+00,-1.123851830256064410e+01,1.521262539859730423e-01,1.744275018805560296e-01,9.728466731335897455e-01,1.249242141474109303e+03
-5.900171837133390440e+00,-3.577692742395486736e+00,-1.135048259048183716e+01,3.764444587608163362e-01,1.201916636580632053e-01,9.186084766945086244e-01,1.254344859342385234e+03
-6.544498662075524997e+00,-3.677310561909995723e+00,-1.140419025768651906e+01,5.796056457970224507e-01,5.920082338118546478e-02,8.127426147747768281e-01,1.259447577210661166e+03
-7.198360150360737286e+00,-3.878602449242230854e+00,-1.136655905592563798e+01,7.501918239634604024e-01,-5.117229704707485123e-03,6.611989422390058824e-01,1.264106096728943839e+03
-7.886607873795990820e+00,-4.174090271072351754e+00,-1.113014549971301648e+01,7.411961328902386681e-01,2.699020870276920905e-02,6.707442293501375552e-01,1.269208814597219771e+03
-8.400409978773909714e+00,-4.482137469539746455e+00,-1.056190579063086332e+01,7.313088415122207531e-01,5.906517052661357237e-02,6.794826590433049596e-01,1.274311532465495702e+03
-8.572741891012142901e+00,-4.704468185741764508e+00,-9.748160907583155677e+00,7.205418392973091946e-01,9.106908623061792107e-02,6.874037236869199319e-01,1.278571302737332417e+03
-8.479185124688994435e+00,-4.899368277346142442e+00,-8.447206202214191606e+00,8.289537920719703967e-01,7.136347976999761478e-02,5.547439628891057684e-01,1.283674020605608348e+03
-8.356554956962881420e+00,-4.960414212884138863e+00,-7.661127217843226589e+00,9.127125487247820246e-01,4.953551360445997837e-02,4.055860405500303911e-01,1.286405957247521428e+03
-8.137742221860243319e+00,-4.975933557453140921e+00,-6.150119983059419759e+00,9.467789679979959905e-01,4.859490622802710436e-02,3.181919559601508740e-01,1.291508675115797359e+03
-8.065639044474172792e+00,-4.915069413730920544e+00,-5.300409208727505650e+00,9.725145393655886261e-01,4.722670490196004961e-02,2.279980461725042429e-01,1.294483184371301149e+03
-8.071473595378739319e+00,-4.695668999130039545e+00,-3.968148686928803848e+00,9.965682822380740324e-01,-4.701004229535983570e-02,-6.811545169780906794e-02,1.299585902239577081e+03
-8.113034867977841458e+00,-4.580226107542928027e+00,-3.536065762002372548e+00,9.238128411745376578e-01,-1.366801177007313239e-01,-3.576120522373514854e-01,1.301485514201354135e+03
-8.266519881071761944e+00,-4.200622425935711668e+00,-2.590920482054493768e+00,9.438190886980234451e-01,-9.262830758762613526e-02,-3.172121126904713928e-01,1.306588232069630067e+03
-8.381688838182721923e+00,-3.773068227856919865e+00,-1.901272874813476177e+00,9.600755625864696441e-01,-4.820849998611356768e-02,-2.755519091720962099e-01,1.311690949937905998e+03
-8.432060185555387832e+00,-3.323444498572606154e+00,-1.476905921279903389e+00,9.725176820690417667e-01,-3.597162830514683170e-03,-2.327969468819632293e-01,1.316793667806181929e+03
-8.433085909370484856e+00,-3.088446971290088161e+00,-1.388153186820398899e+00,9.810960169705140732e-01,4.102847524449106109e-02,-1.891170793405618222e-01,1.319465401882841434e+03
-8.400233807244388728e+00,-2.659917376828676350e+00,-1.464895140786793837e+00,9.883207404300868859e-01,1.509103260735797369e-01,2.112315125298332846e-02,1.324568119751117365e+03
-8.332266642494616349e+00,-2.353433930017969189e+00,-1.708549981225319536e+00,9.398760434819058984e-01,2.522918034309782342e-01,2.301735623582456536e-01,1.328549292295673922e+03
-8.096040423892754134e+00,-2.001978316720104623e+00,-2.240637861338786507e+00,9.687837200933222537e-01,-7.421047887852416647e-02,2.365352162095568089e-01,1.333652010163949853e+03
-7.638531244820041977e+00,-1.677192074550073020e+00,-2.897041005724419360e+00,8.935664527305630100e-01,-3.927365949156774172e-01,2.174740480355888406e-01,1.338754728032225785e+03
-7.557317397701253547e+00,-1.634506599493781964e+00,-2.976209683444497767e+00,7.223085465436818176e-01,-6.690514201960714447e-01,1.750387406364714016e-01,1.339408458587705582e+03
-6.828105763874027900e+00,-1.257637947194897077e+00,-3.475806862115936813e+00,6.970602413809718900e-01,-7.117904082760787565e-01,8.636801820268502627e-02,1.344511176455981513e+03
-6.086865431861001596e+00,-7.979182185910669300e-01,-3.840086559367116514e+00,6.646136703771980958e-01,-7.471790038763003183e-01,-3.194575142525696819e-03,1.349613894324257444e+03
-5.661486715827604321e+00,-4.437126113491218216e-01,-3.963973296589794693e+00,6.253038824470448231e-01,-7.748517776682823932e-01,-9.272419984384856761e-02,1.352784655488888802e+03
-5.062663068591825244e+00,2.188791315586917918e-01,-3.976357466165766574e+00,5.308826686921936933e-01,-8.376637329896863271e-01,-1.283785905561020402e-01,1.357887373357164734e+03
-4.573715195312876070e+00,9.306197126635645800e-01,-3.789303626734430885e+00,4.289590635337426905e-01,-8.886378370074918820e-01,-1.622187302628054495e-01,1.362990091225440665e+03
-4.277203454422997986e+00,1.507806252350007314e+00,-3.469938818479676890e+00,3.209734052332919862e-01,-9.270537487364811646e-01,-1.937664059721666276e-01,1.367173645337965127e+03
-4.035337169087959808e+00,2.118820276084686594e+00,-2.897042457417450034e+00,2.989130337651314528e-01,-8.952853401542011369e-01,-3.303228087029654314e-01,1.372276363206241058e+03
-3.892930218240717721e+00,2.529216029308462232e+00,-2.193939622474296414e+00,2.708314890908101180e-01,-8.454826888755556658e-01,-4.602253006167958405e-01,1.377379081074516989e+03
-3.831416740584883573e+00,2.693458120035365777e+00,-1.431211214465553105e+00,2.372944291003687700e-01,-7.786489917879398925e-01,-5.808572126647114642e-01,1.382481798942792921e+03
-3.831034012950274903e+00,2.683069880975165855e+00,-1.051023769593086632e+00,1.989774004430980014e-01,-6.961304966992579724e-01,-6.897886094136742585e-01,1.384960561083046514e+03
-3.859603531710138924e+00,2.558132536409656321e+00,-2.650964594961700560e-01,2.390380720390334612e-01,-6.975002174071399663e-01,-6.755384865571526509e-01,1.390063278951322445e+03
-3.881164751471311014e+00,2.405150381497054735e+00,4.995744040063225810e-01,2.786661259316400852e-01,-6.976076000960531598e-01,-6.600657743993983972e-01,1.395165996819598377e+03
-3.885753675741255631e+00,2.315960189983774065e+00,1.159002393774748008e+00,3.177898605751438565e-01,-6.964524501913721410e-01,-6.433984683884089728e-01,1.399874300754311889e+03
-3.891652284638654535e+00,2.349546094692057885e+00,1.799153483128503206e+00,6.206570178049152231e-01,-6.833917963514927196e-01,-3.843937030295828117e-01,1.404977018622587821e+03
-3.907911181849031745e+00,2.545188038027623278e+00,2.283850674895798072e+00,8.248503366489525757e-01,-5.616835414635901191e-01,-6.427691170556470990e-02,1.409504863411869792e+03
-3.937871310700025607e+00,2.983717347790475038e+00,2.727822818303166752e+00,8.512660552167023997e-01,-4.562889677364132535e-01,-2.591225215140480209e-01,1.414607581280145723e+03
-3.947851780726656656e+00,3.150824985001812628e+00,2.816447963344165029e+00,8.353136499141020632e-01,-3.281845592298426317e-01,-4.410714243155495762e-01,1.415902937209048787e+03
-3.990696965769040094e+00,4.009080840907050636e+00,3.082195185120518044e+00,8.273349763244347566e-01,-3.307090880743720485e-01,-4.540334084533204084e-01,1.421005655077324718e+03
-4.026844995563656937e+00,5.025963073657653268e+00,3.277928420236911666e+00,8.191593611589036428e-01,-3.331548923152138908e-01,-4.668873083826921566e-01,1.426108372945600649e+03
-4.048657917574669973e+00,6.147321105661164964e+00,3.421189345068967214e+00,8.107887493828709324e-01,-3.355213901695502376e-01,-4.796300663944422782e-01,1.431211090813876581e+03
-4.047309659779112501e+00,7.325130903325888454e+00,3.526381337956340012e+00,8.022251322622805381e-01,-3.378080186864787504e-01,-4.922586511727665703e-01,1.436313808682152512e+03
-4.041350550139316766e+00,7.576902757521834175e+00,3.542011369563195178e+00,7.934705468848469723e-01,-3.400142338763400551e-01,-5.047700585058527700e-01,1.437380408982179233e+03
-3.976758478776377004e+00,8.790173763559252507e+00,3.589382420770822257e+00,7.538899836088891471e-01,-4.554983461189271998e-01,-4.734650454851445645e-01,1.442483126850455164e+03
-3.858826079230831319e+00,9.988042349242546081e+00,3.612831034352520287e+00,7.023352224208275763e-01,-5.637476426481872194e-01,-4.346398862909798821e-01,1.447585844718731096e+03
-3.674012957199349394e+00,1.114039032282850883e+01,3.617342174599340598e+00,6.396251191405507575e-01,-6.630427946707436737e-01,-3.889112487432551668e-01,1.452688562587007027e+03
-3.391145205342163127e+00,1.221174870684787273e+01,3.612897344560915158e+00,5.667557050770394289e-01,-7.518066908850288277e-01,-3.370054455085685352e-01,1.457791280455282958e+03
-3.218963291733989429e+00,1.259607237645370148e+01,3.613790701244532499e+00,4.848843684640357088e-01,-8.286294839361878495e-01,-2.797468991248039383e-01,1.459845759992455896e+03
-2.630194144490482611e+00,1.342397154644393531e+01,3.632003178195148951e+00,3.801067432942061286e-01,-8.934418955909076976e-01,-2.393291518055263301e-01,1.464948477860731828e+03
-1.915585196920454480e+00,1.415284537972133982e+01,3.665953560501996389e+00,2.689385498524655693e-01,-9.432331924449502969e-01,-1.948876626988388372e-01,1.470051195729007759e+03
-1.132888413345573220e+00,1.482816671463135094e+01,3.712731932482584263e+00,1.532487928117998444e-01,-9.771662684382381725e-01,-1.471696005530236939e-01,1.475153913597283690e+03
-6.386355182452406742e-01,1.523422484595266191e+01,3.745784340283702551e+00,3.498249227167422176e-02,-9.946706209758942041e-01,-9.697721897564832993e-02,1.478296608368356374e+03
1.548183991385232716e-01,1.589247618130853290e+01,3.791914880396707765e+00,-1.962974897399152874e-01,-9.562758671909716846e-01,-2.167988961003862458e-01,1.483399326236632305e+03
9.168807414982358406e-01,1.655333117832515555e+01,3.808296722654974875e+00,-4.139697435870304254e-01,-8.515901967729109234e-01,-3.215916481426459583e-01,1.488502044104908236e+03
1.621301154995354654e+00,1.722344453434379830e+01,3.770384786387227738e+00,-6.029448187878270193e-01,-6.878706086945581832e-01,-4.040910431960884619e-01,1.493604761973184168e+03
2.246638624951196928e+00,1.790797358591265365e+01,3.659171661350993698e+00,-7.501225900668656577e-01,-4.764664371674416365e-01,-4.585780567410202013e-01,1.498707479841460099e+03
2.262513535963851297e+00,1.792778760092847889e+01,3.654517420676894002e+00,-8.453003805955194849e-01,-2.320326146147961288e-01,-4.812755264086637785e-01,1.498851174709319821e+03
2.760942814123179989e+00,1.865020000947162870e+01,3.433945585265118616e+00,-8.511479707124808280e-01,-2.482742622451117320e-01,-4.624986731238611704e-01,1.503953892577595752e+03
3.160928167581792181e+00,1.938829686438637623e+01,3.129676539477289410e+00,-8.564418392977819483e-01,-2.643543891451113903e-01,-4.434209431485448549e-01,1.509056610445871684e+03
3.455042206187862508e+00,2.014176577583722150e+01,2.739322424506845710e+00,-8.611785439303477618e-01,-2.802625383558039474e-01,-4.240547429885117015e-01,1.514159328314147615e+03
3.456140585777838670e+00,2.014529216558238289e+01,2.737320384913255911e+00,-8.653550041079567379e-01,-2.959883646311073924e-01,-4.044126665309141777e-01,1.514182834178953954e+03
3.635253172887543460e+00,2.091448416744448480e+01,2.261068488335697513e+00,-9.609046257099591593e-01,-2.076156794714363596e-01,-1.831830503261382415e-01,1.519285552047229885e+03
3.693696593987965571e+00,2.166658449611153969e+01,1.709125329918518732e+00,-9.931477975962640370e-01,-1.055648358440623713e-01,5.011504327936387032e-02,1.524388269915505816e+03
3.623387238116054565e+00,2.236957831696706833e+01,1.094213259629185586e+00,-9.599602762471888262e-01,3.440847041112637516e-03,2.801114574575209182e-01,1.529490987783781748e+03
3.415427469694093165e+00,2.299164789172528245e+01,4.290591715646364102e-01,-8.635285111082751097e-01,1.122198508712247411e-01,4.916535523855635192e-01,1.534593705652057679e+03
3.138272052440133741e+00,2.340331126237524018e+01,-1.253082184915680353e-01,-7.102056059456790527e-01,2.136055849635432047e-01,6.708044807209645466e-01,1.538641903423643043e+03
2.658340601947282611e+00,2.381705630641295102e+01,-8.314977048452004693e-01,-5.723143885816969201e-01,1.454159254484853059e-01,8.070368326464798514e-01,1.543744621291918975e+03
2.068067682381799166e+00,2.413435547752626675e+01,-1.511344791663111087e+00,-4.102582794184732040e-01,7.108635898771251127e-02,9.091935293073508673e-01,1.548847339160194906e+03
1.388387650282254748e+00,2.436332595789278344e+01,-2.129245063245752689e+00,-2.308798005653973084e-01,-6.244686880945782628e-03,9.729612127811874123e-01,1.553950057028470837e+03
6.403909512047192276e-01,2.451156596702987400e+01,-2.649598574488599922e+00,-4.175286799223750650e-02,-8.331205680930828250e-02,9.956474271571571499e-01,1.559052774896746769e+03
-1.546806493760830292e-01,2.458615206106977169e+01,-3.036812420405161639e+00,1.491369994530493404e-01,-1.568617307256835181e-01,9.762942962180509721e-01,1.564155492765022700e+03
-8.321569133420267939e-01,2.458791890209724329e+01,-3.225384804089176605e+00,3.337298473829078960e-01,-2.237882159995786546e-01,9.157189652646885447e-01,1.568372327583289916e+03
-1.651007059612067396e+00,2.450947690613278596e+01,-3.288018528418394482e+00,4.713229941100620102e-01,-1.446419838028818738e-01,8.700180065625299219e-01,1.573475045451565848e+03
-2.439794961076922508e+00,2.433675462764450614e+01,-3.188450864749074576e+00,5.960562309799893876e-01,-6.154927365380975096e-02,8.005789507731616572e-01,1.578577763319841779e+03
-3.095421005636914025e+00,2.408232654136745765e+01,-2.956267109223365885e+00,7.045263142204146734e-01,2.322279476963843084e-02,7.092963938807221869e-01,1.583165645654285527e+03
-3.736860536240484088e+00,2.368082251977560659e+01,-2.541610081297529522e+00,7.957322344353098265e-01,3.281380023054816103e-02,6.047573609268618311e-01,1.588268363522561458e+03
-4.265821917261962248e+00,2.316762389221024065e+01,-1.974335669174698271e+00,8.715495173949500129e-01,4.177022017302466778e-02,4.885229651056535172e-01,1.593371081390837389e+03
-4.663947091401619893e+00,2.255700932893543609e+01,-1.264833237444934699e+00,9.305119431365056482e-01,4.991884731810163761e-02,3.628410566117082903e-01,1.598473799259113321e+03
-4.916239548533146042e+00,2.186349000628306172e+01,-4.273112476802322091e-01,9.714792452819899227e-01,5.710209623618472258e-02,2.301421877712189479e-01,1.603576517127389252e+03
-5.022370071145436654e+00,2.110077481719352832e+01,5.200738900737165160e-01,9.936591615636296559e-01,6.318105078121775964e-02,9.299260972339588871e-02,1.608679234995665183e+03
-5.011759487941642277e+00,2.028182183611925993e+01,1.551280420102127078e+00,9.966227548265945702e-01,6.803815050343568760e-02,-4.595535483674807048e-02,1.613781952863941115e+03
-4.928533565049984411e+00,1.941998053294744153e+01,2.636321827065487788e+00,9.803127083088515326e-01,7.157946410240255408e-02,-1.840146033528896885e-01,1.618884670732217046e+03
-4.923557709326387588e+00,1.938266427031469874e+01,2.682725290651834626e+00,9.450444347626314467e-01,7.373650596179454064e-02,-3.185152178668022027e-01,1.619097848843839756e+03
-4.781127892678563640e+00,1.846651892367863823e+01,3.807075238230084313e+00,9.311829150925430287e-01,6.233508578735671296e-02,-3.591806171246872958e-01,1.624200566712115688e+03
-4.614347175167629267e+00,1.754034534059899642e+01,4.938195432281421660e+00,9.154815542455517763e-01,5.081050448373256728e-02,-3.991363381963540236e-01,1.629303284580391619e+03
-4.425151533864106312e+00,1.662243424176778106e+01,6.060264137969407550e+00,8.979713753360349937e-01,3.918553221069448478e-02,-4.383034372909808685e-01,1.634406002448667550e+03
-4.215027779114820738e+00,1.573111893480951906e+01,7.157460267540964871e+00,8.786869751562356168e-01,2.748313745322692597e-02,-4.766045287711587197e-01,1.639508720316943482e+03
-3.985013190664988159e+00,1.488476718649538100e+01,8.213964521146969844e+00,8.576664558227204971e-01,1.572644164725681137e-02,-5.139639380231854071e-01,1.644611438185219413e+03
-3.735695210980158887e+00,1.410177309023164050e+01,9.213960527566259273e+00,8.349513495017463205e-01,3.938673503638676077e-03,-5.503078509479357727e-01,1.649714156053495344e+03
-3.467211195788695299e+00,1.340054892960894684e+01,1.014163598477102468e+01,8.105865363613097285e-01,-7.856876879560567226e-03,-5.855644597771784143e-01,1.654816873921771275e+03
-3.179248221862043255e+00,1.279951703879854463e+01,1.098118380027197816e+01,7.846201559117718105e-01,-1.963690402595571344e-02,-6.196641049277207269e-01,1.659919591790047207e+03
-2.871042952046686025e+00,1.231710166058182665e+01,1.171680323118174272e+01,7.571035119099538413e-01,-3.137813312015719225e-02,-6.525394126135525275e-01,1.665022309658323138e+03
-2.537381345503558983e+00,1.196211804935298773e+01,1.232991528052667718e+01,7.280909710142485780e-01,-4.305736598668553905e-02,-6.841254279445004860e-01,1.670125027526599069e+03
-2.176561428778680973e+00,1.172897051034182425e+01,1.279803629293500933e+01,6.976398553905920341e-01,-5.465152691778268207e-02,-7.143597432487703847e-01,1.675227745394875001e+03
-1.991806307878504212e+00,1.167200076022128918e+01,1.294867896848889544e+01,6.658103294810473471e-01,-6.613770825970927136e-02,-7.431826213661363312e-01,1.677744865446570429e+03
-1.625550366732469998e+00,1.167419227614402111e+01,1.308069284902948937e+01,5.980469879153827995e-01,-1.511581388678456261e-01,-7.870762461768568974e-01,1.682847583314846361e+03
-1.293870591775793777e+00,1.179355196989863686e+01,1.302905134783242858e+01,5.220622818614848448e-01,-2.341005946868495724e-01,-8.201499164306101930e-01,1.687950301183122292e+03
-1.022078735854704989e+00,1.202460049803586095e+01,1.279534928057490539e+01,4.389007375716641457e-01,-3.138248976073712559e-01,-8.419489748176137711e-01,1.692951813752257749e+03
-7.986832799676262251e-01,1.237187254247455570e+01,1.238388753814813015e+01,3.781999443816096984e-01,-6.852448674816783436e-01,-6.224164792640292099e-01,1.698054531620533680e+03
-6.185345688467465131e-01,1.282355151459507958e+01,1.182282658085100913e+01,2.457046309032294984e-01,-9.265832085480742997e-01,-2.847293311010971606e-01,1.703157249488809612e+03
-4.742407640782351774e-01,1.336114308099896064e+01,1.115031623712865283e+01,6.656667578771857663e-02,-9.920262285665613078e-01,1.070085954973365450e-01,1.708155935915290456e+03
-3.482007643929284635e-01,1.400360074824749113e+01,1.036648268559832076e+01,-5.755369781684200638e-03,-9.995671944181889756e-01,2.881491896074090536e-02,1.713258653783566388e+03
-2.734400823790076318e-01,1.447918807675669761e+01,9.821394848637016395e+00,-7.801177861832454818e-02,-9.957114788128711425e-01,-4.970727662936699764e-02,1.716537643190786184e+03
-1.562063075464680539e-01,1.531574647875573980e+01,8.942070563764625390e+00,-1.140994008307092827e-01,-9.828307061087163676e-01,-1.449935510957100493e-01,1.721640361059062116e+03
-2.975589977832586441e-02,1.623187144511092939e+01,8.068528550912743569e+00,-1.489835275210762700e-01,-9.595833096653142436e-01,-2.387504562063079427e-01,1.726743078927338047e+03
1.109004710322168269e-01,1.720352893758053980e+01,7.241346131007146525e+00,-1.822962135152787488e-01,-9.262144997065522301e-01,-3.299890771995326877e-01,1.731845796795613978e+03
2.701775148390945791e-01,1.820658003559492855e+01,6.501097267296803039e+00,-2.136860887108179285e-01,-8.830762412336899958e-01,-4.177470618205806341e-01,1.736948514663889910e+03
4.459366990264504449e-01,1.921705962561923897e+01,5.874702404629106312e+00,-2.428220638706143353e-01,-8.306235416852193465e-01,-5.010987700000218981e-01,1.742051232532165841e+03
6.235159563452176146e-01,2.021164674904318304e+01,5.361779294396028739e+00,-2.693968225434088537e-01,-7.694096520394017036e-01,-5.791650363683976677e-01,1.747153950400441772e+03
6.453874411427669155e-01,2.034408071317982802e+01,5.304782272375957675e+00,-2.931300623100189795e-01,-7.000802319416603581e-01,-6.511224427202036980e-01,1.747856583570608109e+03
7.731182519194940150e-01,2.126044223759489071e+01,4.981857843058087987e+00,-1.934939835345085846e-01,-6.918232947488752727e-01,-6.956569608494963530e-01,1.752959301438884040e+03
8.563057552445436649e-01,2.211343592477328102e+01,4.742385149141904677e+00,-9.154007778358022596e-02,-6.752790971039598356e-01,-7.318582889969387217e-01,1.758062019307159972e+03
8.725951642914292483e-01,2.288152323048497294e+01,4.572309566639583878e+00,1.151036895698934019e-02,-6.506458208516020525e-01,-7.592927809577327825e-01,1.763164737175435903e+03
7.990955555229616314e-01,2.354369749211753060e+01,4.457571454912251596e+00,1.144229362879961021e-01,-6.182185434497472487e-01,-7.776318050245637492e-01,1.768267455043711834e+03
6.123846244302286745e-01,2.407949362614146693e+01,4.384107171998106622e+00,2.159648552192814097e-01,-5.783857035005406377e-01,-7.866556802666788695e-01,1.773370172911987765e+03
3.004615068274829603e-01,2.447834754911570343e+01,4.335790462273218182e+00,3.149197742353112006e-01,-5.316244481790406429e-01,-7.862563080149218564e-01,1.778472890780263697e+03
-5.572218951180227253e-02,2.470298976443239169e+01,4.300336721016477348e+00,4.101023288462134486e-01,-4.784949182392498335e-01,-7.764384670360092722e-01,1.782731635782065268e+03
-5.755737145628324614e-01,2.485841157435218918e+01,4.243231239798870291e+00,4.434837186017814847e-01,-5.101240105302619066e-01,-7.369489027128391934e-01,1.787834353650341200e+03
-1.165170386689878823e+00,2.491663591387338528e+01,4.150101825475664086e+00,4.752356759565408706e-01,-5.398788244800777347e-01,-6.947516874180569291e-01,1.792937071518617131e+03
-1.799977427713549183e+00,2.489383303598550512e+01,3.998644711744224090e+00,5.052415478151147665e-01,-5.676500443734651125e-01,-6.500018503651656676e-01,1.798039789386893062e+03
-2.332163919539061325e+00,2.482108460518309556e+01,3.811326097295400839e+00,5.333910947153276405e-01,-5.933356405382465004e-01,-6.028637970047695527e-01,1.802177916245050255e+03
-2.567036748087039744e+00,2.476833277955063295e+01,3.695344455231673653e+00,8.628703982222781788e-01,-3.275924976015202605e-01,-3.848841791819422320e-01,1.803998349676221324e+03
-3.210579525801195988e+00,2.456993046109007395e+01,3.273359833021471044e+00,9.186920031124700126e-01,-3.188703305550208422e-01,-2.330766305488027601e-01,1.809101067544497255e+03
-3.815774536057511934e+00,2.432819187819978879e+01,2.761985260821379740e+00,9.504092258158164386e-01,-3.017817420717781030e-01,-7.515373334411239170e-02,1.814203785412773186e+03
-4.354665364100443803e+00,2.404731457701507935e+01,2.173847466767199421e+00,9.571899006756299233e-01,-2.767750984971181771e-01,8.474101070742459663e-02,1.819306503281049118e+03
-4.493005716613049039e+00,2.394944694759329451e+01,1.973600386483929547e+00,9.388561179539759438e-01,-2.445065102796465106e-01,2.424123681049189238e-01,1.820873097371532140e+03
-4.839587824758202927e+00,2.359502248478898778e+01,1.267837529233865723e+00,9.559121468293448887e-01,-2.313312040753208454e-01,1.808752099103063116e-01,1.825975815239808071e+03
-5.039832077624159190e+00,2.320525513201346968e+01,5.178003658027733325e-01,9.689042775000263896e-01,-2.171724371709151391e-01,1.185691088372723551e-01,1.831078533108084002e+03
-5.035792779016280640e+00,2.277094000016607112e+01,-2.626831843661915356e-01,9.777772811614784398e-01,-2.020904000350783047e-01,5.575893339274434757e-02,1.836181250976359934e+03
-4.884340415227181431e+00,2.243405132255141510e+01,-8.025018422643694915e-01,9.824934367234712251e-01,-1.861492073395438485e-01,-7.288305480948718482e-03,1.839685101717162524e+03
-4.469719741789087486e+00,2.187673563679425470e+01,-1.563607381057128043e+00,9.549072489135118635e-01,-2.381284332531829473e-01,1.773273674563594915e-01,1.844787819585438456e+03
-3.905849902566429943e+00,2.124088300169790955e+01,-2.278637360921015986e+00,8.914682630989979595e-01,-2.811669152351663481e-01,3.552850991312820339e-01,1.849890537453714387e+03
-3.264122127319661448e+00,2.052158851912235349e+01,-2.951869137616191185e+00,7.945583568399589014e-01,-3.136487456074614766e-01,5.199033390496718976e-01,1.854993255321990318e+03
-2.608626994177908109e+00,1.972953899257169397e+01,-3.606268627770243818e+00,6.678160842207421233e-01,-3.343543712233684184e-01,6.650013775174786756e-01,1.860095973190266250e+03
-2.114608260003794538e+00,1.905829430559802162e+01,-4.130327739356316918e+00,5.160000682213067291e-01,-3.425063805676623607e-01,7.851313959243250151e-01,1.864146011794783135e+03
