-1.690524829437717980e+00,-9.285778691379310834e-02,-4.046588320355987811e+00,-0.000000000000000000e+00,1.466699169343320570e-02,9.998914337172097877e-01,6.635749814070824186e+02
-1.632278118627262131e+00,-2.737668369685586356e-01,-4.010931278369981534e+00,-0.000000000000000000e+00,-9.999989999326389967e-07,9.999989999326391876e-01,6.701203667073525594e+02
-1.577526157089571113e+00,-4.541955417474359269e-01,-3.972218690003309849e+00,-1.710479639359899773e-01,-3.300672315967960180e-01,9.283297995111869927e-01,6.766657520076227001e+02
-1.525518524463745251e+00,-6.330758508312746002e-01,-3.930613715538019193e+00,-3.175782561597086384e-01,-6.128222889424789210e-01,7.235958080248489077e-01,6.832111373078928409e+02
-1.475473313586265434e+00,-8.093628198577869082e-01,-3.886279844856717514e+00,-4.185875539198737338e-01,-8.077366976260051956e-01,4.151432126544217227e-01,6.897565226081629817e+02
-1.439203020358473140e+00,-9.365528329007053454e-01,-3.851741945749132867e+00,-4.595974337851653768e-01,-8.868719073915704021e-01,4.718494186909653193e-02,6.945787647614342859e+02
-1.390050468618200696e+00,-1.104682229252239800e+00,-3.802459264148453144e+00,3.783536023998775311e-01,-7.581172033180310077e-01,-5.311354418461582405e-01,7.011241500617044267e+02
-1.340542438525703428e+00,-1.267491384918807418e+00,-3.750896694074591586e+00,4.811385603294817126e-01,-6.843045890490884187e-01,-5.479333127031688067e-01,7.076695353619745674e+02
-1.289793545402920127e+00,-1.424088394694077220e+00,-3.697313131729837554e+00,5.760832163300317887e-01,-5.993410883361652841e-01,-5.558024718319491964e-01,7.142149206622447082e+02
-1.274580301512911351e+00,-1.466471369188172780e+00,-3.681668562028591829e+00,6.616404511288501711e-01,-5.046111887531792295e-01,-5.546146965368998760e-01,7.160708230758001491e+02
-1.217418415873823268e+00,-1.608421076811958450e+00,-3.625249248666413848e+00,7.364161080991873387e-01,-4.016585135365037806e-01,-5.443893406699148452e-01,7.226162083760702899e+02
-1.156878250558178278e+00,-1.742625310543962858e+00,-3.567952743034706664e+00,8.148924812618255631e-01,-3.790188883950491028e-01,-4.385121734047301989e-01,7.291615936763404306e+02
-1.092109647545465467e+00,-1.868549017210304530e+00,-3.510378570071756688e+00,8.787976750313457597e-01,-3.496019882915688548e-01,-3.247939287356286786e-01,7.357069789766105714e+02
-1.073953584993473376e+00,-1.898732080035588687e+00,-3.495618346532201492e+00,9.269889965339519478e-01,-3.139338198481321229e-01,-2.052680127589010806e-01,7.373958824033109067e+02
-9.975549885058112576e-01,-2.006646693378550061e+00,-3.439269676307810553e+00,9.586047332096979678e-01,-2.726521686764116215e-01,-8.207167833944215007e-02,7.439412677035810475e+02
-9.476394619680997833e-01,-2.066497530424578510e+00,-3.406000602532580412e+00,9.730795608955509213e-01,-2.264951952065956953e-01,4.259219079897415272e-02,7.479009542327726194e+02
-8.586046507174208697e-01,-2.156464593493972792e+00,-3.352923485895265898e+00,9.701546523912036868e-01,-1.762882357813437550e-01,1.664944694882208032e-01,7.544463395330427602e+02
-7.630393614614904285e-01,-2.237909641612011225e+00,-3.302275341591586866e+00,9.498823057653669188e-01,-1.229290449907885219e-01,2.874196498028980251e-01,7.609917248333129010e+02
-7.064489083210341303e-01,-2.278114388769772347e+00,-3.275967173829517964e+00,9.126250096133657896e-01,-6.737174308963490843e-02,4.032054563897847776e-01,7.646008626906512973e+02
-5.965818935449124227e-01,-2.342889340426404399e+00,-3.231552479406766043e+00,8.590489619158366841e-01,-1.060975549183434778e-02,5.117815101397052979e-01,7.711462479909214380e+02
-4.795754846608578648e-01,-2.400326711038631711e+00,-3.190802925557876257e+00,7.901121582998186232e-01,4.634195063228955386e-02,6.112063488867506278e-01,7.776916332911915788e+02
-3.552559762687699241e-01,-2.450912408756480421e+00,-3.154182232533913943e+00,-4.015486972676823862e-01,-7.363974448212466939e-01,-5.444955894983276590e-01,7.842370185914617196e+02
-2.235279327047983711e-01,-2.495222238390440328e+00,-3.122040042622296063e+00,-4.524557514271940195e-01,-6.992496688112418424e-01,-5.534723964806009811e-01,7.907824038917318603e+02
-8.456961428431432337e-02,-2.533950171121824635e+00,-3.094416812398173899e+00,-5.015294080117970177e-01,-6.592684900879430820e-01,-5.602064894972883513e-01,7.973277891920020011e+02
4.729653741303194159e-02,-2.564436312940225449e+00,-3.073309830693679690e+00,-5.485708217795004504e-01,-6.166159142122848991e-01,-5.646705834651108979e-01,8.032508589282145977e+02
1.991642332360505918e-01,-2.593649917605725275e+00,-3.053980288341144878e+00,-5.933893819889268784e-01,-5.714647703698653158e-01,-5.668465908581421520e-01,8.097962442284847384e+02
3.565088838207702282e-01,-2.619050663867147577e+00,-3.038325588193566240e+00,-6.358034845452440464e-01,-5.239980111856767930e-01,-5.667256949461065840e-01,8.163416295287548792e+02
3.928231001939127554e-01,-2.623759973745145135e+00,-3.035600522514567245e+00,-6.756412676725098709e-01,-4.744079715559388899e-01,-5.643083854954983325e-01,8.178054252697601214e+02
5.597104562404439099e-01,-2.640681951392806592e+00,-3.026573037317568104e+00,-7.127413081385771676e-01,-4.228955894932131532e-01,-5.596044567892568544e-01,8.243508105700302622e+02
7.301769954505303861e-01,-2.654559664164435784e+00,-3.020116776330690200e+00,-8.162637039383380255e-01,-3.054692944632069751e-01,4.903061041553442578e-01,8.308961958703004029e+02
9.031662934492619144e-01,-2.665491483475176171e+00,-3.015590613335067616e+00,-3.999995304134481452e-06,1.561658166663663361e-01,9.877298404370138396e-01,8.374415811705705437e+02
9.113292295859647396e-01,-2.665807353826738169e+00,-3.015450454695967952e+00,-4.346150638429442936e-01,1.372328782481088694e-01,8.900982436841574641e-01,8.377474125983546855e+02
1.087148655862873570e+00,-2.668303780815576953e+00,-3.013629542185124688e+00,-7.828344534522074794e-01,9.102111357163510108e-02,6.155350318002562604e-01,8.442927978986248263e+02
1.263137110641230576e+00,-2.667495199689386087e+00,-3.012379937927557538e+00,-9.754438713835068553e-01,2.671638665538262833e-02,2.186172190507570945e-01,8.508381831988949671e+02
1.348675878006041717e+00,-2.664936008782389898e+00,-3.011778786890488835e+00,-9.741568796143648123e-01,-4.289895066157300985e-02,-2.217567449557902581e-01,8.540388386169396426e+02
1.521493612290051312e+00,-2.654797268012682565e+00,-3.010063860451673623e+00,-9.817774014646213354e-01,-3.972164404890083517e-02,-1.858314423553987516e-01,8.605842239172097834e+02
1.659534164501468512e+00,-2.642402119440716568e+00,-3.007793717480957252e+00,-9.880638863372718239e-01,-3.649036380818330289e-02,-1.496536329853167535e-01,8.659137601400203721e+02
1.823938578053282189e+00,-2.621405282975258100e+00,-3.003298921321224224e+00,-9.930077922742797103e-01,-3.320950056666926303e-02,-1.132724748345578791e-01,8.724403359150708184e+02
1.982689355896475103e+00,-2.593857842043171935e+00,-2.996274598101899667e+00,-9.966024015607237718e-01,-2.988351232276535360e-02,-7.673740219161122311e-02,8.789857212153409591e+02
2.131293398951295881e+00,-2.559321425975216613e+00,-2.985986371149341068e+00,-9.988428298515193982e-01,-2.651691838904720461e-02,-4.009805847923292310e-02,8.854289603144549119e+02
2.272799390947217724e+00,-2.515635545335980883e+00,-2.971161685811756659e+00,-9.997260328080500580e-01,-2.311429325199597373e-02,-3.404228805218010353e-03,8.919743456147250527e+02
2.367731678059517453e+00,-2.476633796962794953e+00,-2.956547379531269115e+00,-9.992508102353022670e-01,-1.968026035677921878e-02,3.329422767936493499e-02,8.967412072044597835e+02
2.485517112584270993e+00,-2.412289096047986803e+00,-2.930368093896628334e+00,-9.974178077138747822e-01,-1.621948582551386436e-02,6.994744552264288429e-02,9.032865925047299243e+02
2.589420737140700535e+00,-2.336460817024520242e+00,-2.897043370199794410e+00,-9.942295157246312520e-01,-1.273667211753948779e-02,1.065056207231379476e-01,9.098319778050000650e+02
2.677861793795877521e+00,-2.248114345202124387e+00,-2.856171332009055153e+00,-9.896902662671626105e-01,-9.236551640308895278e-03,1.429190783977129231e-01,9.163773631052702058e+02
2.708736848410120412e+00,-2.203988284752043558e+00,-2.835522408443026166e+00,-9.838062269766228995e-01,-5.723880319570142684e-03,1.791383402743852715e-01,9.192062492679181105e+02
2.763571272671073054e+00,-2.087541079300869740e+00,-2.781310347600762345e+00,-9.765853927468930440e-01,-2.203431137569600295e-03,2.151141919183696682e-01,9.257516345681882513e+02
2.803803039864191327e+00,-1.956537637555266329e+00,-2.720686054617009297e+00,-9.680375748714116213e-01,1.320012351950382214e-03,2.507977496000625695e-01,9.322970198684583920e+02
2.813053776050998156e+00,-1.904780643658198214e+00,-2.696979531301981314e+00,-9.581743877163729772e-01,4.841662523154151125e-03,2.861405267141692854e-01,9.346156455443504001e+02
2.826073716637909516e+00,-1.743483822718991050e+00,-2.623776781138796199e+00,-9.470092329443425827e-01,8.356734183090406762e-03,3.210944996597716594e-01,9.411610308446205408e+02
2.828049168004890035e+00,-1.567289178604337696e+00,-2.544238223162984980e+00,-9.345572813096644227e-01,1.186045107341137175e-02,3.556121730918637147e-01,9.477064161448906816e+02
2.820291339726618496e+00,-1.376476413596809723e+00,-2.458359779360564268e+00,-9.208354520503263529e-01,1.534805236000411771e-02,3.896466444557292186e-01,9.542518014451608224e+02
2.804062292239627663e+00,-1.171450187117920594e+00,-2.366153617716216573e+00,-9.058623899042145267e-01,1.881479910172026079e-02,4.231516677165007567e-01,9.607971867454309631e+02
2.801306440343148463e+00,-1.147762678514732348e+00,-2.355489429683563340e+00,-8.896584397809113032e-01,2.225598068941801386e-02,4.560817161973254596e-01,9.615062579861255472e+02
2.767343340746761360e+00,-9.158145454919981443e-01,-2.250847176805314209e+00,-8.722456191233751710e-01,2.566692124657011034e-02,4.883920444407662820e-01,9.680516432863956879e+02
2.737427809255137401e+00,-7.347288789458483738e-01,-2.168870021592118835e+00,-8.536475879969822600e-01,2.904298598274272086e-02,5.200387490093840714e-01,9.728923574258250255e+02
2.691415759597224788e+00,-4.776742777009889696e-01,-2.051890323791751847e+00,-8.133690078511428556e-01,2.892715795628796396e-02,5.810267434460618663e-01,9.794377427260951663e+02
2.641290392359588957e+00,-2.092435279172896456e-01,-1.928867343271817747e+00,-7.687454767886837681e-01,2.865680329350629718e-02,6.389109324011742475e-01,9.859831280263653071e+02
2.587927603027531553e+00,6.951695221635956212e-02,-1.799929960515683991e+00,-7.200153709316764461e-01,2.823336624471668721e-02,6.933821043641725801e-01,9.925285133266354478e+02
2.573540630612157099e+00,1.412835539005035668e-01,-1.766352345386888123e+00,-6.674390030638233107e-01,2.765910880704941510e-02,7.441492799762083887e-01,9.941600517329895865e+02
2.512011095920150261e+00,4.377087348203754225e-01,-1.625957251817938598e+00,-6.112972320535899895e-01,2.693709863972383600e-02,7.909412663406072408e-01,1.000705437033259727e+03
2.449128706417107004e+00,7.421071643261852868e-01,-1.479968019128691026e+00,-5.518899625389995789e-01,2.607119267598282872e-02,8.335081056361601792e-01,1.007250822333529868e+03
2.397341152666519815e+00,9.933382153606914455e-01,-1.357774091893778401e+00,-4.895345428882862948e-01,2.506601651927608740e-02,8.716224102987835121e-01,1.012534515054157623e+03
2.332390858138698508e+00,1.310380264493630875e+00,-1.201236476165710387e+00,-4.245640699929798534e-01,2.392693973377368541e-02,9.050805776426914528e-01,1.019079900354427764e+03
2.267615746730183179e+00,1.632258340843180333e+00,-1.039757125013436978e+00,-3.573256099469390157e-01,2.266004716119899773e-02,9.337038774358533688e-01,1.025625285654697791e+03
2.203421415123756333e+00,1.957875413109840368e+00,-8.736197764108883934e-01,-2.881783441135405965e-01,2.127210641717297221e-02,9.573394066226340593e-01,1.032170670954967818e+03
2.154634876580584280e+00,2.208166355357009891e+00,-7.436708284029476257e-01,-2.174916504812945683e-01,1.977053174064811319e-02,9.758609060955351078e-01,1.037160837249594579e+03
2.091030059385154516e+00,2.538309408438451875e+00,-5.692682306476564147e-01,-1.456431305534867382e-01,1.816334438947178956e-02,9.891694351541102659e-01,1.043706222549864606e+03
2.028628005756219821e+00,2.869514718506307460e+00,-3.912882290033968813e-01,-7.301659230823265290e-02,1.645912979355255296e-02,9.971939000485308124e-01,1.050251607850134633e+03
1.967489411523458465e+00,3.200929110509965092e+00,-2.101822010663322304e-01,-0.000000000000000000e+00,1.466699169441148046e-02,9.998914337839015509e-01,1.056796993150404660e+03
1.943808827690046925e+00,3.327965591889096242e+00,-1.396044259142504018e-01,-1.832722116392015710e-01,1.805260763731751997e-02,9.828954165110973529e-01,1.059310682662409818e+03
1.881448577974198955e+00,3.657803026706007543e+00,4.643978823504591597e-02,-3.603334496220649830e-01,2.082643636659365499e-02,9.325899766950791481e-01,1.065856067962679845e+03
1.819845213952080654e+00,3.986658901511782371e+00,2.342037946295862094e-01,-5.251832835082224094e-01,2.289447593079632984e-02,8.506799408096835657e-01,1.072401453262949872e+03
1.785697575283966554e+00,4.166156748240818608e+00,3.377089788539853754e-01,-6.722351248269242685e-01,2.418664294319828462e-02,7.399411755354448061e-01,1.075989233689780121e+03
1.722494347483693122e+00,4.492176244662132056e+00,5.269867181284940694e-01,-7.965055444532177509e-01,2.465914746305314723e-02,6.041265133251590980e-01,1.082534618990050149e+03
1.659353991565328590e+00,4.816884192710929824e+00,7.159970092850115320e-01,-8.937831490311932692e-01,2.429597686785830990e-02,4.478385736139610107e-01,1.089080004290320176e+03
1.596038330839401720e+00,5.140214025466122827e+00,9.039064626585496809e-01,-5.335776174016564344e-01,1.795098712836199276e-02,-8.455593936971625979e-01,1.095625389590590203e+03
1.583816255384036475e+00,5.199965794148948106e+00,9.384949078774272868e-01,-8.875683493725092799e-01,2.518998153461140393e-02,-4.599846628105687674e-01,1.096841725917567601e+03
1.515549044740144291e+00,5.519732638875924025e+00,1.122345078576223232e+00,-8.112434538791615246e-01,2.750310387856466296e-02,-5.840596183744555248e-01,1.103387111217837628e+03
1.446909625089557005e+00,5.838112550152616542e+00,1.303275626099736906e+00,-7.176995292572443397e-01,2.923245971170847918e-02,-6.957376294290866792e-01,1.109932496518107655e+03
1.425868660771496543e+00,5.932158250699320234e+00,1.355984669663951037e+00,-6.089220917779855080e-01,3.034134262624227363e-02,-7.926482757647657085e-01,1.111877068987771281e+03
1.352856608991450660e+00,6.246774856804165665e+00,1.529490520802788689e+00,-4.872199967696936862e-01,3.080621608616372284e-02,-8.727345826760420922e-01,1.118422454288041308e+03
1.279457630878860774e+00,6.559576072771073463e+00,1.698630389967659804e+00,-3.551764314941121548e-01,3.061721299664393534e-02,-9.342966813491336842e-01,1.124967839588311335e+03
1.205669669125746246e+00,6.870228990116647338e+00,1.862888041813620221e+00,-2.155940851968482230e-01,2.977834512592723859e-02,-9.760278892482139312e-01,1.131513224888581362e+03
1.131636883524286041e+00,7.178382304006704295e+00,2.021852066990569963e+00,-7.143566023459010927e-02,2.830741793692876859e-02,-9.970424447019652359e-01,1.138058610188851389e+03
1.122314400500797449e+00,7.215713868256230512e+00,2.040654392526456196e+00,7.423901295183261972e-02,2.623565263942145842e-02,-9.968943070793652161e-01,1.138860141434578054e+03
1.044540076994040723e+00,7.517050424589499791e+00,2.188810361620388889e+00,2.183379222020671584e-01,2.360702348841577092e-02,-9.755866236123101887e-01,1.145405526734848081e+03
1.012967057048052677e+00,7.637478762885940853e+00,2.246641048148930064e+00,3.578025028165611188e-01,2.047732439804454338e-02,-9.335716620401974808e-01,1.148053578703284984e+03
9.353763788942599522e-01,7.931082729681016019e+00,2.384713503669925849e+00,4.896725565858324192e-01,1.691298468475121997e-02,-8.717412106104414082e-01,1.154598964003555011e+03
8.604214703375578921e-01,8.220405615668241239e+00,2.518434176781777278e+00,4.858003287765743639e-01,1.684864125026947976e-02,-8.739062671573293306e-01,1.161144349303825038e+03
8.531902505506108181e-01,8.248244911348173503e+00,2.531177952845619750e+00,4.819185392894427267e-01,1.678396616534519672e-02,-8.760541192743348526e-01,1.161785984944732490e+03
7.809714345145480907e-01,8.526529858800401485e+00,2.657892601432125801e+00,4.780272641022016988e-01,1.671896069572938182e-02,-8.781847249053709170e-01,1.168331370245002518e+03
7.217774452737290014e-01,8.762132458863719719e+00,2.765098416203055631e+00,4.741265793927953998e-01,1.665362611414406696e-02,-8.802980423581512337e-01,1.173990410582729510e+03
6.576209875759970735e-01,9.028246331859767437e+00,2.887243189123240850e+00,4.702165615200765147e-01,1.658796369964143230e-02,-8.823940302731158036e-01,1.180535795882999537e+03
5.986171609606775190e-01,9.287453702696923941e+00,3.008493685587914968e+00,4.662972870224132982e-01,1.652197473758049845e-02,-8.844726476241844271e-01,1.187081181183269564e+03
5.529672584446404526e-01,9.501905011168416237e+00,3.111909713437472025e+00,5.245351295543461134e-01,-6.916293873419028515e-02,-8.485737362012211182e-01,1.192657969127693832e+03
5.053639174364347175e-01,9.745591345455679289e+00,3.234406380979049089e+00,5.764668524388277815e-01,-1.540163585026420034e-01,-8.024730084895137505e-01,1.199203354427963859e+03
4.930533169951714645e-01,9.814096068578660237e+00,3.270695783579693039e+00,6.214681185025190402e-01,-2.370181563440505179e-01,-7.467246957543339780e-01,1.201110968549146264e+03
4.564327704018181775e-01,1.004017381342817217e+01,3.397948106820471548e+00,6.589979080968586533e-01,-3.171704631826980925e-01,-6.819990134959230677e-01,1.207656353849416291e+03
4.525303853856429415e-01,1.006741840037157765e+01,3.414372732718074399e+00,6.886050233258914632e-01,-3.935096650537364682e-01,-6.090741049825932896e-01,1.208478945707734283e+03
4.468583262079737217e-01,1.011130020634891835e+01,3.442891201588353045e+00,7.099335127013618463e-01,-4.651179875029376465e-01,-5.288266873419998904e-01,1.209865610689777441e+03
4.257055740003076183e-01,1.030883115987770715e+01,3.581718349615781172e+00,7.227269510035694289e-01,-5.311345292046456557e-01,-4.422215125700006966e-01,1.216410995990047468e+03
4.196784782473513831e-01,1.038245966458795166e+01,3.638037094141055139e+00,7.268315228414715667e-01,-5.907656121675500804e-01,-3.502997700312692197e-01,1.218977352460894735e+03
4.140890495357280598e-01,1.047677703942419392e+01,3.717040786095276328e+00,6.221680029251122068e-01,-6.101231512316643846e-01,-4.905657106509647702e-01,1.222448549475186155e+03
4.120796728331567182e-01,1.053213194724857260e+01,3.768003687257929890e+00,4.982150171738308764e-01,-6.105645825338235078e-01,-6.156221951955381799e-01,1.224607003153273808e+03
4.104892558828706628e-01,1.069003050680800371e+01,3.928101816747379349e+00,3.588155418934004803e-01,-5.920762440850431130e-01,-7.215920787297237515e-01,1.231152388453543836e+03
4.132887914261733076e-01,1.083806360631227150e+01,4.093522436802488507e+00,-3.571165318402440003e-01,-5.924852232850824629e-01,-7.220990533686163504e-01,1.237697773753813863e+03
4.147996012687377165e-01,1.087689923141276971e+01,4.141427907171599365e+00,-1.897944589642378832e-01,-3.604137342227722862e-01,-9.132787107619113609e-01,1.239535596146444504e+03
4.219361190501565440e-01,1.100569127633190014e+01,4.316934607169209848e+00,-0.000000000000000000e+00,-8.566789209259167981e-02,-9.963227450303417942e-01,1.246080981446714532e+03
4.305552643604450003e-01,1.112528595808433707e+01,4.496725655829122203e+00,-9.827045629686574635e-02,-8.697048973520654647e-02,-9.913511241411170349e-01,1.252626366746984559e+03
4.355715209867275228e-01,1.118985603516389382e+01,4.603615510942459466e+00,-1.955893130490981013e-01,-8.743090727453890765e-02,-9.767797382601304257e-01,1.256439075760270043e+03
4.380288169280310839e-01,1.122436346285117637e+01,4.666496784863168656e+00,-2.910141803444906139e-01,-8.704468615434987622e-02,-9.527496887703957862e-01,1.258643091531374012e+03
4.423596107096291474e-01,1.129493057615517770e+01,4.808095419495038492e+00,-3.836210085774961476e-01,-8.581556629500348976e-02,-9.194936706474987620e-01,1.263537512859439857e+03
4.471067431307640949e-01,1.138152129042235394e+01,4.998922051455148896e+00,-4.725130366520068903e-01,-8.375544988282039582e-02,-8.773337191799840395e-01,1.270082898159709885e+03
4.483576959882126789e-01,1.140974796512020362e+01,5.066991744488161586e+00,-5.568294759358650703e-01,-8.088428611596480688e-02,-8.266780915143876474e-01,1.272415143416737919e+03
4.507198412017913158e-01,1.148195289122713092e+01,5.256965324811149642e+00,-6.357538458622205013e-01,-7.722987802290265380e-02,-7.680173132250064372e-01,1.278960528717007946e+03
4.525247493593087533e-01,1.154757047071969822e+01,5.444093478571452316e+00,-7.085218804473030207e-01,-7.282761322438888185e-02,-7.019194281973437644e-01,1.285505914017277973e+03
4.540304577683569875e-01,1.160711610952063033e+01,5.626340206246367437e+00,-7.744289291514477869e-01,-6.772012124676549116e-02,-6.290244978322703240e-01,1.292051299317548001e+03
4.555103820555583272e-01,1.166109558306839489e+01,5.801670069012349273e+00,-8.328367804098951721e-01,-6.195686070587076710e-02,-5.500384028497293798e-01,1.298596684617818028e+03
4.556045656562983104e-01,1.166473405212556891e+01,5.814120116207368127e+00,-8.831798417542146007e-01,-5.559364036015913141e-02,-4.657260077256722974e-01,1.299084628259237661e+03
4.567870387020750989e-01,1.170863776364184083e+01,5.971714581280149758e+00,-9.249706166797277973e-01,-4.869207867211523821e-02,-3.769037539682547067e-01,1.305630013559507688e+03
4.584877779394007091e-01,1.174800200436666842e+01,6.118172893406977231e+00,-9.578044252282701398e-01,-4.131900711250453134e-02,-2.844317539693732022e-01,1.312175398859777715e+03
4.610145887322209535e-01,1.178331920329450355e+01,6.251476434608101762e+00,-9.813633225827078643e-01,-3.354582298666700102e-02,-1.892054620018994715e-01,1.318720784160047742e+03
4.641288732722247956e-01,1.181079925182881496e+01,6.353751633130343635e+00,-9.954191777385830164e-01,-2.544779805066904252e-02,-9.214700302479732208e-02,1.324381940622837419e+03
4.690831469184844060e-01,1.183951546879431582e+01,6.455105404804950986e+00,-9.998358824535688028e-01,-1.710334961296361075e-02,5.803756731638611867e-03,1.330927325923107446e+03
4.756746939655276396e-01,1.186566461330309252e+01,6.537723289497107793e+00,-9.945706690981813702e-01,-8.593281180151068899e-03,1.036983109317109325e-01,1.337472711223377473e+03
4.782518303278205929e-01,1.187321725452016175e+01,6.557395548799669349e+00,-9.796745246597445833e-01,-0.000000000000000000e+00,2.005886979235721457e-01,1.339529752796983757e+03
4.810954047569648284e-01,1.187972764768126943e+01,6.569715346737694972e+00,-6.982899759836863618e-01,7.105483052751740969e-01,8.666149844440869388e-02,1.341451046296087952e+03
4.924354175510101683e-01,1.190015655724124244e+01,6.590312994652160583e+00,-0.000000000000000000e+00,9.968731427319724725e-01,-7.900593205829645194e-02,1.347996431596357979e+03
5.055888499591333352e-01,1.191896965896276761e+01,6.588484460269592446e+00,9.968779763718003117e-01,0.000000000000000000e+00,-7.894491893667313076e-02,1.354541816896628006e+03
5.088207336186431062e-01,1.192276446757185937e+01,6.583066496957144409e+00,0.000000000000000000e+00,9.968731427319725835e-01,-7.900593205829646581e-02,1.355968761765152522e+03
5.253334149819854915e-01,1.193880872951704397e+01,6.534822193319121730e+00,-0.000000000000000000e+00,-9.968312352681582000e-01,-7.953293898528782102e-02,1.362514147065422549e+03
5.437313771455011269e-01,1.195344767189614821e+01,6.462677747522218574e+00,-0.000000000000000000e+00,-0.000000000000000000e+00,-9.999989999999967516e-01,1.369059532365692576e+03
5.510880340869108718e-01,1.195831542562426186e+01,6.427694583092425695e+00,9.968779763717972031e-01,-0.000000000000000000e+00,-7.894491893667289484e-02,1.371438322353818876e+03
5.731937266459820046e-01,1.197056336162737544e+01,6.307184101436664747e+00,9.968779756678982640e-01,-0.000000000000000000e+00,-7.894491888092960985e-02,1.377983707654088903e+03
5.972639927334947307e-01,1.198173145446149057e+01,6.162247337081975473e+00,-9.968817776680953813e-01,-0.000000000000000000e+00,-7.889690326014157928e-02,1.384529092954358930e+03
6.115777503190951148e-01,1.198743519217316766e+01,6.068979147372961513e+00,-0.000000000000000000e+00,-0.000000000000000000e+00,-9.999989999999968626e-01,1.388136004714354613e+03
6.133566577210495252e-01,1.198806508537498061e+01,6.056586385222606062e+00,-0.000000000000000000e+00,4.385333316824870965e-03,-9.999893843257248172e-01,1.388555737678094602e+03
6.428749465036340816e-01,1.199732368981361397e+01,5.839627654459530248e+00,-0.000000000000000000e+00,8.770580576394824274e-03,-9.999605376359146369e-01,1.395101122978364629e+03
6.741872418095651298e-01,1.200592044466203845e+01,5.599675374150158369e+00,-0.000000000000000000e+00,1.315565814646248860e-02,-9.999124604542342087e-01,1.401646508278634656e+03
6.858185214336002256e-01,1.200882485110759923e+01,5.507086584420965991e+00,-0.000000000000000000e+00,1.754048239811182783e-02,-9.998451537063833827e-01,1.403961155374455302e+03
7.200916147715991089e-01,1.201673692078015954e+01,5.224377041085677575e+00,-0.000000000000000000e+00,2.192496970719146412e-02,-9.997586186755638149e-01,1.410506540674725329e+03
7.555066212653940294e-01,1.202428245444907517e+01,4.922047206846696277e+00,6.008035540474822023e-01,8.946493359374771415e-02,-7.943734103682975611e-01,1.417051925974995356e+03
7.916854912805907363e-01,1.203159392438445430e+01,4.601734342579406167e+00,7.070811934606217042e-01,8.260854222646660250e-02,-7.022891246531097753e-01,1.423597311275265383e+03
8.219084944521781733e-01,1.203758114724488593e+01,4.323338126262654235e+00,7.993434003877689653e-01,7.411472778365707503e-02,-5.962844416743070530e-01,1.429009903517570365e+03
8.584399382278248281e-01,1.204481827758620049e+01,3.971963607564938492e+00,8.757614109131279800e-01,6.415185157522834691e-02,-4.784605428830446261e-01,1.435555288817840392e+03
8.945543965913990148e-01,1.205205754496994963e+01,3.607623094460790547e+00,9.348205202346947518e-01,5.291739346619585976e-02,-3.511528789831132591e-01,1.442100674118110419e+03
9.298117409347261830e-01,1.205936845413071978e+01,3.232167676308037141e+00,9.753501039158146702e-01,4.063403738633474677e-02,-2.168848768322360065e-01,1.448646059418380446e+03
9.637736385593216326e-01,1.206683416620951732e+01,2.847449750153355552e+00,9.965468187575979853e-01,2.754525736008142309e-02,-7.831792146532709498e-02,1.455191444718650473e+03
9.795916817539987997e-01,1.207068148265157781e+01,2.654799599896731532e+00,9.979905238826203284e-01,1.391049155577589284e-02,6.180139534675686136e-02,1.458405581212226934e+03
1.009732799201783049e+00,1.207897120867590068e+01,2.256257344981776658e+00,9.796526068683385491e-01,0.000000000000000000e+00,2.006957145972436130e-01,1.464950966512496962e+03
1.037501600441363081e+00,1.208769859398647384e+01,1.853071523924536113e+00,-9.796745246582524436e-01,-0.000000000000000000e+00,2.005886979232666678e-01,1.471496351812766989e+03
1.062481404541311791e+00,1.209698187227936117e+01,1.447094215043633225e+00,9.796526068669312304e-01,-0.000000000000000000e+00,2.006957145969553158e-01,1.478041737113037016e+03
1.075037960166835838e+00,1.210275657327344589e+01,1.212315689938257224e+00,-9.796745246582524436e-01,-0.000000000000000000e+00,2.005886979232666678e-01,1.481816523951514682e+03
1.093313378949320347e+00,1.211359017430200424e+01,8.055426794607574159e-01,-6.882113393193174389e-01,-0.000000000000000000e+00,-7.255088919288974481e-01,1.488361909251784709e+03
1.107856089095793362e+00,1.212531258957793412e+01,4.006631186241633169e-01,2.520866958272065528e-01,-0.000000000000000000e+00,-9.677036207517426547e-01,1.494907294552054736e+03
1.118392134504261115e+00,1.213806152113926728e+01,1.142506685347993147e-03,9.546769266639086871e-01,-0.000000000000000000e+00,-2.976406653648375755e-01,1.501423043705973669e+03
1.124979268122247245e+00,1.215215060337052755e+01,-3.950635340841895382e-01,-9.546707119065337421e-01,-0.000000000000000000e+00,-2.976605983801879352e-01,1.507968429006243696e+03
1.127655103196760100e+00,1.216769378874021079e+01,-7.846493386315855911e-01,-5.741094903284836848e-01,1.828998376288161953e-03,-8.187752731239562598e-01,1.514513814306513723e+03
1.126955962179360338e+00,1.217780281523028663e+01,-1.009865410661663354e+00,5.764363129605204472e-01,-1.163998612660266125e-03,-8.171400260720124153e-01,1.518374598924670863e+03
1.122073922248596478e+00,1.219665448943895214e+01,-1.382995618540628691e+00,0.000000000000000000e+00,-9.950635238632309365e-01,9.922995251858013344e-02,1.524919984224940890e+03
1.119950969400554275e+00,1.220179790432785971e+01,-1.473581841475857912e+00,-0.000000000000000000e+00,-5.697617808904412717e-01,-8.218086839624136886e-01,1.526550447678494493e+03
1.107926595485068333e+00,1.222440853476212652e+01,-1.827160430355812215e+00,-5.759863546497151487e-01,0.000000000000000000e+00,-8.174580840984284613e-01,1.533095832978764520e+03
1.092751549895027763e+00,1.224935433989937117e+01,-2.170038455717796300e+00,5.752485914334153350e-01,0.000000000000000000e+00,-8.179774190368382936e-01,1.539641218279034547e+03
1.090120246092341150e+00,1.225327861969892318e+01,-2.217315435617583930e+00,0.000000000000000000e+00,8.080491350123092387e-02,9.967289330373355627e-01,1.540574001202621048e+03
1.068447945464622961e+00,1.228372702846305664e+01,-2.537630975486567131e+00,-4.272875887415377716e-01,2.998997113506280537e-02,9.036171302808664318e-01,1.547119386502891075e+03
1.043948993178118956e+00,1.231763856916846755e+01,-2.846048651113017858e+00,4.301035175187842285e-01,3.026596604826629205e-02,9.022709878510976056e-01,1.553664771803161102e+03
1.016707444620606582e+00,1.235558460697346206e+01,-3.142055483164576390e+00,-7.142513392295278818e-01,-6.601633892675442539e-01,-2.324377849664166218e-01,1.560210157103431129e+03
1.011884487907023011e+00,1.236231455409950541e+01,-3.187113067222874907e+00,-0.000000000000000000e+00,9.997078536726814457e-01,-2.412897233221680468e-02,1.561251238058522858e+03
9.784591781990595871e-01,1.240942117448700976e+01,-3.457392423938542070e+00,-0.000000000000000000e+00,9.997078529671034053e-01,-2.412897231518696187e-02,1.567796623358792885e+03
9.421611464682129178e-01,1.246208193788590890e+01,-3.714249564524560121e+00,-0.000000000000000000e+00,9.999233506299635144e-01,-1.230011523445881730e-02,1.574342008659062913e+03
9.376175210163175677e-01,1.246874952631401712e+01,-3.741979129153609751e+00,-0.000000000000000000e+00,9.999988897505776020e-01,-4.695398240298213118e-04,1.575088175139991336e+03
8.939960569994250816e-01,1.253345952768731841e+01,-3.971437294055211620e+00,-0.000000000000000000e+00,9.999344605420675824e-01,1.136109988157223659e-02,1.581633560440261363e+03
8.467288479384111888e-01,1.260515140515886401e+01,-4.186820150221143955e+00,-0.000000000000000000e+00,9.997300720292205956e-01,2.319014985731077116e-02,1.588178945740531390e+03
8.411038432047588387e-01,1.261367993920204889e+01,-4.208619323161695291e+00,-0.000000000000000000e+00,9.993857527372194127e-01,3.501595629905780022e-02,1.588887797873073396e+03
7.841329866018076356e-01,1.269968827143186729e+01,-4.395795046281517848e+00,-9.994701503669276565e-01,0.000000000000000000e+00,3.251797235700860933e-02,1.595433183173343423e+03
7.324339544509261835e-01,1.277775499741165000e+01,-4.539961809401651394e+00,-5.024135394087879680e-01,7.294793312445962963e-01,4.641535744838849453e-01,1.600887889330697590e+03
7.119031984269537094e-01,1.280817454021391200e+01,-4.587786886120817087e+00,-8.667211427031324966e-01,4.208265758832658854e-01,2.677638023009834556e-01,1.602857601602921704e+03
6.371343429234229694e-01,1.291663902762928373e+01,-4.732574124947820593e+00,-9.999989999998434298e-01,0.000000000000000000e+00,0.000000000000000000e+00,1.609402986903191731e+03
5.561859016191929017e-01,1.303283576539881494e+01,-4.863002222562113452e+00,-3.678195598712736269e-01,6.798713980315785887e-01,6.344144177996520195e-01,1.615948372203461759e+03
4.696896157024383900e-01,1.315739134054179438e+01,-4.978923728099099222e+00,7.294162694261747681e-01,5.001404990657970506e-01,4.667005325588314824e-01,1.622493757503731786e+03
4.416433722625255909e-01,1.319811016316029750e+01,-5.009914055952076062e+00,5.179124917774815540e-01,7.186022948425190293e-01,4.640855445973440796e-01,1.624493894945130023e+03
3.454226838789458687e-01,1.334060162497810431e+01,-5.096789590712488938e+00,1.270998420255520234e-03,1.158168560493576527e-01,9.932687654501971553e-01,1.631039280245400050e+03
2.660408875053596467e-01,1.346282497686722834e+01,-5.154669303042546780e+00,8.506807646963385761e-01,5.164672500196179072e-01,9.798885770690990427e-02,1.636281754133308368e+03
2.353481818898524036e-01,1.351180421295420864e+01,-5.172072741344148739e+00,0.000000000000000000e+00,1.173078338873062565e-01,9.930945937374117127e-01,1.638253231754998524e+03
1.317019564919759966e-01,1.368479774160680051e+01,-5.215489557398977460e+00,1.182598423654877134e-01,0.000000000000000000e+00,9.929816764046089927e-01,1.644798617055268551e+03
5.021586366653729011e-02,1.382909366864136835e+01,-5.238503227692525854e+00,-9.359985444601274336e-04,-1.157798199546939688e-01,9.932734553938388222e-01,1.649936422859968388e+03
-5.266058292846383798e-02,1.402377001759070652e+01,-5.254192920966191949e+00,9.997494087567806442e-01,-0.000000000000000000e+00,-2.234098678773216787e-02,1.656481808160238415e+03
-1.094056074550041058e-01,1.413878474833268228e+01,-5.255664772527977036e+00,9.994709311375664651e-01,-0.000000000000000000e+00,3.249396525003610259e-02,1.660148686695825063e+03
-2.081919891131916445e-01,1.435457656530974546e+01,-5.245821954579243496e+00,-5.517134353490528165e-01,-8.267481538648538963e-01,1.099898874308832403e-01,1.666694071996095090e+03
-2.848791601801657358e-01,1.453720254837108605e+01,-5.228370271918057810e+00,-4.246808515528930905e-01,-9.004581758684169213e-01,9.391085047016953236e-02,1.671978387122397407e+03
-3.751644806986969005e-01,1.477338324146168702e+01,-5.195832142099878759e+00,-2.883779608520256610e-01,-9.545120556963128111e-01,7.578183968180839114e-02,1.678523772422667435e+03
-3.864431393493618083e-01,1.480548077291281395e+01,-5.190252254128527198e+00,-1.457800982246378885e-01,-9.877298824764145779e-01,5.599859127852131746e-02,1.679380621676957617e+03
-4.680248895139276222e-01,1.505911972573290036e+01,-5.138132185952976272e+00,-0.000000000000000000e+00,-9.993865585865699952e-01,3.499294952973203837e-02,1.685926006977227644e+03
-5.429319935877433556e-01,1.532083095090267477e+01,-5.077215523901217331e+00,2.720069345108765413e-01,-9.620991124404614236e-01,-1.937847825694037282e-02,1.692471392277497671e+03
-5.528135764753809855e-01,1.535897277880344980e+01,-5.067443048205017675e+00,5.227064052945151751e-01,-8.494460335488333014e-01,-7.223191781865063998e-02,1.693401776851197610e+03
-6.167087000957665044e-01,1.563312531598798749e+01,-4.991424164671313335e+00,6.028755472432988372e-01,-7.968798047135938756e-01,3.900835009342468879e-02,1.699947162151467637e+03
-6.730527023891283989e-01,1.591233433073447046e+01,-4.908742248214558401e+00,6.700438330943858656e-01,-7.271290721280836422e-01,1.494074101229715956e-01,1.706492547451737664e+03
-7.216614816072942640e-01,1.619506420719712736e+01,-4.820332293694634451e+00,7.227627976245943886e-01,-6.416979930178644542e-01,2.565845360267308140e-01,1.713037932752007691e+03
-7.252258126853988740e-01,1.621883073933895503e+01,-4.812545471470267344e+00,7.598955713732464812e-01,-5.424288664971953500e-01,3.582284821161559885e-01,1.713584268264123693e+03
-7.619507436270775980e-01,1.650466479490028249e+01,-4.714812272173608321e+00,7.806413966762656420e-01,-4.314624048668976308e-01,4.521473244233080169e-01,1.720129653564393720e+03
-7.906720134935139033e-01,1.679051302798408685e+01,-4.613045264785124111e+00,7.845528956076698313e-01,-3.111915698471528491e-01,5.363157287000197559e-01,1.726675038864663748e+03
-8.113391351333260060e-01,1.707460511304946849e+01,-4.507945075420825454e+00,7.715457174866434675e-01,-1.842099692289458079e-01,6.089186259805373647e-01,1.733220424164933775e+03
-8.226492027250231764e-01,1.732125668934611085e+01,-4.413243060476244040e+00,7.419003579199097143e-01,-5.325592670882686730e-02,6.683903539025736196e-01,1.738973867391777048e+03
-8.277633801115175105e-01,1.759670481927136265e+01,-4.303527021587267853e+00,6.962561101442376055e-01,7.884656903386495774e-02,7.134484197471397948e-01,1.745519252692047075e+03
-8.249689419657407763e-01,1.786529001553140006e+01,-4.192496760803837930e+00,6.355972790766489799e-01,2.092487626605334106e-01,7.431211571181745024e-01,1.752064637992317103e+03
-8.143395571385563247e-01,1.812522871198684982e+01,-4.080796880893358569e+00,0.000000000000000000e+00,2.016697227947948992e-02,9.997956257304881911e-01,1.758610023292587130e+03
-8.042389635351770982e-01,1.826803136761414237e+01,-4.016842617065962351e+00,7.342455860439258686e-01,2.131448798322804206e-01,6.445546366102676838e-01,1.762352992655723710e+03
-7.795260298153994238e-01,1.850609406573666504e+01,-3.905238397316345811e+00,0.000000000000000000e+00,2.016697227948333407e-02,9.997956257306789274e-01,1.768898377955993737e+03
-7.469915009903106418e-01,1.873079133972305499e+01,-3.794239413343302392e+00,-0.000000000000000000e+00,1.977785765907229959e-02,9.998033985567100768e-01,1.775443763256263765e+03
-7.066786480254737546e-01,1.894028856180038289e+01,-3.684319075288395418e+00,-0.000000000000000000e+00,1.938874012711227016e-02,9.998110202311153438e-01,1.781989148556533792e+03
-6.586043557382241787e-01,1.913280610018293970e+01,-3.575907408902769369e+00,-0.000000000000000000e+00,1.899961971235418837e-02,9.998184904622409164e-01,1.788534533856803819e+03
-6.026779127062174002e-01,1.930667362901195361e+01,-3.469347761981000922e+00,-0.000000000000000000e+00,1.861049644941947454e-02,9.998258092494709537e-01,1.795079919157073846e+03
-5.955504412410722592e-01,1.932419607124860761e+01,-3.457498447127778096e+00,-0.000000000000000000e+00,1.822137037292925407e-02,9.998329765921748491e-01,1.795822939813491757e+03
-5.259366481219956979e-01,1.945812077909472038e+01,-3.355458977882901372e+00,-0.000000000000000000e+00,1.783224151750433320e-02,9.998399924897070079e-01,1.802368325113761784e+03
-4.484875109217951739e-01,1.956999548366668762e+01,-3.255753838360432084e+00,-0.000000000000000000e+00,1.744310991776529610e-02,9.998468569414068474e-01,1.808913710414031812e+03
-3.655441737841524930e-01,1.965596654583103842e+01,-3.161063066691577550e+00,-0.000000000000000000e+00,1.705397560833250836e-02,9.998535699465991300e-01,1.815269220276476744e+03
-2.719874360441295602e-01,1.971997300411731047e+01,-3.065427906938658964e+00,4.819403822481909683e-01,-1.019099957186627020e-01,8.702561810943340026e-01,1.821814605576746771e+03
-2.524354513476069206e-01,1.972750679747347036e+01,-3.047328289167364090e+00,8.370268619317428049e-01,-1.940497361591902448e-01,5.115943044079409585e-01,1.823075599560264436e+03
-1.431015378992279707e-01,1.974109035110118882e+01,-2.954683131921204797e+00,0.000000000000000000e+00,1.519999199372266442e-02,9.998834733323284096e-01,1.829620984860534463e+03
-2.584688304390472813e-02,1.972783280914629245e+01,-2.862565223727957520e+00,-0.000000000000000000e+00,-2.786296520808142704e-02,9.996107518063629405e-01,1.836166370160804490e+03
9.918535170164330395e-02,1.968701235768454794e+01,-2.769974977321925547e+00,6.991536932645192604e-01,-5.387427636406384446e-01,-4.700407937818390502e-01,1.842711755461074517e+03
2.098434025177055295e-01,1.962970819407696510e+01,-2.691296738281105050e+00,4.595995113947056177e-01,-5.348094314382125791e-01,-7.090452462062019068e-01,1.848176137346606993e+03
3.494054634684419791e-01,1.953312417150704050e+01,-2.594113664086053817e+00,1.730147582869360490e-01,-5.942164588185467888e-01,-7.854748204016575031e-01,1.854721522646877020e+03
4.953658263284642094e-01,1.940840829455958172e+01,-2.492695569744166395e+00,-1.294010743361806437e-01,-5.992516874889408651e-01,-7.900321366902033349e-01,1.861266907947147047e+03
5.351110460462236151e-01,1.936887240726049697e+01,-2.465000519678039126e+00,-4.199765354728743905e-01,-5.494543922601671238e-01,-7.223002010790892102e-01,1.862969455417602603e+03
6.947752435099279200e-01,1.918967315710698074e+01,-2.353369086542537847e+00,-8.217572942078683607e-01,1.566598654477408675e-02,5.696205107634852993e-01,1.869514840717872630e+03
7.340219340204329201e-01,1.914122676049261784e+01,-2.325991311698663466e+00,-8.143947140445101374e-01,3.683881319805699939e-02,5.791391469873548026e-01,1.871052893727382980e+03
9.086372903918884525e-01,1.890828280543301076e+01,-2.204900363089398851e+00,-8.065491171719335606e-01,5.798978478651099777e-02,5.883142922321119572e-01,1.877598279027653007e+03
1.090006357703939166e+00,1.864796430310418174e+01,-2.079599968797685605e+00,-7.982251568997602575e-01,7.910635746268677992e-02,5.971405053222756942e-01,1.884143664327923034e+03
1.147977044711539829e+00,1.856058833709640510e+01,-2.040220507527175098e+00,-7.894277701745567866e-01,1.001760078031421891e-01,6.056125519944570712e-01,1.886141432716269264e+03
1.344729123590135078e+00,1.825181598817446726e+01,-1.909192556661634566e+00,-7.801621746499253218e-01,1.211862402296333824e-01,6.137254079961460551e-01,1.892621027517892571e+03
1.434281304014606073e+00,1.810634029444386073e+01,-1.850857456883377550e+00,-7.704338655931752822e-01,1.421245944137617956e-01,6.214742620620069546e-01,1.895443756594243041e+03
1.650992077943457481e+00,1.774391271853724916e+01,-1.713202273125641328e+00,-7.602486126278182876e-01,1.629786526606717689e-01,6.288545187641486622e-01,1.901989141894513068e+03
1.875486435525481443e+00,1.735589477859022622e+01,-1.573841977276281279e+00,-7.496124563138124586e-01,1.837360472674556267e-01,6.358618012346928250e-01,1.908534527194783095e+03
1.897794447811337326e+00,1.731683099505070800e+01,-1.560521064168091110e+00,-7.385317045675658942e-01,2.043844678519376457e-01,6.424919537590446650e-01,1.909155685568748140e+03
2.132607751932677154e+00,1.690114784403589709e+01,-1.425861968429772419e+00,-7.270129289238149717e-01,2.249116686475268190e-01,6.487410442383414466e-01,1.915410774006160409e+03
2.385953342023032775e+00,1.644149686888141559e+01,-1.285034375608662405e+00,-7.437490825782944182e-01,2.365246572336997255e-01,6.252130746276576279e-01,1.921956159306430436e+03
2.646372600366450722e+00,1.595758117226770700e+01,-1.145152267380903144e+00,-7.597648940547366836e-01,2.479085646942076893e-01,6.010795698692751321e-01,1.928501544606700463e+03
2.913357469654469956e+00,1.544991754561712582e+01,-1.007087806181860001e+00,-7.750448517887987832e-01,2.590523655038561857e-01,5.763639038346748400e-01,1.935046929906970490e+03
3.186318023850382986e+00,1.491908692853069240e+01,-8.715994991753509558e-01,-7.895741568936135435e-01,2.699452666836182901e-01,5.510900142099146581e-01,1.941592315207240517e+03
3.373953785144412798e+00,1.454807493105936089e+01,-7.827132772503569980e-01,-8.033387374929223945e-01,2.805767182533700499e-01,5.252823793146864650e-01,1.945986311538626524e+03
3.659263179134347066e+00,1.397418509267708231e+01,-6.537363888788956245e-01,-8.163252623483377990e-01,2.909364234487291090e-01,4.989659943962516664e-01,1.952531696838896551e+03
3.852123380385242601e+00,1.357952054686669285e+01,-5.706122452669639689e-01,-8.285211537694662232e-01,3.010143486927008838e-01,4.721663474229029767e-01,1.956877363433620303e+03
4.147002628955647197e+00,1.296526814548038331e+01,-4.494156064490683056e-01,-8.399145997943917585e-01,3.108007333124834792e-01,4.449093944003751355e-01,1.963422748733890330e+03
4.443869407685459016e+00,1.233147879417344406e+01,-3.322425398618155112e-01,-8.504945656287460354e-01,3.202860989920301438e-01,4.172215342350942269e-01,1.969968134034160357e+03
4.741661605188106421e+00,1.167938537194589443e+01,-2.190344678052293104e-01,-8.602508043322867337e-01,3.294612589512209144e-01,3.891295831685888107e-01,1.976513519334430384e+03
5.039357737142289295e+00,1.101024934362275864e+01,-1.097323403793279417e-01,-8.691738667426482934e-01,3.383173268427634994e-01,3.606607488078013568e-01,1.983058904634700411e+03
5.335977245175913097e+00,1.032535980360259842e+01,-4.276642898455774826e-03,-8.772551106266573973e-01,3.468457253582090671e-01,3.318426037764297121e-01,1.989604289934970438e+03
5.630580786997978038e+00,9.626032514341622104e+00,9.739259665296415291e-02,-8.844867090503556462e-01,3.550381945347584889e-01,3.027030590127944842e-01,1.996149675235240466e+03
5.922270517747326046e+00,8.913608939728392855e+00,1.953358001239142716e-01,-8.908616579596219109e-01,3.628867997548147484e-01,2.732703367400679539e-01,2.002695060535510493e+03
6.210190362528170027e+00,8.189455273504318455e+00,2.896138316601821749e-01,-8.963737829640561205e-01,3.703839394305400989e-01,2.435729431350218133e-01,2.009240445835780520e+03
6.493526280103333548e+00,7.454961462885501433e+00,3.802879901284312858e-01,-9.010177453175505224e-01,3.775223523659779201e-01,2.136396407217376614e-01,2.015785831136050547e+03
6.771506517717049256e+00,6.711540227541888726e+00,4.674200015016284349e-01,-9.047890470897501647e-01,3.842951247896105871e-01,1.834994205169938886e-01,2.022331216436320574e+03
7.043401857019879309e+00,5.960626074090164650e+00,5.510720112063961507e-01,-9.076840355233898316e-01,3.906956970505433557e-01,1.531814739542837200e-01,2.028876601736590601e+03
7.308525851069105350e+00,5.203674306257457971e+00,6.313065764329771623e-01,-9.096999065732783718e-01,3.967178699718298396e-01,1.227151646136322161e-01,2.035421987036860628e+03
7.566235052378825543e+00,4.442160030873749221e+00,7.081866584085366734e-01,-9.108347076234919459e-01,4.023558108547837797e-01,9.212999978457021844e-02,2.041967372337130655e+03
7.635585414819271222e+00,4.233373168716335400e+00,7.283130389199025112e-01,-9.110873393801329767e-01,4.076040591284598724e-01,6.145560188978549387e-02,2.043757430129056502e+03
7.884679960366601570e+00,3.468945157082504060e+00,7.986592738186890639e-01,-9.104575569378070554e-01,4.124575316388299773e-01,3.072167979710757613e-02,2.050302815429326529e+03
8.125069416825430935e+00,2.703350506786233787e+00,8.657957880744963086e-01,-9.089459700187708657e-01,4.169115275725271408e-01,-4.199995240733329227e-05,2.056848200729596556e+03
8.356222760912190850e+00,1.938114112438518388e+00,9.298566290961218783e-01,-9.364047273136799632e-01,3.449457657277720801e-01,-6.447174088044463347e-02,2.063393586029866583e+03
8.577593080803406878e+00,1.174761883384447092e+00,9.911155631310659686e-01,-9.544205312523860174e-01,2.695014737140521976e-01,-1.282513360198457575e-01,2.069938971330136610e+03
8.788647003006463621e+00,4.148294358872683385e-01,1.049916364260308210e+00,-9.628117036954405572e-01,1.913394507309213177e-01,-1.907376151208817205e-01,2.076484356630406637e+03
8.988894455768299707e+00,-3.401304310351781490e-01,1.106603095086274413e+00,-9.614936235627837835e-01,1.112479027733039721e-01,-2.513004496165825441e-01,2.083029741930676664e+03
9.177888874101444827e+00,-1.088548733800687396e+00,1.161520065651925560e+00,-9.504795803765656581e-01,3.003449424064318085e-02,-3.093291070100955276e-01,2.089575127230946691e+03
9.355227395878850771e+00,-1.828841306076952611e+00,1.215011792337901353e+00,-9.298806404582998786e-01,-5.148179672773049720e-02,-3.642384097088562367e-01,2.096120512531216718e+03
9.520551048975830710e+00,-2.559409804062518834e+00,1.267422956741421469e+00,-8.999045271109451516e-01,-1.324789370615911122e-01,-4.154746361944105515e-01,2.102665897831486745e+03
9.673544929438447681e+00,-3.278642715076529601e+00,1.319098364540620683e+00,-8.608535260599775585e-01,-2.121401284280621802e-01,-4.625211050116415645e-01,2.109211283131756772e+03
9.813938370658462418e+00,-3.984916369299052796e+00,1.370382904347946296e+00,-8.131214372594111062e-01,-2.896620441580728955e-01,-5.049033852568927117e-01,2.115756668432026800e+03
9.941505103535853038e+00,-4.676595954503710573e+00,1.421621506556290493e+00,-7.571896037892107412e-01,-3.642629303576417898e-01,-5.421940810090818408e-01,2.122302053732296827e+03
