-3.374532970316070468e+00,-8.241403672718540241e-01,-5.620980418764821351e+00,1.118078063850290460e-01,-1.743933970356592866e-01,9.783066786544348803e-01,2.879667337996712604e+02
-3.851630056248621425e+00,-3.825878494336689695e-01,-4.505737159078587517e+00,0.000000000000000000e+00,9.999989999980329049e-07,9.999989999980327671e-01,2.945109145187357740e+02
-4.962383723972039640e+00,-6.507475733153655906e-01,-3.688442190648743679e+00,3.783536023998604891e-01,-7.581172033179969239e-01,-5.311354418461342597e-01,3.010562998190059147e+02
-5.987470776296956565e+00,-1.060982228333172461e+00,-2.897041499282307253e+00,7.364161080991873387e-01,-4.016585135365037806e-01,-5.443893406699148452e-01,3.049459099440690011e+02
-7.505439717071960004e+00,-1.911511664671102562e+00,-1.027238235391700893e+00,0.000000000000000000e+00,-9.950534475069982010e-01,-9.933094484753354769e-02,3.114912952443391418e+02
-7.606739171918497355e+00,-1.997963905081246327e+00,-8.514996036023210202e-01,3.055571063235537621e-01,-9.439032973794905246e-01,-1.252174906769634444e-01,3.120989834406892101e+02
-7.988800407116063873e+00,-2.891140185475928437e+00,-8.797566572708448093e-03,5.815815620278014242e-01,-8.015232112192751668e-01,-1.390015416685246030e-01,3.186443687409593508e+02
-7.856068622327759599e+00,-3.212456324070271929e+00,-1.354302727009905338e-01,8.013951131328802546e-01,-5.816744917023323191e-01,-1.393508462471980125e-01,3.211354544923415233e+02
-7.768878429259697960e+00,-3.888148544757712877e+00,-9.441558263371302440e-01,9.437524014776169645e-01,-3.056059167580512104e-01,-1.262316455885083288e-01,3.276808397926116641e+02
-7.978404009321311996e+00,-4.144344360393572124e+00,-1.998926761015642040e+00,9.948943569147756794e-01,-0.000000000000000000e+00,-1.009119347719948934e-01,3.329351214666612009e+02
-8.084634613928638913e+00,-4.079362250277554836e+00,-3.080115300840628567e+00,9.962221309802647973e-01,-0.000000000000000000e+00,-8.683009661442889215e-02,3.374566577261890643e+02
-8.078094775240325376e+00,-3.939325750086267508e+00,-3.678216311849166420e+00,9.973505985551252007e-01,-0.000000000000000000e+00,-7.273089780088957956e-02,3.398844513119835824e+02
-7.997565765805672022e+00,-3.501107574447233972e+00,-4.695075518895371225e+00,9.973505978851086029e-01,-0.000000000000000000e+00,-7.273089775202921936e-02,3.443790851872035432e+02
-7.492444561768038191e+00,-2.647586926216663361e+00,-5.903905840649272818e+00,9.984358224692105876e-01,-0.000000000000000000e+00,-5.589193408241993621e-02,3.509244704874736840e+02
-6.552121395405887228e+00,-1.975703606722804873e+00,-6.671200107147446268e+00,8.624059018153571454e-01,-4.942927713560463787e-01,-1.092186646152087937e-01,3.574698557877438247e+02
-5.693979667402717659e+00,-1.711941520658619265e+00,-6.743994491685548986e+00,4.972571944671516087e-01,-8.572650259664695849e-01,-1.335288650668080557e-01,3.640152410880139655e+02
-5.660338834315300716e+00,-1.708558344596428746e+00,-6.725341646932528228e+00,0.000000000000000000e+00,-9.924842934886831669e-01,-1.223639128938464882e-01,3.643601103569671409e+02
-5.394744169275472956e+00,-1.708535578440565805e+00,-6.410941821766269477e+00,-0.000000000000000000e+00,-9.983890695156890649e-01,-5.672094713688979190e-02,3.680920722421590199e+02
-5.454439418063064871e+00,-1.847311339297764032e+00,-5.317825325603629416e+00,5.951763154270942602e-01,-7.944706970973700599e-01,1.207454554388153883e-01,3.746374575424291606e+02
-5.643001872199851832e+00,-1.928945666677167381e+00,-4.707090561705723708e+00,9.360262369457841292e-01,-2.510647953304693814e-01,2.466157989573179721e-01,3.772939840628650927e+02
-6.387356458968023176e+00,-2.051283260147182208e+00,-2.970139496764934162e+00,9.497874378624618918e-01,-2.078098770064458478e-02,-3.122018152214349751e-01,3.838393693631352335e+02
-7.529156988165532027e+00,-2.155937509445036593e+00,-1.075955379003280976e+00,9.455454558243520102e-01,-1.253857917251597343e-01,-3.003667661435804881e-01,3.903847546634053742e+02
-7.586321173643487015e+00,-2.162650515000198226e+00,-9.937941585169242087e-01,9.308076826801745529e-01,-2.285987828129924793e-01,-2.851975707472831356e-01,3.906701809640483702e+02
-9.010810312464929694e+00,-2.403247792041648623e+00,7.884488472846093998e-01,9.057377110456361624e-01,-3.292742713608391436e-01,-2.668626107377283785e-01,3.972155662643185110e+02
-1.061401721586227964e+01,-2.776067630122612151e+00,2.361178435583076052e+00,8.706138233677103155e-01,-4.262947345186365866e-01,-2.455654085633421913e-01,4.037609515645886518e+02
-1.229821999810076605e+01,-3.201193890571934819e+00,3.711751738751262852e+00,8.258259029762683445e-01,-5.185832209264567005e-01,-2.215423682889822166e-01,4.103063368648587925e+02
-1.396323972276064929e+01,-3.601674596869221645e+00,4.827552279916963229e+00,7.718711063493081115e-01,-6.051153051188828957e-01,-1.950601514765941402e-01,4.168517221651289333e+02
-1.550647465027910599e+01,-3.903577656276964625e+00,5.695991466390226243e+00,7.093483446246245938e-01,-6.849304589027127577e-01,-1.664127171994254917e-01,4.233971074653990740e+02
-1.682293498366780682e+01,-4.036045962790539399e+00,6.304510080758132240e+00,6.389516356071837100e-01,-7.571427134831891781e-01,-1.359180590439180436e-01,4.299424927656692148e+02
-1.780527810808886713e+01,-3.931351873226582860e+00,6.640579768820326301e+00,5.614624000594351516e-01,-8.209504939844066707e-01,-1.039146753172172088e-01,4.364878780659393556e+02
-1.834384432033732537e+01,-3.524951047919040015e+00,6.691704524731309611e+00,4.777407877814223158e-01,-8.756455171939582227e-01,-7.075781164023985104e-02,4.430332633662094963e+02
-1.843594006076543224e+01,-3.282425655155440047e+00,6.640451661519542803e+00,3.887161297586396724e-01,-9.206206537585545080e-01,-3.681551763349791978e-02,4.456396917800642541e+02
-1.828203648217597532e+01,-2.427222817934062693e+00,6.323212279513500178e+00,2.953766223584490813e-01,-9.553766675510032558e-01,-2.464561467272519818e-03,4.521850770803343949e+02
-1.741331401204593377e+01,-1.127010047510951685e+00,5.691196957302723014e+00,1.987583580825829643e-01,-9.795277573921556957e-01,3.191375237373241663e-02,4.587304623806045356e+02
-1.571250553452906473e+01,6.715638173428761792e-01,4.732027657076779192e+00,9.993382463896463563e-02,-9.928058396058810908e-01,6.593781568604718812e-02,4.652758476808746764e+02
-1.306018963329748672e+01,3.018437488314525741e+00,3.433365190110823306e+00,0.000000000000000000e+00,-9.950635238632341562e-01,9.922995251858043875e-02,4.718212329811448171e+02
-9.391627022107231326e+00,5.854212220811747081e+00,1.842497815238323788e+00,-0.000000000000000000e+00,-9.950635231608345732e-01,9.922995244853559382e-02,4.783666182814149579e+02
-4.758111633845356181e+00,8.906513467133596151e+00,1.259227549583145089e-01,-0.000000000000000000e+00,-9.950635231608345732e-01,9.922995244853560770e-02,4.849120035816850987e+02
3.419683502171037004e-01,1.178135242462454357e+01,-1.539739080025237294e+00,-0.000000000000000000e+00,-9.950635231606131947e-01,9.922995244851351426e-02,4.914573888819552394e+02
5.062993096069077659e+00,1.417929158637813636e+01,-3.084803288051331194e+00,-8.257930566455112809e-02,-9.916648739120098588e-01,9.889103157011884526e-02,4.980027741822253802e+02
9.024227655174998475e+00,1.603125388311552513e+01,-4.505025597536468140e+00,-1.645945091970215102e-01,-9.814921404995196053e-01,9.787658391999644325e-02,5.045481594824955209e+02
1.227078795327893523e+01,1.738698265862432635e+01,-5.804150276773370365e+00,-2.454853619613764915e-01,-9.646148143442678791e-01,9.619353933755185604e-02,5.110935447827656617e+02
1.484891389563277997e+01,1.829475945880541232e+01,-6.985935965630424072e+00,-3.246992959838712056e-01,-9.411481857111940741e-01,9.385339482497788433e-02,5.176389300830358025e+02
1.680595174114029788e+01,1.880137973393866702e+01,-8.054155223863320501e+00,-4.016951986399462937e-01,-9.112525568002073362e-01,9.087213607495052414e-02,5.241843153833059432e+02
1.807857660485785090e+01,1.895954487015486123e+01,-8.914247824424165856e+00,-4.759471090714936237e-01,-8.751321466381313252e-01,8.727012826401293888e-02,5.300117934853070665e+02
1.902744333648657715e+01,1.884903788067937214e+01,-9.781721263626380392e+00,-5.469478110799661508e-01,-8.330336959597388624e-01,8.307197692820249280e-02,5.365571787855772072e+02
1.949841642321101531e+01,1.846354843961299252e+01,-1.054660597602080685e+01,-6.142122979493482848e-01,-7.852447816138283798e-01,7.830635987186773672e-02,5.431025640858473480e+02
1.954297278979230512e+01,1.784386098503657436e+01,-1.121272414791072691e+01,-6.772810855293800447e-01,-7.320918520150518916e-01,7.300583125854577526e-02,5.496479493861174888e+02
1.921360660247450980e+01,1.702915972393269683e+01,-1.178390966275599183e+01,-7.357233509475943345e-01,-6.739379970678823772e-01,6.720659922280976251e-02,5.561933346863876295e+02
1.856381047044640198e+01,1.605700626277419829e+01,-1.226400764341587291e+01,-7.891398755114497066e-01,-6.111804678026625526e-01,6.094827852284697561e-02,5.627387199866577703e+02
1.764805645479221496e+01,1.496331757732364487e+01,-1.265687399348435171e+01,-8.371657717009197697e-01,-5.442479626727514397e-01,5.427361992396180501e-02,5.692841052869279110e+02
1.652177688681728185e+01,1.378234432511499996e+01,-1.296637493813521935e+01,-8.794729756280550426e-01,-4.735976990547316468e-01,4.722821816204889056e-02,5.758294905871980518e+02
1.524134499792190489e+01,1.254664950380331589e+01,-1.319638656461792969e+01,-9.157724879431360376e-01,-3.997122899596447509e-01,3.986020048227606472e-02,5.823748758874681926e+02
1.386405536349667322e+01,1.128708745852898510e+01,-1.335079436165204747e+01,-9.458163478860495132e-01,-3.230964472923509301e-01,3.221989788075941413e-02,5.889202611877383333e+02
1.244810416307742429e+01,1.003278324141855826e+01,-1.343349275750851746e+01,-9.693993270046766808e-01,-2.442735341793612902e-01,2.435950129501019551e-02,5.954656464880084741e+02
1.105256925866892281e+01,8.811112326538946604e+00,-1.344838465715964304e+01,-9.863603309769093386e-01,-1.637819899149007552e-01,1.633270509158768133e-02,6.020110317882786148e+02
9.737390093126892410e+00,7.647680683693811154e+00,-1.339938097894317792e+01,-9.965834999663268912e-01,-8.217165194357421709e-02,8.194340286012628122e-03,6.085564170885487556e+02
9.231961332007012189e+00,7.194268635342229601e+00,-1.336407459622758331e+01,-9.999989999999999712e-01,-0.000000000000000000e+00,0.000000000000000000e+00,6.112118990049212925e+02
8.077930340963410671e+00,6.130620563871797657e+00,-1.324216231855443837e+01,-9.999989992939563033e-01,-0.000000000000000000e+00,-0.000000000000000000e+00,6.177572843051914333e+02
7.069526395465010715e+00,5.147329786188294065e+00,-1.306730317904779959e+01,-9.999989992940097050e-01,-0.000000000000000000e+00,-0.000000000000000000e+00,6.243026696054615741e+02
6.186468380646826581e+00,4.233232960588300564e+00,-1.284494200815320752e+01,-9.999989992940542249e-01,-0.000000000000000000e+00,-0.000000000000000000e+00,6.308480549057317148e+02
5.408207540487451226e+00,3.377787952017615947e+00,-1.258052924131085781e+01,-9.999989992940897521e-01,-0.000000000000000000e+00,-0.000000000000000000e+00,6.373934402060018556e+02
4.713934706354428350e+00,2.571079657166133181e+00,-1.227952027280699099e+01,-9.999989992941163974e-01,-0.000000000000000000e+00,-0.000000000000000000e+00,6.439388255062719963e+02
4.082587574973285172e+00,1.803825699517981995e+00,-1.194737480931162743e+01,-9.999989992941342720e-01,-0.000000000000000000e+00,-0.000000000000000000e+00,6.504842108065421371e+02
3.492858035335651312e+00,1.067381993320884348e+00,-1.158955622285113840e+01,-9.999989992941431538e-01,-0.000000000000000000e+00,-0.000000000000000000e+00,6.570295961068122779e+02
2.923199543793365773e+00,3.537481754439900095e-01,-1.121153090308215994e+01,-9.999989992941431538e-01,-0.000000000000000000e+00,-0.000000000000000000e+00,6.635749814070824186e+02
2.351834546114272673e+00,-3.444270956798199945e-01,-1.081876760983774766e+01,-9.999989992941342720e-01,-0.000000000000000000e+00,-0.000000000000000000e+00,6.701203667073525594e+02
1.756761945578259487e+00,-1.033840974530621182e+00,-1.041673682653449617e+01,-9.999989992941163974e-01,-0.000000000000000000e+00,-0.000000000000000000e+00,6.766657520076227001e+02
1.115764616838667012e+00,-1.720531396945764957e+00,-1.001091011313978107e+01,-9.999989992940897521e-01,-0.000000000000000000e+00,-0.000000000000000000e+00,6.832111373078928409e+02
4.064169646091316257e-01,-2.409872183753547503e+00,-9.606759458369644733e+00,-9.999989992940542249e-01,-0.000000000000000000e+00,-0.000000000000000000e+00,6.897565226081629817e+02
-1.682083155052785106e-01,-2.921012038279970469e+00,-9.312809985732888762e+00,-9.999989992940097050e-01,-0.000000000000000000e+00,-0.000000000000000000e+00,6.945787647614342859e+02
-1.038521699495728701e+00,-3.623050904244222714e+00,-8.923735522323351432e+00,-9.999989992939563033e-01,-0.000000000000000000e+00,-0.000000000000000000e+00,7.011241500617044267e+02
-2.039519759778328112e+00,-4.339192682934877254e+00,-8.551309569077950812e+00,-9.999989992938940198e-01,-0.000000000000000000e+00,-0.000000000000000000e+00,7.076695353619745674e+02
-3.129518382520170672e+00,-5.048609369702006688e+00,-8.147786846982167930e+00,-9.240959155073494857e-01,2.243040091922259005e-01,-3.094066101490673959e-01,7.142149206622447082e+02
-3.442243000752805315e+00,-5.243985125101658262e+00,-8.018124972326061695e+00,-7.079092343436719226e-01,4.145572494683987808e-01,-5.718433376766592913e-01,7.160708230758001491e+02
-4.405408116079391867e+00,-5.856538123719706057e+00,-7.373975623859205797e+00,-3.842574675362172010e-01,5.418780790840239669e-01,-7.474706322337416609e-01,7.226162083760702899e+02
-4.977900772989507061e+00,-6.288963003179188327e+00,-6.278411785840263271e+00,-2.272997664908586214e-03,5.869383970276200735e-01,-8.096271682554371241e-01,7.291615936763404306e+02
-5.030506406748620485e+00,-6.521625660528926893e+00,-4.639485357150260114e+00,-1.622507831047444648e-03,7.886419019143875442e-01,-6.148490205032044464e-01,7.357069789766105714e+02
-4.971635732563545851e+00,-6.557715084879320422e+00,-4.143174858029937901e+00,-8.444508831759677502e-04,9.283396920823987486e-01,-3.717293410633717987e-01,7.373958824033109067e+02
-4.597105706624855515e+00,-6.695998440163191567e+00,-2.095051640381697666e+00,-0.000000000000000000e+00,9.950482571503992402e-01,-9.938292580604385362e-02,7.439412677035810475e+02
-4.313281550690904353e+00,-6.781845072764445703e+00,-8.002383344712760138e-01,7.901121582998402726e-01,4.634195063229082368e-02,6.112063488867673922e-01,7.479009542327726194e+02
-4.009834197301835879e+00,-6.852535628634154996e+00,1.111889837500343425e+00,9.965465428527707781e-01,5.265417107704081778e-02,6.419132494447168935e-02,7.544463395330427602e+02
-3.936150578435269054e+00,-6.706050784482910920e+00,2.465422747266172721e+00,8.622806498190405122e-01,4.096493585606216653e-02,-5.047692096195410816e-01,7.609917248333129010e+02
-3.982385667849510202e+00,-6.511881664422637606e+00,2.946104277577973996e+00,8.289308114288447271e-01,3.621049485890235481e-02,-5.581760563890140192e-01,7.646008626906512973e+02
-4.246886983353348910e+00,-5.953820404058002502e+00,3.399706843909704901e+00,7.922759288087447560e-01,3.131167827533105907e-02,-6.093573922040826929e-01,7.711462479909214380e+02
-4.702670715185812256e+00,-5.139589895113225282e+00,3.367417267683187276e+00,7.524621462276637196e-01,2.628801791123872370e-02,-6.581091540227692605e-01,7.776916332911915788e+02
-5.246069848476672348e+00,-4.138908417977114063e+00,2.999287664477423121e+00,7.096482021763103054e-01,2.115954332420581438e-02,-7.042369650010283921e-01,7.842370185914617196e+02
-5.775748150006591253e+00,-3.024508369673525099e+00,2.445410059707806560e+00,6.640047966304304383e-01,1.594670198134324340e-02,-7.475569093701602830e-01,7.907824038917318603e+02
-6.192734045011316191e+00,-1.872082526398244351e+00,1.855898559553397886e+00,6.157139106443259013e-01,1.067027775091831075e-02,-7.878962656408839971e-01,7.973277891920020011e+02
-6.399007553704803897e+00,-8.589699572964545338e-01,1.412605996910046846e+00,5.649680809795194492e-01,5.351308052041901103e-03,-8.250941952135864010e-01,8.032508589282145977e+02
-6.348055043751573479e+00,1.505037973056394529e-01,1.165351681649869686e+00,5.119696326530717156e-01,1.099999210731837596e-05,-8.590023836511641031e-01,8.097962442284847384e+02
-5.966235962587305153e+00,9.900766617619267684e-01,1.171638680978802194e+00,3.996517389686284893e-01,-1.354739068109789557e-01,-9.065998610813139624e-01,8.163416295287548792e+02
-5.843155562976246387e+00,1.155804874372080571e+00,1.192630136626304127e+00,2.740506525458014098e-01,-2.664560070425104343e-01,-9.240646276913966339e-01,8.178054252697601214e+02
-5.204444604657094686e+00,1.816962068268833441e+00,1.106472084645356180e+00,1.393409662666698634e-01,-3.885818767076947289e-01,-9.108162384447009430e-01,8.243508105700302622e+02
-4.471800333086483725e+00,2.346260306334728707e+00,4.481606054261076943e-01,0.000000000000000000e+00,-4.977924468361116794e-01,-8.672950362322737750e-01,8.308961958703004029e+02
-3.684871925763370637e+00,2.682270547768415447e+00,-8.358906058951052209e-01,5.559538578516824980e-01,-7.527599114535294955e-01,-3.525135793773969128e-01,8.374415811705705437e+02
-3.646243267450578696e+00,2.691576539782040811e+00,-9.066400807543059104e-01,7.566006451068759686e-01,-5.266416921108485472e-01,3.875590173776391478e-01,8.377474125983546855e+02
-2.836044302299950193e+00,2.571531170379118603e+00,-2.191226875107170180e+00,4.737066590285227141e-01,3.605097405070491201e-02,8.799433666215495942e-01,8.442927978986248263e+02
-2.129357130682141719e+00,1.816361191553239385e+00,-2.897042981177528009e+00,3.231407086488636837e-01,2.459195640354734647e-02,9.460302944900784716e-01,8.508381831988949671e+02
-1.827757581032143586e+00,1.265779025708923200e+00,-3.026819366228483243e+00,1.637954291108203175e-01,1.246480603874724688e-02,9.864145609285380756e-01,8.540388386169396426e+02
-1.135500270596666139e+00,2.635734489694671265e-02,-3.028719448640015077e+00,0.000000000000000000e+00,-9.999989999983950115e-07,9.999989999983950328e-01,8.605842239172097834e+02
-4.675738758893910885e-01,-9.912525820862380099e-01,-2.897042842219466063e+00,-4.015486972677542732e-01,-7.363974448213784774e-01,-5.444955894984251366e-01,8.659137601400203721e+02
3.570013206606009737e-01,-2.084351133078052865e+00,-2.897042873109371808e+00,-7.127413081385771676e-01,-4.228955894932131532e-01,-5.596044567892568544e-01,8.724403359150708184e+02
1.080983600970156777e+00,-2.979304144706290458e+00,-3.057121799474852519e+00,-8.801793154564134802e-01,-2.430393765149209684e-01,-4.076937994449310598e-01,8.789857212153409591e+02
1.734219119364417416e+00,-3.672326367665188052e+00,-2.897042963958275319e+00,-9.741568796135865460e-01,-4.289895066153873865e-02,-2.217567449556130665e-01,8.854289603144549119e+02
2.341913633562311414e+00,-4.296964204083358219e+00,-2.165883757780603158e+00,-9.847119642355641744e-01,6.910232711821360195e-03,1.740476836279798156e-01,8.919743456147250527e+02
2.656195781195297645e+00,-4.850120415416409259e+00,-1.562482745479899515e+00,-8.384479280486415442e-01,5.561892889148582070e-02,5.421343068840803747e-01,8.967412072044597835e+02
2.730775397037870533e+00,-5.932275637464863749e+00,-1.210150517727524022e+00,-7.881672899805857169e-01,8.037480587507589425e-02,6.101886704792174321e-01,9.032865925047299243e+02
2.381136254195256097e+00,-7.258786304239594145e+00,-1.372931514261707342e+00,-7.317606859935836816e-01,1.045059803626310069e-01,6.735004071997864328e-01,9.098319778050000650e+02
1.712328897448827547e+00,-8.512449430963734187e+00,-1.741362448833445820e+00,-6.696665005608543053e-01,1.278249046678292256e-01,7.315774543874919988e-01,9.163773631052702058e+02
1.358431365459939810e+00,-8.985125096841324321e+00,-1.904107202988226444e+00,-4.705408786228820750e-01,1.049172557226782099e-01,8.761173728423921059e-01,9.192062492679181105e+02
5.482965613685318873e-01,-9.853881438041456775e+00,-2.153268477849602736e+00,-2.426804387265793506e-01,7.560255615398192575e-02,9.671548263655566080e-01,9.257516345681882513e+02
-6.611145889886878291e-02,-1.032199355233912286e+01,-2.227740760634662198e+00,-0.000000000000000000e+00,4.167097442642284794e-02,9.991303868312805259e-01,9.322970198684583920e+02
-2.099705738708239899e-01,-1.039403957741760820e+01,-2.234705160831582660e+00,1.572002956301676380e-03,4.000157522678212535e-02,9.991973790860887439e-01,9.346156455443504001e+02
-3.518030626687326246e-01,-1.027319469746895919e+01,-2.340155238863740550e+00,3.143997209739320901e-03,3.833196598082939943e-02,9.992591131692473150e-01,9.411610308446205408e+02
-1.283758670795376311e-01,-9.660176011487154213e+00,-2.559593333100786516e+00,-2.836925989422955374e-01,1.771563017337753065e-01,9.424076368866208808e-01,9.477064161448906816e+02
2.865534680094680708e-01,-8.681374856656235650e+00,-2.817083523450312654e+00,-5.408039152775081515e-01,2.974182270606188228e-01,7.868109832950923588e-01,9.542518014451608224e+02
7.153903322202446180e-01,-7.457866171401309252e+00,-3.036685505301400578e+00,-7.412499049506607873e-01,3.865167373105370952e-01,5.487726215756574266e-01,9.607971867454309631e+02
7.577151979869743981e-01,-7.315182563268958660e+00,-3.056248606682768987e+00,-8.640279871800294886e-01,4.351161640115286389e-01,2.532342022465256526e-01,9.615062579861255472e+02
1.008200260617906130e+00,-5.967508822480722230e+00,-3.155741303970669431e+00,-8.962736280310614756e-01,4.381243293421202001e-01,-6.883789462654008040e-02,9.680516432863956879e+02
1.018160760922208308e+00,-4.934648785247158997e+00,-3.136040627911901080e+00,-6.336277637610133739e-01,4.201362269486358936e-01,6.496148149467396715e-01,9.728923574258250255e+02
8.306837395354262910e-01,-3.425375908989717111e+00,-3.059884487021893751e+00,-3.999995304135573277e-06,1.561658166664089964e-01,9.877298404372834018e-01,9.794377427260951663e+02
5.096361492878732635e-01,-1.719879174895578400e+00,-3.010043563272055245e+00,-2.671662116757471901e-06,1.092093586250247328e-01,9.940177644141181545e-01,9.859831280263653071e+02
2.056623853159058324e-01,1.299068732847163121e-01,-3.008705324157603833e+00,-1.337332266971854938e-06,6.200777675792813748e-02,9.980746643456150924e-01,9.925285133266354478e+02
1.441282342468156175e-01,6.017015727272070347e-01,-3.013333737462640993e+00,-0.000000000000000000e+00,1.466699169432512592e-02,9.998914337780145933e-01,9.941600517329895865e+02
-6.097958017412774545e-02,2.449342414684643643e+00,-3.034241417693109177e+00,-0.000000000000000000e+00,1.466699168406119733e-02,9.998914330782927573e-01,1.000705437033259727e+03
-3.483123999589675113e-01,4.121972038562943474e+00,-3.038828280158996975e+00,-0.000000000000000000e+00,1.466699168405752839e-02,9.998914330780426241e-01,1.007250822333529868e+03
-7.529632552596073891e-01,5.278511506171219558e+00,-3.015658426732613417e+00,8.880919404318034227e-02,1.812479198648597745e-02,9.958827335418816151e-01,1.012534515054157623e+03
-1.394425061736664917e+00,6.463313219358475692e+00,-2.963170303731871513e+00,1.769154138065533177e-01,2.143913101615616684e-02,9.839915141998482051e-01,1.019079900354427764e+03
-2.003924402605025357e+00,7.395945355274522015e+00,-2.909047688840111334e+00,2.636213028435260286e-01,2.458377608330317154e-02,9.643119031927269713e-01,1.025625285654697791e+03
-2.355327214394028257e+00,8.114883085547480945e+00,-2.889417116972390343e+00,3.482405895268733120e-01,2.753383760242611444e-02,9.369996689388651046e-01,1.032170670954967818e+03
-2.343616904493251329e+00,8.545797414198151642e+00,-2.932345179971596494e+00,4.301035175183402504e-01,3.026596604823504968e-02,9.022709878501662395e-01,1.037160837249594579e+03
-1.871953769847262583e+00,8.953612435864968688e+00,-3.071838133153902639e+00,2.642130171979097941e-01,3.226096363561756220e-02,9.639236026622269859e-01,1.043706222549864606e+03
-9.474493197590333482e-01,9.116701808118166994e+00,-3.185904242799577624e+00,9.004613341578990293e-02,3.324539468347687682e-02,9.953815537722784379e-01,1.050251607850134633e+03
2.322585395387393448e-01,8.953618186423639713e+00,-3.110024061845935606e+00,-8.694142291808715228e-02,3.318842245483215325e-02,9.956594385615871179e-01,1.056796993150404660e+03
7.150748502364663306e-01,8.804721269085405311e+00,-3.016800116569082313e+00,-2.612055852340142703e-01,3.209183136219332516e-02,9.647485457895318417e-01,1.059310682662409818e+03
1.910567498800629371e+00,8.134102408993966193e+00,-2.512630363304479975e+00,-4.272875887419810836e-01,2.998997113509392284e-02,9.036171302818040152e-01,1.065856067962679845e+03
2.885096553253421181e+00,7.096737563213516786e+00,-1.583076554608477737e+00,-6.987333367983128429e-01,2.871261969176033477e-02,7.148043854910538508e-01,1.072401453262949872e+03
3.288319076514953920e+00,6.476867771770117521e+00,-9.377547206842768990e-01,-8.937831490307434068e-01,2.429597686784608357e-02,4.478385736137356354e-01,1.075989233689780121e+03
3.715057467396240654e+00,5.505180128067022061e+00,3.328356112792132393e-01,-9.883582010250796523e-01,2.727282882079828247e-02,1.496738429893562927e-01,1.082534618990050149e+03
3.716999154227771829e+00,4.718843306519309166e+00,1.624759174187156541e+00,-9.862167656753878520e-01,2.758087891120569388e-02,-1.631373231964951542e-01,1.089080004290320176e+03
3.352283089635591296e+00,3.970983109046065884e+00,2.791952868087397732e+00,-8.875683493731688634e-01,2.518998153463011813e-02,-4.599846628109104940e-01,1.095625389590590203e+03
3.251591884352785566e+00,3.828565217303760537e+00,2.989126053543410322e+00,-7.929889162718402051e-01,2.348173490788356410e-02,-6.087817234400488831e-01,1.096841725917567601e+03
2.571739965846532971e+00,3.102173617977846742e+00,3.897599442895546495e+00,-6.737564233258092061e-01,2.104346952223577413e-02,-7.386524584786653413e-01,1.103387111217837628e+03
1.671758184955472570e+00,2.599240417545026993e+00,4.501068949506045414e+00,-5.335776174011365169e-01,1.795098712834449980e-02,-8.455593936963387014e-01,1.109932496518107655e+03
1.375882886933824656e+00,2.512377684954302914e+00,4.626624529078180004e+00,-3.979851018696269338e-01,1.919455031296418007e-02,-9.171899628367370383e-01,1.111877068987771281e+03
3.540727722781995546e-01,2.476886679779632949e+00,4.897291017944397140e+00,-2.530328538769867630e-01,1.998669860941480053e-02,-9.672501779467786998e-01,1.118422454288041308e+03
-6.425850120004593657e-01,2.868054427401065976e+00,4.951633188551751275e+00,-1.021298378620866254e-01,2.030880263677199704e-02,-9.945627424925765903e-01,1.124967839588311335e+03
-1.491236729720137433e+00,3.623485726908063143e+00,4.880270663386458985e+00,5.117503778723775376e-02,2.015328738340082387e-02,-9.984853331500733731e-01,1.131513224888581362e+03
-2.070989344430449908e+00,4.677232389110423938e+00,4.773838000766984280e+00,2.032763815531455354e-01,1.952381031563241512e-02,-9.789257037866158084e-01,1.138058610188851389e+03
-2.121232674095926640e+00,4.822705034068639485e+00,4.761517705024964187e+00,3.505971072416806944e-01,1.843517534557068474e-02,-9.363438538829581548e-01,1.138860141434578054e+03
-2.296715408893127641e+00,6.106083135324946731e+00,4.717600368055014926e+00,4.896725565857655282e-01,1.691298468474890931e-02,-8.717412106103223923e-01,1.145405526734848081e+03
-2.250832630006350588e+00,6.667384105557194296e+00,4.728816809731322124e+00,4.780272641022016988e-01,1.671896069572938182e-02,-8.781847249053709170e-01,1.148053578703284984e+03
-1.736536450666167353e+00,8.086631200891581273e+00,4.797541798718537365e+00,4.662972870224132982e-01,1.652197473758049845e-02,-8.844726476241844271e-01,1.154598964003555011e+03
-6.802621433030967557e-01,9.409871246467941930e+00,4.784867503467939542e+00,2.404868686156321766e-01,-3.566111160094296434e-02,-9.699960572821323401e-01,1.161144349303825038e+03
-5.571610489029988900e-01,9.527964903282548192e+00,4.772836835743665240e+00,0.000000000000000000e+00,-8.566789209254577209e-02,-9.963227450298078880e-01,1.161785984944732490e+03
4.914218552731973721e-01,1.061525366066719656e+01,4.501889184127375820e+00,5.550689551162776847e-02,-1.666403019700791743e-01,-9.844531448020172881e-01,1.168331370245002518e+03
8.473259111335417204e-01,1.153727686509641615e+01,4.151449830943585440e+00,1.104710095326777303e-01,-2.459832131914824749e-01,-9.629571199599559206e-01,1.173990410582729510e+03
2.925430126697189381e-01,1.271130559467603405e+01,3.840845439271462602e+00,1.643548822485856598e-01,-3.229207812527272181e-01,-9.320448710856191754e-01,1.180535795882999537e+03
-1.036321560128932395e+00,1.348672297655695829e+01,3.695048889030370098e+00,2.166316171702602489e-01,-3.967006822842504277e-01,-8.920186719560527777e-01,1.187081181183269564e+03
-2.284203049204005520e+00,1.339516651245149426e+01,3.649406235337059101e+00,2.667900328505449226e-01,-4.666014688600766958e-01,-8.432699138650612269e-01,1.192657969127693832e+03
-3.184872074839171230e+00,1.258016313609391190e+01,3.384061488262689377e+00,3.143396609601601388e-01,-5.319396239478728639e-01,-7.862752787810846078e-01,1.199203354427963859e+03
-3.295852510855503681e+00,1.227639499197756123e+01,3.227766009430128147e+00,3.588155418935495278e-01,-5.920762440852891384e-01,-7.215920787300234007e-01,1.201110968549146264e+03
-3.562484744056648278e+00,1.156989153184659891e+01,2.267190324760542719e+00,7.268315228409760742e-01,-5.907656121671474025e-01,-3.502997700310304663e-01,1.207656353849416291e+03
-3.589840463330177922e+00,1.152287367101837745e+01,2.098031637515020531e+00,9.796526068681459254e-01,-0.000000000000000000e+00,2.006957145972041445e-01,1.208478945707734283e+03
-3.643912269705618101e+00,1.145122637457552628e+01,1.807328751240265374e+00,9.796526061767043547e-01,-0.000000000000000000e+00,2.006957144555525374e-01,1.209865610689777441e+03
-3.846438126781377420e+00,1.147388196258968485e+01,3.682757327930780145e-01,9.987454514614225731e-01,-0.000000000000000000e+00,-5.005520137800934660e-02,1.216410995990047468e+03
-3.845810899018905715e+00,1.163995958260942309e+01,-1.970405379412750457e-01,9.546769266714698610e-01,-0.000000000000000000e+00,-2.976406653671949121e-01,1.218977352460894735e+03
-3.704507255823282552e+00,1.198947576451421959e+01,-8.739353052826246415e-01,5.764363129601857150e-01,-1.163998612659590233e-03,-8.171400260715380170e-01,1.222448549475186155e+03
-3.562986641994227099e+00,1.228406321378625243e+01,-1.243004497404983422e+00,5.752485911879960945e-01,-0.000000000000000000e+00,-8.179774186878632225e-01,1.224607003153273808e+03
-2.928987511284213419e+00,1.330911075235585095e+01,-2.171518137494999223e+00,4.547395913511642074e-01,-1.592212067479122362e-01,-8.762753627595512018e-01,1.231152388453543836e+03
-1.871522893502540530e+00,1.396139125776559453e+01,-2.624760680826553116e+00,3.145528559499483623e-01,-3.115525004159145905e-01,-8.966546382516057401e-01,1.237697773753813863e+03
-1.504624316514995952e+00,1.400449945230079685e+01,-2.641928398088184693e+00,1.607545892350254191e-01,-4.504021479189711519e-01,-8.782333785443182661e-01,1.239535596146444504e+03
-1.608507642920514735e-01,1.364391230693805390e+01,-2.288038267605919884e+00,0.000000000000000000e+00,-5.697617808903234771e-01,-8.218086839622436024e-01,1.246080981446714532e+03
1.011864365349989914e+00,1.273174362206653498e+01,-1.524700635162088425e+00,-0.000000000000000000e+00,8.080491350120935778e-02,9.967289330370694422e-01,1.252626366746984559e+03
1.491830431126417889e+00,1.220237905877496054e+01,-1.013936838620233427e+00,-9.463679271405152083e-01,1.327656012246618833e-01,2.945488781281649371e-01,1.256439075760270043e+03
1.695966773765987368e+00,1.194877741668916293e+01,-6.934020665203097789e-01,-5.759863546494992104e-01,0.000000000000000000e+00,-8.174580840981220398e-01,1.258643091531374012e+03
1.956474325792998181e+00,1.158732776821446642e+01,1.130237068847336074e-01,-5.741094901531109684e-01,1.828998375729459346e-03,-8.187752728738456609e-01,1.263537512859439857e+03
1.903683243435424721e+00,1.152999328003602919e+01,1.417711780440487512e+00,-9.546707119066503155e-01,0.000000000000000000e+00,-2.976605983802242950e-01,1.270082898159709885e+03
1.802526848863855502e+00,1.159364479598285769e+01,1.934531681816944459e+00,-9.796745246587165168e-01,-0.000000000000000000e+00,2.005886979233616751e-01,1.272415143416737919e+03
1.356068207148948712e+00,1.189414629242762800e+01,3.487056128518559284e+00,-3.547495365921330968e-01,-0.000000000000000000e+00,9.349603019259025150e-01,1.278960528717007946e+03
6.821917410751753286e-01,1.233434288059181227e+01,5.145081360900264578e+00,6.000999550062849908e-01,-0.000000000000000000e+00,7.999237737963288408e-01,1.285505914017277973e+03
-1.322283306763394339e-01,1.279599509870035590e+01,6.795009478308478457e+00,9.968779763646680170e-01,-0.000000000000000000e+00,-7.894491893610830480e-02,1.292051299317548001e+03
-1.017203014150023455e+00,1.308010711962286265e+01,8.308935314125070803e+00,9.968779756680579140e-01,-0.000000000000000000e+00,-7.894491888094226639e-02,1.298596684617818028e+03
-1.084835800526477767e+00,1.308937294020909370e+01,8.413976842978611259e+00,9.968779756681376281e-01,-0.000000000000000000e+00,-7.894491888094856691e-02,1.299084628259237661e+03
-1.941026717578400840e+00,1.295519004139950425e+01,9.659316420398857517e+00,9.968779756681376281e-01,-0.000000000000000000e+00,-7.894491888094856691e-02,1.305630013559507688e+03
-2.572708615838783519e+00,1.237538207303817295e+01,1.056452010659497098e+01,9.968779756680579140e-01,-0.000000000000000000e+00,-7.894491888094226639e-02,1.312175398859777715e+03
-2.752040109710747640e+00,1.151068782937508672e+01,1.110694721368672333e+01,9.968779756678982640e-01,-0.000000000000000000e+00,-7.894491888092960985e-02,1.318720784160047742e+03
-2.478212596794163503e+00,1.069233152046468049e+01,1.130945315335538481e+01,9.968779756678982640e-01,-0.000000000000000000e+00,-7.894491888092960985e-02,1.324381940622837419e+03
-1.771526091182187734e+00,9.922787166987747653e+00,1.135066438015854473e+01,8.612584170858206267e-01,4.966502082827247144e-01,-1.075663033320747863e-01,1.330927325923107446e+03
-8.253086175936794611e-01,9.631583902000567576e+00,1.133834170504114347e+01,4.966527406121594712e-01,8.612541689158708103e-01,-1.075886228570319680e-01,1.337472711223377473e+03
-5.065005916529499164e-01,9.655334002019831274e+00,1.134286856819239908e+01,0.000000000000000000e+00,9.968731427319725835e-01,-7.900593205829646581e-02,1.339529752796983757e+03
-2.094060413285156463e-01,9.705648364581184850e+00,1.135208045819038603e+01,-0.000000000000000000e+00,9.968731420280737554e-01,-7.900593200250984049e-02,1.341451046296087952e+03
6.715044331857619175e-01,1.025639915410716263e+01,1.137895407457151720e+01,-4.966557898916809655e-01,8.612553751449885109e-01,-1.075648880994369699e-01,1.347996431596357979e+03
1.100978967449152579e+00,1.126492508964009254e+01,1.133396315443987845e+01,-8.612629936206266379e-01,4.966512154040110816e-01,-1.075250020164099374e-01,1.354541816896628006e+03
1.118442842407163962e+00,1.151208478822477588e+01,1.130940763413537908e+01,-9.968817776734337777e-01,0.000000000000000000e+00,-7.889690326056407466e-02,1.355968761765152522e+03
8.615910366000653076e-01,1.252499156933741098e+01,1.119631055284402166e+01,-8.612493208932023858e-01,-4.966184516432577967e-01,-1.077855312631444684e-01,1.362514147065422549e+03
2.919482030794616212e-01,1.310107692856919925e+01,1.130190234790816106e+01,-4.966439732438078791e-01,-8.612054567701500352e-01,-1.080181700950862828e-01,1.369059532365692576e+03
9.650891404362332837e-02,1.316837257327456179e+01,1.144219522694570479e+01,-0.000000000000000000e+00,-9.968312352734685078e-01,-7.953293898571150988e-02,1.371438322353818876e+03
-2.409751913806793266e-01,1.292056523373893206e+01,1.215336509259805631e+01,-0.000000000000000000e+00,-8.993944501121587942e-01,-4.371357033097414968e-01,1.377983707654088903e+03
-4.389536521422087167e-01,1.222413594219801780e+01,1.311217341347168563e+01,-0.000000000000000000e+00,-6.784043507465453704e-01,-7.346873735739525291e-01,1.384529092954358930e+03
-5.956779175663670101e-01,1.181693335848946624e+01,1.358681856231306817e+01,-0.000000000000000000e+00,-3.642192608852135582e-01,-9.313121549734011406e-01,1.388136004714354613e+03
-6.179371481259547938e-01,1.177254904106962918e+01,1.363629066492917374e+01,-0.000000000000000000e+00,-0.000000000000000000e+00,-9.999989999999967516e-01,1.388555737678094602e+03
-1.106538481832117560e+00,1.125428868752738687e+01,1.410633176225876007e+01,-0.000000000000000000e+00,-0.000000000000000000e+00,-9.999989992938940198e-01,1.395101122978364629e+03
-1.716423625824975430e+00,1.100563670222302015e+01,1.397092899247524400e+01,-2.911790280154582522e-01,-0.000000000000000000e+00,-9.566675355863385466e-01,1.401646508278634656e+03
-1.918881693982441572e+00,1.095431786143297437e+01,1.379475352889305384e+01,-5.571236030688241359e-01,-0.000000000000000000e+00,-8.304283779499425089e-01,1.403961155374455302e+03
-2.244915326773667896e+00,1.080237539521378132e+01,1.292518354423614824e+01,-7.747861333202294976e-01,-0.000000000000000000e+00,-6.322218341815641907e-01,1.410506540674725329e+03
-1.964299531057343451e+00,1.053371093176675721e+01,1.142031112118139902e+01,-9.253033517809385877e-01,-0.000000000000000000e+00,-3.792251404963774553e-01,1.417051925974995356e+03
-1.092188494864692938e+00,1.027001635903303978e+01,9.345786801102160979e+00,-9.956310588633510150e-01,-0.000000000000000000e+00,-9.336377578302922087e-02,1.423597311275265383e+03
-2.369948209001803974e-01,1.028074623910646501e+01,7.406663206680323519e+00,-9.796745246597445833e-01,-0.000000000000000000e+00,2.005886979235721734e-01,1.429009903517570365e+03
6.345694467428747432e-01,1.055118432465926048e+01,5.178702221362728508e+00,-8.610980435139656830e-01,-3.816511123333345967e-01,-3.359324156926402627e-01,1.435555288817840392e+03
1.281905067541905030e+00,1.097280090224072779e+01,3.269326829310331917e+00,-3.571165318404133648e-01,-5.924852232853634604e-01,-7.220990533689588542e-01,1.442100674118110419e+03
1.703129829839980403e+00,1.149567985508784851e+01,1.761321237564561937e+00,-9.796745246597435841e-01,-0.000000000000000000e+00,2.005886979235719514e-01,1.448646059418380446e+03
1.915600037005149803e+00,1.206534339500630360e+01,6.814932187500625238e-01,-9.843358218113138491e-01,-1.067248189243016204e-01,1.403239214319472183e-01,1.455191444718650473e+03
1.964262306758035592e+00,1.234686043483625184e+01,2.779797950146459806e-01,-9.741889796240758015e-01,-2.118440915645642408e-01,7.794814205336446367e-02,1.458405581212226934e+03
2.007299362652597008e+00,1.287072697142109945e+01,-3.908223920776887628e-01,-9.493866427327790625e-01,-3.137764340910534355e-01,1.439972259995702872e-02,1.464950966512496962e+03
2.011678283082076302e+00,1.326966858012724515e+01,-9.268972225317301250e-01,-9.103019254991879805e-01,-4.109884041434229140e-01,-4.936533290879310809e-02,1.471496351812766989e+03
2.049989122623986582e+00,1.346929055865326852e+01,-1.471341555093743203e+00,-8.575227999816973368e-01,-5.020175682881037327e-01,-1.123877601987042785e-01,1.478041737113037016e+03
2.106154932157476622e+00,1.348261381335706233e+01,-1.832134212457882549e+00,-7.918432521573541827e-01,-5.854945017051919054e-01,-1.737194649035885274e-01,1.481816523951514682e+03
2.317491503102174999e+00,1.326793151304124407e+01,-2.650130028241697744e+00,-7.142513392294312924e-01,-6.601633892674549919e-01,-2.324377849663851747e-01,1.488361909251784709e+03
2.641240904513893373e+00,1.279145726070494504e+01,-3.719007681559161949e+00,-8.710707304291974706e-01,-4.668868046154087126e-01,-1.524811275728920612e-01,1.494907294552054736e+03
2.852504806918555680e+00,1.239155883200973918e+01,-4.812591921622964897e+00,-9.683599515652910883e-01,-2.417025710099443281e-01,-6.210371463880428461e-02,1.501423043705973669e+03
2.642604480993026250e+00,1.254799135630169893e+01,-5.598594360377078694e+00,-9.994701503665153197e-01,-0.000000000000000000e+00,3.251797235699518951e-02,1.507968429006243696e+03
1.882436362529041896e+00,1.338836964502382543e+01,-5.861997015393611399e+00,-8.795958124946809953e-01,-4.688060794709624224e-01,8.080882683045025050e-02,1.514513814306513723e+03
1.252319893396440786e+00,1.402620172165399026e+01,-5.796649116062670082e+00,-5.517134353490490417e-01,-8.267481538648483452e-01,1.099898874308825047e-01,1.518374598924670863e+03
1.455030845621110291e-01,1.478796476797010229e+01,-5.369372572131872801e+00,-2.883779608520256610e-01,-9.545120556963128111e-01,7.578183968180839114e-02,1.524919984224940890e+03
-1.269485610295080502e-01,1.490282748774122190e+01,-5.200875982205231729e+00,-0.000000000000000000e+00,-9.993865585865699952e-01,3.499294952973203837e-02,1.526550447678494493e+03
-1.134915864798339724e+00,1.505869378970906070e+01,-4.392116313240959080e+00,1.826718535413781874e-01,-9.831721743442636274e-01,-1.212237298339349876e-03,1.533095832978764520e+03
-2.047598030748962294e+00,1.471915865604392160e+01,-3.740443511522276498e+00,3.589606418547809930e-01,-9.326030034784134060e-01,-3.737506524904212618e-02,1.539641218279034547e+03
-2.175283247798346142e+00,1.463997353183080818e+01,-3.687199166441501585e+00,5.227064052945151751e-01,-8.494460335488333014e-01,-7.223191781865063998e-02,1.540574001202621048e+03
-3.037809037903377973e+00,1.393975146589816205e+01,-3.732005232951313367e+00,7.213571105797907945e-01,-6.908183533968946799e-01,-4.911131872729635611e-02,1.547119386502891075e+03
-3.726632026300941813e+00,1.300680340543963531e+01,-4.390158967413313462e+00,8.730045037831491994e-01,-4.871773009121034281e-01,-2.279065272306002657e-02,1.553664771803161102e+03
-4.069345927715626310e+00,1.196783859491359969e+01,-5.274752308986146332e+00,9.677673469566059339e-01,-2.517920005002686201e-01,5.015042345014045916e-03,1.560210157103431129e+03
-4.090130957902611719e+00,1.180051096866462679e+01,-5.417499655868008190e+00,9.994709311546237096e-01,-0.000000000000000000e+00,3.249396525059065205e-02,1.561251238058522858e+03
-4.015496135585548743e+00,1.082412108075514112e+01,-6.177022588671651881e+00,9.635582632936408043e-01,2.119229655336469231e-01,1.632241707559275723e-01,1.567796623358792885e+03
-3.523576227400081251e+00,1.001829337988821145e+01,-6.619088825330065262e+00,8.666604907963512128e-01,4.104329676830404949e-01,2.836236462859801910e-01,1.574342008659062913e+03
-3.442306115236350550e+00,9.937587632220663991e+00,-6.648107715183232180e+00,7.149104151647174277e-01,5.829660352220048525e-01,3.860721436045851940e-01,1.575088175139991336e+03
-2.588765314837170983e+00,9.285029734331468276e+00,-6.663312117394176504e+00,5.179124917785927762e-01,7.186022948440609071e-01,4.640855445983399497e-01,1.581633560440261363e+03
-1.623452890886420308e+00,8.719607787796659792e+00,-6.177747284618711809e+00,7.294162694248140788e-01,5.001404990648640192e-01,4.667005325579609010e-01,1.588178945740531390e+03
-1.521911525885988992e+00,8.662089886777081915e+00,-6.095840621724137876e+00,4.188760645433186602e-01,8.611211245590840724e-01,2.881167322320156710e-01,1.588887797873073396e+03
-7.706404795659542728e-01,8.251261483039792566e+00,-5.049146199176886007e+00,0.000000000000000000e+00,9.993857527529520501e-01,3.501595629960903289e-02,1.595433183173343423e+03
-3.896989966662110505e-01,8.105239197325319722e+00,-4.032378428246558677e+00,-0.000000000000000000e+00,9.999841710804819872e-01,5.445875370944270287e-03,1.600887889330697590e+03
-2.858937896931082467e-01,8.092093874172778811e+00,-3.723295526931875710e+00,-0.000000000000000000e+00,9.997078536570985774e-01,-2.412897233184069928e-02,1.602857601602921704e+03
1.322458345516766276e-01,8.210158387976029815e+00,-3.459891197427519494e+00,-0.000000000000000000e+00,9.997078529671034053e-01,-2.412897231518696187e-02,1.609402986903191731e+03
6.408629658775925053e-01,8.578340618168729392e+00,-4.392548034675965773e+00,-1.832039303443547262e-01,9.712156778011484803e-01,1.522314918151939367e-01,1.615948372203461759e+03
9.097724306596464139e-01,9.086449743140979862e+00,-5.886462254713583420e+00,-3.544119140093665021e-01,8.791296348956626483e-01,3.186240421828073766e-01,1.622493757503731786e+03
8.989332806504573004e-01,9.252590843473472049e+00,-6.346701940118359531e+00,-5.024135394086530759e-01,7.294793312444004529e-01,4.641535744837603228e-01,1.624493894945130023e+03
5.320837119156323070e-01,9.845089584885370115e+00,-7.494844661104060002e+00,-2.856722249030643201e-01,4.814830239229320741e-01,8.285912608724884665e-01,1.631039280245400050e+03
4.985118960193100912e-02,1.045254395628863087e+01,-7.971069533461661472e+00,-0.000000000000000000e+00,1.173078338872849818e-01,9.930945937372316346e-01,1.636281754133308368e+03
-1.087711759189773225e-01,1.072239308059820395e+01,-8.069422329634765134e+00,1.270998419732385096e-03,1.158168560016881454e-01,9.932687650413736247e-01,1.638253231754998524e+03
-4.484667529625398497e-01,1.162765258497612031e+01,-8.223409611298414745e+00,1.686343174595578804e-04,1.862528282389815335e-05,9.999989856050671699e-01,1.644798617055268551e+03
-6.112372982080801487e-01,1.214368966194123267e+01,-8.260111843569074352e+00,-9.359985444617109109e-04,-1.157798199548898399e-01,9.932734553955192558e-01,1.649936422859968388e+03
-9.653264124060486617e-01,1.214789875718048151e+01,-8.385711759146989408e+00,3.895647135642957976e-02,-7.738486942702081650e-02,9.962389147767441999e-01,1.656481808160238415e+03
-1.255390164442606205e+00,1.185375431037848593e+01,-8.471696017919050803e+00,7.872917132844260701e-02,-3.875201109530926336e-02,9.961415558093054123e-01,1.660148686695825063e+03
-1.907199975788812063e+00,1.103276562855359089e+01,-8.444966487016337453e+00,1.182598423654860065e-01,0.000000000000000000e+00,9.929816764045947819e-01,1.666694071996095090e+03
-2.537460334709876086e+00,1.025818610379287854e+01,-7.972624842826082414e+00,4.786681068005322892e-01,2.325847897421519095e-01,8.466281114600603397e-01,1.671978387122397407e+03
-3.322702387168822824e+00,9.803343072580904760e+00,-6.580214052272634895e+00,7.407533244308344145e-01,4.173944108416685062e-01,5.263690892755252815e-01,1.678523772422667435e+03
-3.420938990767422361e+00,9.805589720087210637e+00,-6.345049695472030571e+00,8.506807646963322478e-01,5.164672500196140215e-01,9.798885770690915487e-02,1.679380621676957617e+03
-4.009793681420077860e+00,1.030958352697898839e+01,-4.740583361910355009e+00,9.331463522061381743e-01,3.545418388218304906e-01,5.946402180467896120e-02,1.685926006977227644e+03
-4.154030626652306601e+00,1.148091818963965061e+01,-3.546930082334233347e+00,9.834140699071841629e-01,1.803830196676871334e-01,1.888738530150262454e-02,1.692471392277497671e+03
-4.132763039263652516e+00,1.167516197785410981e+01,-3.409832580297107452e+00,9.997494087558927989e-01,0.000000000000000000e+00,-2.234098678771232957e-02,1.693401776851197610e+03
-3.626522777533129016e+00,1.294162048952551736e+01,-2.708796423052880709e+00,9.483741075520628616e-01,1.129223771680319816e-01,2.963664772833731198e-01,1.699947162151467637e+03
-2.454902723614879267e+00,1.376853034813949428e+01,-2.546629572718207335e+00,7.860714360480632878e-01,2.126368316509293643e-01,5.804095754307309063e-01,1.706492547451737664e+03
-8.833429736721166714e-01,1.416780412659506716e+01,-2.611996984685427847e+00,5.318251130287923178e-01,2.874800682177478528e-01,7.965646612336649834e-01,1.713037932752007691e+03
-7.454431792220016506e-01,1.419380345460853299e+01,-2.612508165405022176e+00,2.153735075981939029e-01,3.286979131171043345e-01,9.195487665888465445e-01,1.713584268264123693e+03
7.464967591058260243e-01,1.477941397747907182e+01,-2.398463992962968305e+00,-1.262690403440008269e-01,3.314693461523580686e-01,9.349771130947962527e-01,1.720129653564393720e+03
1.906767485378682681e+00,1.580448435773903881e+01,-1.923006881355908027e+00,-4.531420343576813559e-01,2.954703500630654345e-01,8.410455213198616553e-01,1.726675038864663748e+03
2.701273369101414357e+00,1.705729646711131764e+01,-1.528533445314586681e+00,-7.270129289257466487e-01,2.249116686481243965e-01,6.487410442400650679e-01,1.733220424164933775e+03
3.105840836305753694e+00,1.821050021366840710e+01,-1.413123454008844648e+00,-7.549865093677484706e-01,1.733702037470828128e-01,6.324050467233119921e-01,1.738973867391777048e+03
