1.803628548579344182e+00,7.767327544451354981e+00,-1.868123233435159625e+00,-6.154182278393652838e-01,2.950148691952238222e-02,7.876471717162810693e-01,1.059310682662409818e+03
2.385644544713662718e+00,7.163172689508463975e+00,-1.259173696664871001e+00,-7.734902722824857912e-01,2.757207668414288562e-02,6.332065849876694630e-01,1.065856067962679845e+03
2.841024676521466841e+00,6.468606275024813002e+00,-5.424961818473681419e-01,-8.937831490307434068e-01,2.429597686784608357e-02,4.478385736137356354e-01,1.072401453262949872e+03
3.004142125477951897e+00,6.072060453455171647e+00,-1.034613085872011784e-01,-9.735780631430812626e-01,2.677176835638022181e-02,2.267752794866469412e-01,1.075989233689780121e+03
3.133635378144491668e+00,5.360132810901769851e+00,7.511949516912441727e-01,-9.995901415046073435e-01,2.776862179618357421e-02,-6.815618161428407817e-03,1.082534618990050149e+03
3.094224080145882905e+00,4.695827531297912749e+00,1.617997605431979569e+00,-9.703824144825571318e-01,2.723146865269684969e-02,-2.400300330758253220e-01,1.089080004290320176e+03
2.889382812436199099e+00,4.120528916701268862e+00,2.448145831193551558e+00,-8.875683493731688634e-01,2.518998153463011813e-02,-4.599846628109104940e-01,1.095625389590590203e+03
2.823264993929635036e+00,4.034784195072304236e+00,2.591640605224475813e+00,-8.190737462294166438e-01,2.397971346249319971e-02,-5.731851110931015514e-01,1.096841725917567601e+03
2.333093887085488038e+00,3.714894400094717941e+00,3.287224594326319416e+00,-7.362393509072513442e-01,2.234962451983484380e-02,-6.763505839861796431e-01,1.103387111217837628e+03
1.735578333085559644e+00,3.584613082542343232e+00,3.875115635206175302e+00,-6.405153591179187922e-01,2.032825299291826301e-02,-7.676749552142025923e-01,1.109932496518107655e+03
1.537538605119722179e+00,3.611447325345963133e+00,4.016626288371771381e+00,-5.335776174011365169e-01,1.795098712834449980e-02,-8.455593936963387014e-01,1.111877068987771281e+03
8.354461889324238388e-01,3.928618901324876678e+00,4.379503488668203381e+00,-3.409405570814649789e-01,1.956686637137864879e-02,-9.398801382505128643e-01,1.118422454288041308e+03
1.449621025338272973e-01,4.446270570380617571e+00,4.632736283601879279e+00,-1.326175036810862684e-01,2.028251037191092232e-02,-9.909587365228792466e-01,1.124967839588311335e+03
-4.775608205627535630e-01,5.111949971636737367e+00,4.798693573286952230e+00,8.180700111300713562e-02,2.006499426064756175e-02,-9.964451869395118955e-01,1.131513224888581362e+03
-9.773748743932819671e-01,5.871526340722487802e+00,4.899754609521039583e+00,2.924677137118162351e-01,1.892432576439868896e-02,-9.560870809352157718e-01,1.138058610188851389e+03
-1.020834096286118431e+00,5.969998198044796034e+00,4.907788548615891422e+00,4.896725565857655282e-01,1.691298468474890931e-02,-8.717412106103223923e-01,1.138860141434578054e+03
-1.226013549604853203e+00,6.788800802783135246e+00,4.945383555178317181e+00,4.819185392894427267e-01,1.678396616534519672e-02,-8.760541192743348526e-01,1.145405526734848081e+03
-1.253139406247250953e+00,7.115594606677401401e+00,4.945923661095779522e+00,4.741265793927953998e-01,1.665362611414406696e-02,-8.802980423581512337e-01,1.148053578703284984e+03
-1.215826557030171395e+00,7.879451230762900771e+00,4.912337282722439191e+00,4.662972870224132982e-01,1.652197473758049845e-02,-8.844726476241844271e-01,1.154598964003555011e+03
-1.132059098200531633e+00,8.561673857443167890e+00,4.839347322090636005e+00,3.180950896275113737e-01,-1.835217571426954464e-02,-9.478801145722529631e-01,1.161144349303825038e+03
-1.126764888014570420e+00,8.619285421016209980e+00,4.829315788116284480e+00,1.612405004053016067e-01,-5.272713399774541648e-02,-9.855046171222814344e-01,1.161785984944732490e+03
-1.175816648059199832e+00,9.092223356667506806e+00,4.689426579048454613e+00,0.000000000000000000e+00,-8.566789209254577209e-02,-9.963227450298078880e-01,1.168331370245002518e+03
-1.389208790166662322e+00,9.378000162644799076e+00,4.516564861186383339e+00,1.285786141938705940e-01,-2.719340370846380361e-01,-9.536862269361012778e-01,1.173990410582729510e+03
-1.864386252580223280e+00,9.614172245532248695e+00,4.251429851737751342e+00,2.503366853779034340e-01,-4.437752673283521521e-01,-8.604609555711688618e-01,1.180535795882999537e+03
-2.467844326216273032e+00,9.877352652207303407e+00,3.903874466057723147e+00,3.588155418935495278e-01,-5.920762440852891384e-01,-7.215920787300234007e-01,1.187081181183269564e+03
-2.979979911865498376e+00,1.020404620972962562e+01,3.509445973921145434e+00,5.623752087482116746e-01,-6.127230732625684739e-01,-5.552499978176599349e-01,1.192657969127693832e+03
-3.502075326530190047e+00,1.069286866588629081e+01,2.880271453449082308e+00,7.268315228409760742e-01,-5.907656121671474025e-01,-3.502997700310304663e-01,1.199203354427963859e+03
-3.620424077148660214e+00,1.084795192524516416e+01,2.639720273004219742e+00,9.417488280870767170e-01,-3.260227087557061032e-01,-8.256111780415367751e-02,1.201110968549146264e+03
-3.902738043608083185e+00,1.138341838251144900e+01,1.613683532045043334e+00,9.796526068681459254e-01,-0.000000000000000000e+00,2.006957145972041445e-01,1.207656353849416291e+03
-3.926318153639458686e+00,1.144882119541159682e+01,1.467524598633114241e+00,9.796526061767043547e-01,-0.000000000000000000e+00,2.006957144555525374e-01,1.208478945707734283e+03
-3.950452444314406009e+00,1.155566291378785237e+01,1.204003741877617273e+00,9.987454514614225731e-01,-0.000000000000000000e+00,-5.005520137800934660e-02,1.209865610689777441e+03
-3.944588566725475864e+00,1.207169836325763157e+01,-1.043346851856888635e-01,9.546769266714698610e-01,-0.000000000000000000e+00,-2.976406653671949121e-01,1.216410995990047468e+03
-3.869187794209360653e+00,1.229597017335025555e+01,-6.100941103113454167e-01,5.764363129601857150e-01,-1.163998612659590233e-03,-8.171400260715380170e-01,1.218977352460894735e+03
-3.662664568937640475e+00,1.263893403763685086e+01,-1.237491757937660308e+00,5.752485911879960945e-01,-0.000000000000000000e+00,-8.179774186878632225e-01,1.222448549475186155e+03
-3.476845050671672599e+00,1.287039022912783182e+01,-1.573060504709305807e+00,4.805962955018487359e-01,-1.277101077074349611e-01,-8.675916834197472394e-01,1.224607003153273808e+03
-2.723816944029774589e+00,1.354321612367084526e+01,-2.311349981461979120e+00,3.726168030278635968e-01,-2.518787345881435269e-01,-8.931471441836564829e-01,1.231152388453543836e+03
-1.769524398190460257e+00,1.399375913607900301e+01,-2.663488887277759343e+00,2.543044302187356664e-01,-3.690626327466520751e-01,-8.939351374014443685e-01,1.237697773753813863e+03
-1.462498552892291803e+00,1.401146841998757075e+01,-2.669393358059395371e+00,1.289400262683621790e-01,-4.760122386716992282e-01,-8.699338010792002640e-01,1.239535596146444504e+03
-3.413869717060273312e-01,1.370074328570900768e+01,-2.387301357589433515e+00,0.000000000000000000e+00,-5.697617808903234771e-01,-8.218086839622436024e-01,1.246080981446714532e+03
6.690518452610787481e-01,1.317596447126405579e+01,-1.773743846296201854e+00,-0.000000000000000000e+00,8.080491350120935778e-02,9.967289330370694422e-01,1.252626366746984559e+03
1.130001873938797807e+00,1.285710954560146746e+01,-1.257214377088768931e+00,-0.000000000000000000e+00,-9.950635238632340451e-01,9.922995251858043875e-02,1.256439075760270043e+03
1.307225161742366026e+00,1.270732367911345584e+01,-8.911587153034531417e-01,2.229206838642041888e-01,-9.716098918447584332e-01,7.923753387719063845e-02,1.258643091531374012e+03
1.491038035249994786e+00,1.249502382049200300e+01,4.454429358973788916e-02,4.345518631117520347e-01,-8.989505418259458036e-01,5.523225160265772538e-02,1.263537512859439857e+03
1.462940875115774864e+00,1.239023855601043955e+01,1.426813325295890555e+00,6.241757856832267359e-01,-7.807652232759003663e-01,2.842982043620527824e-02,1.270082898159709885e+03
1.364214973201168579e+00,1.241260135447278579e+01,1.947583955421076096e+00,7.821892456938027705e-01,-6.230392834514014710e-01,1.876111518741722993e-04,1.272415143416737919e+03
8.704508488521721654e-01,1.261017941906891870e+01,3.445869016606326163e+00,9.005899213642541978e-01,-4.337605332819871040e-01,-2.806409280370681172e-02,1.278960528717007946e+03
2.111905104041780501e-01,1.287728501470255260e+01,4.930822306675979760e+00,9.733816292891698252e-01,-2.225147058823170321e-01,-5.489453005049291234e-02,1.285505914017277973e+03
-5.492822548441260722e-01,1.312281692642496012e+01,6.337775617528332184e+00,9.968779763718004228e-01,-0.000000000000000000e+00,-7.894491893667314464e-02,1.292051299317548001e+03
-1.337708438211388851e+00,1.324906410445891680e+01,7.611511584694633292e+00,9.968779756680367088e-01,-0.000000000000000000e+00,-7.894491888094058718e-02,1.298596684617818028e+03
-1.394307135594446745e+00,1.324697451098053413e+01,7.699316336023365182e+00,9.968779756681198645e-01,-0.000000000000000000e+00,-7.894491888094715137e-02,1.299084628259237661e+03
-2.065411443894228594e+00,1.302953226333828596e+01,8.770331056209176523e+00,9.968779756681476201e-01,-0.000000000000000000e+00,-7.894491888094937182e-02,1.305630013559507688e+03
-2.560483580737963116e+00,1.258687709727454695e+01,9.660072086812451886e+00,9.968779756681198645e-01,-0.000000000000000000e+00,-7.894491888094715137e-02,1.312175398859777715e+03
-2.809715126866962898e+00,1.198721478592126211e+01,1.036759220139208360e+01,9.968779756680367088e-01,-0.000000000000000000e+00,-7.894491888094058718e-02,1.318720784160047742e+03
-2.778474958981421938e+00,1.142524910534908855e+01,1.082781722418222259e+01,9.968779756678982640e-01,-0.000000000000000000e+00,-7.894491888092960985e-02,1.324381940622837419e+03
-2.452510731086174012e+00,1.083529805622506181e+01,1.120168917774385342e+01,9.968779756678982640e-01,-0.000000000000000000e+00,-7.894491888092960985e-02,1.330927325923107446e+03
-1.910390652084185792e+00,1.039682561596929133e+01,1.145805840302646317e+01,9.192184333439427091e-01,3.800576179213281947e-01,-1.029158824559268659e-01,1.337472711223377473e+03
-1.710300862025555979e+00,1.032142407753041802e+01,1.151849476248311532e+01,7.027111920888708951e-01,7.027076675327708077e-01,-1.113414321112484451e-01,1.339529752796983757e+03
-1.518779920773155823e+00,1.031216999122451661e+01,1.156558507971380578e+01,3.800595688760714519e-01,9.192139309927869206e-01,-1.029488862265934002e-01,1.341451046296087952e+03
-8.971359046806194337e-01,1.047938945960029500e+01,1.170882957331044594e+01,0.000000000000000000e+00,9.968731427319725835e-01,-7.900593205829646581e-02,1.347996431596357979e+03
-3.641815179643884126e-01,1.080064459258255916e+01,1.185547758114938155e+01,-0.000000000000000000e+00,9.968731420280737554e-01,-7.900593200250984049e-02,1.354541816896628006e+03
-2.765881527584816424e-01,1.088945907601853946e+01,1.189123812601559571e+01,-7.027152663281615030e-01,7.027089221158548948e-01,-1.113077950963309581e-01,1.355968761765152522e+03
-3.322137119493866197e-02,1.131725380740430431e+01,1.208275940926874625e+01,-9.968817776734337777e-01,0.000000000000000000e+00,-7.889690326056407466e-02,1.362514147065422549e+03
4.557375773445802164e-02,1.168310044531270364e+01,1.230716297632282696e+01,-7.027007806795227962e-01,-7.026648308841961788e-01,-1.116769818354378524e-01,1.369059532365692576e+03
2.839168389410333393e-02,1.176485462806421900e+01,1.239560163293046280e+01,-0.000000000000000000e+00,-9.968312352734685078e-01,-7.953293898571150988e-02,1.371438322353818876e+03
-9.689460265786671578e-02,1.182450302668183362e+01,1.261242705284963961e+01,-0.000000000000000000e+00,-6.784043507465453704e-01,-7.346873735739525291e-01,1.377983707654088903e+03
-2.574343319994950585e-01,1.175416883466274243e+01,1.270284013039920268e+01,-0.000000000000000000e+00,-0.000000000000000000e+00,-9.999989999999967516e-01,1.384529092954358930e+03
-3.426156109659808102e-01,1.167211942094122712e+01,1.262882612617744726e+01,-0.000000000000000000e+00,-0.000000000000000000e+00,-9.999989992938940198e-01,1.388136004714354613e+03
-3.511360959542703664e-01,1.166002299070627402e+01,1.261043166186154707e+01,-2.505521979751142436e-01,-0.000000000000000000e+00,-9.681020587162835200e-01,1.388555737678094602e+03
-4.489431918618461692e-01,1.144961168077549196e+01,1.216418097700787726e+01,-4.851206873598608027e-01,-0.000000000000000000e+00,-8.744460639149858050e-01,1.395101122978364629e+03
-4.803409591115395672e-01,1.123675260033195578e+01,1.146284080947613937e+01,-6.887413912977812247e-01,-0.000000000000000000e+00,-7.250057212976234178e-01,1.401646508278634656e+03
-4.614354109477202259e-01,1.117167440645212828e+01,1.113971064370055331e+01,-8.484245421739801118e-01,-0.000000000000000000e+00,-5.293144587466150908e-01,1.403961155374455302e+03
-3.290489720236134397e-01,1.103493557722536522e+01,1.004255102786186171e+01,-9.539833563399467975e-01,-0.000000000000000000e+00,-2.998562252613691248e-01,1.410506540674725329e+03
-1.279067532231655535e-01,1.095667753073711381e+01,8.791218701616097420e+00,-9.986838752832339905e-01,-0.000000000000000000e+00,-5.126906719567525528e-02,1.417051925974995356e+03
1.372929809351736141e-01,1.094731345923038468e+01,7.438181529060979180e+00,-9.796745246597445833e-01,-0.000000000000000000e+00,2.005886979235721734e-01,1.423597311275265383e+03
4.025476699411787984e-01,1.100079731089776303e+01,6.273601994058496167e+00,-9.502337949370633918e-01,-2.659020387987073297e-01,-1.623263402045621584e-01,1.429009903517570365e+03
7.613888943221506223e-01,1.113253462500480317e+01,4.845162807131041305e+00,-7.276310544702174754e-01,-4.777519535019161268e-01,-4.922439633936576686e-01,1.435555288817840392e+03
1.134432674993748558e+00,1.131762405729989673e+01,3.428167637938600798e+00,-3.571165318404133648e-01,-5.924852232853634604e-01,-7.220990533689588542e-01,1.442100674118110419e+03
1.496139346368142498e+00,1.154290441087894514e+01,2.055824223718172306e+00,-9.796745246597435841e-01,-0.000000000000000000e+00,2.005886979235719514e-01,1.448646059418380446e+03
1.825591108934357276e+00,1.179481974516399490e+01,7.540715069474107635e-01,-9.796745239680101358e-01,-0.000000000000000000e+00,2.005886977819393013e-01,1.455191444718650473e+03
1.965979826943606179e+00,1.192565514860675613e+01,1.535883164317343452e-01,-9.546707119062373126e-01,-0.000000000000000000e+00,-2.976605983800955091e-01,1.458405581212226934e+03
2.203378992554039240e+00,1.219460412197197741e+01,-9.872796925768353438e-01,-5.741094903284836848e-01,1.828998376288161953e-03,-8.187752731239562598e-01,1.464950966512496962e+03
2.386975145713549740e+00,1.245109077433859923e+01,-2.040001258259013905e+00,-5.759863544736036900e-01,0.000000000000000000e+00,-8.174580838484853951e-01,1.471496351812766989e+03
2.509186262003168189e+00,1.267920568665528513e+01,-3.000463644309074862e+00,-7.142513392294805863e-01,-6.601633892675005111e-01,-2.324377849664012174e-01,1.478041737113037016e+03
2.537125914373454361e+00,1.279260485660031499e+01,-3.496978453670348763e+00,-8.710707304291974706e-01,-4.668868046154087126e-01,-1.524811275728920612e-01,1.481816523951514682e+03
2.488138255158744983e+00,1.298510391560000699e+01,-4.233409043204895639e+00,-9.683599515652910883e-01,-2.417025710099443281e-01,-6.210371463880428461e-02,1.488361909251784709e+03
2.307280757213603817e+00,1.322567714791453497e+01,-4.803265719232372000e+00,-9.994701503665153197e-01,-0.000000000000000000e+00,3.251797235699518951e-02,1.494907294552054736e+03
1.972471215947681600e+00,1.354171079020955482e+01,-5.179440903057926704e+00,-9.451980947473781480e-01,-3.196831800882899977e-01,6.634173690280423252e-02,1.501423043705973669e+03
1.485296250761629855e+00,1.390406329906998728e+01,-5.378181229176647982e+00,-7.904637783949873819e-01,-6.053881033602401818e-01,9.311422746423757280e-02,1.507968429006243696e+03
8.644233150121958253e-01,1.424820758441625124e+01,-5.429765479052058197e+00,-5.517134353490490417e-01,-8.267481538648483452e-01,1.099898874308825047e-01,1.514513814306513723e+03
4.294148580954642580e-01,1.440783817134750500e+01,-5.393142240590741210e+00,-2.883779608520256610e-01,-9.545120556963128111e-01,7.578183968180839114e-02,1.518374598924670863e+03
-3.990329875110480984e-01,1.456698832341990624e+01,-5.253050489022282221e+00,-0.000000000000000000e+00,-9.993865585865699952e-01,3.499294952973203837e-02,1.524919984224940890e+03
-6.207542267610880460e-01,1.457206267188230520e+01,-5.208071685416638452e+00,1.948478320328553282e-01,-9.799898064277482446e-01,4.064851352334198503e-02,1.526550447678494493e+03
-1.542885183706162566e+00,1.443684178499493775e+01,-5.024802355701200263e+00,3.822185884292176317e-01,-9.229869469828594353e-01,4.474423270336196773e-02,1.533095832978764520e+03
-2.450415794263524294e+00,1.413931312886075986e+01,-4.894800937410546560e+00,5.549221137406139537e-01,-8.305653956271448202e-01,4.712293783317058476e-02,1.539641218279034547e+03
-2.571124022205897752e+00,1.407449555695951737e+01,-4.887166818998124107e+00,7.063310842374104226e-01,-7.062717210825888436e-01,4.769334796965810086e-02,1.540574001202621048e+03
-3.311702409587236495e+00,1.346922432039902340e+01,-4.912803754183199700e+00,8.306353242923426583e-01,-5.548755547830824808e-01,4.643357344951343918e-02,1.547119386502891075e+03
-3.869842398838605479e+00,1.272835283609097878e+01,-5.009954015078371903e+00,9.230647686107378291e-01,-3.821865658206176630e-01,4.339195613355865261e-02,1.553664771803161102e+03
-4.181758950076678083e+00,1.189769135621854623e+01,-5.129218895419891844e+00,9.800725134990575516e-01,-1.948315232645941864e-01,3.868521458135371766e-02,1.560210157103431129e+03
-4.191549307118779488e+00,1.175952125260000258e+01,-5.146650052386305241e+00,9.994709311547945729e-01,-0.000000000000000000e+00,3.249396525059620316e-02,1.561251238058522858e+03
-4.005560022407077092e+00,1.089570540776437646e+01,-5.225456376783101931e+00,9.820284095650514411e-01,1.800874135817275845e-01,5.645109632716139442e-02,1.567796623358792885e+03
-3.581411488822198397e+00,1.008131395908008976e+01,-5.249890051992739615e+00,9.318748188071136473e-01,3.541760852030483853e-01,7.852784693137908334e-02,1.574342008659062913e+03
-3.512386808066880750e+00,9.996992480675068293e+00,-5.247394545816137068e+00,8.506807646955678592e-01,5.164672500191499482e-01,9.798885770682111418e-02,1.575088175139991336e+03
-2.775523758490156201e+00,9.349076103838855900e+00,-5.168821230934232958e+00,7.661502860256094172e-01,6.357143970869423288e-01,9.422815163708361808e-02,1.581633560440261363e+03
-1.962726308494258554e+00,8.822769383788502395e+00,-5.025723673881744347e+00,6.652399300056085485e-01,7.413702990537747173e-01,8.845289824977395354e-02,1.588178945740531390e+03
-1.873141814525351556e+00,8.779439113022254659e+00,-5.008046113174230207e+00,5.501071026434939393e-01,8.311760979687021766e-01,8.078656935674166650e-02,1.588887797873073396e+03
-1.076313731613049995e+00,8.518049956174202464e+00,-4.879857940591273646e+00,4.232132747563861486e-01,9.032117991556077863e-01,7.139306645413348584e-02,1.595433183173343423e+03
-4.790995913097337855e-01,8.438800254488745267e+00,-4.877744536387889518e+00,2.872713590672726913e-01,9.559373181955720389e-01,6.047321673461852898e-02,1.600887889330697590e+03
-2.963138907734617633e-01,8.460938351146142011e+00,-4.937945349844569343e+00,1.451877120484966754e-01,9.882254066599178710e-01,4.826047972536643554e-02,1.602857601602921704e+03
1.872698974928800608e-01,8.683834832577623786e+00,-5.361887322272301581e+00,0.000000000000000000e+00,9.993857527529492746e-01,3.501595629960892880e-02,1.609402986903191731e+03
5.232427884506294369e-01,9.013439339679896634e+00,-5.967173887845238944e+00,-2.689137579079395324e-01,9.253645835765438310e-01,2.671774284452785309e-01,1.615948372203461759e+03
6.821999896302525235e-01,9.395663489193482931e+00,-6.660798097054736466e+00,-5.024135394086214346e-01,7.294793312443546007e-01,4.641535744837311239e-01,1.622493757503731786e+03
6.709146872411978491e-01,9.515433945101085200e+00,-6.876802365635553471e+00,-4.064941449545114716e-01,6.246136357190450461e-01,6.667970577263045984e-01,1.624493894945130023e+03
4.469473593990399007e-01,9.885925872032290229e+00,-7.536653951711797639e+00,-2.856722249030643201e-01,4.814830239229320741e-01,8.285912608724884665e-01,1.631039280245400050e+03
1.420105579303576615e-01,1.013666909269839067e+01,-7.969775920851384754e+00,-1.473495533771775612e-01,3.088559511010720571e-01,9.396244518904808274e-01,1.636281754133308368e+03
-1.169703793479316689e-02,1.020332814655686349e+01,-8.084354460158087008e+00,-0.000000000000000000e+00,1.173078338872849818e-01,9.930945937372316346e-01,1.638253231754998524e+03
-6.394892360431156941e-01,1.030571962173786460e+01,-8.292307641367624882e+00,1.270998419732385096e-03,1.158168560016881454e-01,9.932687650413736247e-01,1.644798617055268551e+03
-1.217607286573976211e+00,1.026602222223658423e+01,-8.315541632855602217e+00,-9.359985444617109109e-04,-1.157798199548898399e-01,9.932734553955192558e-01,1.649936422859968388e+03
-2.030226480463628747e+00,1.007598474143483180e+01,-8.164414505763385677e+00,1.182598423654860065e-01,0.000000000000000000e+00,9.929816764045947819e-01,1.656481808160238415e+03
-2.492830797684339572e+00,9.943006648062260311e+00,-7.971496646780418693e+00,4.814962663038262480e-01,2.840893690939613747e-01,8.291275992901001590e-01,1.660148686695825063e+03
-3.244593650085779934e+00,9.808457512011468538e+00,-7.433232582864034654e+00,7.294162694263679469e-01,5.001404990659293892e-01,4.667005325589550502e-01,1.666694071996095090e+03
-3.733695055126055262e+00,9.902395580844629563e+00,-6.871768071019458191e+00,5.179124917774815540e-01,7.186022948425190293e-01,4.640855445973440796e-01,1.671978387122397407e+03
-4.184595431824051914e+00,1.030172690685370718e+01,-6.091012534716107929e+00,6.831547036720071464e-01,6.158872578637375472e-01,3.924035377677195235e-01,1.678523772422667435e+03
-4.226306148373259575e+00,1.038218262895443900e+01,-5.985813530369245683e+00,8.190255222676474656e-01,4.866929115819565443e-01,3.038506272673337505e-01,1.679380621676957617e+03
-4.389357389048376135e+00,1.116524048787834289e+01,-5.198964497677134311e+00,9.196833622266959996e-01,3.365737863078380188e-01,2.022340219010784479e-01,1.685926006977227644e+03
-4.326310181242726927e+00,1.206309353474891921e+01,-4.472968480057029517e+00,9.808005541234005031e-01,1.719840435558081249e-01,9.192258587322346686e-02,1.692471392277497671e+03
-4.280769348708466815e+00,1.219598841340073037e+01,-4.380290089156278377e+00,9.997494087566204390e-01,0.000000000000000000e+00,-2.234098678772858740e-02,1.693401776851197610e+03
-3.655814895415639754e+00,1.309922357742689236e+01,-3.814635588277331291e+00,9.420967208487663891e-01,-3.323399494299853485e-01,-4.474289417712860872e-02,1.699947162151467637e+03
-2.698256673626585389e+00,1.391630230726253359e+01,-3.351967579054765611e+00,7.767853432613935905e-01,-6.267013566998326235e-01,-6.203176610225660109e-02,1.706492547451737664e+03
-1.528838377871843290e+00,1.468443838002794699e+01,-2.972434910573875211e+00,5.227064052948828810e-01,-8.494460335494309344e-01,-7.223191781870144657e-02,1.713037932752007691e+03
-1.426388375421760113e+00,1.475059108225123694e+01,-2.944482472545101981e+00,1.704607408403389646e-01,-9.224666968972000669e-01,3.464048627651763468e-01,1.713584268264123693e+03
-2.277192583490520172e-01,1.559986273380376431e+01,-2.622595883489655666e+00,-2.337188606231846433e-01,-7.144425233560307564e-01,6.595038855147995482e-01,1.720129653564393720e+03
8.666095928992778585e-01,1.651290229353122641e+01,-2.288343115823809448e+00,-5.666919696781056448e-01,-2.887516348174642422e-01,7.716739628191346956e-01,1.726675038864663748e+03
1.778495015219072606e+00,1.748235054426629986e+01,-1.926125514507798231e+00,-7.270129289259051886e-01,2.249116686481734684e-01,6.487410442402066213e-01,1.733220424164933775e+03
2.380474056264450855e+00,1.837109894332309423e+01,-1.586136275571094822e+00,-7.549865093677484706e-01,1.733702037470828128e-01,6.324050467233119921e-01,1.738973867391777048e+03
2.833694027372277713e+00,1.939716907233326637e+01,-1.155901150753937179e+00,-7.801621746499253218e-01,1.211862402296333824e-01,6.137254079961460551e-01,1.745519252692047075e+03
3.071195632446926727e+00,2.040308492851365330e+01,-6.506930890362249142e-01,-8.024466305158267643e-01,6.855315426832334080e-02,5.927713473243773068e-01,1.752064637992317103e+03
3.107281422834574869e+00,2.135263706285807217e+01,-3.810743433475539260e-02,-8.217572942052846496e-01,1.566598654472483448e-02,5.696205107616943986e-01,1.758610023292587130e+03
3.018773904699362465e+00,2.184783698569350818e+01,3.793235557074607356e-01,-9.337385358150761538e-01,-1.629046496234555497e-01,3.187356614275881350e-01,1.762352992655723710e+03
2.687559933538089751e+00,2.262081834211338816e+01,1.190200529305331489e+00,-9.454636256646419268e-01,-3.239840938367657408e-01,3.362795692042198914e-02,1.768898377955993737e+03
2.200974917066517822e+00,2.329987002178288336e+01,2.010109181295895997e+00,-8.556736587306996711e-01,-4.502771307374446308e-01,-2.550903669099146009e-01,1.775443763256263765e+03
1.580085037848264040e+00,2.388275600599519066e+01,2.755870759993482189e+00,-6.740094874137260161e-01,-5.282236090634091497e-01,-5.164194319595574179e-01,1.781989148556533792e+03
8.457955356299113880e-01,2.436656927057655864e+01,3.344315315036342717e+00,-4.199765354729848021e-01,-5.494543922603116748e-01,-7.223002010792790584e-01,1.788534533856803819e+03
3.380122982586516306e-02,2.475735565848086495e+01,3.709279326855597247e+00,-2.042315232335925046e-01,-5.918490498460435845e-01,-7.797449500413348167e-01,1.795079919157073846e+03
-6.191171402679993691e-02,2.479352505073177682e+01,3.731050998144612940e+00,2.206062339442155240e-02,-6.036787175315465603e-01,-7.969211597742492659e-01,1.795822939813491757e+03
-8.912529440516536727e-01,2.505815029273997396e+01,3.741231182416911771e+00,2.472134941618859549e-01,-5.843324823401598866e-01,-7.729418078919988444e-01,1.802368325113761784e+03
-1.642346115071461776e+00,2.528872236798705231e+01,3.478913256257839315e+00,4.595995113955018141e-01,-5.348094314391391713e-01,-7.090452462074303686e-01,1.808913710414031812e+03
-2.228391060688985181e+00,2.549845881828835203e+01,2.957568513293176160e+00,6.991536932632081980e-01,-5.387427636396280306e-01,-4.700407937809575332e-01,1.815269220276476744e+03
-2.640890727378558456e+00,2.569951442946819853e+01,2.169719943448326305e+00,8.104382989112270952e-01,-5.138683646896006207e-01,-2.812953384420510683e-01,1.821814605576746771e+03
-2.680646000441008869e+00,2.573366136238411173e+01,1.982405037953353766e+00,8.823129312593538387e-01,-4.640056350760721204e-01,-7.887117312940046532e-02,1.823075599560264436e+03
-2.677221172293280826e+00,2.586188216322442912e+01,8.688112602231348180e-01,9.112825400647043272e-01,-3.915793289350430473e-01,1.273882307165139227e-01,1.829620984860534463e+03
-2.476202506394186820e+00,2.589115524289205439e+01,-3.301052969287782135e-01,8.959384553113911576e-01,-3.001114013050421581e-01,3.274529448674227683e-01,1.836166370160804490e+03
-2.111359204747877083e+00,2.577992233958742574e+01,-1.491447137199866768e+00,8.370268619317778880e-01,-1.940497361591983494e-01,5.115943044079622748e-01,1.842711755461074517e+03
-1.707247038911543724e+00,2.553139706286479793e+01,-2.337209478822728670e+00,6.186673437187470981e-01,-1.543592791598510372e-01,7.703388415203118456e-01,1.848176137346606993e+03
-1.171759359735440098e+00,2.498939470476000579e+01,-3.120606624715541066e+00,3.284154996414213046e-01,-9.673147929840232584e-02,9.395660064676385481e-01,1.854721522646877020e+03
-6.687216505610878992e-01,2.419873048451407271e+01,-3.651989778343052606e+00,0.000000000000000000e+00,-2.786296520869569956e-02,9.996107518284006455e-01,1.861266907947147047e+03
-5.613316776784061934e-01,2.394262099349533912e+01,-3.739851303286189754e+00,-0.000000000000000000e+00,-1.351045013641636108e-02,9.999077295901573903e-01,1.862969455417602603e+03
-2.725506967355796895e-01,2.281612591341492902e+01,-3.931604814594511943e+00,-0.000000000000000000e+00,8.448529346601219708e-04,9.999986430891140143e-01,1.869514840717872630e+03
-2.383812698493107396e-01,2.252946927955198220e+01,-3.950230989140523175e+00,-0.000000000000000000e+00,1.519999199338746380e-02,9.998834733102782701e-01,1.871052893727382980e+03
-2.559168045325598273e-01,2.126837978721500377e+01,-3.944822496824727853e+00,-0.000000000000000000e+00,1.581799306617678522e-02,9.998738871681877027e-01,1.877598279027653007e+03
-4.695297542634557786e-01,2.003296927560667129e+01,-3.856260098020443561e+00,-0.000000000000000000e+00,1.643598759290812797e-02,9.998639194700005284e-01,1.884143664327923034e+03
-5.980301021405579620e-01,1.968437520289051790e+01,-3.809535201245890956e+00,-0.000000000000000000e+00,1.705397560600646970e-02,9.998535698102263281e-01,1.886141432716269264e+03
-1.226978293558311117e+00,1.869992957003797684e+01,-3.594021796160955073e+00,-0.000000000000000000e+00,2.016697227361248165e-02,9.997956254396260789e-01,1.892621027517892571e+03
-1.590207392162498401e+00,1.835587442727183927e+01,-3.464175834554064526e+00,-0.000000000000000000e+00,2.016697226524963651e-02,9.997956250250304988e-01,1.895443756594243041e+03
-2.575258255036252830e+00,1.778069438718419804e+01,-3.044093404261223768e+00,3.400140207114686342e-01,1.227264034429659811e-01,9.323769064163389686e-01,1.901989141894513068e+03
-3.562962131452455328e+00,1.743017357565284797e+01,-2.442036857660991878e+00,6.355972790763313451e-01,2.092487626604288553e-01,7.431211571178032438e-01,1.908534527194783095e+03
-3.645923814572130883e+00,1.741361047003338669e+01,-2.371033835350404129e+00,6.865937718539617540e-01,2.117124940274092426e-01,6.955320354324947552e-01,1.909155685568748140e+03
-4.311330130967530039e+00,1.739578358529596613e+01,-1.525115050137179518e+00,7.342455860396148726e-01,2.131448798310290049e-01,6.445546366064833776e-01,1.915410774006160409e+03
-4.742648944965607072e+00,1.752175117538633131e+01,-4.803312787307595921e-01,8.784582088458006144e-01,2.322851467203935205e-01,4.175557279269816457e-01,1.921956159306430436e+03
-4.817114781339693508e+00,1.771782925567333677e+01,6.445845925521661579e-01,9.588137003544235926e-01,2.345400767365141692e-01,1.602037465768255398e-01,1.928501544606700463e+03
-4.499795512958399968e+00,1.789683161149014623e+01,1.774176017794728111e+00,9.694708420289608330e-01,2.197457559689778295e-01,-1.087937920541829778e-01,1.935046929906970490e+03
-3.848500852502663605e+00,1.796676957222454618e+01,2.847550954556634650e+00,9.096549585286868300e-01,1.889776214611892102e-01,-3.698828395740911268e-01,1.941592315207240517e+03
-3.246848811046553873e+00,1.788545216614424760e+01,3.500024125578476752e+00,7.837142204520656241e-01,1.444722824516010973e-01,-6.040842493103670829e-01,1.945986311538626524e+03
-2.188848151544874110e+00,1.749831818109765535e+01,4.327930146045633641e+00,6.008035540478735559e-01,8.946493359380597310e-02,-7.943734103688149251e-01,1.952531696838896551e+03
-1.435315013924370886e+00,1.702226237340424220e+01,4.757479742957650970e+00,0.000000000000000000e+00,2.192496970815314972e-02,-9.997586187194160701e-01,1.956877363433620303e+03
-2.895369079486097008e-01,1.595631856617413113e+01,5.209133558557568655e+00,-1.763105392161087026e-01,1.023389095958336520e-01,-9.789991528830899181e-01,1.963422748733890330e+03
8.365002313094748176e-01,1.457638203563387869e+01,5.477380106385911773e+00,-3.459243091233996648e-01,1.788657296228278459e-01,-9.210545169129177312e-01,1.969968134034160357e+03
1.931094803669674009e+00,1.294254594913056344e+01,5.586864824408641184e+00,-5.023989003696155420e-01,2.485987252032349770e-01,-8.281256056519114006e-01,1.976513519334430384e+03
2.984388572102051995e+00,1.111517842722201088e+01,5.562251991622271241e+00,-6.397909620977979550e-01,3.088892382439365480e-01,-7.037421142127127105e-01,1.983058904634700411e+03
3.988369208168488278e+00,9.154879932526174713e+00,5.428221797636750168e+00,-7.528819469662537678e-01,3.574472606276719588e-01,-5.526284735728922426e-01,1.989604289934970438e+03
4.936872454549090961e+00,7.122440616666055213e+00,5.209467410841270407e+00,-8.373763278891482864e-01,3.924284159767572611e-01,-3.805244063476151961e-01,1.996149675235240466e+03
5.825583904424925130e+00,5.078797632056722300e+00,4.930692045414276414e+00,-8.900647571932458479e-01,4.125040156445483608e-01,-1.939669174909469107e-01,2.002695060535510493e+03
6.652040397527533067e+00,3.084992415284427469e+00,4.616606027439041249e+00,-9.089459700192471514e-01,4.169115275727455772e-01,-4.199995240735530157e-05,2.009240445835780520e+03
7.415226073592221745e+00,1.186416029224969471e+00,4.286873906201665640e+00,-9.089459693774909477e-01,4.169115272783875392e-01,-4.199995237770147091e-05,2.015785831136050547e+03
8.114521872492488797e+00,-6.029247210052254280e-01,3.951062165034401108e+00,-9.089459693775394644e-01,4.169115272784098547e-01,-4.199995237770372063e-05,2.022331216436320574e+03
8.749141812436338483e+00,-2.284689105281895394e+00,3.613688040198359097e+00,-9.089459693775798765e-01,4.169115272784283954e-01,-4.199995237770558410e-05,2.028876601736590601e+03
9.318215617642087167e+00,-3.860483509426225091e+00,3.279268939620727963e+00,-9.089459693776122950e-01,4.169115272784432169e-01,-4.199995237770707488e-05,2.035421987036860628e+03
9.820789550218171016e+00,-5.331859410552537426e+00,2.952321907432674752e+00,-9.089459693776364979e-01,4.169115272784542636e-01,-4.199995237770819974e-05,2.041967372337130655e+03
9.942092036432995883e+00,-5.706037738845057383e+00,2.865618757019365859e+00,-9.089459693776527072e-01,4.169115272784617576e-01,-4.199995237770894513e-05,2.043757430129056502e+03
1.032628483064406666e+01,-6.971860589789947937e+00,2.561373957622182562e+00,-9.089459693776607008e-01,4.169115272784654214e-01,-4.199995237770931105e-05,2.050302815429326529e+03
1.064265263673949669e+01,-8.136090025205675147e+00,2.274866018868137107e+00,-9.089459693776607008e-01,4.169115272784654214e-01,-4.199995237770931105e-05,2.056848200729596556e+03
1.088997640035776371e+01,-9.200101537962352083e+00,2.010606654483207301e+00,-9.089459693776527072e-01,4.169115272784617576e-01,-4.199995237770894513e-05,2.063393586029866583e+03
1.106695730496028496e+01,-1.016520726539291708e+01,1.773104927114075746e+00,-9.089459693776364979e-01,4.169115272784543191e-01,-4.199995237770819297e-05,2.069938971330136610e+03
1.117221770286472982e+01,-1.103265404854157694e+01,1.566866713599356586e+00,-9.089459693776122950e-01,4.169115272784432724e-01,-4.199995237770708166e-05,2.076484356630406637e+03
1.120430206478036261e+01,-1.180362150855919445e+01,1.396394170524927425e+00,-9.089459693775798765e-01,4.169115272784283954e-01,-4.199995237770558410e-05,2.083029741930676664e+03
1.116167794773749833e+01,-1.247922014057244411e+01,1.266185200110967468e+00,-9.089459693775394644e-01,4.169115272784098547e-01,-4.199995237770372063e-05,2.089575127230946691e+03
1.104273698130146997e+01,-1.306048942535182711e+01,1.180732916478214767e+00,-9.089459693774909477e-01,4.169115272783875392e-01,-4.199995237770147091e-05,2.096120512531216718e+03
1.084579587195931971e+01,-1.354839595910168271e+01,1.144525112340869066e+00,-9.089459693774344373e-01,4.169115272783616155e-01,-4.199995237769885527e-05,2.102665897831486745e+03
1.057951544410412126e+01,-1.394407889218966545e+01,1.152035857054773738e+00,-8.003182925182337204e-01,5.838226823022186762e-01,1.365273096903888150e-01,2.109211283131756772e+03
1.027331049419445108e+01,-1.424952334438714630e+01,1.177718284087589051e+00,-6.450235676143351027e-01,7.166907922685187282e-01,2.651356360443319349e-01,2.115756668432026800e+03
9.966912771822675765e+00,-1.446795295703993389e+01,1.186015494990636965e+00,-4.521170907604830647e-01,8.077682413246175530e-01,3.782837619438731980e-01,2.122302053732296827e+03
9.712412416427879336e+00,-1.459728000975518647e+01,1.144015182786282780e+00,-2.328473210919004555e-01,8.517442242125584650e-01,4.693739464237127179e-01,2.128530846178800857e+03
9.522487603521883059e+00,-1.465612790564135182e+01,1.012758804146340230e+00,-0.000000000000000000e+00,8.460544322754661728e-01,5.330946422796267736e-01,2.135076231479070884e+03
9.448960865144783838e+00,-1.464452350036451378e+01,7.591946719194323512e-01,-0.000000000000000000e+00,5.332983833111852867e-01,8.459260217988052721e-01,2.141621616779340911e+03
9.454687556408993387e+00,-1.463726038008163677e+01,7.220722116703996996e-01,-4.782159883955374585e-02,5.877140329449598299e-01,8.076529639408487338e-01,2.142313443644631661e+03
9.545563001460269703e+00,-1.457286463613396776e+01,5.016094825304238114e-01,-9.532217724850124141e-02,6.381844674828670572e-01,7.639582894285800174e-01,2.145499142418664633e+03
9.845148212479923444e+00,-1.433332182806075039e+01,-8.689892885405464673e-02,-1.421828803712129052e-01,6.843708963390706668e-01,7.151353052196920412e-01,2.152044527718934660e+03
1.016060873777876772e+01,-1.394904385710201389e+01,-7.604300084272815896e-01,-1.880891480609546973e-01,7.259632837153553453e-01,6.615117406946473544e-01,2.158589913019204687e+03
1.030761439101791765e+01,-1.361874136720696526e+01,-1.198504594124478739e+00,-2.327328258591808419e-01,7.626824293278462452e-01,6.034475484743073714e-01,2.162754429491485098e+03
1.039465515317072075e+01,-1.300865331920574519e+01,-1.847925745672699405e+00,-6.673917866736809312e-01,4.458452540938268593e-01,5.964966156511249951e-01,2.169299814791755125e+03
1.026976913897774502e+01,-1.236369105905981769e+01,-2.418477229823841501e+00,-9.089321683887600090e-01,-2.999997255206137291e-06,4.169416185267190711e-01,2.175845200092025152e+03
1.016037802235413601e+01,-1.219213221263820479e+01,-2.546129996886471236e+00,-8.246267345256375059e-01,-1.310669840483918991e-01,5.502819226532177366e-01,2.177622345709097772e+03
9.479188617370928327e+00,-1.158930556694838820e+01,-2.859073991287669703e+00,-7.056334856241519571e-01,-2.566176295213646874e-01,6.604746597605208880e-01,2.184167731009367799e+03
8.586787017896616803e+00,-1.101510737817671526e+01,-2.939962017169903241e+00,-5.569578689444630859e-01,-3.713736708399452691e-01,7.428845999405581102e-01,2.190713116309637826e+03
7.575397937478795640e+00,-1.047032171297186132e+01,-2.785866638144443019e+00,-3.848539055432659284e-01,-4.705079199740032636e-01,7.940451930658688484e-01,2.197258501609907853e+03
6.537155691986670014e+00,-9.956276289114208922e+00,-2.434225868666069825e+00,-1.965611168171250978e-01,-5.498503167912235368e-01,8.118043831375582053e-01,2.203803886910177880e+03
5.620147761732060765e+00,-9.505838268208078645e+00,-1.952458646531820330e+00,-0.000000000000000000e+00,-6.060633378291028217e-01,7.954151309476781284e-01,2.209961793825262248e+03
4.791107445276264087e+00,-9.073160011622315224e+00,-1.321971184536029131e+00,8.882125171551077928e-06,-7.713915287844564928e-01,6.363592611423163348e-01,2.216507179125532275e+03
4.177118571353787502e+00,-8.707739857662733840e+00,-6.268157111535769266e-01,1.729676262671682438e-05,-8.961196055263010996e-01,4.438103787578254744e-01,2.223052564425802302e+03
3.892896105770764947e+00,-8.480751297222827390e+00,-3.860704346889525657e-02,2.480103255290656638e-05,-9.736828754675234121e-01,2.279027367255803405e-01,2.228535470921359774e+03
3.880644097494795552e+00,-8.331370198092097112e+00,5.939290737119471419e-01,3.099996898509656018e-05,-9.999989995192437586e-01,0.000000000000000000e+00,2.234736411398093878e+03
4.209808019613405783e+00,-8.285044304897404288e+00,1.211416965255580180e+00,1.016999271930584155e-02,-9.999472841380963040e-01,-0.000000000000000000e+00,2.241281796698363905e+03
4.775698345305172232e+00,-8.325018429473040271e+00,1.720063334330048210e+00,2.499997267777621953e-05,-7.954151306986420034e-01,-6.060633376393507188e-01,2.247170543447848104e+03
5.624761162701519268e+00,-8.439789847179291371e+00,2.243540374122874770e+00,1.666664845870479583e-05,-7.954181604951199303e-01,-6.060593603488247938e-01,2.253715928748118131e+03
6.589897872276342383e+00,-8.614714350137127497e+00,2.757348031926134091e+00,8.333325472958269948e-06,-7.954211907768682366e-01,-6.060553834289674757e-01,2.260261314048388158e+03
7.057526950509041441e+00,-8.721594785838620467e+00,3.015227769062549523e+00,0.000000000000000000e+00,-7.954242209842218303e-01,-6.060514064505511111e-01,2.263384574859697750e+03
7.973158871420426230e+00,-8.989281463992135457e+00,3.605364598848552760e+00,-1.171666146432118888e-01,-7.844926909373787227e-01,-6.089673244713829092e-01,2.269929960159967777e+03
8.478216938225164867e+00,-9.190204515093466142e+00,4.027058724815496760e+00,-2.327097549695938683e-01,-7.626911969286643833e-01,-6.034453646056531229e-01,2.274173040800676063e+03
9.067253946666209430e+00,-9.545408180175259716e+00,4.722491911825911437e+00,-3.791170355957511617e-01,-7.399909824171119199e-01,-5.555912339659507815e-01,2.280718426100946090e+03
9.441853106088361258e+00,-9.962856310986063946e+00,5.405745973165445584e+00,-5.163343074801883814e-01,-6.993530620110968155e-01,-4.942693370742496928e-01,2.287263811401216117e+03
9.469226460589061034e+00,-1.004339280578682647e+01,5.509941716650986976e+00,-3.822654378394608754e-01,-5.267749231294142076e-01,-7.591964932724269977e-01,2.288346293910029544e+03
9.435111501200578843e+00,-1.059144194969396580e+01,6.047478431238868524e+00,-2.031105863800985178e-01,-2.920667472796134034e-01,-9.345807107124040058e-01,2.294891679210299571e+03
9.251703195100105859e+00,-1.108576072149981329e+01,6.369150059402020503e+00,-0.000000000000000000e+00,-2.291096583325372138e-02,-9.997365091093977085e-01,2.300417285006516522e+03
8.876436126320143671e+00,-1.166023897908379503e+01,6.555838478141243542e+00,-0.000000000000000000e+00,-7.370517615494355176e-03,-9.999718373191328613e-01,2.306962670306786549e+03
8.347183452215606536e+00,-1.214604064166643305e+01,6.539926968561826648e+00,-0.000000000000000000e+00,8.171710922508092917e-03,-9.999656109595502773e-01,2.313508055607056576e+03
8.320271482781775418e+00,-1.216263790559637137e+01,6.534702055238653884e+00,-0.000000000000000000e+00,2.371197228132256377e-02,-9.997178313559172969e-01,2.313785461999990275e+03
7.584984974487430698e+00,-1.242967840013521119e+01,6.320581164818995568e+00,2.467465232155975352e-01,3.802238382244655934e-01,-8.913719684441564484e-01,2.320330847300260302e+03
6.717868463726017758e+00,-1.248990217867083885e+01,5.969704362664044694e+00,4.442119517835491083e-01,6.607960370785164184e-01,-6.049978010494152514e-01,2.326876232600530329e+03
6.234683213269329727e+00,-1.241101188666434929e+01,5.754921049506387831e+00,5.529576574120685928e-01,8.093914985370842530e-01,-1.977908774575835027e-01,2.330114591040249707e+03
5.164200098915185499e+00,-1.204100205212025543e+01,5.273365836655144356e+00,6.675084704846109274e-01,5.370364989596068117e-01,-5.157734392314420324e-01,2.336659976340519734e+03
4.009610927120641044e+00,-1.151059843150895468e+01,4.769676646862746061e+00,6.562924008750601335e-01,1.634971751996023293e-01,-7.365778697841200984e-01,2.343205361640789761e+03
2.775713015408743711e+00,-1.089744684578279532e+01,4.271439894454782227e+00,5.214227561253226284e-01,-2.408469375197301587e-01,-8.186018947465673046e-01,2.349750746941059788e+03
1.464335740897350302e+00,-1.027938625475015932e+01,3.806788438618552206e+00,2.883107282158150486e-01,-5.998124345700049931e-01,-7.463912963933344580e-01,2.356296132241329815e+03
8.056422132417688509e-02,-9.715981492002262243e+00,3.382483362701849128e+00,0.000000000000000000e+00,8.052988517099525165e-03,-9.999665741297627530e-01,2.362841517541599842e+03
2.510580360223077165e-02,-9.696062021528256025e+00,3.366652310387010960e+00,-2.473743915918704961e-01,-3.123181846567903430e-01,-9.172029556856333699e-01,2.363095694385508978e+03
-1.436908671723414965e+00,-9.236212886235273700e+00,2.945824840663541888e+00,-4.525265025555595955e-01,-5.793823631079422221e-01,-6.778892548232221538e-01,2.369641079685779005e+03
-2.936164341636035235e+00,-8.859537059811430026e+00,2.469790007817290967e+00,7.525789214886245970e-01,9.257286733498956699e-02,-6.519610656828066508e-01,2.376186464986049032e+03
-4.107343158097283897e+00,-8.644107249780033086e+00,2.027844390484990544e+00,5.877008879074639980e-01,-6.566525199607052832e-01,-4.726659860651196143e-01,2.381263921751987255e+03
-5.582331594094820382e+00,-8.496843587962525035e+00,1.362615665226232453e+00,5.805297106698698029e-02,-9.983125024511562140e-01,-0.000000000000000000e+00,2.387809307052257282e+03
-6.963200637718762742e+00,-8.523167094455770254e+00,6.196524550915295526e-01,2.753260367644096429e-01,-9.543640786017102418e-01,1.156839615262024862e-01,2.394354692352527309e+03
-8.188736256611418796e+00,-8.773165144468558552e+00,-1.814259965897933868e-01,4.753851564051091994e-01,-8.507469658897378606e-01,2.241351224135650633e-01,2.400900077652797336e+03
-8.438296306325897334e+00,-8.899118285389793215e+00,-3.876200075567338699e-01,6.457222474172044091e-01,-6.939395384252506904e-01,3.185729056292605499e-01,2.402515144762348427e+03
-9.117243290283902013e+00,-9.652795886693741778e+00,-1.221709879194626813e+00,7.756875272000468557e-01,-4.937457247967480534e-01,3.930928890120440333e-01,2.409060530062618454e+03
-9.336002178317306388e+00,-1.056037826025729132e+01,-1.991454207068915849e+00,8.571553483512618365e-01,-2.626820322243052508e-01,4.430359564866941935e-01,2.415605915362888481e+03
-9.116485423174319536e+00,-1.149699863134041422e+01,-2.616253678659028914e+00,8.850322134205435010e-01,-1.519498649533425338e-02,4.652795864790471581e-01,2.422151300663158509e+03
-8.695520020939870420e+00,-1.214361100541335503e+01,-2.911331248157527085e+00,7.866422863230503326e-01,1.627094258307678898e-01,5.955816955838830751e-01,2.427138108118117088e+03
-7.891786473677419700e+00,-1.282039640572974015e+01,-3.014233914631593958e+00,6.423838481282890811e-01,3.311263038146641247e-01,6.911558164310138697e-01,2.433683493418387116e+03
-7.022941241476052809e+00,-1.322464360335100508e+01,-2.928947002485589923e+00,4.606684729584154536e-01,4.802354505722278288e-01,7.464291460253459354e-01,2.439487471183304933e+03
-5.937627722248139506e+00,-1.343226526496447271e+01,-2.768089564913794209e+00,3.226817585616738038e-01,6.611080588838773586e-01,6.773556061410898055e-01,2.446032856483574960e+03
-4.809177158948292785e+00,-1.338337559342750183e+01,-2.632141097341285096e+00,1.664549712112564916e-01,8.046105437223359802e-01,5.699935223229440906e-01,2.452578241783844987e+03
-4.788101617838250945e+00,-1.337989020093417736e+01,-2.630187164288932955e+00,8.189993087924184439e-04,9.026312382099124232e-01,4.304116367472068938e-01,2.452699812519981151e+03
-3.671819341515643043e+00,-1.308352852594992122e+01,-2.560946455203194194e+00,-2.347072387607453403e-01,7.754383108744358211e-01,5.861791007029786282e-01,2.459245197820251178e+03
-2.608792389593872496e+00,-1.265133730967676229e+01,-2.536643595095519732e+00,-4.477217380014633652e-01,5.738696641820142386e-01,6.857235987271464994e-01,2.465790583120521205e+03
-1.638656441799074548e+00,-1.220466638289409467e+01,-2.506889473185165862e+00,-3.075916331157869665e-01,6.944401363633243562e-01,6.504908025822506712e-01,2.472335968420791232e+03
-8.062918946217512151e-01,-1.186399350093881111e+01,-2.446170588287348124e+00,-1.565682358867423185e-01,7.904168854553046408e-01,5.922208495976285514e-01,2.478881353721061259e+03
-6.705415268378454030e-01,-1.183244628463689985e+01,-2.430784520272297744e+00,0.000000000000000000e+00,8.584009604370840263e-01,5.129773787608773450e-01,2.480227996267119124e+03
-5.154290581361029577e-01,-1.185774249155383941e+01,-2.409812114214751055e+00,9.311514953131769801e-01,0.000000000000000000e+00,3.646298023695849211e-01,2.482378294293382169e+03
-2.891117108273846825e-01,-1.213765670413388165e+01,-2.369924268427856973e+00,0.000000000000000000e+00,4.167097442643968863e-02,9.991303868316842030e-01,2.487493360058910184e+03
-1.937778602403087413e-01,-1.258661450773341528e+01,-2.325975862786880288e+00,9.303518499622634996e-01,-2.382997054300973853e-03,3.666575467628562790e-01,2.491842497033928794e+03
-1.534347023717789193e-01,-1.352099142080583860e+01,-2.191638889110670618e+00,9.074495405026350436e-01,2.205288390278764554e-01,3.576316017915943113e-01,2.498387882334198821e+03
