4.282463761363764637e-02,-9.530974547371327432e+00,-2.785391581428984686e+00,-5.408039152775081515e-01,2.974182270606188228e-01,7.868109832950923588e-01,9.477064161448906816e+02
4.820665516169788112e-01,-8.132616310753304489e+00,-3.061439679674570424e+00,-7.412499049506607873e-01,3.865167373105370952e-01,5.487726215756574266e-01,9.542518014451608224e+02
8.278303433407400158e-01,-6.022980488610956584e+00,-3.208101711386672328e+00,-8.640279871800294886e-01,4.351161640115286389e-01,2.532342022465256526e-01,9.607971867454309631e+02
8.540280138949866151e-01,-5.754458111887576166e+00,-3.214251668470886170e+00,-8.962736280310614756e-01,4.381243293421202001e-01,-6.883789462654008040e-02,9.615062579861255472e+02
9.621896257107542816e-01,-2.902989213508503141e+00,-3.131314663942543319e+00,-3.999995304135573277e-06,1.561658166664089964e-01,9.877298404372834018e-01,9.680516432863956879e+02
9.247000366160915696e-01,-3.776517545503619844e-01,-2.897043268863509269e+00,-3.502762673314655973e-06,1.385925736279999265e-01,9.903484732720068129e-01,9.728923574258250255e+02
8.266348797741572829e-01,2.645336507461323539e+00,-2.498812694241680177e+00,-3.004424319242484995e-06,1.209755807548231199e-01,9.926544760596746064e-01,9.794377427260951663e+02
6.769898182032030309e-01,3.904569953667557325e+00,-2.295607963996161072e+00,-2.505137524580431990e-06,1.033203982199676907e-01,9.946471209904712563e-01,9.859831280263653071e+02
4.607756860743681404e-01,3.490025702081728021e+00,-2.380419224878854934e+00,-2.005059871216745452e-06,8.563259824489255490e-02,9.963257791018602649e-01,9.925285133266354478e+02
3.973178050504502790e-01,3.262170358758907707e+00,-2.429173350199152370e+00,-1.504349190625764086e-06,6.791776334400197179e-02,9.976899204707952995e-01,9.941600517329895865e+02
1.311324784696061563e-01,2.700291040761527928e+00,-2.643105702782293065e+00,-1.003163514172841499e-06,5.018148456693055648e-02,9.987391143808995730e-01,1.000705437033259727e+03
-1.816895552465524200e-01,3.031311388006633578e+00,-2.843031658676617557e+00,-5.016610233560504702e-07,3.242935973813367012e-02,9.994730294585776331e-01,1.007250822333529868e+03
-5.327717803112523853e-01,3.862968910890482999e+00,-2.960446780102053754e+00,-0.000000000000000000e+00,1.466699169432512592e-02,9.998914337780145933e-01,1.012534515054157623e+03
-1.140416495325618618e+00,5.128011825746825458e+00,-3.043703957464733989e+00,1.109290311058386269e-01,1.896787198907892713e-02,9.936463001935029737e-01,1.019079900354427764e+03
-1.750521446466713371e+00,6.438705233215840096e+00,-3.071104972131038391e+00,2.204866156156566059e-01,2.303425473712938931e-02,9.751169547503389934e-01,1.025625285654697791e+03
-2.018880983067385060e+00,7.591026270277366983e+00,-3.076160428599163055e+00,3.273183467256033374e-01,2.681586945926352911e-02,9.445324817287344965e-01,1.032170670954967818e+03
-1.848437593547969104e+00,8.268013991065126689e+00,-3.083176562689706746e+00,4.301035175183402504e-01,3.026596604823504968e-02,9.022709878501662395e-01,1.037160837249594579e+03
-1.039967278550783192e+00,8.766864747381754697e+00,-3.061438086616499632e+00,3.028468050537718725e-01,7.252307303239650116e-01,6.183220847291222011e-01,1.043706222549864606e+03
2.348537687965532583e-01,8.771280901919560336e+00,-2.899357398050620205e+00,0.000000000000000000e+00,9.997078536730037435e-01,-2.412897233222458665e-02,1.050251607850134633e+03
1.522404970116790990e+00,8.320413841329276750e+00,-2.515698010806527662e+00,-4.272875887421053731e-01,2.998997113510264850e-02,9.036171302820669160e-01,1.056796993150404660e+03
1.963865804520140479e+00,8.052531506619349244e+00,-2.315585781472450311e+00,-6.154182278393652838e-01,2.950148691952238222e-02,7.876471717162810693e-01,1.059310682662409818e+03
2.889414153498965909e+00,7.233276847233868878e+00,-1.664974148608225013e+00,-7.734902722824857912e-01,2.757207668414288562e-02,6.332065849876694630e-01,1.065856067962679845e+03
3.461700902976788896e+00,6.358900917967963196e+00,-8.102138180283237068e-01,-8.937831490307434068e-01,2.429597686784608357e-02,4.478385736137356354e-01,1.072401453262949872e+03
3.662498996146236419e+00,5.914581308743237287e+00,-2.790965418517842855e-01,-9.735780631430812626e-01,2.677176835638022181e-02,2.267752794866469412e-01,1.075989233689780121e+03
3.839767462278561361e+00,5.187353356032558871e+00,7.455114695474596154e-01,-9.995901415046073435e-01,2.776862179618357421e-02,-6.815618161428407817e-03,1.082534618990050149e+03
3.728559123892162930e+00,4.533201687217483844e+00,1.791772326797919535e+00,-9.703824144825571318e-01,2.723146865269684969e-02,-2.400300330758253220e-01,1.089080004290320176e+03
3.326593484657094368e+00,3.868842159876393350e+00,2.765497701785683216e+00,-8.875683493731688634e-01,2.518998153463011813e-02,-4.599846628109104940e-01,1.095625389590590203e+03
3.223607558837644937e+00,3.740554887917336480e+00,2.934776037784921243e+00,-7.929889162718402051e-01,2.348173490788356410e-02,-6.087817234400488831e-01,1.096841725917567601e+03
2.530840348609259660e+00,3.115009563450696906e+00,3.740243239934472275e+00,-6.737564233258092061e-01,2.104346952223577413e-02,-7.386524584786653413e-01,1.103387111217837628e+03
1.597981418030914202e+00,2.784386905783982957e+00,4.312874313811866145e+00,-5.335776174011365169e-01,1.795098712834449980e-02,-8.455593936963387014e-01,1.109932496518107655e+03
1.287068447243017166e+00,2.762782026693138437e+00,4.440626266567077707e+00,-3.743866177412105700e-01,1.935856079735003357e-02,-9.270695262926781366e-01,1.111877068987771281e+03
2.084333123590231263e-01,2.982093659058206114e+00,4.744334435606150535e+00,-2.032198784526524915e-01,2.014689812426409196e-02,-9.789248099308833773e-01,1.118422454288041308e+03
-8.330868480284563393e-01,3.668241386767502554e+00,4.857921246766882639e+00,-2.555262735446115277e-02,2.029078237298563223e-02,-9.994665313989493649e-01,1.124967839588311335e+03
-1.668310215882629066e+00,4.697026769635333387e+00,4.857309358471003868e+00,1.529319800560061948e-01,1.978561124316039269e-02,-9.880376202678674558e-01,1.131513224888581362e+03
-2.131960172476289550e+00,5.939323019504853640e+00,4.818434978417898584e+00,3.265246469515879491e-01,1.864754402230164518e-02,-9.450036635038708832e-01,1.138058610188851389e+03
-2.160344985409373475e+00,6.100502800198066566e+00,4.813693640187017841e+00,4.896725565857655282e-01,1.691298468474890931e-02,-8.717412106103223923e-01,1.138860141434578054e+03
-2.101280493740018684e+00,7.409902834144251216e+00,4.793640951944949435e+00,4.780272641022016988e-01,1.671896069572938182e-02,-8.781847249053709170e-01,1.145405526734848081e+03
-1.941108727067180073e+00,7.931433454668288086e+00,4.793683028465334672e+00,4.662972870224132982e-01,1.652197473758049845e-02,-8.844726476241844271e-01,1.148053578703284984e+03
-1.278946444931583493e+00,9.085173127425276718e+00,4.785586665913958981e+00,2.404868686156321766e-01,-3.566111160094296434e-02,-9.699960572821323401e-01,1.154598964003555011e+03
-3.622375263485530517e-01,9.904789858657631285e+00,4.719338821361541925e+00,0.000000000000000000e+00,-8.566789209254577209e-02,-9.963227450298078880e-01,1.161144349303825038e+03
-2.685679129984888114e-01,9.964324346167353852e+00,4.708061624341532969e+00,6.471988315612056675e-02,-1.799984711341961752e-01,-9.815344553882147105e-01,1.161785984944732490e+03
4.684339899848597999e-01,1.031900679028717249e+01,4.555903235043367694e+00,1.285786141938705940e-01,-2.719340370846380361e-01,-9.536862269361012778e-01,1.168331370245002518e+03
6.029627973514617434e-01,1.025289896146815316e+01,4.400201813862754996e+00,1.907265185379168615e-01,-3.602513385871322638e-01,-9.131486013642159394e-01,1.173990410582729510e+03
-5.267423107738673088e-02,9.901304845624494533e+00,4.235289476195781333e+00,2.503366853779034340e-01,-4.437752673283521521e-01,-8.604609555711688618e-01,1.180535795882999537e+03
-1.284384180837937484e+00,9.650555082467636936e+00,4.029472472168380115e+00,3.066159691527342579e-01,-5.213944920294802943e-01,-7.963243253489765694e-01,1.187081181183269564e+03
-2.324566876834825990e+00,9.838220333322251321e+00,3.749772740076594335e+00,3.588155418935495278e-01,-5.920762440852891384e-01,-7.215920787300234007e-01,1.192657969127693832e+03
-3.100722739310534770e+00,1.054433102542309264e+01,3.174745676206569112e+00,5.623752087482116746e-01,-6.127230732625684739e-01,-5.552499978176599349e-01,1.199203354427963859e+03
-3.230390806935261150e+00,1.080883798834431531e+01,2.951547456770875044e+00,7.268315228409760742e-01,-5.907656121671474025e-01,-3.502997700310304663e-01,1.201110968549146264e+03
-3.599616482224637704e+00,1.139042661040817705e+01,1.959373035472202762e+00,9.796526068681459254e-01,-0.000000000000000000e+00,2.006957145972041445e-01,1.207656353849416291e+03
-3.640016560423924741e+00,1.142233129903923405e+01,1.808283094516998313e+00,9.796526061767043547e-01,-0.000000000000000000e+00,2.006957144555525374e-01,1.208478945707734283e+03
-3.710701215481880588e+00,1.147115760244545335e+01,1.551595002849438965e+00,9.994220091165006981e-01,-0.000000000000000000e+00,3.396538964094672486e-02,1.209865610689777441e+03
-3.899760006055752903e+00,1.169776737971837299e+01,2.938399376186266454e-01,9.910178181062265779e-01,-0.000000000000000000e+00,-1.337224147093227788e-01,1.216410995990047468e+03
-3.877955294453127255e+00,1.181733191985583886e+01,-2.090052685627125928e-01,9.546769266714698610e-01,-0.000000000000000000e+00,-2.976406653671949121e-01,1.218977352460894735e+03
-3.734661162236379006e+00,1.209641147980478060e+01,-8.588950435111560866e-01,5.764363129601857150e-01,-1.163998612659590233e-03,-8.171400260715380170e-01,1.222448549475186155e+03
-3.598214592434496595e+00,1.233875329127658738e+01,-1.243156164183106815e+00,5.752485911879960945e-01,-0.000000000000000000e+00,-8.179774186878632225e-01,1.224607003153273808e+03
-2.991491481612360115e+00,1.326711203408449435e+01,-2.184711841343080607e+00,4.547395913511642074e-01,-1.592212067479122362e-01,-8.762753627595512018e-01,1.231152388453543836e+03
-1.985819362831905632e+00,1.393726392761499966e+01,-2.610289974940727120e+00,3.145528559499483623e-01,-3.115525004159145905e-01,-8.966546382516057401e-01,1.237697773753813863e+03
-1.636565660598623628e+00,1.399938911355044979e+01,-2.633756133378251096e+00,1.607545892350254191e-01,-4.504021479189711519e-01,-8.782333785443182661e-01,1.239535596146444504e+03
-3.163498752771538025e-01,1.370035115553008076e+01,-2.374688010414315098e+00,0.000000000000000000e+00,-5.697617808903234771e-01,-8.218086839622436024e-01,1.246080981446714532e+03
8.754498175105021041e-01,1.282993117223549184e+01,-1.629156439559945602e+00,-0.000000000000000000e+00,8.080491350120935778e-02,9.967289330370694422e-01,1.252626366746984559e+03
1.383201650383959924e+00,1.230864602085123316e+01,-1.061478335398915451e+00,-9.463679271405152083e-01,1.327656012246618833e-01,2.945488781281649371e-01,1.256439075760270043e+03
1.614860500762350881e+00,1.204732771757833198e+01,-7.095988721520679610e-01,-5.759863546494992104e-01,0.000000000000000000e+00,-8.174580840981220398e-01,1.258643091531374012e+03
1.942440634795551402e+00,1.164370259829798648e+01,1.435874127394268507e-01,-5.741094901531109684e-01,1.828998375729459346e-03,-8.187752728738456609e-01,1.263537512859439857e+03
1.936354907702480199e+00,1.154132755743706440e+01,1.479606004429634414e+00,-9.546707119066503155e-01,0.000000000000000000e+00,-2.976605983802242950e-01,1.270082898159709885e+03
1.838387491271200380e+00,1.159980676045590009e+01,2.001386360178889490e+00,-9.796745246587165168e-01,-0.000000000000000000e+00,2.005886979233616751e-01,1.272415143416737919e+03
1.386851847434289020e+00,1.190760465038084170e+01,3.540583916924253227e+00,-3.547495365921330968e-01,-0.000000000000000000e+00,9.349603019259025150e-01,1.278960528717007946e+03
6.799890996912066887e-01,1.238212453789163447e+01,5.148607067045003483e+00,6.000999550062849908e-01,-0.000000000000000000e+00,7.999237737963288408e-01,1.285505914017277973e+03
-1.863799297066087990e-01,1.287051904643201894e+01,6.712561595248725865e+00,9.968779763646680170e-01,-0.000000000000000000e+00,-7.894491893610830480e-02,1.292051299317548001e+03
-1.113790843870863689e+00,1.314227146240090072e+01,8.128541878339444082e+00,9.968779756680579140e-01,-0.000000000000000000e+00,-7.894491888094226639e-02,1.298596684617818028e+03
-1.183316566978578344e+00,1.314864248392377988e+01,8.226764701051665796e+00,9.968779756681376281e-01,-0.000000000000000000e+00,-7.894491888094856691e-02,1.299084628259237661e+03
-2.037258657833660891e+00,1.296549537526398765e+01,9.415436384130245528e+00,9.968779756681376281e-01,-0.000000000000000000e+00,-7.894491888094856691e-02,1.305630013559507688e+03
-2.633944673748774168e+00,1.234398780259199846e+01,1.033078110730567900e+01,9.968779756680579140e-01,-0.000000000000000000e+00,-7.894491888094226639e-02,1.312175398859777715e+03
-2.770158315457293519e+00,1.147674658262275038e+01,1.093941681072500849e+01,9.968779756678982640e-01,-0.000000000000000000e+00,-7.894491888092960985e-02,1.318720784160047742e+03
-2.466951634275013294e+00,1.068338869672433589e+01,1.123173526780475484e+01,9.968779756678982640e-01,-0.000000000000000000e+00,-7.894491888092960985e-02,1.324381940622837419e+03
-1.748748103594250258e+00,9.957719696055594483e+00,1.136683115737584160e+01,8.612584170858206267e-01,4.966502082827247144e-01,-1.075663033320747863e-01,1.330927325923107446e+03
-8.252680487778045748e-01,9.709748803849029386e+00,1.136985514730885605e+01,4.966527406121594712e-01,8.612541689158708103e-01,-1.075886228570319680e-01,1.337472711223377473e+03
-5.220458063622210876e-01,9.741870959723405221e+00,1.135871779402936532e+01,0.000000000000000000e+00,9.968731427319725835e-01,-7.900593205829646581e-02,1.339529752796983757e+03
-2.412173242389334116e-01,9.793638919294352263e+00,1.134835010609944028e+01,-0.000000000000000000e+00,9.968731420280737554e-01,-7.900593200250984049e-02,1.341451046296087952e+03
5.633822439304209118e-01,1.032868900645723187e+01,1.132880472874564859e+01,-4.966557898916809655e-01,8.612553751449885109e-01,-1.075648880994369699e-01,1.347996431596357979e+03
9.252313952675096376e-01,1.130973600776915156e+01,1.136530654014494957e+01,-8.612629936206266379e-01,4.966512154040110816e-01,-1.075250020164099374e-01,1.354541816896628006e+03
9.356944331437926365e-01,1.155053615273709333e+01,1.138268883542708387e+01,-9.968817776734337777e-01,0.000000000000000000e+00,-7.889690326056407466e-02,1.355968761765152522e+03
7.089104868969158257e-01,1.252821611105089517e+01,1.155125298926040323e+01,-7.027007806795227962e-01,-7.026648308841961788e-01,-1.116769818354378524e-01,1.362514147065422549e+03
2.643373144883169323e-01,1.303679084256458687e+01,1.194727095828679886e+01,-0.000000000000000000e+00,-9.968312352734685078e-01,-7.953293898571150988e-02,1.369059532365692576e+03
1.246156037989793464e-01,1.307665345910012533e+01,1.214898774742052012e+01,-0.000000000000000000e+00,-8.993944501121587942e-01,-4.371357033097414968e-01,1.371438322353818876e+03
-1.763368890193184879e-01,1.282912101309675101e+01,1.273200315306072383e+01,-0.000000000000000000e+00,-6.784043507465453704e-01,-7.346873735739525291e-01,1.377983707654088903e+03
-4.965759919633927488e-01,1.215663677836537815e+01,1.315177117261127293e+01,-0.000000000000000000e+00,-3.642192608852135582e-01,-9.313121549734011406e-01,1.384529092954358930e+03
-7.495009327861726911e-01,1.172238031009594295e+01,1.323461670067298712e+01,-0.000000000000000000e+00,-0.000000000000000000e+00,-9.999989999999967516e-01,1.388136004714354613e+03
-7.827447582455874242e-01,1.167231801637323763e+01,1.323800266587742946e+01,-0.000000000000000000e+00,-0.000000000000000000e+00,-9.999989992938940198e-01,1.388555737678094602e+03
-1.377746266236647310e+00,1.099731039173882152e+01,1.296130449479176860e+01,-2.911790280154582522e-01,-0.000000000000000000e+00,-9.566675355863385466e-01,1.395101122978364629e+03
-1.831404826556389587e+00,1.058370049547444047e+01,1.211194625644172262e+01,-5.571236030688241359e-01,-0.000000000000000000e+00,-8.304283779499425089e-01,1.401646508278634656e+03
-1.897743948272946568e+00,1.049611348767396990e+01,1.171699043864072998e+01,-7.747861333202294976e-01,-0.000000000000000000e+00,-6.322218341815641907e-01,1.403961155374455302e+03
-1.705397010377986300e+00,1.029276738357206611e+01,1.044408845639474315e+01,-9.253033517809385877e-01,-0.000000000000000000e+00,-3.792251404963774553e-01,1.410506540674725329e+03
-1.049793450691682617e+00,1.023281435695689190e+01,8.959193996644524205e+00,-9.956310588633510150e-01,-0.000000000000000000e+00,-9.336377578302922087e-02,1.417051925974995356e+03
-2.762171178835251539e-01,1.036743092159202639e+01,7.379152352011725036e+00,-9.796745246597445833e-01,-0.000000000000000000e+00,2.005886979235721734e-01,1.423597311275265383e+03
3.145241524754390783e-01,1.055794056390178781e+01,6.073461654929253051e+00,-8.610980435139656830e-01,-3.816511123333345967e-01,-3.359324156926402627e-01,1.429009903517570365e+03
9.149101505286351133e-01,1.083064056864974134e+01,4.552592867746979799e+00,-3.571165318404133648e-01,-5.924852232853634604e-01,-7.220990533689588542e-01,1.435555288817840392e+03
1.373259428793779380e+00,1.117543341009800884e+01,3.129443801189101038e+00,-8.610980435139656830e-01,-3.816511123333345967e-01,-3.359324156926402627e-01,1.442100674118110419e+03
1.682886863256419785e+00,1.161647569087995358e+01,1.836941029849570084e+00,-9.796745246597435841e-01,-0.000000000000000000e+00,2.005886979235719514e-01,1.448646059418380446e+03
1.857775694624727247e+00,1.214000594394828703e+01,6.860645372017385446e-01,-9.820504944070417297e-01,-1.490545503409429207e-01,1.155749430411253248e-01,1.455191444718650473e+03
1.911561142548259484e+00,1.240856980144607924e+01,1.599904019601314509e-01,-9.555047794078623813e-01,-2.937194042984058173e-01,2.715746800828678156e-02,1.458405581212226934e+03
2.008615690232470996e+00,1.288169592513613892e+01,-8.726592208203516332e-01,-9.008191453882350430e-01,-4.297341574608440906e-01,-6.205981964576978011e-02,1.464950966512496962e+03
2.126428948729192303e+00,1.315110144648912360e+01,-1.878356403695698118e+00,-8.196040734940761574e-01,-5.530931417815786455e-01,-1.494494537519574229e-01,1.471496351812766989e+03
2.328395092879635975e+00,1.308327707240328230e+01,-2.911949834149587080e+00,-7.142513392294312924e-01,-6.601633892674549919e-01,-2.324377849663851747e-01,1.478041737113037016e+03
2.485079184763906213e+00,1.289439091116259739e+01,-3.526615195056447050e+00,-8.710707304291974706e-01,-4.668868046154087126e-01,-1.524811275728920612e-01,1.481816523951514682e+03
2.725490147653068629e+00,1.251875541537179259e+01,-4.535390616583841350e+00,-9.683599515652910883e-01,-2.417025710099443281e-01,-6.210371463880428461e-02,1.488361909251784709e+03
2.775950292174926393e+00,1.239234460487250367e+01,-5.325319504689853822e+00,-9.994701503665153197e-01,-0.000000000000000000e+00,3.251797235699518951e-02,1.494907294552054736e+03
2.516709143551431271e+00,1.277100198770254380e+01,-5.770282312239217504e+00,-9.451980947473781480e-01,-3.196831800882899977e-01,6.634173690280423252e-02,1.501423043705973669e+03
1.974904105387667919e+00,1.351125221864210246e+01,-5.879581338146792291e+00,-7.904637783949873819e-01,-6.053881033602401818e-01,9.311422746423757280e-02,1.507968429006243696e+03
1.245875310999343011e+00,1.425994352143431954e+01,-5.720416390902201442e+00,-5.517134353490490417e-01,-8.267481538648483452e-01,1.099898874308825047e-01,1.514513814306513723e+03
7.650927349426752677e-01,1.461604511903334824e+01,-5.538798943373870465e+00,-2.883779608520256610e-01,-9.545120556963128111e-01,7.578183968180839114e-02,1.518374598924670863e+03
-9.639840761426113347e-02,1.497085060162379300e+01,-5.122475133342073050e+00,-0.000000000000000000e+00,-9.993865585865699952e-01,3.499294952973203837e-02,1.524919984224940890e+03
-3.194196189032686983e-01,1.500958512230793218e+01,-4.998814578996680247e+00,2.222449861242024871e-01,-9.741132946830103334e-01,4.133346424281550413e-02,1.526550447678494493e+03
-1.233853240107549487e+00,1.495979192578334604e+01,-4.522693817491125756e+00,4.333617636495545877e-01,-9.000643457121867419e-01,4.560433516657710212e-02,1.533095832978764520e+03
-2.182642632948212480e+00,1.452986536692782948e+01,-4.264883268900805824e+00,6.227793249723928559e-01,-7.809474639178152211e-01,4.759171134618907228e-02,1.539641218279034547e+03
-2.320286115032431429e+00,1.444173683616921444e+01,-4.256579863546309461e+00,7.810131684347448866e-01,-6.227270355069823848e-01,4.719608015117736366e-02,1.540574001202621048e+03
-3.225619798222380208e+00,1.367570380203769709e+01,-4.413695420403155545e+00,9.001402065623915760e-01,-4.333254427133561015e-01,4.443725045915069422e-02,1.547119386502891075e+03
-3.891454965090470619e+00,1.267418023595038257e+01,-4.883094400478755759e+00,9.741954974690569813e-01,-2.222263823128298177e-01,3.945336128069580617e-02,1.553664771803161102e+03
-4.102096788580234410e+00,1.155052954933627340e+01,-5.449852851828867806e+00,9.994709311547945729e-01,-0.000000000000000000e+00,3.249396525059620316e-02,1.560210157103431129e+03
-4.090563155775836179e+00,1.136668267988076586e+01,-5.538929755193328752e+00,9.635582632936408043e-01,2.119229655336469231e-01,1.632241707559275723e-01,1.561251238058522858e+03
-3.716013043056324072e+00,1.028333878646530053e+01,-5.980978343858021518e+00,8.666604907963512128e-01,4.104329676830404949e-01,2.836236462859801910e-01,1.567796623358792885e+03
-2.862239528161672819e+00,9.390935526008206580e+00,-6.103745759278477401e+00,7.149104151647174277e-01,5.829660352220048525e-01,3.860721436045851940e-01,1.574342008659062913e+03
-2.743890018078142479e+00,9.302854646410803952e+00,-6.094228599234843280e+00,5.179124917785927762e-01,7.186022948440609071e-01,4.640855445983399497e-01,1.575088175139991336e+03
-1.735651709883754723e+00,8.641503415068635618e+00,-5.792901442789363919e+00,2.780770195247477816e-01,9.224204427641735649e-01,2.679770474941556846e-01,1.581633560440261363e+03
-9.516946020744763146e-01,8.224357031672493434e+00,-5.144791482476871458e+00,0.000000000000000000e+00,9.993857527526464057e-01,3.501595629959831923e-02,1.588178945740531390e+03
-8.881598894251980791e-01,8.193867897805638734e+00,-5.060184960392810183e+00,-0.000000000000000000e+00,9.998818810641662003e-01,1.530437485287823411e-02,1.588887797873073396e+03
-4.508000895715563727e-01,8.046090252020727362e+00,-4.349190067001044824e+00,-0.000000000000000000e+00,9.999892619641661540e-01,-4.413153786980040551e-03,1.595433183173343423e+03
-1.779208823608828260e-01,8.096804182959862928e+00,-3.998609885483843662e+00,-0.000000000000000000e+00,9.997078536570985774e-01,-2.412897233184069928e-02,1.600887889330697590e+03
-6.472026932950208922e-02,8.140148840006089515e+00,-3.949967860896768990e+00,-1.106993774166144945e-01,9.904441820309485278e-01,8.224335913141492260e-02,1.602857601602921704e+03
3.923949053460797365e-01,8.372812758866764682e+00,-4.200596529176485738e+00,-2.187801173752940975e-01,9.577512729572246197e-01,1.866701888109321694e-01,1.609402986903191731e+03
8.366909637030957025e-01,8.746426051138325164e+00,-5.031222693721034034e+00,-3.216855548156467570e-01,9.024024847384405357e-01,2.866812853350870771e-01,1.615948372203461759e+03
9.693262895870029539e-01,9.225960261007982055e+00,-6.112291181433841203e+00,-4.169814443966139428e-01,8.257070946407250034e-01,3.799108696644405425e-01,1.622493757503731786e+03
9.302798819453160784e-01,9.387701273839683225e+00,-6.453869380663278754e+00,-5.024135394086530759e-01,7.294793312444004529e-01,4.641535744837603228e-01,1.624493894945130023e+03
5.564001297099132604e-01,9.976478701851787534e+00,-7.425017412844885811e+00,-2.856722249030643201e-01,4.814830239229320741e-01,8.285912608724884665e-01,1.631039280245400050e+03
9.922958651340972602e-02,1.054105934837314251e+01,-7.971141606638632027e+00,-0.000000000000000000e+00,1.173078338872849818e-01,9.930945937372316346e-01,1.636281754133308368e+03
-6.239127327670352524e-02,1.077355703300370848e+01,-8.124683693542777974e+00,1.270998419732385096e-03,1.158168560016881454e-01,9.932687650413736247e-01,1.638253231754998524e+03
-5.181534521882483757e-01,1.140944549037154232e+01,-8.407009945155973440e+00,1.686343174595578804e-04,1.862528282389815335e-05,9.999989856050671699e-01,1.644798617055268551e+03
-8.785296727942021322e-01,1.156055069608122388e+01,-8.402154837243211105e+00,-9.359985444617109109e-04,-1.157798199548898399e-01,9.932734553955192558e-01,1.649936422859968388e+03
-1.538797125425470869e+00,1.097356152651645189e+01,-8.188598496840025831e+00,1.182598423654860065e-01,0.000000000000000000e+00,9.929816764045947819e-01,1.656481808160238415e+03
-1.990967360916329643e+00,1.033469985695187709e+01,-7.974193335990920062e+00,3.693217044071279709e-01,1.937808270692620571e-01,9.088720865531891846e-01,1.660148686695825063e+03
-2.693429124508793127e+00,9.419844364242033308e+00,-7.386392415243998144e+00,5.806232530286261628e-01,3.666996667771974527e-01,7.269153956473012324e-01,1.666694071996095090e+03
-3.109486579510750470e+00,9.233425617625819370e+00,-6.717069869599133547e+00,7.294162694263679469e-01,5.001404990659293892e-01,4.667005325589550502e-01,1.671978387122397407e+03
-3.566803377270075348e+00,9.710160395498187214e+00,-5.752996681390771805e+00,8.053882887971722804e-01,5.181732175552319353e-01,2.878267202250461287e-01,1.678523772422667435e+03
-3.627834698683971126e+00,9.815270540116555864e+00,-5.619877937343943586e+00,8.506807646949677837e-01,5.164672500187856841e-01,9.798885770675200280e-02,1.679380621676957617e+03
-4.013289345843703337e+00,1.076596622685513793e+01,-4.639946355793007626e+00,9.624402836571505082e-01,2.686235475931248451e-01,3.934577578538207138e-02,1.685926006977227644e+03
-4.095581322510340350e+00,1.192123075777329611e+01,-3.817633112945861829e+00,9.997494087558927989e-01,0.000000000000000000e+00,-2.234098678771232957e-02,1.692471392277497671e+03
-4.074566568277237621e+00,1.209394154519097064e+01,-3.718329132426767103e+00,9.420967208487663891e-01,-3.323399494299853485e-01,-4.474289417712860872e-02,1.693401776851197610e+03
-3.581907527146724224e+00,1.319612997867522530e+01,-3.162577633063104354e+00,7.767853432613935905e-01,-6.267013566998326235e-01,-6.203176610225660109e-02,1.699947162151467637e+03
-2.445520311507756617e+00,1.390839931684651276e+01,-2.851575744582732774e+00,5.227064052948828810e-01,-8.494460335494309344e-01,-7.223191781870144657e-02,1.706492547451737664e+03
-9.265410243606844176e-01,1.429516674012400479e+01,-2.638856886669025403e+00,2.489634692203866739e-01,-9.309039015665028227e-01,2.672697458408258564e-01,1.713037932752007691e+03
-7.933838926491859622e-01,1.432344238269196879e+01,-2.620480513254859645e+00,-7.378377156186344266e-02,-8.291296254695788015e-01,5.541642529270056627e-01,1.713584268264123693e+03
6.662650549436284209e-01,1.490047469007531689e+01,-2.350305601644737230e+00,-3.820079692207729027e-01,-5.641555659068743234e-01,7.319811533829597705e-01,1.720129653564393720e+03
1.833216553350645484e+00,1.586846920462814481e+01,-2.039454032984549858e+00,-6.150404032438926416e-01,-1.881375491001515410e-01,7.657202916188237118e-01,1.726675038864663748e+03
2.656436858030727599e+00,1.705930320026164893e+01,-1.804101517353095208e+00,-7.270129289259051886e-01,2.249116686481734684e-01,6.487410442402066213e-01,1.733220424164933775e+03
3.099032094932916870e+00,1.817721853183964598e+01,-1.698055079332454032e+00,-7.549865093677484706e-01,1.733702037470828128e-01,6.324050467233119921e-01,1.738973867391777048e+03
3.344219799304100960e+00,1.944652392888450265e+01,-1.615065798687815635e+00,-7.801621746499253218e-01,1.211862402296333824e-01,6.137254079961460551e-01,1.745519252692047075e+03
3.395321991513154281e+00,2.065686630237179955e+01,-1.434617185291240826e+00,-8.024466305158267643e-01,6.855315426832334080e-02,5.927713473243773068e-01,1.752064637992317103e+03
3.358737441856550987e+00,2.174297136851572532e+01,-1.002847267572966938e+00,-8.217572942052846496e-01,1.566598654472483448e-02,5.696205107616943986e-01,1.758610023292587130e+03
3.328583269815065027e+00,2.230113078553599237e+01,-6.279720743580439191e-01,-9.218416718778982277e-01,-1.338522139727444660e-01,3.637162586476644366e-01,1.762352992655723710e+03
3.250136062711969309e+00,2.315181324966522070e+01,2.142254915142235427e-01,-9.530006064927837306e-01,-2.733623768641251783e-01,1.306172076731950127e-01,1.768898377955993737e+03
3.082911162774447877e+00,2.381697921882380697e+01,1.239857081787930415e+00,-9.129043770733080709e-01,-3.924334214092250472e-01,-1.122479758495593394e-01,1.775443763256263765e+03
2.759359326461134909e+00,2.430323832134368089e+01,2.307835240716587855e+00,-8.045509740626490824e-01,-4.821624966011849867e-01,-3.467204306169068828e-01,1.781989148556533792e+03
2.212076092202612809e+00,2.461917807183320406e+01,3.277067477555063224e+00,-6.360419254991418470e-01,-5.358406397141384225e-01,-5.552688338446765126e-01,1.788534533856803819e+03
1.373824072643353489e+00,2.477536063503247732e+01,4.006473024091188329e+00,-4.199765354729848021e-01,-5.494543922603116748e-01,-7.223002010792790584e-01,1.795079919157073846e+03
1.259978158015757188e+00,2.478438712408543765e+01,4.071376794473394511e+00,-2.042315232335925046e-01,-5.918490498460435845e-01,-7.797449500413348167e-01,1.795822939813491757e+03
1.385980128553143953e-01,2.482218520991064281e+01,4.443458823999195673e+00,2.206062339442155240e-02,-6.036787175315465603e-01,-7.969211597742492659e-01,1.802368325113761784e+03
-1.112967666511841980e+00,2.482902013187128887e+01,4.410166973226880671e+00,2.472134941618859549e-01,-5.843324823401598866e-01,-7.729418078919988444e-01,1.808913710414031812e+03
-2.259783366861535470e+00,2.489869121723607392e+01,3.975224306811328212e+00,4.595995113955018141e-01,-5.348094314391391713e-01,-7.090452462074303686e-01,1.815269220276476744e+03
-3.174361306949078809e+00,2.510712692873108409e+01,3.116024502818775854e+00,6.991536932632081980e-01,-5.387427636396280306e-01,-4.700407937809575332e-01,1.821814605576746771e+03
-3.313664229801503325e+00,2.516371901649228349e+01,2.909741504828704972e+00,8.104382989112270952e-01,-5.138683646896006207e-01,-2.812953384420510683e-01,1.823075599560264436e+03
-3.774564416231258157e+00,2.545172568526741941e+01,1.694148193245824885e+00,8.823129312593538387e-01,-4.640056350760721204e-01,-7.887117312940046532e-02,1.829620984860534463e+03
-3.740037461098384863e+00,2.563094888850858055e+01,2.924949061986507060e-01,9.112825400647043272e-01,-3.915793289350430473e-01,1.273882307165139227e-01,1.836166370160804490e+03
-3.268301921959775758e+00,2.562684011511812798e+01,-1.104219398976306943e+00,8.959384553113911576e-01,-3.001114013050421581e-01,3.274529448674227683e-01,1.842711755461074517e+03
-2.622746042150116086e+00,2.551036279285991881e+01,-2.141454558996803481e+00,8.370268619317778880e-01,-1.940497361591983494e-01,5.115943044079622748e-01,1.848176137346606993e+03
-1.683876425058045578e+00,2.515085125688243650e+01,-3.036404382384777723e+00,6.186673437187470981e-01,-1.543592791598510372e-01,7.703388415203118456e-01,1.854721522646877020e+03
-7.957154297232689188e-01,2.437803602747100484e+01,-3.449704334122152272e+00,3.284154996414213046e-01,-9.673147929840232584e-02,9.395660064676385481e-01,1.861266907947147047e+03
-5.977952770274028715e-01,2.410993441680822258e+01,-3.493322367550040664e+00,0.000000000000000000e+00,-2.786296520869569956e-02,9.996107518284006455e-01,1.862969455417602603e+03
-5.315434425510235511e-02,2.292073773501954648e+01,-3.563362092040081475e+00,-0.000000000000000000e+00,-6.332962606652572934e-03,9.999789465491109031e-01,1.869514840717872630e+03
2.560061254994086544e-02,2.260664726104762323e+01,-3.558785811373632146e+00,-0.000000000000000000e+00,1.519999199338746380e-02,9.998834733102782701e-01,1.871052893727382980e+03
2.138741721495588666e-01,2.123426236123403044e+01,-3.521675736920021116e+00,-0.000000000000000000e+00,1.581799306617678522e-02,9.998738871681877027e-01,1.877598279027653007e+03
1.017978512826627213e-01,1.987594117429311424e+01,-3.470805111972702139e+00,-0.000000000000000000e+00,1.643598759290812797e-02,9.998639194700005284e-01,1.884143664327923034e+03
1.228010742585553330e-02,1.947792086073291884e+01,-3.456248165739833844e+00,-0.000000000000000000e+00,1.705397560600646970e-02,9.998535698102263281e-01,1.886141432716269264e+03
-5.478525399478400004e-01,1.835295541086262361e+01,-3.409095554066583489e+00,-0.000000000000000000e+00,2.016697227361248165e-02,9.997956254396260789e-01,1.892621027517892571e+03
-9.302844911564793762e-01,1.795125854858165226e+01,-3.385152706157692037e+00,-0.000000000000000000e+00,2.016697226524963651e-02,9.997956250250304988e-01,1.895443756594243041e+03
-2.087807081895067807e+00,1.729112021531844334e+01,-3.208040911679924001e+00,3.400140207114686342e-01,1.227264034429659811e-01,9.323769064163389686e-01,1.901989141894513068e+03
-3.303748866357239411e+00,1.703364638291429500e+01,-2.678314473808846241e+00,6.355972790763313451e-01,2.092487626604288553e-01,7.431211571178032438e-01,1.908534527194783095e+03
-3.405202698774281167e+00,1.702600214412324675e+01,-2.605232712324053512e+00,6.865937718539617540e-01,2.117124940274092426e-01,6.955320354324947552e-01,1.909155685568748140e+03
-4.252876052294531917e+00,1.705223150997818138e+01,-1.691158868248016978e+00,7.342455860396148726e-01,2.131448798310290049e-01,6.445546366064833776e-01,1.915410774006160409e+03
-4.742276911129557071e+00,1.725814054292404265e+01,-4.503559053615808772e-01,8.998953869819162898e-01,2.341102247486618049e-01,3.679384393576208279e-01,1.921956159306430436e+03
-4.701832760780308540e+00,1.756929947610467835e+01,9.324079832877985030e-01,9.715995898921769847e-01,2.306353683994409598e-01,5.291090402556138106e-02,1.928501544606700463e+03
-4.109545200050050084e+00,1.789736966355681957e+01,2.321095593485205111e+00,9.418725690792828509e-01,2.030830772154086084e-01,-2.676402947334731719e-01,1.935046929906970490e+03
-3.127352479809824892e+00,1.814838230433405641e+01,3.565172838858245985e+00,8.138177414983585045e-01,1.543297106506449634e-01,-5.602508581282301670e-01,1.941592315207240517e+03
-2.344972872026267918e+00,1.824409559676481862e+01,4.275460100832001231e+00,6.008035540478735559e-01,8.946493359380597310e-02,-7.943734103688149251e-01,1.945986311538626524e+03
-1.130660990677436750e+00,1.816212813135305026e+01,5.082278088323069376e+00,3.169908213566581257e-01,5.877059338972136920e-02,-9.466048999073018999e-01,1.952531696838896551e+03
-3.246367981482476961e-01,1.790425415539317555e+01,5.461371793652646467e+00,0.000000000000000000e+00,2.192496970815314972e-02,-9.997586187194160701e-01,1.956877363433620303e+03
8.233539203663775563e-01,1.708672205724116111e+01,5.853808538721647636e+00,-1.763105392161087026e-01,1.023389095958336520e-01,-9.789991528830899181e-01,1.963422748733890330e+03
1.870775183329866254e+00,1.572422769269973131e+01,6.029050729994564151e+00,-3.459243091233996648e-01,1.788657296228278459e-01,-9.210545169129177312e-01,1.969968134034160357e+03
2.824434861241477801e+00,1.392975067167796155e+01,6.020934643926012519e+00,-5.023989003696155420e-01,2.485987252032349770e-01,-8.281256056519114006e-01,1.976513519334430384e+03
3.694675749074086912e+00,1.181592011960973565e+01,5.863318318030034781e+00,-6.397909620977979550e-01,3.088892382439365480e-01,-7.037421142127127105e-01,1.983058904634700411e+03
4.495370436418736126e+00,9.494933953660485315e+00,5.590077528691292486e+00,-7.528819469662537678e-01,3.574472606276719588e-01,-5.526284735728922426e-01,1.989604289934970438e+03
5.243915455460617103e+00,7.078478258099882403e+00,5.235101767396208139e+00,-8.373763278891482864e-01,3.924284159767572611e-01,-3.805244063476151961e-01,1.996149675235240466e+03
5.961224707432449144e+00,4.677646771527127711e+00,4.832290215742796491e+00,-8.900647571932458479e-01,4.125040156445483608e-01,-1.939669174909469107e-01,2.002695060535510493e+03
6.671722168266768449e+00,2.402860498623401675e+00,4.415547719588023945e+00,-9.089459700192471514e-01,4.169115275727455772e-01,-4.199995240735530157e-05,2.009240445835780520e+03
7.393197170069001345e+00,3.324548888785618939e-01,4.010540850728018469e+00,-9.089459693774797344e-01,4.169115272783823767e-01,-4.199995237770095592e-05,2.015785831136050547e+03
8.125329369130751545e+00,-1.518319857362994574e+00,3.626454947305377541e+00,-9.089459693775200355e-01,4.169115272784008619e-01,-4.199995237770281261e-05,2.022331216436320574e+03
8.857827619579676792e+00,-3.165390284920577280e+00,3.264232936014073161e+00,-9.089459693775552296e-01,4.169115272784170712e-01,-4.199995237770445247e-05,2.028876601736590601e+03
9.579904767267432675e+00,-4.624320250637360630e+00,2.924815133400715084e+00,-9.089459693775855387e-01,4.169115272784309489e-01,-4.199995237770584838e-05,2.035421987036860628e+03
1.028028223297735266e+01,-5.910299645781743827e+00,2.609139135436107537e+00,-9.089459693776107407e-01,4.169115272784424397e-01,-4.199995237770700712e-05,2.041967372337130655e+03
1.046731372637647439e+01,-6.238049529525612868e+00,2.526367251672307468e+00,-9.089459693776308358e-01,4.169115272784517101e-01,-4.199995237770793547e-05,2.043757430129056502e+03
1.112635005333776839e+01,-7.358299501627290518e+00,2.237320207632293556e+00,-9.089459693776459348e-01,4.169115272784587045e-01,-4.199995237770863342e-05,2.050302815429326529e+03
1.173573090501448135e+01,-8.338730416029688897e+00,1.974136206400336047e+00,-9.089459693776561489e-01,4.169115272784632564e-01,-4.199995237770910099e-05,2.056848200729596556e+03
1.228260215040979730e+01,-9.193222281009566288e+00,1.737743463354315177e+00,-9.089459693776611449e-01,4.169115272784656434e-01,-4.199995237770933815e-05,2.063393586029866583e+03
1.275363897747232045e+01,-9.935233905123663334e+00,1.529067004199478497e+00,-9.089459693776611449e-01,4.169115272784655879e-01,-4.199995237770933138e-05,2.069938971330136610e+03
1.313505100100340250e+01,-1.057779208036125063e+01,1.349028555912278105e+00,-9.089459693776561489e-01,4.169115272784632564e-01,-4.199995237770910099e-05,2.076484356630406637e+03
1.341258746834594362e+01,-1.113348085803126963e+01,1.198546437978559531e+00,-9.089459693776459348e-01,4.169115272784585935e-01,-4.199995237770863342e-05,2.083029741930676664e+03
1.357154256228722389e+01,-1.161443091910116188e+01,1.078535453935523192e+00,-9.089459693776308358e-01,4.169115272784517101e-01,-4.199995237770793547e-05,2.089575127230946691e+03
1.359676080059589509e+01,-1.203230904069354601e+01,9.899067832271105649e-01,-9.089459693776107407e-01,4.169115272784425508e-01,-4.199995237770700712e-05,2.096120512531216718e+03
1.347264253160353142e+01,-1.239830766043732169e+01,9.335678733824471776e-01,-9.089459693775855387e-01,4.169115272784309489e-01,-4.199995237770584838e-05,2.102665897831486745e+03
1.318314952523143901e+01,-1.272313454035998426e+01,9.104223325269152900e-01,-9.089459693775553406e-01,4.169115272784170712e-01,-4.199995237770444569e-05,2.109211283131756772e+03
1.271181065885359551e+01,-1.301700253199718915e+01,9.213698222354189671e-01,-9.089459693775200355e-01,4.169115272784008619e-01,-4.199995237770281261e-05,2.115756668432026800e+03
1.204172769737694360e+01,-1.328961944438576026e+01,9.673059507373831245e-01,-9.089459693774797344e-01,4.169115272783823767e-01,-4.199995237770095592e-05,2.122302053732296827e+03
1.120868563766188153e+01,-1.353752869453517604e+01,1.043522670642357930e+00,-9.089459693774344373e-01,4.169115272783616155e-01,-4.199995237769885527e-05,2.128530846178800857e+03
1.016010148081030984e+01,-1.380023246381147040e+01,1.099659197882185691e+00,-7.014655474692574888e-01,6.767085928696763286e-01,2.236281870674776961e-01,2.135076231479070884e+03
9.254351726271059064e+00,-1.409464577871630730e+01,9.576995477765830600e-01,-3.813497982913617856e-01,8.278456895045452901e-01,4.113901380837695076e-01,2.141621616779340911e+03
9.181816422598664929e+00,-1.412860537914080261e+01,9.257630990660626891e-01,-0.000000000000000000e+00,8.460544322754661728e-01,5.330946422796267736e-01,2.142313443644631661e+03
8.913615179549065459e+00,-1.428612225489541743e+01,7.500180533711133801e-01,-0.000000000000000000e+00,5.332983833111852867e-01,8.459260217988052721e-01,2.145499142418664633e+03
8.948620499135238049e+00,-1.450272160844264313e+01,1.631497205539716999e-01,-7.954407036333380199e-02,6.218208301598704413e-01,7.791082056093179276e-01,2.152044527718934660e+03
9.622952653330923312e+00,-1.430507388847401096e+01,-6.052278584505569325e-01,-1.576063873604992838e-01,6.987599155651402771e-01,6.977770468141953897e-01,2.158589913019204687e+03
1.016043710496514052e+01,-1.389946905963233270e+01,-1.075678391386267974e+00,-2.327328258591808419e-01,7.626824293278462452e-01,6.034475484743073714e-01,2.162754429491485098e+03
1.078105285378982536e+01,-1.296545019255419184e+01,-1.679497361797529953e+00,-6.673917866736809312e-01,4.458452540938268593e-01,5.964966156511249951e-01,2.169299814791755125e+03
1.080352444443026627e+01,-1.190024877666726155e+01,-2.179257863443492482e+00,-9.089321683887600090e-01,-2.999997255206137291e-06,4.169416185267190711e-01,2.175845200092025152e+03
1.069550025044484265e+01,-1.162180600541069175e+01,-2.312524779334539815e+00,-8.034627840877996974e-01,-1.567919698762486325e-01,5.743359929249772788e-01,2.177622345709097772e+03
9.912821853830424246e+00,-1.076587203717079255e+01,-2.704537510729735583e+00,-6.494002590730626467e-01,-3.040981849438716411e-01,6.969946896718520746e-01,2.184167731009367799e+03
8.585818198186872863e+00,-1.020620897226010548e+01,-2.827412025649622684e+00,-4.560622551944762959e-01,-4.330126298791950878e-01,7.774993773330001190e-01,2.190713116309637826e+03
7.040760315213765885e+00,-9.836842620753829536e+00,-2.642317248555094977e+00,-2.351417788872754155e-01,-5.357386214347542586e-01,8.109811793907936162e-01,2.197258501609907853e+03
5.608418214752032505e+00,-9.495445445239180771e+00,-2.211835335287117399e+00,-0.000000000000000000e+00,-6.060633378291028217e-01,7.954151309476781284e-01,2.203803886910177880e+03
4.563299857049453401e+00,-9.118140430660339746e+00,-1.645735114462793858e+00,8.882125171551077928e-06,-7.713915287844564928e-01,6.363592611423163348e-01,2.209961793825262248e+03
3.799638089545057884e+00,-8.694633464799952804e+00,-9.462127052507041114e-01,1.729676262671682438e-05,-8.961196055263010996e-01,4.438103787578254744e-01,2.216507179125532275e+03
3.324595545468230995e+00,-8.345867240472527371e+00,-2.195919581730346459e-01,2.480103255290656638e-05,-9.736828754675234121e-01,2.279027367255803405e-01,2.223052564425802302e+03
3.078763764828913452e+00,-8.169668941508010818e+00,3.581407283914446738e-01,3.099996898509656018e-05,-9.999989995192437586e-01,0.000000000000000000e+00,2.228535470921359774e+03
3.035948510540849021e+00,-8.142522171804252196e+00,9.499096492879436360e-01,1.016999271930584155e-02,-9.999472841380963040e-01,-0.000000000000000000e+00,2.234736411398093878e+03
3.503961522598393330e+00,-8.294842751035931272e+00,1.503742442902239906e+00,5.380148306426881660e-03,-9.474570460048838960e-01,-3.198346447460815867e-01,2.241281796698363905e+03
4.404480156813872505e+00,-8.505947717136971065e+00,1.916528602813408311e+00,2.499997267777621953e-05,-7.954151306986420034e-01,-6.060633376393507188e-01,2.247170543447848104e+03
5.746245858382936333e+00,-8.729993437457792993e+00,2.260421977094043022e+00,1.249998704530147521e-05,-7.954196756453777439e-01,-6.060573718961056455e-01,2.253715928748118131e+03
7.155410713736657158e+00,-8.928582887975979432e+00,2.559852131018535371e+00,0.000000000000000000e+00,-7.954242209842218303e-01,-6.060514064505511111e-01,2.260261314048388158e+03
7.778739571019156251e+00,-9.019220955748467716e+00,2.714935097582558132e+00,-7.821154460040291578e-02,-7.893549157844309550e-01,-6.089333060467692071e-01,2.263384574859697750e+03
8.851735453810077203e+00,-9.170901136029463885e+00,3.164294734847208357e+00,-1.559411132179591708e-01,-7.784214508753702910e-01,-6.080628372301273288e-01,2.269929960159967777e+03
9.361152600201787521e+00,-9.226752662280029327e+00,3.572138035173192616e+00,-2.327097549695938683e-01,-7.626911969286643833e-01,-6.034453646056531229e-01,2.274173040800676063e+03
9.829822359762706796e+00,-9.275964594767893701e+00,4.397294359015642584e+00,-3.311642465655792456e-01,-7.495870928960981505e-01,-5.731033344497629134e-01,2.280718426100946090e+03
9.862445656420389284e+00,-9.440440765961975345e+00,5.355652722304881763e+00,-4.260468734841415528e-01,-7.283982040620698983e-01,-5.365800200444873491e-01,2.287263811401216117e+03
9.831738001276526973e+00,-9.489253089583748135e+00,5.514941367943587025e+00,-5.163343074801883814e-01,-6.993530620110968155e-01,-4.942693370742496928e-01,2.288346293910029544e+03
9.517374153934031966e+00,-9.995480065200368358e+00,6.364224752772119409e+00,-2.971009514804584528e-01,-4.155937883758283879e-01,-8.596573897167861800e-01,2.294891679210299571e+03
9.164468485262393216e+00,-1.070743387653704559e+01,6.876011175443664136e+00,-0.000000000000000000e+00,-2.291096583325372138e-02,-9.997365091093977085e-01,2.300417285006516522e+03
8.792246679187869063e+00,-1.175949730634927093e+01,7.143378739859382875e+00,-0.000000000000000000e+00,4.006083325167599462e-04,-9.999989197365338756e-01,2.306962670306786549e+03
8.329075644086836760e+00,-1.275916545161335769e+01,7.011746831586547657e+00,-0.000000000000000000e+00,2.371197228132256377e-02,-9.997178313559172969e-01,2.313508055607056576e+03
8.304502498999593030e+00,-1.279601287634577744e+01,6.998057126655048421e+00,1.878513441295580344e-01,2.955899487286718919e-01,-9.366624016797726604e-01,2.313785461999990275e+03
7.570945888214694719e+00,-1.341260930918062044e+01,6.531230193880252166e+00,3.544413309196141615e-01,5.340125118986510655e-01,-7.675936295153469313e-01,2.320330847300260302e+03
6.594137716480166667e+00,-1.348961595973843330e+01,5.849527587501935244e+00,4.809149695188685292e-01,7.119945125117116413e-01,-5.116469546927758794e-01,2.326876232600530329e+03
6.061306641877832746e+00,-1.334697782818265210e+01,5.474791414187148320e+00,5.529576574120685928e-01,8.093914985370842530e-01,-1.977908774575835027e-01,2.330114591040249707e+03
4.966648204832754487e+00,-1.272631836882043821e+01,4.728979530642013707e+00,6.675084704846109274e-01,5.370364989596068117e-01,-5.157734392314420324e-01,2.336659976340519734e+03
3.873709697712005351e+00,-1.173747894538762004e+01,4.048805405687095238e+00,6.562924008750601335e-01,1.634971751996023293e-01,-7.365778697841200984e-01,2.343205361640789761e+03
2.781965199170339353e+00,-1.067034575123576623e+01,3.504347996467249260e+00,5.214227561253226284e-01,-2.408469375197301587e-01,-8.186018947465673046e-01,2.349750746941059788e+03
1.654827707890765165e+00,-9.823881805820716906e+00,3.168225622580298495e+00,2.883107282158150486e-01,-5.998124345700049931e-01,-7.463912963933344580e-01,2.356296132241329815e+03
4.743094041697013541e-01,-9.360885866280883150e+00,3.047747830445336259e+00,1.017686306270963598e-01,-6.289125652453256832e-01,-7.707853988609298934e-01,2.362841517541599842e+03
4.274700600283745655e-01,-9.350609152505898081e+00,3.046695879256576145e+00,-8.846149829006606791e-02,-6.352209586011883236e-01,-7.672463079576403722e-01,2.363095694385508978e+03
-7.704546653823364233e-01,-9.158717402202615432e+00,3.015043984732839188e+00,-2.754857761229639879e-01,-6.185090132478961999e-01,-7.359022949315919826e-01,2.369641079685779005e+03
-1.916964293580143641e+00,-8.992640313907967808e+00,2.879850628334973184e+00,-4.525265025555165188e-01,-5.793823631078870440e-01,-6.778892548231577608e-01,2.376186464986049032e+03
-2.745893302812782100e+00,-8.792408734966741690e+00,2.632185143310430409e+00,-3.487482971974130708e-01,-7.603971746351380068e-01,-5.478765937778371509e-01,2.381263921751987255e+03
-3.740013849122126199e+00,-8.494537091071588719e+00,2.096718067068997104e+00,-2.238918359497225341e-01,-8.954538296834099187e-01,-3.847504187144334398e-01,2.387809307052257282e+03
-4.674057989324008844e+00,-8.294758215458292838e+00,1.310959481880118904e+00,-8.550336841831576717e-02,-9.763895367416336457e-01,-1.983699738637346721e-01,2.394354692352527309e+03
-5.591810722138149004e+00,-8.367058462789941586e+00,2.984999083155659982e-01,5.805297106697548254e-02,-9.983125024509584833e-01,-0.000000000000000000e+00,2.400900077652797336e+03
