-7.648668895742167351e+00,-2.244572551392965298e+00,-3.739824559601073517e+00,9.984358225270002496e-01,0.000000000000000000e+00,-5.589193408565497345e-02,6.749279859199003795e+01
-7.944769854730672876e+00,-2.258151509053960115e+00,-3.223192692208387999e+00,9.973505985314402578e-01,-0.000000000000000000e+00,-7.273089779916236397e-02,6.988417700898770590e+01
-8.101577709674318228e+00,-2.255394064712672453e+00,-2.897040805327234736e+00,9.973505978851086029e-01,-0.000000000000000000e+00,-7.273089775202921936e-02,7.152344036060237897e+01
-8.233846522239858245e+00,-2.226722287156151392e+00,-2.523788776518081090e+00,9.948943568806407622e-01,-0.000000000000000000e+00,-1.009119347685325796e-01,7.359432021803705481e+01
-8.247823235027910371e+00,-2.112025019062501396e+00,-2.112955424737772869e+00,9.895859954911851997e-01,-4.187820954194496938e-03,-1.438750140806019651e-01,7.629843917353215943e+01
-8.209068182774098332e+00,-2.043818900838424213e+00,-1.973273934692154841e+00,9.824057878807641586e-01,-8.367719551059095082e-03,-1.865659379451252986e-01,7.733463552839180011e+01
-8.184697493941371249e+00,-2.004716232807889131e+00,-1.898937950305206623e+00,9.733673154005419992e-01,-1.253178998587525100e-02,-2.289039613967483455e-01,7.789101077776658144e+01
-8.133483260851154029e+00,-1.927613113763347652e+00,-1.761530676306782173e+00,9.624876731802497476e-01,-1.667215638766429697e-02,-2.708090068123763516e-01,7.892104193766662945e+01
-8.036661662630896430e+00,-1.796271545226624244e+00,-1.556224397514948121e+00,9.497874378597080947e-01,-2.078098770058433784e-02,-3.122018152205298103e-01,8.044738639663522406e+01
-7.913002437700206393e+00,-1.642207543410385107e+00,-1.345254927815078716e+00,8.067610110634285681e-01,-5.008968508125558605e-01,-3.134278479557670583e-01,8.197373085560381867e+01
-7.764815789120614653e+00,-1.466580396044132595e+00,-1.125027358176818204e+00,4.612619272224951494e-01,-8.553027301751170430e-01,-2.359929538146210704e-01,8.350007531457241328e+01
-7.673239593284042037e+00,-1.360562195982977229e+00,-9.975493325728823635e-01,0.000000000000000000e+00,-9.950534475071183271e-01,-9.933094484754553810e-02,8.435532562772920073e+01
-7.415795238050876925e+00,-1.069659060852296228e+00,-6.644941943711133447e-01,4.318808654743284126e-01,-8.191196282259176620e-01,-3.775181488260050400e-01,8.646411939583471451e+01
-7.199480549918552796e+00,-8.312609600317558689e-01,-4.053306689993552148e-01,7.364161080998669062e-01,-4.016585135368744286e-01,-5.443893406704171101e-01,8.799682483877838024e+01
-6.964197460710025211e+00,-5.765321062739451330e-01,-1.365789865133703318e-01,4.488914173863913781e-01,-8.513885029353920331e-01,-2.713523769328057833e-01,8.952953028172204597e+01
-6.703326561787744886e+00,-2.998859137041172129e-01,1.468276561835573091e-01,0.000000000000000000e+00,-9.950635238631688750e-01,9.922995251857391619e-02,9.110419438554150418e+01
-6.423460561554310999e+00,-1.060390535367734463e-02,4.343742725066954691e-01,3.783536023997760567e-01,-7.581172033178276148e-01,-5.311354418460156879e-01,9.267885848936096238e+01
-6.125167644022644353e+00,2.883505381155612723e-01,7.223956869483046939e-01,5.119696326534558528e-01,1.099999210732662775e-05,-8.590023836518086986e-01,9.425352259318042059e+01
-5.809031311906423412e+00,5.940213574785483397e-01,1.007226720731052794e+00,4.233046256629160453e-01,-1.085942659748834749e-01,-8.994545454271737350e-01,9.582818669699987879e+01
-5.475650363190973202e+00,9.034599099466861238e-01,1.285202217004939085e+00,3.256262268611889721e-01,-2.148871957669992727e-01,-9.207546108902709969e-01,9.740285080081933700e+01
-5.126123713056348841e+00,1.213994162334049776e+00,1.552931985168184870e+00,2.210142972178568976e-01,-3.166045105517537595e-01,-9.224490578475901259e-01,9.897751490463879520e+01
-4.762533297417657074e+00,1.523505734307937898e+00,1.807575743297648252e+00,1.116963251363103510e-01,-4.115803623184470239e-01,-9.045018166400822235e-01,1.005521790084582534e+02
-4.387456294082928032e+00,1.830172656043509649e+00,2.046568218550259388e+00,0.000000000000000000e+00,-4.977924468361116794e-01,-8.672950362322737750e-01,1.021268431122777116e+02
-3.994394460466217378e+00,2.139102939678798165e+00,2.271994517862766294e+00,6.684916608515774350e-02,-4.426256314242287826e-01,-8.942101203857903968e-01,1.037381329339357450e+02
-3.594669540115687401e+00,2.441173495181607311e+00,2.475092638331663153e+00,1.331477132260149299e-01,-3.838130806114203875e-01,-9.137599277790017238e-01,1.053494227555937783e+02
-3.191137641413294812e+00,2.734491383281816290e+00,2.653050762519111760e+00,1.983495689432262232e-01,-3.218392089991451988e-01,-9.257834369069808389e-01,1.069607125772518117e+02
-2.786665021816588261e+00,3.017198972223577247e+00,2.803057253942550009e+00,2.619176938245820763e-01,-2.572144688524076184e-01,-9.301816159627211977e-01,1.085720023989098451e+02
-2.384127974511883519e+00,3.287474002557118968e+00,2.922300677313890649e+00,3.233285045192731411e-01,-1.904711460477475637e-01,-9.269182384055980606e-01,1.101832922205678784e+02
-1.986412714919914668e+00,3.543529651412040682e+00,3.007969818777682658e+00,3.820761859295772611e-01,-1.221589762348081615e-01,-9.160201813666458692e-01,1.117945820422259118e+02
-1.596415267054746234e+00,3.783614596251424711e+00,3.057253706148252093e+00,4.376768571101302685e-01,-5.284061728902338106e-02,-8.975772044313182763e-01,1.134058718638839451e+02
-1.217041349736905698e+00,4.006013078105954861e+00,3.067341629148495841e+00,4.896725565855850615e-01,1.691298468474267472e-02,-8.717412106100010938e-01,1.150171616855419785e+02
-8.511633554115997091e-01,4.208980967071345169e+00,3.036051628268388924e+00,3.242006831272009060e-01,2.897267819887169166e-02,-9.455434950209324896e-01,1.166284515072000119e+02
-5.015612490316913030e-01,4.390656437598124739e+00,2.962701333039670537e+00,1.480387270709976333e-01,4.007705752110472114e-02,-9.881681864669250581e-01,1.182397413288580452e+02
-1.709496972843047580e-01,4.549098011779289408e+00,2.847721852275429288e+00,-3.300471786425854953e-02,4.985997343568950024e-02,-9.982097332947749146e-01,1.198510311505160786e+02
1.379620822086088938e-01,4.682372539544699563e+00,2.691786948401852619e+00,-2.129600531782023798e-01,5.799884659716107033e-02,-9.753369415435720891e-01,1.214623209721741119e+02
4.127779594312332434e-01,4.785552434464708682e+00,2.504548521573557451e+00,-3.858935107560306776e-01,6.422530519317000419e-02,-9.203039218238346919e-01,1.230130338369359322e+02
6.637971492454073363e-01,4.862861050666819729e+00,2.282739375889730304e+00,-5.461028205855814610e-01,6.833403579778221659e-02,-8.349252474890754838e-01,1.245637467016977524e+02
8.889665062774373405e-01,4.912621092880406160e+00,2.027699177522640728e+00,-6.883052558481138616e-01,7.018955506839685832e-02,-7.220161363332920912e-01,1.261144595664595727e+02
1.086223459190001295e+00,4.933179062826431149e+00,1.740767814214287057e+00,-8.078118484615349759e-01,6.973067847027228372e-02,-5.852996240900270042e-01,1.276651724312213929e+02
1.254335442310879012e+00,4.922704584996286492e+00,1.424371248295142722e+00,-9.006820229441244718e-01,6.697253827745940080e-02,-4.292837903498872287e-01,1.292158852959832132e+02
1.393760832931685290e+00,4.878971253970441957e+00,1.083129286367903843e+00,-9.638535431478278959e-01,6.200608415242604698e-02,-2.591130889890373434e-01,1.307665981607450192e+02
1.505753190510049189e+00,4.800523742241605163e+00,7.225591888423066322e-01,-9.952434833671772729e-01,5.499508290510459613e-02,-8.039869195655705014e-02,1.323173110255068252e+02
1.591427949841317080e+00,4.687869536948206850e+00,3.477354256530265086e-01,-9.938168947715966262e-01,4.617071674450067692e-02,1.009665517866391582e-01,1.338680238902686312e+02
1.651827051228954790e+00,4.542493887115095497e+00,-3.649985986109490627e-02,-9.596209072327103184e-01,3.582395866190717787e-02,2.790024343735286183e-01,1.354187367550304373e+02
1.687999558212952333e+00,4.365868550237845369e+00,-4.253044616086108509e-01,-8.937831490306005211e-01,2.429597686784219432e-02,4.478385736136640261e-01,1.369694496197922433e+02
1.701001614830902620e+00,4.159451749939921505e+00,-8.138361430292906373e-01,-7.736884750554596790e-01,2.463139536683367492e-02,6.330856481783309064e-01,1.385201624845540493e+02
1.691896402789111464e+00,3.924688133818375224e+00,-1.197252669378043199e+00,-6.158846744722997757e-01,2.376629396164397709e-02,7.874764955363109387e-01,1.400708753493158554e+02
1.660401960661982868e+00,3.655308125935455621e+00,-1.580299143655825800e+00,-4.280629866906713321e-01,2.174283686053164744e-02,9.034862082351896584e-01,1.416629677535833309e+02
1.607363613233207200e+00,3.358373789492020034e+00,-1.947190719645723656e+00,-2.193777011000476729e-01,1.865964540252776013e-02,9.754605281064507860e-01,1.432550601578508065e+02
1.533986091127836682e+00,3.035443917099324818e+00,-2.292547824443269544e+00,-0.000000000000000000e+00,1.466699169441225067e-02,9.998914337839540645e-01,1.448471525621182820e+02
1.441481953486102308e+00,2.688061622883428647e+00,-2.610991036478230054e+00,2.442709962289007497e-01,2.615316300315888992e-02,9.693532341024131416e-01,1.464392449663857576e+02
1.331072071618653263e+00,2.318051397955750659e+00,-2.897043781134444718e+00,4.737066590282825174e-01,3.605097405068663496e-02,8.799433666211033955e-01,1.480313373706532332e+02
1.204506554025376319e+00,1.928541075847094444e+00,-3.146788764520249249e+00,3.846348378146164926e-01,3.232354323407023167e-02,9.225016152238324496e-01,1.496234297749207087e+02
1.064590885307902468e+00,1.524381081073740818e+00,-3.359719080651626388e+00,2.918094164545022018e-01,2.828067064934968247e-02,9.560572514942062838e-01,1.512155221791881843e+02
9.146758919118431752e-01,1.111109545588393921e+00,-3.537081819730634180e+00,1.961362562599775483e-01,2.396180977325026995e-02,9.802828166662910236e-01,1.528076145834556598e+02
7.581419223976846311e-01,6.942229695623161057e-01,-3.680124321910039242e+00,9.854900752829018340e-02,1.940910725433572098e-02,9.949418976347567112e-01,1.543997069877231354e+02
5.983987146701841287e-01,2.791760347279634846e-01,-3.790094168523972851e+00,0.000000000000000000e+00,1.466699169439773104e-02,9.998914337829643006e-01,1.559917993919906110e+02
4.388852627875264312e-01,-1.286185816775630986e-01,-3.868239173317345792e+00,-0.000000000000000000e+00,7.333191487407806144e-03,9.999721116960981204e-01,1.575838917962580865e+02
2.830696833511365806e-01,-5.237903923664111172e-01,-3.915807373674036196e+00,-0.000000000000000000e+00,-9.999989999326389967e-07,9.999989999326391876e-01,1.591759842005255621e+02
1.301575633152393385e-01,-9.120737557138588469e-01,-3.933690119230413007e+00,-4.595974337851653768e-01,-8.868719073915704021e-01,4.718494186909653193e-02,1.608177560236051704e+02
-1.098123057668698790e-02,-1.275288330159379369e+00,-3.921488324112840651e+00,-3.175785251204344961e-01,-6.128214259648866458e-01,7.235964208465707204e-01,1.624595278466847788e+02
-1.367858925126120007e-01,-1.609215505528044599e+00,-3.882599079006692211e+00,-0.000000000000000000e+00,9.999989999994989072e-07,9.999989999994989276e-01,1.641012996697643871e+02
-2.431613632283923798e-01,-1.908182166539215796e+00,-3.821709683424492798e+00,-1.131042455839329774e-01,-2.074199872826712754e-01,9.716904746403878246e-01,1.657303144908346439e+02
-3.282201586030227269e-01,-2.172276422804255258e+00,-3.743017588827248332e+00,-2.198048442274869174e-01,-4.030974333732917358e-01,8.883672042921945122e-01,1.673593293119049008e+02
-3.896571364917439939e-01,-2.400231160968678168e+00,-3.651562271656772829e+00,-3.140606620159536178e-01,-5.759525470482355081e-01,7.547466887123833734e-01,1.689883441329751577e+02
-4.199074944684440536e-01,-2.653780844563513153e+00,-3.502568444191961561e+00,-3.905351398577880939e-01,-7.161986482909398211e-01,5.783941568876312944e-01,1.713957818958127746e+02
-3.883492166582810934e-01,-2.784482850362807405e+00,-3.380741697455040828e+00,-4.448984476547556133e-01,-8.158952868041005058e-01,3.692942624038043076e-01,1.733093333169784671e+02
-3.129078476218088434e-01,-2.866492675436708826e+00,-3.265952004116884133e+00,-4.740726435768686242e-01,-8.693978381816328538e-01,1.392857766475600612e-01,1.752228847381441597e+02
-2.054891446788642551e-01,-2.906958693361699542e+00,-3.171138919547048296e+00,-4.764059508741400051e-01,-8.736771094110825642e-01,-9.860871392626079091e-02,1.769943616397087567e+02
-6.392178801714734626e-02,-2.921871287951170348e+00,-3.091510135342547816e+00,-4.517662796053094620e-01,-8.284908483510409205e-01,-3.309201456694383370e-01,1.787658385412733537e+02
1.108871905707908001e-01,-2.918875135378990571e+00,-3.030304872807263461e+00,-4.015486972677542732e-01,-7.363974448213784774e-01,-5.444955894984252476e-01,1.805373154428379507e+02
3.165836948264420525e-01,-2.906667171086582790e+00,-2.987752061697407147e+00,-5.712695287348824591e-01,-5.943414575233728625e-01,-5.660453669155655065e-01,1.823087923444025478e+02
5.490684052361409773e-01,-2.893357401660118899e+00,-2.961393457632047088e+00,-7.127413081385771676e-01,-4.228955894932131532e-01,-5.596044567892568544e-01,1.840802692459671448e+02
7.876444149693428987e-01,-2.886100442666323040e+00,-2.948202074427290764e+00,-3.999995304134481452e-06,1.561658166663663361e-01,9.877298404370138396e-01,1.857479976157101191e+02
1.040755822626858951e+00,-2.889801514370383462e+00,-2.943264697935597418e+00,-4.346150638429442936e-01,1.372328782481088694e-01,8.900982436841574641e-01,1.874157259854530935e+02
1.280832005426855380e+00,-2.906207182932143418e+00,-2.943247977511280311e+00,-7.828344534522074794e-01,9.102111357163510108e-02,6.155350318002562604e-01,1.889390883555622622e+02
1.525198709214222959e+00,-2.936737592146352327e+00,-2.944108254301446514e+00,-9.754438713835068553e-01,2.671638665538262833e-02,2.186172190507570945e-01,1.904624507256714310e+02
1.769769591484998683e+00,-2.981989766246646134e+00,-2.942324191135569755e+00,-9.741568796143648123e-01,-4.289895066157300985e-02,-2.217567449557902581e-01,1.919858130957805997e+02
2.061662717231522279e+00,-3.057972934272779497e+00,-2.929589004911572925e+00,-9.809201776941500750e-01,-1.924665500426307740e-01,-2.739036524700544373e-02,1.938525587422797400e+02
2.334991966615830528e+00,-3.155077944977461968e+00,-2.897043181795723399e+00,-9.286373530449850699e-01,-3.304487090410626604e-01,1.686247823536649315e-01,1.957193043887788804e+02
2.656948190442554925e+00,-3.327706257518051380e+00,-2.813199265086708145e+00,-8.204555384957962216e-01,-4.485396382479105437e-01,3.544896363408497342e-01,1.984406693608128194e+02
2.789808095014973066e+00,-3.432364300099702170e+00,-2.757743861902418381e+00,-6.628866925984855385e-01,-5.396308902195279256e-01,5.190161221944399328e-01,1.999363587990146698e+02
2.953834016914774541e+00,-3.616557882192095619e+00,-2.657867511360211932e+00,-4.654156173875096947e-01,-5.982392541449175205e-01,6.523006192645992574e-01,2.029129500469389313e+02
2.987998082779030451e+00,-3.715527705278560244e+00,-2.583179959812229143e+00,-2.399290218992209123e-01,-6.208368193747579866e-01,7.463201110516903825e-01,2.055053673847398272e+02
2.973249339126620594e+00,-3.738177057367114475e+00,-2.538357186445456382e+00,-0.000000000000000000e+00,-6.060633378291321316e-01,7.954151309477166532e-01,2.072214651416229287e+02
2.940183789051536767e+00,-3.723734986775768085e+00,-2.495870434758253875e+00,-5.015139869762632596e-01,-3.292458653551369463e-01,8.000492991154952716e-01,2.089375628985060303e+02
2.892021355397487170e+00,-3.665595584680832797e+00,-2.454679906073244933e+00,-8.384479280488926767e-01,5.561892889150247404e-02,5.421343068842426893e-01,2.106536606553891318e+02
2.829761070419341440e+00,-3.554751160914827235e+00,-2.412012708081500367e+00,-8.404137095963416515e-01,5.230049751403945818e-02,5.394139918772342668e-01,2.124193393247330448e+02
2.757678466184942501e+00,-3.387737630688594681e+00,-2.367239395719081596e+00,-8.423607697599142519e-01,4.898090103079120322e-02,5.366816606278687063e-01,2.141850179940769578e+02
2.689408467044139162e+00,-3.197178055359500615e+00,-2.325180805509777571e+00,-8.442890652640607785e-01,4.566021318149503239e-02,5.339373738166715011e-01,2.157256422970113476e+02
2.618072105684432493e+00,-2.968428585945934728e+00,-2.279073796355273629e+00,-8.461985532678023558e-01,4.233850773138814194e-02,5.311811924013072339e-01,2.172662665999457374e+02
2.544821746250732541e+00,-2.703152182095880818e+00,-2.227500081454181657e+00,-8.480891913443707741e-01,3.901585846821275377e-02,5.284131776015116300e-01,2.188068909028801272e+02
2.470721663941812807e+00,-2.403432729844198867e+00,-2.169155231156137287e+00,-8.499609374821196495e-01,3.569233920063256266e-02,5.256333908977791625e-01,2.203475152058145170e+02
2.345442829910774130e+00,-1.798358907680650765e+00,-2.043100452269476897e+00,-8.518137500854299216e-01,3.236802375664872555e-02,5.228418940300449957e-01,2.229568572653024887e+02
2.268810679226663574e+00,-1.364611050516147284e+00,-1.945821130907533281e+00,-8.536475879756056928e-01,2.904298598201544152e-02,5.200387489963614884e-01,2.245814899898486487e+02
2.194373967322825525e+00,-9.058108501414102731e-01,-1.836771752176477701e+00,-9.086235625730133547e-01,3.833996383586067702e-02,4.158500555577940294e-01,2.262061227143948088e+02
2.122621765210150446e+00,-4.272510746778065971e-01,-1.715295946241320202e+00,-9.509114551211451660e-01,4.710156587682971796e-02,3.058542904843260524e-01,2.278307554389409688e+02
2.034819539901201679e+00,2.159466134010574190e-01,-1.534884965602983931e+00,-9.799207186031101413e-01,5.520544259976482848e-02,1.915874326649992243e-01,2.299361849680944658e+02
1.953998560044012844e+00,8.756777651300194920e-01,-1.324460393349824683e+00,-9.952462266761049614e-01,6.253842812799620399e-02,7.464511563958112217e-02,2.320416144972479628e+02
1.887895768724192180e+00,1.467739004041655360e+00,-1.111766626033744432e+00,-9.966739355309133241e-01,6.899812075303449199e-02,-4.333965343325241887e-02,2.339228117885992333e+02
1.827201233359275978e+00,2.052998133974513806e+00,-8.774340940420575219e-01,-9.841838773454479883e-01,7.449431324392742637e-02,-1.607192983460010161e-01,2.358040090799505037e+02
1.771182681311977092e+00,2.624771610451110071e+00,-6.227375944830046972e-01,-9.579504429899939888e-01,7.895025290943301355e-02,-2.758546833635609485e-01,2.376852063713017742e+02
1.723935622316495442e+00,3.123672505202860439e+00,-3.784124349920665042e-01,-9.183399495543239643e-01,8.230371376804689054e-02,-3.871380060716210769e-01,2.393772263515389511e+02
1.678509261635630745e+00,3.605710914237935327e+00,-1.220748934804327529e-01,-8.659055263222001919e-01,8.450786580605115783e-02,-4.930152534091755134e-01,2.410692463317761280e+02
1.633138850518567553e+00,4.070158722880951707e+00,1.440088060616981913e-01,-8.013793904471379070e-01,8.553192914458516982e-02,-5.920079067513350779e-01,2.427612663120133050e+02
1.578829410670933520e+00,4.572585925286936970e+00,4.533529147617871846e-01,-7.256626202364827583e-01,8.536160395269222489e-02,-6.827335923735189382e-01,2.446723705017103612e+02
1.517847558137844555e+00,5.051912366091914741e+00,7.678222823553176868e-01,-6.398125690917911834e-01,8.399927009071044004e-02,-7.639253884052166210e-01,2.465834746914074174e+02
1.460514686421956698e+00,5.437826408361168262e+00,1.029222536066188853e+00,-5.450280962669140639e-01,8.146395370132100688e-02,-8.344495182582342130e-01,2.481763902549058116e+02
1.396614714880602515e+00,5.816155415388889693e+00,1.285137094273342662e+00,-4.426328212078732283e-01,7.779106123672739626e-02,-8.933211832126415342e-01,2.497693058184042059e+02
1.325762282264984826e+00,6.189848645229506729e+00,1.531574038885736622e+00,-3.340566358887288034e-01,7.303188467204428658e-02,-9.397183130257988903e-01,2.513622213819026001e+02
1.242097362490571344e+00,6.591347420210314390e+00,1.783406827880475110e+00,-2.208157338626958455e-01,6.725288485973258956e-02,-9.729930427057137399e-01,2.530850393346039482e+02
1.152818203322941937e+00,6.992401179427846891e+00,2.016334770968461587e+00,-1.044914353709405358e-01,6.053476308188046606e-02,-9.926807555254640869e-01,2.548078572873052963e+02
1.069877857841026403e+00,7.353237310800222915e+00,2.207900623638120230e+00,1.329189548404163292e-02,5.297133381250257456e-02,-9.985065664817688313e-01,2.563537788340681800e+02
9.861152695736146168e-01,7.714834928590572183e+00,2.382520818528207407e+00,1.308895330021545567e-01,4.466821446981931315e-02,-9.903891562238823498e-01,2.578997003808310637e+02
9.030607875968682530e-01,8.076375451980769782e+00,2.539252761098884648e+00,2.466593549209646075e-01,3.574135048105360479e-02,-9.684419024885021487e-01,2.594456219275939475e+02
8.220550415828572488e-01,8.436756978151532138e+00,2.677395142238077064e+00,3.589847698025768197e-01,2.631539626575519694e-02,-9.329712937541266848e-01,2.609915434743568312e+02
7.174809753795582390e-01,8.921345003745356550e+00,2.829076462907112344e+00,4.662972870390002522e-01,1.652197473816821235e-02,-8.844726476556465933e-01,2.630983951370834575e+02
6.445298216826226279e-01,9.275776530209292048e+00,2.914949884629129961e+00,4.597326709357639762e-01,-1.132745695264326669e-01,-8.808023292281939032e-01,2.646719166653975890e+02
5.758896785820668551e-01,9.621827857903426207e+00,2.981964827121335038e+00,4.453968543809859182e-01,-2.411563352997334320e-01,-8.622431583105241160e-01,2.662454381937117205e+02
4.678445365536064715e-01,1.019113387865099973e+01,3.039417683139818305e+00,4.235321650978129959e-01,-3.649616616152174808e-01,-8.291088533356112400e-01,2.690423153242666103e+02
3.972916352569763609e-01,1.057670722360466797e+01,3.032604745855274508e+00,3.945081926219837776e-01,-4.825977915634479531e-01,-7.819594986524834868e-01,2.711813290364380578e+02
3.374876409549493195e-01,1.091753090294571038e+01,3.002872996588624943e+00,3.588155418935190522e-01,-5.920762440852388453e-01,-7.215920787299621164e-01,2.733203427486095052e+02
2.963978373829638802e-01,1.118778475060917010e+01,2.975204179473156518e+00,7.268315228409760742e-01,-5.907656121671474025e-01,-3.502997700310304663e-01,2.752575089428830779e+02
2.728203673350204084e-01,1.139680003966544142e+01,2.965795938783173824e+00,9.417488280870767170e-01,-3.260227087557061032e-01,-8.256111780415367751e-02,2.769460215713796742e+02
2.695371941649115088e-01,1.143389367540812351e+01,2.965990413469829168e+00,9.796526068681459254e-01,-0.000000000000000000e+00,2.006957145972041445e-01,2.772638023249403432e+02
2.593832296482245225e-01,1.165510269542642874e+01,3.000250074943781264e+00,9.796526061767043547e-01,-0.000000000000000000e+00,2.006957144555525374e-01,2.793519319047393878e+02
2.603377236643789061e-01,1.172974908821206164e+01,3.027866539788951705e+00,9.834844940108545819e-01,-0.000000000000000000e+00,1.809868780793846277e-01,2.801474229694475184e+02
2.614659256207009785e-01,1.177510758498509169e+01,3.046990744724882294e+00,9.869199163167140521e-01,-0.000000000000000000e+00,1.612050829663035090e-01,2.806420738369828314e+02
2.704116539548077625e-01,1.191871127643478268e+01,3.139778754861973109e+00,9.899574890214403178e-01,-0.000000000000000000e+00,1.413583033541415679e-01,2.823526598806212746e+02
2.867623439587554945e-01,1.203779281455645567e+01,3.283465291058655922e+00,9.925959877134751252e-01,-0.000000000000000000e+00,1.214545395278448930e-01,2.840632459242597179e+02
3.100690603449289262e-01,1.214147665113582875e+01,3.515040903790762616e+00,9.948343488248521105e-01,-0.000000000000000000e+00,1.015018147376483965e-01,2.860001234538141830e+02
3.334687593590276999e-01,1.221193582679085132e+01,3.825133112393229950e+00,9.966716700596051082e-01,-0.000000000000000000e+00,8.150817196682792753e-02,2.879370009833686481e+02
3.391467284138946492e-01,1.222586910996671428e+01,3.916943011450698453e+00,9.981072107572960261e-01,-0.000000000000000000e+00,6.148167069151466713e-02,2.884420932743479966e+02
3.508634196550951545e-01,1.225330132119006343e+01,4.129587568432261158e+00,9.991403921915140707e-01,-0.000000000000000000e+00,4.143038363386975648e-02,2.895637433614400038e+02
3.642736573890406060e-01,1.228090721285637521e+01,4.565130436853274354e+00,9.997707978032275289e-01,-0.000000000000000000e+00,2.136239350991998159e-02,2.915982218871575924e+02
3.666184557272829658e-01,1.228234941433409944e+01,4.931685737657898194e+00,9.999981733688948493e-01,-0.000000000000000000e+00,1.285789773357706722e-03,2.931261772873576206e+02
3.637105019045105414e-01,1.227149403341106648e+01,5.318408229667344500e+00,9.998224271032636334e-01,-0.000000000000000000e+00,-1.879133464339007020e-02,2.946541326875576488e+02
3.565979219418440316e-01,1.225019864758740162e+01,5.718196329295283320e+00,9.992436296968177922e-01,-0.000000000000000000e+00,-3.886088658951820929e-02,2.961820880877576769e+02
3.463383257425726724e-01,1.222030811819194795e+01,6.123948368316153967e+00,9.982620142878549929e-01,-0.000000000000000000e+00,-5.891477595631860326e-02,2.977100434879577051e+02
3.303191432233754665e-01,1.217197062613244540e+01,6.632956395457197729e+00,9.968779763692036111e-01,-0.000000000000000000e+00,-7.894491893646750358e-02,2.996424975149617467e+02
3.128322362488234476e-01,1.211473082626556952e+01,7.121553842610905072e+00,9.766592906775451999e-01,-1.937085102472750342e-01,-9.279893852868843773e-02,3.015749515419657882e+02
2.964569642019974638e-01,1.205362456280753847e+01,7.571701785385561934e+00,9.192066462779747704e-01,-3.800321240750956231e-01,-1.031151109699763313e-01,3.035074055689698298e+02
2.845446525945935501e-01,1.199946012350906699e+01,7.931321044710599288e+00,8.267103484963138627e-01,-5.518674823515598016e-01,-1.095001443512874095e-01,3.052431107428334940e+02
2.766687536412413273e-01,1.194946937035239642e+01,8.238883127348913149e+00,7.026966977436853723e-01,-7.026635675997120467e-01,-1.117106160978652146e-01,3.069788159166971582e+02
2.752928950247641726e-01,1.193757761270145501e+01,8.309115448016953565e+00,5.518935571921760319e-01,-8.266714533023049594e-01,-1.096622534216859235e-01,3.074191170015756143e+02
2.725162583511712144e-01,1.189634742121518585e+01,8.542845553231726896e+00,3.800501119163345320e-01,-9.191634765561695897e-01,-1.034331465158661312e-01,3.090826228308427517e+02
2.744234382164030817e-01,1.186198211344610343e+01,8.714607517204640885e+00,1.937176898658198865e-01,-9.766134778230688429e-01,-9.326077186007593334e-02,3.107461286601098891e+02
2.819852648580979948e-01,1.183246502378819009e+01,8.821419425111665547e+00,0.000000000000000000e+00,-9.968312352734686188e-01,-7.953293898571152376e-02,3.125187012298287641e+02
2.957124298365185755e-01,1.180918958728042689e+01,8.842361833051191056e+00,-9.968817776734339997e-01,-0.000000000000000000e+00,-7.889690326056408853e-02,3.142912737995476391e+02
3.183424320247933981e-01,1.179008172464714832e+01,8.760295461633834435e+00,-0.000000000000000000e+00,-0.000000000000000000e+00,-9.999989999999968626e-01,3.162045701443610142e+02
3.499866513273202084e-01,1.177716031208905356e+01,8.562876528796365960e+00,9.968779763717972031e-01,-0.000000000000000000e+00,-7.894491893667289484e-02,3.181178664891743892e+02
3.518116579346840522e-01,1.177666916501111771e+01,8.550015103082406753e+00,0.000000000000000000e+00,-0.000000000000000000e+00,-9.999989999999968626e-01,3.182140563109689992e+02
3.890107963454091933e-01,1.177013386913629667e+01,8.269279467467665512e+00,-0.000000000000000000e+00,9.968731427319694749e-01,-7.900593205829621601e-02,3.199792790965235554e+02
4.334979081406012957e-01,1.176845299394378941e+01,7.902566422403431545e+00,-0.000000000000000000e+00,9.968731420280737554e-01,-7.900593200250984049e-02,3.217445018820781115e+02
4.896266139956945707e-01,1.177207051460437981e+01,7.412612524414756265e+00,9.968779763718003117e-01,0.000000000000000000e+00,-7.894491893667313076e-02,3.236579681635880661e+02
5.528178495481353982e-01,1.178114376611212677e+01,6.833832292552728838e+00,-9.796745246527556183e-01,-0.000000000000000000e+00,2.005886979221412070e-01,3.255714344450980207e+02
6.210389830700806524e-01,1.179481502016976258e+01,6.178913585161629030e+00,-9.796745239681302619e-01,-0.000000000000000000e+00,2.005886977819638928e-01,3.274849007266079752e+02
6.834417777652149750e-01,1.180934713200173292e+01,5.552163585016804070e+00,-9.796745239682101980e-01,-0.000000000000000000e+00,2.005886977819802963e-01,3.291690459113141287e+02
7.463680948664960235e-01,1.182480227764781056e+01,4.890055306364836873e+00,-9.796745239682501660e-01,-0.000000000000000000e+00,2.005886977819884842e-01,3.308531910960202822e+02
8.084143904559802918e-01,1.184007157257273235e+01,4.200380012328166934e+00,-9.796745239682501660e-01,-0.000000000000000000e+00,2.005886977819884842e-01,3.325373362807264357e+02
8.681708138889523418e-01,1.185406440328415556e+01,3.490929182766111971e+00,-9.796745239682100870e-01,-0.000000000000000000e+00,2.005886977819802686e-01,3.342214814654325892e+02
9.273622286726395103e-01,1.186622249922405103e+01,2.724451900267772064e+00,-9.796745239681302619e-01,-0.000000000000000000e+00,2.005886977819639205e-01,3.360098362883581444e+02
9.803896418160467086e-01,1.187415511231907317e+01,1.953320544140665360e+00,-9.796745239680101358e-01,-0.000000000000000000e+00,2.005886977819393013e-01,3.377981911112836997e+02
1.025693366675571649e+00,1.187627290304020100e+01,1.186800297521440450e+00,-9.796745239680101358e-01,-0.000000000000000000e+00,2.005886977819393013e-01,3.395865459342092549e+02
1.067240427558421301e+00,1.186636104533364744e+01,2.487702341571110531e-01,9.546769266639086871e-01,-0.000000000000000000e+00,-2.976406653648375755e-01,3.418331500898481181e+02
1.088805672955298398e+00,1.183790813979144652e+01,-6.408639847873793816e-01,-9.546707119065337421e-01,-0.000000000000000000e+00,-2.976605983801879352e-01,3.440797542454869813e+02
1.093703182009590602e+00,1.179705935211709544e+01,-1.360508319703910729e+00,-0.000000000000000000e+00,-5.697617808905054426e-01,-8.218086839625060591e-01,3.460221404963771192e+02
1.089731226377542272e+00,1.174035796930587772e+01,-2.027955561828100439e+00,-5.741094903286485529e-01,1.828998376288687141e-03,-8.187752731241914050e-01,3.479645267472672572e+02
1.080524673212741593e+00,1.167002150687440576e+01,-2.618488953902963434e+00,5.752485914334148909e-01,0.000000000000000000e+00,-8.179774190368376274e-01,3.498381785749494952e+02
1.070831825069814336e+00,1.159888900425132974e+01,-3.085552893083393311e+00,0.000000000000000000e+00,-9.950635238632309365e-01,9.922995251858011956e-02,3.514450610823338934e+02
1.061363040929960810e+00,1.152004000610121537e+01,-3.519167949427000064e+00,-0.000000000000000000e+00,8.080491350128965466e-02,9.967289330380600942e-01,3.530519435897182916e+02
1.053391177704595227e+00,1.143780711852174647e+01,-3.913653910001771319e+00,5.764363129601391966e-01,-1.163998612659496558e-03,-8.171400260714720698e-01,3.546314714484562955e+02
1.047372981564139716e+00,1.135504901055560190e+01,-4.277765287654396786e+00,-7.142513392296421237e-01,-6.601633892676498361e-01,-2.324377849664538143e-01,3.562109993071942995e+02
1.043767853499077525e+00,1.127628497613372005e+01,-4.612292030124658382e+00,-5.759863546497717701e-01,0.000000000000000000e+00,-8.174580840985088415e-01,3.577905271659323034e+02
1.043069691337434657e+00,1.120580826179506140e+01,-4.919073021117345235e+00,4.301035175168215208e-01,3.026596604812818031e-02,9.022709878469802325e-01,3.593760263130449175e+02
1.045499710200027854e+00,1.114858235267060316e+01,-5.197609722562228640e+00,0.000000000000000000e+00,9.997078536730037435e-01,-2.412897233222458665e-02,3.609615254601575316e+02
1.050624171919505079e+00,1.110944008111868264e+01,-5.448323718067904942e+00,-0.000000000000000000e+00,9.997078529671034053e-01,-2.412897231518696187e-02,3.625427489596182227e+02
1.057512224777222398e+00,1.109277235996160194e+01,-5.673287973434055331e+00,-4.272875887421053731e-01,2.998997113510264850e-02,9.036171302820669160e-01,3.641239724590789137e+02
1.067099317484867527e+00,1.116015854888432202e+01,-5.983317307874185254e+00,8.506807646963191472e-01,5.164672500196061389e-01,9.798885770690765606e-02,3.668740225112421740e+02
1.068106885661481487e+00,1.118387598893639456e+01,-6.024202952773242359e+00,9.997494087558927989e-01,0.000000000000000000e+00,-2.234098678771232957e-02,3.673254196823474444e+02
1.068873777248311674e+00,1.128912654722429210e+01,-6.160719831473865149e+00,0.000000000000000000e+00,9.993857527531195828e-01,3.501595629961489625e-02,3.689782095755043656e+02
1.062417430699954535e+00,1.142784378131889511e+01,-6.272055388035607137e+00,-5.024135394086214346e-01,7.294793312443546007e-01,4.641535744837311239e-01,3.706309994686612868e+02
1.045570783370108670e+00,1.159820979988054468e+01,-6.357051739274816704e+00,5.179124917786145366e-01,7.186022948440912161e-01,4.640855445983594896e-01,3.722837893618182079e+02
9.727186440252780786e-01,1.196024667802294772e+01,-6.412632485868917875e+00,7.294162694248140788e-01,5.001404990648640192e-01,4.667005325579609010e-01,3.749852023376957391e+02
9.544420611502130170e-01,1.203086114185093791e+01,-6.411367580820064305e+00,0.000000000000000000e+00,1.173078338872874937e-01,9.930945937372529508e-01,3.754370040723335933e+02
7.964320476484155753e-01,1.249218066847718411e+01,-6.342275694385100415e+00,-9.999989999999999712e-01,0.000000000000000000e+00,0.000000000000000000e+00,3.781144303587176410e+02
5.814430001132222525e-01,1.295519604301318140e+01,-6.192839787473557678e+00,1.182598423660810305e-01,0.000000000000000000e+00,9.929816764095908965e-01,3.804547655798012897e+02
2.499858436519227511e-01,1.356521122405756330e+01,-5.929481319322165156e+00,-9.359985444601274336e-04,-1.157798199546939688e-01,9.932734553938388222e-01,3.831657672742510385e+02
8.387862049482278787e-03,1.398965636767493415e+01,-5.725647016616072449e+00,-9.994701503669271014e-01,-0.000000000000000000e+00,3.251797235700859545e-02,3.848621306390451764e+02
-2.327643363113278685e-01,1.441624252923813287e+01,-5.517788514264971411e+00,1.270998420255764396e-03,1.158168560493799126e-01,9.932687654503880026e-01,3.864687383325978089e+02
-4.833851396730056704e-01,1.486536376177183350e+01,-5.299392184752844237e+00,9.994709311547939068e-01,0.000000000000000000e+00,3.249396525059618929e-02,3.880753460261504415e+02
-7.311582138943764075e-01,1.531546952783094895e+01,-5.082851944484803042e+00,0.000000000000000000e+00,-9.993865585873626944e-01,3.499294952975980089e-02,3.896170804303950490e+02
-9.848968285537592626e-01,1.578141346566725289e+01,-4.861883779580047360e+00,-5.517134353487229692e-01,-8.267481538643596251e-01,1.099898874308174873e-01,3.911588148346396565e+02
-1.243855055591038372e+00,1.625999329976494323e+01,-4.638101147010749159e+00,5.227064052949248474e-01,-8.494460335494989911e-01,-7.223191781870724748e-02,3.927005492388842640e+02
-1.576958434366521500e+00,1.687483783135211368e+01,-4.353715070860502578e+00,-7.270129289259051886e-01,2.249116686481734684e-01,6.487410442402066213e-01,3.946400530238337865e+02
-1.917683113690378915e+00,1.749636698448641781e+01,-4.067076377534125875e+00,-0.000000000000000000e+00,2.016697227948319876e-02,9.997956257306721550e-01,3.965795568087833090e+02
-2.263475536735254590e+00,1.811401141352789068e+01,-3.778894263591908054e+00,-0.000000000000000000e+00,2.016697226524963651e-02,9.997956250250304988e-01,3.985190605937328314e+02
-2.583058212443339663e+00,1.867082289307550980e+01,-3.511583927319688936e+00,6.355972790763313451e-01,2.092487626604288553e-01,7.431211571178032438e-01,4.003049848893569447e+02
-2.900197319600951840e+00,1.920831416780682233e+01,-3.241248304560385485e+00,0.000000000000000000e+00,1.705397561329390771e-02,9.998535702374796719e-01,4.020909091849810579e+02
-3.211093432046334240e+00,1.971912817609485913e+01,-2.966373959325836474e+00,-8.217572942076923903e-01,1.566598654477073527e-02,5.696205107633635079e-01,4.038768334806051712e+02
-3.470068122370961294e+00,2.013387558287870505e+01,-2.725423686645123578e+00,7.342455860441354787e-01,2.131448798323413163e-01,6.445546366104517588e-01,4.054108889543014698e+02
-3.718610918503335583e+00,2.052484716274062038e+01,-2.478790905541603085e+00,0.000000000000000000e+00,1.519999199372036765e-02,9.998834733321774193e-01,4.069449444279977683e+02
-3.953667217557723212e+00,2.088893184354889598e+01,-2.225077299430454403e+00,-0.000000000000000000e+00,-2.786296520808142704e-02,9.996107518063629405e-01,4.084789999016940669e+02
-4.172198363204218552e+00,2.122298168707977695e+01,-1.962884597908168605e+00,3.284154996414213046e-01,-9.673147929840232584e-02,9.395660064676386591e-01,4.100130553753903655e+02
-4.371690149556386906e+00,2.152376215401736559e+01,-1.691632796877824418e+00,6.186673437187470981e-01,-1.543592791598510372e-01,7.703388415203118456e-01,4.115471108490866641e+02
-4.617353406682835448e+00,2.187489789584565969e+01,-1.284179205837838511e+00,8.370268619317369208e-01,-1.940497361591888847e-01,5.115943044079372948e-01,4.137753540583346989e+02
-4.805345224958309736e+00,2.209888640262221671e+01,-8.706526101276010898e-01,8.890937439377137874e-01,-2.833161389444164291e-01,3.595028232237731936e-01,4.160035972675827338e+02
-4.918727944752048664e+00,2.218910871004561614e+01,-5.411891668152234436e-01,9.110991785508086860e-01,-3.630032546216727107e-01,1.952560472285501947e-01,4.177925781126367610e+02
-5.005025410412977216e+00,2.220205142825973255e+01,-1.923792716215083076e-01,9.022991163601591369e-01,-4.304167581542486798e-01,2.440735373883442041e-02,4.197100005893018988e+02
-5.051966787721491770e+00,2.212467398000393004e+01,1.525137042809632248e-01,8.629910688421130738e-01,-4.832773003403119660e-01,-1.472666495680128584e-01,4.216274230659670366e+02
-5.057240156996927638e+00,2.195850120004163131e+01,4.954156278773079181e-01,7.945040583215173813e-01,-5.197975768035996147e-01,-3.139614314844678122e-01,4.235448455426321743e+02
-5.027196683242089570e+00,2.174433196539168733e+01,7.983067959356876520e-01,6.991536932645218139e-01,-5.387427636406402209e-01,-4.700407937818407156e-01,4.252399311707904985e+02
-4.964853114892187946e+00,2.147414718206246320e+01,1.101835287038153366e+00,4.595995113947056177e-01,-5.348094314382125791e-01,-7.090452462062019068e-01,4.269350167989488227e+02
-4.855102416953509525e+00,2.111596509197516980e+01,1.434269172277293336e+00,1.730147582869360490e-01,-5.942164588185467888e-01,-7.854748204016575031e-01,4.287874910091637730e+02
-4.709366188460948344e+00,2.072688284821192184e+01,1.742760118947081160e+00,-1.294010743361806437e-01,-5.992516874889408651e-01,-7.900321366902033349e-01,4.305164043920318591e+02
-4.518135484493482679e+00,2.029304627213602075e+01,2.044549177757938097e+00,-4.199765354728743905e-01,-5.494543922601671238e-01,-7.223002010790892102e-01,4.322453177748999451e+02
-4.317759586659330573e+00,1.989062670524678822e+01,2.295970136177718057e+00,-2.760905796842021420e-01,-4.943729427279656141e-01,-8.242374568710776339e-01,4.337302406261237024e+02
-4.222618607500503884e+00,1.970912655100558908e+01,2.403606012848157114e+00,-1.227820927161553527e-01,-4.224193325427421097e-01,-8.980448013342791080e-01,4.343771228829025404e+02
-3.972122821341176557e+00,1.925254607303677901e+01,2.659667052433522638e+00,3.471676103302683003e-02,-3.360492180049061695e-01,-9.412033093772648185e-01,4.359482980328901931e+02
-3.689357057218582980e+00,1.876943917614776680e+01,2.905521211355639455e+00,1.910308047847641966e-01,-2.382102658374752602e-01,-9.522400437252331873e-01,4.375194731828778458e+02
-3.406061509676799215e+00,1.830636797620225309e+01,3.119341696885634896e+00,3.408252918177903656e-01,-1.322415570516531358e-01,-9.307783254065452594e-01,4.389529461146747735e+02
-3.027375665212114875e+00,1.770832385726512470e+01,3.360503051788650719e+00,4.789879697896906596e-01,-2.175963222312421105e-02,-8.775505929590780019e-01,4.407046881510376579e+02
-2.612987842712446440e+00,1.706957442080407361e+01,3.572798508755192337e+00,6.008035540478506853e-01,8.946493359380257304e-02,-7.943734103687848380e-01,4.424564301874005423e+02
-2.167670624656540479e+00,1.638708647769498583e+01,3.754937774067314660e+00,0.000000000000000000e+00,2.192496970815314972e-02,-9.997586187194160701e-01,4.442081722237634267e+02
-1.696567178450346880e+00,1.565816553982316783e+01,3.908236678797452957e+00,-0.000000000000000000e+00,3.976755945448030849e-03,-9.999910926591023541e-01,4.459599142601263111e+02
-9.829822297899305505e-01,1.451531343372694138e+01,4.069293229769008313e+00,-0.000000000000000000e+00,-1.397273585280492392e-02,-9.999013764558524198e-01,4.484558067237550745e+02
-5.258319078047737349e-01,1.375413716079020610e+01,4.137407383060275556e+00,-0.000000000000000000e+00,-3.191772447570546262e-02,-9.994894991193394862e-01,4.499873625635356689e+02
-6.314185104482114563e-02,1.296018146900850709e+01,4.190754550328779970e+00,-0.000000000000000000e+00,-4.985243016472975380e-02,-9.987555933220648718e-01,4.515189184033162633e+02
4.025415582154654448e-01,1.213512738961204818e+01,4.230862376058702523e+00,-0.000000000000000000e+00,-6.777107646776454886e-02,-9.976998953491137412e-01,4.530504742430968577e+02
8.693290931656395548e-01,1.128175001352802376e+01,4.259007123576672882e+00,-0.000000000000000000e+00,-8.566789209192911259e-02,-9.963227450226359583e-01,4.545820300828774521e+02
1.335694582324850943e+00,1.040338385919967124e+01,4.276331830632591924e+00,-3.571165318402182987e-01,-5.924852232850398304e-01,-7.220990533685643920e-01,4.561135859226580465e+02
1.800145201638043035e+00,9.503384755673558004e+00,4.283974558821191714e+00,-4.787440813272628160e-01,-5.099573576029581279e-01,-7.146646752301428762e-01,4.576451417624386409e+02
2.261205577337052741e+00,8.585125460507530448e+00,4.283073432666587799e+00,-5.900023113695610499e-01,-4.163841090335357320e-01,-6.917510725137626659e-01,4.591766976022192353e+02
2.717417836989360680e+00,7.651995552943360757e+00,4.274766632219480833e+00,-6.884814425948697636e-01,-3.137922082021483150e-01,-6.538545352560858337e-01,4.607082534419998296e+02
3.167341660314539897e+00,6.707401326858179580e+00,4.260192385654084646e+00,-7.720484759079692116e-01,-2.044037230629846269e-01,-6.017958697488335895e-01,4.622398092817804240e+02
3.609554329768074776e+00,5.754765683495704387e+00,4.240488961864828710e+00,-8.388933906970916787e-01,-9.058793373362022949e-02,-5.367026227873876731e-01,4.637713651215610184e+02
4.042650780892243390e+00,4.797528023978210321e+00,4.216794663062856330e+00,-8.875683493731181262e-01,2.518998153462868525e-02,-4.599846628108842927e-01,4.653029209613416128e+02
4.465243652433747101e+00,3.839144141600238758e+00,4.190247817372371841e+00,-5.335776174011365169e-01,1.795098712834449980e-02,-8.455593936963387014e-01,4.668344768011222072e+02
4.875963336227779443e+00,2.883086113905032999e+00,4.161986771426859022e+00,-8.349275395895110474e-01,2.516969166208652409e-01,-4.894309612186754643e-01,4.683660326409028016e+02
5.295364603148056126e+00,1.879189787369766051e+00,4.131523504283022952e+00,-9.089459700191115932e-01,4.169115275726834047e-01,-4.199995240734904031e-05,4.699849865328579313e+02
5.697792691396276865e+00,8.866934835099347101e-01,4.101833348104527488e+00,-9.379447850849553792e-01,2.342722996625442866e-01,-2.556835343596929322e-01,4.716039404248130609e+02
6.081891175554227758e+00,-8.981080296341401037e-02,4.074431016609963763e+00,-8.735703862515963314e-01,2.831098010942321302e-02,-4.858716586388920899e-01,4.732228943167681905e+02
6.446423241607973864e+00,-1.045648107636239166e+00,4.050862403871685835e+00,-8.385157146440382903e-01,-6.993955978250472605e-02,-5.403682580174777872e-01,4.748418482087233201e+02
6.790177265442716603e+00,-1.976127461224555182e+00,4.032673376045483593e+00,-7.918460073390839460e-01,-1.672212945372590631e-01,-5.873797232752815400e-01,4.764608021006784497e+02
7.111966865081762457e+00,-2.876542051210828177e+00,4.021409760135807865e+00,-7.342077319457585016e-01,-2.621866871465804993e-01,-6.262548582125124774e-01,4.780797559926335794e+02
7.410630952556526374e+00,-3.742169383719794684e+00,4.018617332761217575e+00,-6.663992910096016020e-01,-3.535202874886928526e-01,-6.564551708049161105e-01,4.796987098845887090e+02
7.685033785407195950e+00,-4.568271445632055894e+00,4.025841808920097797e+00,-5.893599622695374629e-01,-4.399569536734231900e-01,-6.775623320321397802e-01,4.813176637765438386e+02
7.934065017813705545e+00,-5.350094866933801541e+00,4.044628830756713533e+00,-5.041568876406493649e-01,-5.202993763987725506e-01,-6.892839701925400631e-01,4.829366176684989682e+02
8.156639751356658863e+00,-6.082871083301014004e+00,4.076523956327665843e+00,-4.119702911797255007e-01,-5.934346636058909219e-01,-6.914577204841616531e-01,4.845555715604540978e+02
8.351698585407847375e+00,-6.761816498916508600e+00,4.123072648368797388e+00,-3.140771308039631005e-01,-6.583497557473549922e-01,-6.840534737973887891e-01,4.861745254524092275e+02
8.518207667150019091e+00,-7.382132649518148959e+00,4.185820263062632662e+00,-2.118334102094519278e-01,-7.141454581877293428e-01,-6.671737936023904858e-01,4.877934793443643571e+02
8.652493313203800440e+00,-7.926943970037395815e+00,4.263893349972895486e+00,-1.066553959766100845e-01,-7.600488964104410439e-01,-6.410524951790298465e-01,4.893727520113143896e+02
8.758571965450771657e+00,-8.409319079374961703e+00,4.359384417019481539e+00,-0.000000000000000000e+00,-7.954242215457255627e-01,-6.060514068783732222e-01,4.909520246782644222e+02
8.799531651586114833e+00,-8.614418783830531723e+00,4.408450334999105102e+00,-7.434725759983091820e-01,-6.506298089971241927e-01,-1.546847774775921835e-01,4.916820883707489998e+02
8.878344320507812526e+00,-9.100435996876765188e+00,4.558604617267212333e+00,-9.089321683888461623e-01,-2.999997255206421471e-06,4.169416185267585950e-01,4.936592775981091563e+02
8.900783952557443257e+00,-9.468838352230587674e+00,4.735356083181676112e+00,-2.327097549703580348e-01,-7.626911969311689354e-01,-6.034453646076348710e-01,4.956364668254693129e+02
8.877182221516283889e+00,-9.705673358048331423e+00,4.901377917800509465e+00,-5.163343074801883814e-01,-6.993530620110968155e-01,-4.942693370742496928e-01,4.973401002483557249e+02
8.816354396237477076e+00,-9.884035013824355786e+00,5.070267456365947112e+00,-2.327328258594338339e-01,7.626824293286751377e-01,6.034475484749631802e-01,4.990437336712421370e+02
8.705867587170230237e+00,-1.002149870635160944e+01,5.244739897849998833e+00,-0.000000000000000000e+00,8.460544322730512157e-01,5.330946422781052130e-01,5.008965341539060887e+02
8.547961652007478150e+00,-1.011115729690693676e+01,5.394275115371561569e+00,-9.089459700191846458e-01,4.169115275727169334e-01,-4.199995240735241488e-05,5.027493346365700404e+02
8.344066142334252589e+00,-1.016588718823997617e+01,5.503702441326620232e+00,-0.000000000000000000e+00,5.332983833118744021e-01,8.459260217998985087e-01,5.046021351192339921e+02
8.096483112109286395e+00,-1.019569452647874641e+01,5.567327032233436057e+00,-0.000000000000000000e+00,-2.291096583323577046e-02,-9.997365091086141131e-01,5.064549356018979438e+02
7.757909699009437610e+00,-1.020958673117841009e+01,5.592666213447269996e+00,-0.000000000000000000e+00,2.371197228132256377e-02,-9.997178313559172969e-01,5.085831919509165573e+02
7.361346746986280998e+00,-1.021376247211904520e+01,5.583324377349931922e+00,1.878513441295580344e-01,2.955899487286718919e-01,-9.366624016797726604e-01,5.107114482999352276e+02
7.069560353401521446e+00,-1.021676363702869139e+01,5.566028486199446235e+00,3.544413309196141615e-01,5.340125118986510655e-01,-7.675936295153469313e-01,5.121325121927999362e+02
6.397594924791004445e+00,-1.024391915116757978e+01,5.503705648219433755e+00,4.809149695188685292e-01,7.119945125117116413e-01,-5.116469546927758794e-01,5.149820309329513748e+02
5.892271627009557200e+00,-1.028101056636631760e+01,5.442595430049767202e+00,5.529576574120685928e-01,8.093914985370842530e-01,-1.977908774575835027e-01,5.168399083536106673e+02
5.342763755100430778e+00,-1.033335642297384460e+01,5.371315333987289442e+00,6.413251544944603699e-01,3.318386754849835807e-01,-6.917970364666967686e-01,5.186977857742699598e+02
4.522952801006555390e+00,-1.043464322801713884e+01,5.260991561531782601e+00,4.219152017232039587e-01,-3.049664022858056267e-01,-8.538038744533305024e-01,5.211701687080599186e+02
