8.396277458574468611e+00,1.068216929119170189e+01,-7.550388817912907946e+00,0.000000000000000000e+00,8.460544322751551993e-01,5.330946422794309303e-01,5.755889355606510804e+01
9.931776697854234115e+00,1.204439634793050473e+01,-7.557345227774540319e+00,9.726792459837615978e-02,0.000000000000000000e+00,9.952572284814189540e-01,6.010633580849721369e+01
1.166570467336793016e+01,1.367108445512746151e+01,-7.404251824423108808e+00,5.119696326532662267e-01,1.099999210732255522e-05,-8.590023836514906197e-01,6.299307464477005425e+01
1.301231431466567479e+01,1.499933273085413532e+01,-7.195996011497439504e+00,0.000000000000000000e+00,8.052988517095800713e-03,-9.999665741293001231e-01,6.524293661838004255e+01
1.435541369079211016e+01,1.637460832136462940e+01,-6.942807034619441708e+00,-2.327097549703007473e-01,-7.626911969309811967e-01,-6.034453646074862121e-01,6.749279859199003795e+01
1.577790408750854390e+01,1.789250169417337233e+01,-6.644358410370529100e+00,9.973505985893262871e-01,-0.000000000000000000e+00,-7.273089780338365395e-02,6.988417700898770590e+01
1.675051776422961680e+01,1.896356676324825230e+01,-6.431807062448518408e+00,0.000000000000000000e+00,8.584009604378273206e-01,5.129773787613214342e-01,7.152344036060237897e+01
1.797667223723220786e+01,2.034913975003471620e+01,-6.164213136327231446e+00,-9.983881034639612295e-01,0.000000000000000000e+00,-5.673794905025820318e-02,7.359432021803705481e+01
1.956813729851722883e+01,2.223137390359906362e+01,-5.828720698026907954e+00,9.973505985826229825e-01,-0.000000000000000000e+00,-7.273089780289480888e-02,7.629843917353215943e+01
2.017547722471260130e+01,2.297253055650835307e+01,-5.705431659335403083e+00,-8.735703862514799800e-01,2.831098010941944174e-02,-4.858716586388274195e-01,7.733463552839180011e+01
2.050181890283412045e+01,2.337184504987641986e+01,-5.639867535959793621e+00,-4.477217380017828874e-01,5.738696641824237998e-01,6.857235987276358857e-01,7.789101077776658144e+01
2.110639542525793999e+01,2.411342984607804496e+01,-5.519756532028686102e+00,2.039378542714287423e-01,3.347537607938581572e-01,9.199713426129255689e-01,7.892104193766662945e+01
2.200184618343557119e+01,2.522145759070160764e+01,-5.346582993749660950e+00,7.364161080998512521e-01,-4.016585135368658799e-01,-5.443893406704056748e-01,8.044738639663522406e+01
2.289593939334905315e+01,2.634113430975223835e+01,-5.180230508029975312e+00,9.984358225266239950e-01,-0.000000000000000000e+00,-5.589193408563391391e-02,8.197373085560381867e+01
2.378849286843647448e+01,2.747059480702665013e+01,-5.021030862028552200e+00,6.827382631615955821e-01,2.016997823175383994e-02,-7.303832117412639713e-01,8.350007531457241328e+01
2.428829788151666236e+01,2.810634740214341321e+01,-4.934572374594957012e+00,-9.999989999996313772e-01,0.000000000000000000e+00,-0.000000000000000000e+00,8.435532562772920073e+01
2.551680849323250300e+01,2.968264443573143296e+01,-4.734050401558749677e+00,9.311514953115712645e-01,-0.000000000000000000e+00,3.646298023689561463e-01,8.646411939583471451e+01
2.640552362503703776e+01,3.083488115285871700e+01,-4.600961091174548656e+00,4.737066590285499146e-01,3.605097405070698674e-02,8.799433666216001093e-01,8.799682483877838024e+01
2.729184512537226937e+01,3.198762742323389574e+01,-4.477600644572166999e+00,7.590762284859103870e-01,2.112597852786126176e-02,-6.506573386813004900e-01,8.952953028172204597e+01
2.819958291194251032e+01,3.316938519281833919e+01,-4.361828439779253053e+00,-9.089459700189145286e-01,4.169115275725930880e-01,-4.199995240733993301e-05,9.110419438554150418e+01
2.910406125679801903e+01,3.434522351346600288e+01,-4.257841018397141575e+00,-3.999995304135564807e-06,1.561658166664086633e-01,9.877298404372814034e-01,9.267885848936096238e+01
3.000498790258782478e+01,3.551174452072161358e+01,-4.166087475220805025e+00,9.497874378631103731e-01,-2.078098770065877829e-02,-3.122018152216481934e-01,9.425352259318042059e+01
3.090205820752148469e+01,3.666576365216972988e+01,-4.087016820879521894e+00,0.000000000000000000e+00,-9.999989999994472381e-07,9.999989999994473022e-01,9.582818669699987879e+01
3.179495593443693480e+01,3.780430980259084350e+01,-4.021077978750744464e+00,-2.272997664906985932e-03,5.869383970272070705e-01,-8.096271682548672466e-01,9.740285080081933700e+01
3.268335254907696452e+01,3.892442351932891142e+01,-3.968422601980454711e+00,3.099996898509724459e-05,-9.999989995192657410e-01,-0.000000000000000000e+00,9.897751490463879520e+01
3.356690551708160086e+01,4.002295648961380437e+01,-3.928607892547284486e+00,2.499997267777621953e-05,-7.954151306986418923e-01,-6.060633376393507188e-01,1.005521790084582534e+02
3.444525908942102888e+01,4.109677559263168689e+01,-3.900893784201596048e+00,-5.163343074808737221e-01,-6.993530620120251839e-01,-4.942693370749057236e-01,1.021268431122777116e+02
3.533815406938338555e+01,4.216662438164964755e+01,-3.884416786399857102e+00,3.783536023998352871e-01,-7.581172033179464087e-01,-5.311354418460989546e-01,1.037381329339357450e+02
3.622456620818449124e+01,4.320400053740132051e+01,-3.879294269513555715e+00,-7.127413081394703420e-01,-4.228955894937431181e-01,-5.596044567899580713e-01,1.053494227555937783e+02
3.710407030808276829e+01,4.420619545096673164e+01,-3.884715043761586717e+00,-4.525265025547641207e-01,-5.793823631069235924e-01,-6.778892548220305514e-01,1.069607125772518117e+02
3.797623111571115828e+01,4.517074553472379961e+01,-3.899867843409591472e+00,9.948943569146943000e-01,-0.000000000000000000e+00,-1.009119347719866222e-01,1.085720023989098451e+02
3.884060424854108362e+01,4.609543239172904094e+01,-3.923941332610332733e+00,-4.595974337851073122e-01,-8.868719073914583806e-01,4.718494186909056448e-02,1.101832922205678784e+02
3.969673712188276227e+01,4.697828298070523800e+01,-3.956124111244442076e+00,7.901121582997779891e-01,4.634195063228717382e-02,6.112063488867192085e-01,1.117945820422259118e+02
4.054416987641527470e+01,4.781756977663350483e+01,-3.995604720761520845e+00,0.000000000000000000e+00,-2.291096583325138991e-02,-9.997365091092957901e-01,1.134058718638839451e+02
4.138243479644457778e+01,4.861158605924946130e+01,-4.041438844282303045e+00,-0.000000000000000000e+00,9.999989999569338075e-07,9.999989999569338650e-01,1.150171616855419785e+02
4.221105458719444670e+01,4.935842250613026039e+01,-4.092416507657187452e+00,8.506807646963452374e-01,5.164672500196220151e-01,9.798885770691066754e-02,1.166284515072000119e+02
4.302954310805534277e+01,5.005619418099298912e+01,-4.147194893915717273e+00,-2.172967494852068582e-01,3.431016044486276950e-01,9.138169464883214577e-01,1.182397413288580452e+02
4.383740725445741049e+01,5.070326622152319374e+01,-4.204431158672340629e+00,1.016999272028844617e-02,-9.999472842347089108e-01,0.000000000000000000e+00,1.198510311505160786e+02
4.463414790289462530e+01,5.129825400377769995e+01,-4.262782439793076250e+00,9.360262369457779119e-01,-2.510647953304677160e-01,2.466157989573163900e-01,1.214623209721741119e+02
4.539021459199216224e+01,5.182151483126150282e+01,-4.318763270767129292e+00,-2.327328258595239563e-01,7.626824293289706791e-01,6.034475484751969931e-01,1.230130338369359322e+02
4.613557214091542846e+01,5.229646107987422710e+01,-4.373387247240576592e+00,-8.962736280309231418e-01,4.381243293420526430e-01,-6.883789462652945002e-02,1.245637467016977524e+02
4.686978173790493685e+01,5.272253718894553032e+01,-4.425501332739396609e+00,0.000000000000000000e+00,-4.977924468363538191e-01,-8.672950362326957707e-01,1.261144595664595727e+02
4.759240266786697049e+01,5.309939472736591881e+01,-4.473952507477002349e+00,2.187648692056918531e-01,-3.412217959916101218e-01,9.141704534392453008e-01,1.276651724312213929e+02
4.830299306547846783e+01,5.342689250674872170e+01,-4.517587776042049974e+00,0.000000000000000000e+00,-9.924842934886567436e-01,-1.223639128938432269e-01,1.292158852959832132e+02
4.900111066868787901e+01,5.370509669115546103e+01,-4.555254175086110635e+00,9.303518499623322224e-01,-2.382997054301150362e-03,3.666575467628833684e-01,1.307665981607450192e+02
4.968631357260692027e+01,5.393428090338290559e+01,-4.585798781011198422e+00,0.000000000000000000e+00,5.892782266480505182e-01,-8.079289396970866788e-01,1.323173110255068252e+02
5.035815962305560589e+01,5.411467267320664831e+01,-4.608394394276544404e+00,-5.335776174014518203e-01,1.795098712835510937e-02,-8.455593936968381907e-01,1.338680238902686312e+02
5.101620457080949933e+01,5.424620096492062515e+01,-4.622865221533521307e+00,-0.000000000000000000e+00,-6.060633378289150830e-01,7.954151309474316589e-01,1.354187367550304373e+02
5.166000233310151657e+01,5.432875156217227897e+01,-4.629361200178125024e+00,-0.000000000000000000e+00,-9.983890695296369078e-01,-5.672094713768219970e-02,1.369694496197922433e+02
5.228910650046309883e+01,5.436242138013473379e+01,-4.628032320731566784e+00,5.529576574117197607e-01,8.093914985365736614e-01,-1.977908774574587414e-01,1.385201624845540493e+02
5.290307110440958382e+01,5.434751858159653182e+01,-4.619028625840061686e+00,-5.300915303193174388e-01,-8.479392486944944407e-01,-0.000000000000000000e+00,1.400708753493158554e+02
5.351697245649579315e+01,5.428159582855910514e+01,-4.601856030234522166e+00,3.143997210391029189e-03,3.833196598877509909e-02,9.992591133763802924e-01,1.416629677535833309e+02
5.411350564156555265e+01,5.416455359359517274e+01,-4.576712097607694041e+00,0.000000000000000000e+00,2.371197228144929225e-02,-9.997178313612603562e-01,1.432550601578508065e+02
5.469218196668533238e+01,5.399744851672137003e+01,-4.543763607259172055e+00,-8.536475879972044156e-01,2.904298598275027732e-02,5.200387490095195187e-01,1.448471525621182820e+02
5.525251679615918476e+01,5.378157868998782476e+01,-4.503177393287525199e+00,-0.000000000000000000e+00,1.466699169441148046e-02,9.998914337839015509e-01,1.464392449663857576e+02
5.579403045298825958e+01,5.351848377261884337e+01,-4.455120343418091267e+00,-8.384479280488079667e-01,5.561892889149686742e-02,5.421343068841880664e-01,1.480313373706532332e+02
5.631624912080694401e+01,5.320994510193019522e+01,-4.399759397830477425e+00,-6.427181838549375081e-01,1.973997493351910618e-02,-7.658470275018104401e-01,1.496234297749207087e+02
5.681870574628939607e+01,5.285798580002084890e+01,-4.337261547985789889e+00,6.075376243260266484e-01,7.797075178638990245e-01,1.514999063192640216e-01,1.512155221791881843e+02
5.730094094201997024e+01,5.246487087623698642e+01,-4.267793835453597140e+00,0.000000000000000000e+00,1.466699169441379111e-02,9.998914337840590916e-01,1.528076145834556598e+02
5.776250388982136741e+01,5.203310732540595041e+01,-4.191523350738620479e+00,-8.509987894260011634e-03,-3.496795025693115178e-01,9.368296673287310750e-01,1.543997069877231354e+02
5.820295324453401520e+01,5.156544422183816323e+01,-4.108617232107174999e+00,-9.089321683887945369e-01,-2.999997255206251217e-06,4.169416185267349473e-01,1.559917993919906110e+02
5.862185803824041130e+01,5.106487280909472304e+01,-4.019242664413352095e+00,5.179124917786656068e-01,7.186022948441620484e-01,4.640855445984052863e-01,1.575838917962580865e+02
5.901879858492812048e+01,5.053462658551871556e+01,-3.923566877924963059e+00,-9.741568796140992470e-01,-4.289895066156131087e-02,-2.217567449557297787e-01,1.591759842005255621e+02
5.940433869624927610e+01,4.996007755084550439e+01,-3.818386646744137636e+00,-6.799996278746768172e-05,-9.702994690099984998e-02,9.952804553393179710e-01,1.608177560236051704e+02
5.976494584883547390e+01,4.936069212229009651e+01,-3.706891461857915182e+00,-6.696665005624562461e-01,1.278249046681349810e-01,7.315774543892420434e-01,1.624595278466847788e+02
6.010018137987741937e+01,4.873985499675562494e+01,-3.589921068495239620e+00,-8.937831490297735160e-01,2.429597686781971924e-02,4.478385736132496353e-01,1.641012996697643871e+02
6.040740610019632584e+01,4.810594921505946786e+01,-3.469502820512073704e+00,-0.000000000000000000e+00,1.173078338872938914e-01,9.930945937373070187e-01,1.657303144908346439e+02
6.068900850689136206e+01,4.745742684806538136e+01,-3.345925372801709763e+00,4.301035175183546833e-01,3.026596604823606623e-02,9.022709878501965486e-01,1.673593293119049008e+02
6.094458965223197566e+01,4.679697303423240839e+01,-3.220614052512449810e+00,-9.359985444637062765e-04,-1.157798199551366564e-01,9.932734553976366731e-01,1.689883441329751577e+02
6.126082022037163455e+01,4.580015288396860029e+01,-3.036054890665766504e+00,-0.000000000000000000e+00,9.997078536729939735e-01,-2.412897233222435420e-02,1.713957818958127746e+02
6.145685664843244922e+01,4.499296057350224487e+01,-2.892562586508423017e+00,-4.015486972676516886e-01,-7.363974448211905166e-01,-5.444955894982861366e-01,1.733093333169784671e+02
6.160884617592726187e+01,4.417776955396256255e+01,-2.754471454003499353e+00,-0.000000000000000000e+00,9.997078536725564346e-01,-2.412897233221378973e-02,1.752228847381441597e+02
6.171100849321125281e+01,4.341817838593974699e+01,-2.632961576091989997e+00,-5.024135394086530759e-01,7.294793312444004529e-01,4.641535744837603228e-01,1.769943616397087567e+02
6.177693651916014517e+01,4.265586849046339069e+01,-2.518764474182559443e+00,1.270998420255520451e-03,1.158168560493576804e-01,9.932687654501972663e-01,1.787658385412733537e+02
6.180610102500150305e+01,4.189260474653907806e+01,-2.412944003722504949e+00,-5.517134353491606191e-01,-8.267481538650153228e-01,1.099898874309047370e-01,1.805373154428379507e+02
6.179797250944191234e+01,4.112969832181286023e+01,-2.315927089023309460e+00,-9.994701503667255960e-01,-0.000000000000000000e+00,3.251797235700203126e-02,1.823087923444025478e+02
6.175202282606070980e+01,4.036846866522615329e+01,-2.227822148646072531e+00,1.182598423660814052e-01,0.000000000000000000e+00,9.929816764095941162e-01,1.840802692459671448e+02
6.167467730612171550e+01,3.965482339249424371e+01,-2.152888113018740945e+00,-9.999989999999928658e-01,0.000000000000000000e+00,0.000000000000000000e+00,1.857479976157101191e+02
6.156480764167837805e+01,3.894554960810592092e+01,-2.085423152599171992e+00,-0.000000000000000000e+00,9.993857527531196938e-01,3.501595629961489625e-02,1.874157259854530935e+02
6.143680691243699954e+01,3.830233984762015353e+01,-2.029773308337377014e+00,7.294162694263894853e-01,5.001404990659442662e-01,4.667005325589688725e-01,1.889390883555622622e+02
6.128327394802933270e+01,3.766417042990508435e+01,-1.979063471442783273e+00,-4.272875887421020424e-01,2.998997113510241605e-02,9.036171302820599216e-01,1.904624507256714310e+02
6.110392295991826472e+01,3.703162836801261193e+01,-1.932610363937118381e+00,-4.498626688095136994e-01,4.246255994771661046e-02,8.920866046606904520e-01,1.919858130957805997e+02
6.084434082953434597e+01,3.626618210044524204e+01,-1.880787875911779983e+00,-4.720786884053513321e-01,5.490125672635365328e-02,8.798440566169379862e-01,1.938525587422797400e+02
6.053664718023993174e+01,3.551367650211435034e+01,-1.833597318840186396e+00,-4.939179157546182974e-01,6.729613347778835852e-02,8.668992576513036008e-01,1.957193043887788804e+02
5.997766524427342461e+01,3.444824135028657963e+01,-1.770828966868508880e+00,-5.153629198248388388e-01,7.963729718644622924e-02,8.532625397656400379e-01,1.984406693608128194e+02
5.961618325762480453e+01,3.387849231838988118e+01,-1.738315277535831038e+00,-5.363965842383708882e-01,9.191489771048523549e-02,8.389447872161570618e-01,1.999363587990146698e+02
5.876966799398450547e+01,3.277746282991841298e+01,-1.672091052851003790e+00,-5.570021209335851431e-01,1.041191356436430293e-01,8.239574278257458806e-01,2.029129500469389313e+02
5.787567618713408990e+01,3.185418884419193120e+01,-1.608907120324158058e+00,-5.771630835639721679e-01,1.162402701365723018e-01,8.083124238624824764e-01,2.055053673847398272e+02
5.721799631331475666e+01,3.125579019386235657e+01,-1.562888726088644153e+00,-5.968633806244848516e-01,1.282686266714225809e-01,7.920222624915931320e-01,2.072214651416229287e+02
5.651904292450244327e+01,3.066415500423910956e+01,-1.513155465017090417e+00,-6.160872882946453188e-01,1.401946047834642106e-01,7.750999458085051641e-01,2.089375628985060303e+02
5.577828271143435757e+01,3.007802193410473990e+01,-1.458823670543888396e+00,-6.348194629881633855e-01,1.520086857235922184e-01,7.575589804609401678e-01,2.106536606553891318e+02
5.497128499475943642e+01,2.947956877471190396e+01,-1.397070381528761507e+00,-6.530449535990580090e-01,1.637014400555949212e-01,7.394133668683338101e-01,2.124193393247330448e+02
5.411759803993930973e+01,2.888481107680335214e+01,-1.328329037146494862e+00,-6.707492134345062196e-01,1.752635351821255627e-01,7.206775880471889550e-01,2.141850179940769578e+02
5.333632617427548439e+01,2.836806116390476262e+01,-1.262313058645563313e+00,-6.879181118249029225e-01,1.866857427933705516e-01,7.013665980512815423e-01,2.157256422970113476e+02
5.252308624659289649e+01,2.785273499781528983e+01,-1.190477150516798588e+00,-7.045379454018630971e-01,1.979589462324707616e-01,6.814958100359467252e-01,2.172662665999457374e+02
5.167750775558428700e+01,2.733832135088989546e+01,-1.112302912117842268e+00,-7.205954490351724750e-01,2.090741477718181529e-01,6.610810839559735363e-01,2.188068909028801272e+02
5.079921479307548537e+01,2.682418302857014325e+01,-1.027301772109356692e+00,-7.360778064199585691e-01,2.200224757944227449e-01,6.401387139069245613e-01,2.203475152058145170e+02
4.920396050484905004e+01,2.594731903176604249e+01,-8.596627618967204176e-01,-7.509726603056339211e-01,2.307951918746177777e-01,6.186854151199866481e-01,2.229568572653024887e+02
4.814112356709940599e+01,2.539646291039062476e+01,-7.397961707560815059e-01,-7.652681223584538728e-01,2.413836977524545513e-01,5.967383106207324595e-01,2.245814899898486487e+02
4.703827647233533327e+01,2.484274488205183928e+01,-6.109832856597087192e-01,-7.789527826498174878e-01,2.517795421962218949e-01,5.743149175624365776e-01,2.262061227143948088e+02
4.589492320291196137e+01,2.428539662108339670e+01,-4.733362654809898928e-01,-7.920157187627404616e-01,2.619744277476125371e-01,5.514331332448602074e-01,2.278307554389409688e+02
4.434222474632886701e+01,2.355458450726475661e+01,-2.801421043830860658e-01,-8.044465045092397126e-01,2.719602173441578175e-01,5.281112208296548927e-01,2.299361849680944658e+02
4.269966020237893645e+01,2.281169894057672920e+01,-6.927403115399244360e-02,-8.162352182516674493e-01,2.817289408136421924e-01,5.043677947637903447e-01,2.320416144972479628e+02
4.115864144293913540e+01,2.213836302999563799e+01,1.321826827126413584e-01,-8.273724508213636808e-01,2.912728012353201223e-01,4.802218059226382452e-01,2.339228117885992333e+02
3.955131832243525025e+01,2.145709932914440898e+01,3.436292807480039735e-01,-8.378493130283012347e-01,3.005841811628556237e-01,4.556925264845643198e-01,2.358040090799505037e+02
3.787676136927922244e+01,2.076850091383459684e+01,5.630458291756139655e-01,-8.476574427557380664e-01,3.096556487040216243e-01,4.307995345491038575e-01,2.376852063713017742e+02
3.631510155400744111e+01,2.014436035316778373e+01,7.651746000863317576e-01,-8.567890116342138374e-01,3.184799634523071132e-01,4.055626985109911931e-01,2.393772263515389511e+02
3.470303267146314852e+01,1.951754824883903439e+01,9.697874305900845426e-01,-8.652367312895646867e-01,3.270500822656994822e-01,3.800021612025158424e-01,2.410692463317761280e+02
3.303994962729264984e+01,1.888957085463063734e+01,1.174855640841477866e+00,-8.729938591599734066e-01,3.353591648880299703e-01,3.541383238168563929e-01,2.427612663120133050e+02
3.109529434622122324e+01,1.818095003600477355e+01,1.403958524773668115e+00,-8.800542038774123998e-01,3.434005794083985763e-01,3.279918296252221088e-01,2.446723705017103612e+02
2.907564735074873852e+01,1.747613108567329832e+01,1.626624632559933836e+00,-8.864121302091837462e-01,3.511679075543198136e-01,3.015835475007951350e-01,2.465834746914074174e+02
2.733854671092629474e+01,1.689461485699191456e+01,1.804830299607678157e+00,-8.920625635556171940e-01,3.586549498143682402e-01,2.749345552626198952e-01,2.481763902549058116e+02
2.555670002449452838e+01,1.632136833313672497e+01,1.974089965253517986e+00,-8.970009940003319526e-01,3.658557303862325361e-01,2.480661228527326068e-01,2.497693058184042059e+02
2.372966148675414644e+01,1.575906067522164022e+01,2.131663996702573005e+00,-9.012234799098337579e-01,3.727645019462340059e-01,2.209996953599506764e-01,2.513622213819026001e+02
2.170014548010075828e+01,1.516711184579951954e+01,2.284846812145312267e+00,-9.047266510795732852e-01,3.793757502364992762e-01,1.937568759038725552e-01,2.530850393346039482e+02
1.961249458843099447e+01,1.459660000663439305e+01,2.415811412951663684e+00,-9.075077114239527010e-01,3.856841984661283362e-01,1.663594083927422140e-01,2.548078572873052963e+02
1.769160930627626982e+01,1.410600457623826998e+01,2.512463015080800943e+00,-9.095644412081362873e-01,3.916848115228468430e-01,1.388291601689386756e-01,2.563537788340681800e+02
1.572778719094220534e+01,1.363853331579377048e+01,2.587814034317067691e+00,-9.108951988198791261e-01,3.973727999917784914e-01,1.111881045559379722e-01,2.578997003808310637e+02
1.372068414784882506e+01,1.319786937750560263e+01,2.639485421298621848e+00,-9.114989220799630809e-01,4.027436239781318483e-01,8.345830332067474822e-02,2.594456219275939475e+02
1.166996834909361702e+01,1.278789363586480299e+01,2.665241527828235757e+00,-9.113751290901886959e-01,4.077929967307511450e-01,5.566188906529678793e-02,2.609915434743568312e+02
8.789887173453040603e+00,1.229652586706798978e+01,2.645139770955008629e+00,-9.105239186182473299e-01,4.125168880636369551e-01,2.782104756236487494e-02,2.630983951370834575e+02
6.574072078976336719e+00,1.198597199660768453e+01,2.585989891519009820e+00,-9.089459700191639957e-01,4.169115275727074410e-01,-4.199995240735145943e-05,2.646719166653975890e+02
4.311268345569597038e+00,1.172344668341354001e+01,2.492623789798521727e+00,-8.217572942074425901e-01,1.566598654476597172e-02,5.696205107631902020e-01,2.662454381937117205e+02
1.148115513048895975e-01,1.145485088644444538e+01,2.193724174608221666e+00,-0.000000000000000000e+00,8.080491350127222416e-02,9.967289330378449330e-01,2.690423153242666103e+02
-3.196835860655066863e+00,1.147480645532869303e+01,1.895817136789856860e+00,-7.270129289258565608e-01,2.249116686481584249e-01,6.487410442401632116e-01,2.711813290364380578e+02
-6.452221137210313984e+00,1.171435002674591708e+01,1.668683184838379630e+00,9.796526068682185340e-01,0.000000000000000000e+00,2.006957145972189938e-01,2.733203427486095052e+02
-9.306112912437397355e+00,1.210571429248931707e+01,1.562865164603063128e+00,-9.796745246582524436e-01,-0.000000000000000000e+00,2.005886979232666678e-01,2.752575089428830779e+02
-1.172875060585255724e+01,1.255481796895060675e+01,1.535862872955126690e+00,-7.142513392294312924e-01,-6.601633892674549919e-01,-2.324377849663851747e-01,2.769460215713796742e+02
-1.217921220015803208e+01,1.264800405747958223e+01,1.536106560018311029e+00,-0.000000000000000000e+00,1.705397561330195683e-02,9.998535702379517387e-01,2.772638023249403432e+02
-1.508576670769973305e+01,1.333243947032273624e+01,1.586941710865448663e+00,-0.000000000000000000e+00,9.968731427319705851e-01,-7.900593205829629928e-02,2.793519319047393878e+02
-1.617017030442328718e+01,1.362366248433699845e+01,1.627193848709233004e+00,-0.000000000000000000e+00,1.519999199372508783e-02,9.998834733324878377e-01,2.801474229694475184e+02
-1.684183633596922292e+01,1.380836395054336485e+01,1.654431736586416291e+00,-0.000000000000000000e+00,2.192496970759914149e-02,-9.997586186941537223e-01,2.806420738369828314e+02
-1.913359423786744529e+01,1.448126375396138599e+01,1.774114263927371260e+00,6.008035540474822023e-01,8.946493359374771415e-02,-7.943734103682975611e-01,2.823526598806212746e+02
-2.136886855740210223e+01,1.521069438577530697e+01,1.938448431948478268e+00,4.662972870372703027e-01,1.652197473810691764e-02,-8.844726476523653291e-01,2.840632459242597179e+02
-2.382784220080267801e+01,1.609721882994316644e+01,2.175770121767353071e+00,0.000000000000000000e+00,-9.993865585873615842e-01,3.499294952975975925e-02,2.860001234538141830e+02
-2.620693180154439617e+01,1.703972636508498439e+01,2.463427197375214206e+00,-9.968817776734338887e-01,-0.000000000000000000e+00,-7.889690326056408853e-02,2.879370009833686481e+02
-2.681618365599738851e+01,1.729266509711699840e+01,2.544849360988933551e+00,-9.796745246572110544e-01,-0.000000000000000000e+00,2.005886979230534495e-01,2.884420932743479966e+02
-2.815947002900419704e+01,1.786027668469905905e+01,2.730099068371631077e+00,-9.796745239680101358e-01,-0.000000000000000000e+00,2.005886977819393013e-01,2.895637433614400038e+02
-3.053683337522727470e+01,1.891485110299501571e+01,3.088742972504174400e+00,-0.000000000000000000e+00,2.016697227948924948e-02,9.997956257309721373e-01,2.915982218871575924e+02
-3.226956917740594832e+01,1.972519730931333370e+01,3.374395800486125196e+00,-5.759863546494931041e-01,0.000000000000000000e+00,-8.174580840981133800e-01,2.931261772873576206e+02
-3.396435865335299553e+01,2.054504703963318235e+01,3.666195485614282656e+00,-0.000000000000000000e+00,-5.697617808903238101e-01,-8.218086839622441575e-01,2.946541326875576488e+02
-3.562161813932452503e+01,2.137092154992343751e+01,3.959524267181362411e+00,9.968779763717983133e-01,-0.000000000000000000e+00,-7.894491893667299198e-02,2.961820880877576769e+02
-3.724177444535467885e+01,2.219962067415313811e+01,4.249862864823871433e+00,8.370268619313376846e-01,-1.940497361590963477e-01,5.115943044076932678e-01,2.977100434879577051e+02
-3.923125846842420117e+01,2.324537965084721947e+01,4.603743564354045859e+00,7.268315228415503926e-01,-5.907656121676141403e-01,-3.502997700313071894e-01,2.996424975149617467e+02
-4.114881859724758328e+01,2.428171741730156796e+01,4.932193147997537608e+00,7.342455860441439164e-01,2.131448798323437310e-01,6.445546366104590863e-01,3.015749515419657882e+02
-4.299562102724615897e+01,2.530273624125076992e+01,5.225024055339114071e+00,9.997494087563408849e-01,0.000000000000000000e+00,-2.234098678772234586e-02,3.035074055689698298e+02
-4.459771042771656369e+01,2.620376875177796450e+01,5.452235528213383198e+00,6.355972790764786717e-01,2.092487626604773165e-01,7.431211571179753284e-01,3.052431107428334940e+02
-4.614984412682570536e+01,2.708771727718237798e+01,5.641369235709721153e+00,4.896725565858030538e-01,1.691298468475020342e-02,-8.717412106103891167e-01,3.069788159166971582e+02
-4.653682139852055144e+01,2.730960567540038042e+01,5.683798112984893791e+00,5.752485914284057866e-01,0.000000000000000000e+00,-8.179774190297148806e-01,3.074191170015756143e+02
-4.797561830584700004e+01,2.813859180346882027e+01,5.822375173284446426e+00,9.796526068683547583e-01,-0.000000000000000000e+00,2.006957145972469159e-01,3.090826228308427517e+02
-4.937184166097185312e+01,2.894793666841546198e+01,5.919021911789901225e+00,0.000000000000000000e+00,-0.000000000000000000e+00,-9.999989999999792101e-01,3.107461286601098891e+02
-5.081206321589162656e+01,2.978546884002580697e+01,5.971720827656057828e+00,-0.000000000000000000e+00,-9.968312352734655102e-01,-7.953293898571126008e-02,3.125187012298287641e+02
-5.220264351682990878e+01,3.059424177321469784e+01,5.968957384459679716e+00,-3.571165318403092814e-01,-5.924852232851908207e-01,-7.220990533687484669e-01,3.142912737995476391e+02
-5.364681167824231522e+01,3.143102340250432292e+01,5.899460018172477227e+00,-8.875683493731181262e-01,2.518998153462868525e-02,-4.599846628108842927e-01,3.162045701443610142e+02
-5.503107278855395634e+01,3.222662677541275400e+01,5.757431479389815365e+00,-9.546707119028122746e-01,0.000000000000000000e+00,-2.976605983790275856e-01,3.181178664891743892e+02
-5.509916865437432421e+01,3.226557028810931627e+01,5.748454493672947585e+00,-0.000000000000000000e+00,-0.000000000000000000e+00,-9.999989999999524537e-01,3.182140563109689992e+02
-5.632577217800925951e+01,3.296323616038048243e+01,5.555708505697259270e+00,9.546769266724455250e-01,-0.000000000000000000e+00,-2.976406653674991132e-01,3.199792790965235554e+02
-5.750697074887168725e+01,3.362591919956263808e+01,5.308853050736047408e+00,9.994709311527514295e-01,-0.000000000000000000e+00,3.249396525052978407e-02,3.217445018820781115e+02
-5.873499640105809050e+01,3.430098419154326450e+01,4.982412865173594163e+00,-4.199765354729373956e-01,-5.494543922602496133e-01,-7.223002010791974570e-01,3.236579681635880661e+02
-5.990763429281954444e+01,3.492749407532907924e+01,4.598482052061382497e+00,-0.000000000000000000e+00,-9.950635238630983759e-01,9.922995251856690790e-02,3.255714344450980207e+02
-6.102605492786820918e+01,3.550405463134017481e+01,4.164151634251714640e+00,3.588155418936922469e-01,-5.920762440855246167e-01,-7.215920787303103934e-01,3.274849007266079752e+02
-6.196885777431459985e+01,3.597189728679306597e+01,3.747802561025988854e+00,0.000000000000000000e+00,-2.786296520868896537e-02,9.996107518281590609e-01,3.291690459113141287e+02
-6.287604471252308258e+01,3.640495976141428969e+01,3.306788256857233765e+00,5.227064052949733641e-01,-8.494460335495779280e-01,-7.223191781871396433e-02,3.308531910960202822e+02
-6.374831504824746276e+01,3.680333389095795127e+01,2.845781761616634764e+00,0.000000000000000000e+00,-8.566789209263940552e-02,-9.963227450308969058e-01,3.325373362807264357e+02
-6.458636388071438716e+01,3.716737935588177777e+01,2.369396427739929756e+00,4.595995113953859623e-01,-5.348094314390042792e-01,-7.090452462072516226e-01,3.342214814654325892e+02
-6.543844335930408818e+01,3.751558569994177361e+01,1.851478898684029595e+00,5.764363129600552638e-01,-1.163998612659326772e-03,-8.171400260713529429e-01,3.360098362883581444e+02
-6.625128222340575235e+01,3.782390064265027263e+01,1.326178378003588065e+00,0.000000000000000000e+00,9.968731427319704741e-01,-7.900593205829629928e-02,3.377981911112836997e+02
-6.702573957019750139e+01,3.809359816625239148e+01,7.988740857147759167e-01,6.991536932644971669e-01,-5.387427636406212361e-01,-4.700407937818241177e-01,3.395865459342092549e+02
-6.793813496246461625e+01,3.837208582766157861e+01,1.424943215350475134e-01,9.968779763713292441e-01,-0.000000000000000000e+00,-7.894491893663582727e-02,3.418331500898481181e+02
-6.877825924336951857e+01,3.858034360262627871e+01,-4.967881331240259213e-01,9.968779756678982640e-01,-0.000000000000000000e+00,-7.894491888092960985e-02,3.440797542454869813e+02
-6.945144632001853324e+01,3.871146938249099634e+01,-1.029237969966201982e+00,0.000000000000000000e+00,2.016697227948960336e-02,9.997956257309897898e-01,3.460221404963771192e+02
-7.008040850346608863e+01,3.880486849627307322e+01,-1.538628342434316121e+00,-5.741094903284241768e-01,1.828998376287972218e-03,-8.187752731238713277e-01,3.479645267472672572e+02
-7.064693387394287072e+01,3.886322598035199860e+01,-2.004744156040480174e+00,-5.708409097560207535e-01,4.334659808265310839e-03,-8.210480293337996116e-01,3.498381785749494952e+02
-7.110465491443649455e+01,3.889280825602278924e+01,-2.384433520976876331e+00,-5.675596979828992916e-01,6.840225296597338828e-03,-8.233026178405568052e-01,3.514450610823338934e+02
-7.153910945506451924e+01,3.890697412718380122e+01,-2.745958306667374504e+00,-5.642659276139285751e-01,9.345639399904372840e-03,-8.255389887569654084e-01,3.530519435897182916e+02
-7.194413702947457523e+01,3.890755542138690970e+01,-3.083013736648286596e+00,-5.609596715317531901e-01,1.185084668016177060e-02,-8.277570925988102513e-01,3.546314714484562955e+02
-7.232795066457465794e+01,3.889658060668833173e+01,-3.401358795304139093e+00,-5.576410028952809572e-01,1.435579170392684359e-02,-8.299568802860750605e-01,3.562109993071942995e+02
-7.269096761470652268e+01,3.887556714457395657e+01,-3.700403292198663596e+00,-5.543099951380633383e-01,1.686041904356536461e-02,-8.321383031440278133e-01,3.577905271659323034e+02
-7.303481250474088426e+01,3.884586249386505585e+01,-3.980706715668439699e+00,-5.509667219666711802e-01,1.936467327847794795e-02,-8.343013129042983200e-01,3.593760263130449175e+02
-7.335843809816265093e+01,3.880915053462286579e+01,-4.240723352817103553e+00,-5.476112573590633525e-01,2.186849899632624383e-02,-8.364458617059452594e-01,3.609615254601575316e+02
-7.366147526662396672e+01,3.876731848416415005e+01,-4.479618966540310332e+00,-5.442436755629501688e-01,2.437184079425901151e-02,-8.385719020965155535e-01,3.625427489596182227e+02
-7.394523334542164150e+01,3.872197175208106046e+01,-4.698104106775333300e+00,-5.408640510941504775e-01,2.687464328013789566e-02,-8.406793870330938612e-01,3.641239724590789137e+02
-7.437217362137513987e+01,3.863818961886298098e+01,-5.008555400343349895e+00,-5.374724587349426486e-01,2.937685107376303978e-02,-8.427682698833436348e-01,3.668740225112421740e+02
-7.443386734180775477e+01,3.862403128391102314e+01,-5.050773816702572638e+00,-5.340689735324104515e-01,3.187840880809840460e-02,-8.448385044265386279e-01,3.673254196823474444e+02
-7.464877848296072216e+01,3.857298811568804808e+01,-5.193000457191085495e+00,-5.306536707967816069e-01,3.437926113049678822e-02,-8.468900448545850779e-01,3.689782095755043656e+02
-7.484327464934264640e+01,3.852365156319461192e+01,-5.312027987890076020e+00,-5.272266260997625631e-01,3.687935270392452697e-02,-8.489228457730357835e-01,3.706309994686612868e+02
-7.501774618942964423e+01,3.847671433910527838e+01,-5.407502925758747914e+00,-5.237879152728653898e-01,3.937862820818587711e-02,-8.509368622020940798e-01,3.722837893618182079e+02
-7.524362808001897918e+01,3.840945985099754978e+01,-5.493079253528729389e+00,-5.203376144057302310e-01,4.187703234114698719e-02,-8.529320495776087085e-01,3.749852023376957391e+02
-7.527403250555009606e+01,3.839946376152580854e+01,-5.498595576458671808e+00,-5.168757998444419854e-01,4.437450981995944010e-02,-8.549083637520598078e-01,3.754370040723335933e+02
-7.541277611272353454e+01,3.834899007774698987e+01,-5.481303850650126819e+00,-5.134025481898405463e-01,4.687100538228353847e-02,-8.568657609955361298e-01,3.781144303587176410e+02
-7.547253914520590001e+01,3.831723512671516119e+01,-5.393341974675747608e+00,-5.099179362958263795e-01,4.936646378751090997e-02,-8.588041979967016015e-01,3.804547655798012897e+02
-7.547178534747759215e+01,3.829205278798202272e+01,-5.214419410692734402e+00,-5.064220412676595506e-01,5.186082981798667557e-02,-8.607236318637542238e-01,3.831657672742510385e+02
-7.543716602350663436e+01,3.828062857667580943e+01,-5.067255401713281593e+00,-5.029149404602542006e-01,5.435404828023135404e-02,-8.626240201253746465e-01,3.848621306390451764e+02
-7.538783378763834264e+01,3.827068414058944512e+01,-4.912516551965971701e+00,-4.993967114764663595e-01,5.684606400616187133e-02,-8.645053207316659716e-01,3.864687383325978089e+02
-7.532318827000375450e+01,3.826053927665241616e+01,-4.745200688154159074e+00,-4.958674321653774308e-01,5.933682185431221612e-02,-8.663674920550834546e-01,3.880753460261504415e+02
-7.524731991786549656e+01,3.824963007454850583e+01,-4.574783876249735926e+00,-4.923271806205714030e-01,6.182626671105351246e-02,-8.682104928913564335e-01,3.896170804303950490e+02
-7.515846334759939396e+01,3.823652670893382322e+01,-4.396600129434189874e+00,-4.887760351784069535e-01,6.431434349181340548e-02,-8.700342824603988223e-01,3.911588148346396565e+02
-7.505686944545603012e+01,3.822010207983286278e+01,-4.212200724556282694e+00,-4.852140744162842800e-01,6.680099714229478791e-02,-8.718388204072121672e-01,3.927005492388842640e+02
-7.490869711576303303e+01,3.819208024085390463e+01,-3.973076263268031649e+00,-4.816413771509062136e-01,6.928617263969399920e-02,-8.736240668027778211e-01,3.946400530238337865e+02
-7.473597873037896022e+01,3.815296194489491910e+01,-3.728209280108833568e+00,-4.780580224365347242e-01,7.176981499391804631e-02,-8.753899821449406815e-01,3.965795568087833090e+02
-7.453935411254437327e+01,3.810012775941104479e+01,-3.480782367568435287e+00,-4.744640895632414312e-01,7.425186924880151917e-02,-8.771365273592829359e-01,3.985190605937328314e+02
-7.433852641261809424e+01,3.803784013333006442e+01,-3.253165721385379960e+00,-4.708596580551532851e-01,7.673228048332224327e-02,-8.788636637999884815e-01,4.003049848893569447e+02
-7.412010232966511580e+01,3.796136568627476038e+01,-3.027917806878572815e+00,-4.672448076686931406e-01,7.921099381281668239e-02,-8.805713532506979080e-01,4.020909091849810579e+02
-7.388454848792650864e+01,3.786913541092711455e+01,-2.806820675614960514e+00,-4.636196183908148916e-01,8.168795439019409244e-02,-8.822595579253542653e-01,4.038768334806051712e+02
-7.366981737152518406e+01,3.777713358061146209e+01,-2.621116714022191818e+00,-4.599841704372338302e-01,8.416310740715014782e-02,-8.839282404690383954e-01,4.054108889543014698e+02
-7.344493091809015084e+01,3.767354214521479605e+01,-2.440012102063356281e+00,-4.563385442506516787e-01,8.663639809537940217e-02,-8.855773639587958268e-01,4.069449444279977683e+02
-7.321014689083818894e+01,3.755785730319491478e+01,-2.264379653133733683e+00,-4.526828204989769011e-01,8.910777172778740207e-02,-8.872068919044536761e-01,4.084789999016940669e+02
-7.296572086869856832e+01,3.742957391465580486e+01,-2.095026539892159700e+00,-4.490170800735396317e-01,9.157717361970110770e-02,-8.888167882494274474e-01,4.100130553753903655e+02
-7.271190806578842114e+01,3.728826554759925926e+01,-1.932727091496427851e+00,-4.453414040873020507e-01,9.404454913007916084e-02,-8.904070173715190606e-01,4.115471108490866641e+02
-7.232220502128556916e+01,3.705338768914627678e+01,-1.715095544872876410e+00,-4.416558738730633760e-01,9.650984366272065407e-02,-8.919775440837053315e-01,4.137753540583346989e+02
-7.190446532588666173e+01,3.677823091921279541e+01,-1.523654400994592262e+00,-4.379605709816607462e-01,9.897300266747306730e-02,-8.935283336349154615e-01,4.160035972675827338e+02
-7.155139353256544155e+01,3.653033219410296084e+01,-1.387368253813479724e+00,-4.342555771801647757e-01,1.014339716414392883e-01,-8.950593517108004216e-01,4.177925781126367610e+02
-7.115783400195851982e+01,3.623991287309185338e+01,-1.255431627362345814e+00,-4.305409744500700020e-01,1.038926961301835789e-01,-8.965705644344922343e-01,4.197100005893018988e+02
-7.074857018113630147e+01,3.592307685613525337e+01,-1.136203424264518702e+00,-4.268168449854812807e-01,1.063491217289359997e-01,-8.980619383673530409e-01,4.216274230659670366e+02
-7.032418169582049927e+01,3.557992745753372077e+01,-1.026446163141615964e+00,-4.230832711912954069e-01,1.088031940837967393e-01,-8.995334405097153985e-01,4.235448455426321743e+02
-6.993763040550902588e+01,3.525601982153357028e+01,-9.342839262248532339e-01,-4.193403356813771299e-01,1.112548588929381382e-01,-9.009850383016118069e-01,4.252399311707904985e+02
-6.954161580944759180e+01,3.491442556060427194e+01,-8.440256959306983164e-01,-4.155881212767321697e-01,1.137040619078064502e-01,-9.024166996234951332e-01,4.269350167989488227e+02
-6.909779069947768448e+01,3.452050527340854558e+01,-7.452239574581703829e-01,-4.118267110036740730e-01,1.161507489343219929e-01,-9.038283927969495979e-01,4.287874910091637730e+02
-6.867342144570842777e+01,3.413370363857519862e+01,-6.510846043793288018e-01,-4.080561880919872930e-01,1.185948658340781892e-01,-9.052200865853911038e-01,4.305164043920318591e+02
-6.824005404304683964e+01,3.372950273682926792e+01,-5.536107570949371226e-01,-4.042766359730859960e-01,1.210363585255394836e-01,-9.065917501947589052e-01,4.322453177748999451e+02
-6.786148904594358555e+01,3.336954293410157391e+01,-4.667059558851876511e-01,-4.004881382781679267e-01,1.234751729852378577e-01,-9.079433532741958413e-01,4.337302406261237024e+02
-6.769535095437331051e+01,3.320984357855573421e+01,-4.280783993091071826e-01,-3.966907788363637222e-01,1.259112552489679848e-01,-9.092748659167212422e-01,4.343771228829025404e+02
-6.728861052045800761e+01,3.281429141356245793e+01,-3.322280016134165903e-01,-3.928846416728827284e-01,1.283445514129813170e-01,-9.105862586598911790e-01,4.359482980328901931e+02
-6.687605893593818962e+01,3.240584954964675291e+01,-2.331332392407543808e-01,-3.890698110071533211e-01,1.307750076351788249e-01,-9.118775024864512746e-01,4.375194731828778458e+02
-6.649505076687239580e+01,3.202217367931260128e+01,-1.404613426591326542e-01,-3.852463712509600624e-01,1.332025701363020453e-01,-9.131485688249781907e-01,4.389529461146747735e+02
-6.602314675508742425e+01,3.153764489277050131e+01,-2.520522016161810819e-02,-3.814144070065754732e-01,1.356271852011230461e-01,-9.143994295505117886e-01,4.407046881510376579e+02
-6.554371737881619708e+01,3.103404816995611526e+01,9.121447341545897702e-02,-3.775740030648883638e-01,1.380487991796329472e-01,-9.156300569851772986e-01,4.424564301874005423e+02
-6.505707430578249273e+01,3.051089579848033750e+01,2.072882781729561974e-01,-3.737252444035281673e-01,1.404673584882287773e-01,-9.168404238987980515e-01,4.442081722237634267e+02
-6.456352584793694405e+01,2.996765810063227065e+01,3.213479453561860488e-01,-3.698682161849844441e-01,1.428828096108991641e-01,-9.180305035094974420e-01,4.459599142601263111e+02
-6.384491320329682651e+01,2.914963680056379403e+01,4.757319972040853773e-01,-3.660030037547222781e-01,1.452950991004084147e-01,-9.192002694842917876e-01,4.484558067237550745e+02
-6.339562985086064373e+01,2.862220339549704917e+01,5.650440749716419964e-01,-3.621296926392947313e-01,1.477041735794788480e-01,-9.203496959396724186e-01,4.499873625635356689e+02
-6.294274482181099017e+01,2.807996438868878641e+01,6.507575928725815029e-01,-3.582483685444499688e-01,1.501099797419719328e-01,-9.214787574421787752e-01,4.515189184033162633e+02
-6.248643544512875536e+01,2.752277437113349023e+01,7.324633922835745992e-01,-3.543591173532351091e-01,1.525124643540676228e-01,-9.225874290089610685e-01,4.530504742430968577e+02
-6.202687930803841709e+01,2.695058524980424508e+01,8.097523406418454250e-01,-3.504620251240962436e-01,1.549115742554423303e-01,-9.236756861083329495e-01,4.545820300828774521e+02
-6.156425390640741568e+01,2.636344620453516896e+01,8.822153341054309594e-01,-3.465571780889740161e-01,1.573072563604447915e-01,-9.247435046603140751e-01,4.561135859226580465e+02
-6.109873629530305550e+01,2.576150364332892551e+01,9.494433002133013666e-01,-3.426446626513960925e-01,1.596994576592709048e-01,-9.257908610371630154e-01,4.576451417624386409e+02
-6.063050128479079603e+01,2.514496183271920415e+01,1.011183422124261932e+00,-3.387245653845649129e-01,1.620881252191362920e-01,-9.268177320638999461e-01,4.591766976022192353e+02
-6.015971982771414162e+01,2.451404200768620356e+01,1.067495361839576606e+00,-3.347969730294428348e-01,1.644732061854477512e-01,-9.278240950188193503e-01,4.607082534419998296e+02
-5.968656042067092216e+01,2.386901936886194875e+01,1.118595038235319583e+00,-3.308619724928327233e-01,1.668546477829725427e-01,-9.288099276339928378e-01,4.622398092817804240e+02
-5.921119032062158283e+01,2.321026159914183040e+01,1.164698404078440275e+00,-3.269196508454548789e-01,1.692323973170058449e-01,-9.297752080957618626e-01,4.637713651215610184e+02
-5.873377521265174295e+01,2.253822881537567113e+01,1.206021444621600436e+00,-3.229700953200208557e-01,1.716064021745369872e-01,-9.307199150452197811e-01,4.653029209613416128e+02
-5.825447887789659518e+01,2.185347351856219689e+01,1.242780176197850972e+00,-3.190133933093031726e-01,1.739766098254133531e-01,-9.316440275786853631e-01,4.668344768011222072e+02
-5.777346286162920563e+01,2.115664054254751392e+01,1.275190644815160201e+00,-3.150496323642021923e-01,1.763429678235025055e-01,-9.325475252481641997e-01,4.683660326409028016e+02
-5.726315926963024339e+01,2.040744649310501302e+01,1.304839704712657644e+00,-3.110789001918085606e-01,1.787054238078527590e-01,-9.334303880618022298e-01,4.699849865328579313e+02
-5.675100928314189019e+01,1.964601037513977388e+01,1.329883896878768956e+00,-3.071012846534625362e-01,1.810639255038516138e-01,-9.342925964843267206e-01,4.716039404248130609e+02
-5.623720325459569835e+01,1.887349161840171874e+01,1.350592737039107094e+00,-3.031168737628108789e-01,1.834184207243821640e-01,-9.351341314374801428e-01,4.732228943167681905e+02
-5.572192678723049397e+01,1.809117119155763831e+01,1.367235772410299033e+00,-2.991257556838583520e-01,1.857688573709782853e-01,-9.359549743004408340e-01,4.748418482087233201e+02
-5.520536027334648566e+01,1.730045151992138841e+01,1.380082579740690152e+00,-2.951280187290182822e-01,1.881151834349764906e-01,-9.367551069102353356e-01,4.764608021006784497e+02
-5.468767843282071794e+01,1.650285640098532269e+01,1.389402763350889192e+00,-2.911237513571575120e-01,1.904573469986673706e-01,-9.375345115621408487e-01,4.780797559926335794e+02
-5.416904807977370950e+01,1.569993876236234165e+01,1.395596659811928042e+00,-2.871130421716400205e-01,1.927952962364439804e-01,-9.382931710100762546e-01,4.796987098845887090e+02
-5.364962636274967878e+01,1.489318639971619440e+01,1.399326041673329968e+00,-2.830959799183662695e-01,1.951289794159483948e-01,-9.390310684669843644e-01,4.813176637765438386e+02
-5.312956279624912526e+01,1.408411101843059221e+01,1.401383406015615396e+00,-2.790726534838096629e-01,1.974583448992165979e-01,-9.397481876052025118e-01,4.829366176684989682e+02
-5.260900082951459211e+01,1.327433929634976728e+01,1.402561262052760105e+00,-2.750431518930498420e-01,1.997833411438206530e-01,-9.404445125568243746e-01,4.845555715604540978e+02
-5.208807740939373332e+01,1.246561279929209753e+01,1.403652125372350845e+00,-2.710075643078030949e-01,2.021039167040094287e-01,-9.411200279140510272e-01,4.861745254524092275e+02
-5.156692254345787774e+01,1.165978789448202768e+01,1.405448512175707432e+00,-2.669659800244498782e-01,2.044200202318464110e-01,-9.417747187295318900e-01,4.877934793443643571e+02
-5.105847793426089964e+01,1.087829351853894622e+01,1.408613389367517454e+00,-2.629184884720586757e-01,2.067316004783462391e-01,-9.424085705166947990e-01,4.893727520113143896e+02
-5.055011951078117249e+01,1.010302020082465546e+01,1.413856569486587222e+00,-2.588651792104074700e-01,2.090386062946084922e-01,-9.430215692500679703e-01,4.909520246782644222e+02
-5.031535124343348997e+01,9.746542992257356985e+00,1.416977481259845906e+00,-2.548061419280024942e-01,2.113409866329490072e-01,-9.436137013655885308e-01,4.916820883707489998e+02
-4.967970515023716871e+01,8.790894818827760915e+00,1.429041136793826494e+00,-2.507414664400935966e-01,2.136386905480298914e-01,-9.441849537609040555e-01,4.936592775981091563e+02
-4.904335038933204061e+01,7.854217924690725106e+00,1.448247887708205672e+00,-2.466712426866871366e-01,2.159316671979862878e-01,-9.447353137956617797e-01,4.956364668254693129e+02
-4.849488176266943640e+01,7.062409003739217539e+00,1.471092651146715724e+00,-2.425955607305560757e-01,2.182198658455515028e-01,-9.452647692917885980e-01,4.973401002483557249e+02
-4.794667917275507563e+01,6.284290198145809470e+00,1.499989236614077237e+00,-2.385145107552471555e-01,2.205032358591794139e-01,-9.457733085337605150e-01,4.990437336712421370e+02
-4.735070329594594085e+01,5.455072486371581597e+00,1.538873739595374213e+00,-2.344281830630859376e-01,2.227817267141647406e-01,-9.462609202688613275e-01,5.008965341539060887e+02
-4.675489406776459589e+01,4.645068851785867814e+00,1.585912191654945236e+00,-2.303366680731784855e-01,2.250552879937611217e-01,-9.467275937074326464e-01,5.027493346365700404e+02
-4.615934894751851658e+01,3.854965249293470286e+00,1.640973881630638953e+00,-2.262400563194110481e-01,2.273238693902963903e-01,-9.471733185231120400e-01,5.046021351192339921e+02
-4.556415659948441288e+01,3.085259737608956776e+00,1.703495905448397352e+00,-2.221384384484466068e-01,2.295874207062856831e-01,-9.475980848530610734e-01,5.064549356018979438e+02
-4.488068632297214577e+01,2.229273499538738434e+00,1.784075520177397456e+00,-2.180319052177199790e-01,2.318458918555421078e-01,-9.480018832981844668e-01,5.085831919509165573e+02
-4.419723529528037176e+01,1.406355560953141293e+00,1.872858239995846219e+00,-2.139205474934293694e-01,2.340992328642850229e-01,-9.483847049233377069e-01,5.107114482999352276e+02
-4.374129415602079263e+01,8.728550694239902707e-01,1.935066342388729765e+00,-2.098044562485257281e-01,2.363473938722455148e-01,-9.487465412575250001e-01,5.121325121927999362e+02
-4.282676774020103494e+01,-1.460582821863198322e-01,2.060249177077438265e+00,-2.056837225607004993e-01,2.385903251337697095e-01,-9.490873842940856786e-01,5.149820309329513748e+02
