1.670890661639445796e+01,1.797013431012976170e+01,-8.053238434192898865e+00,1.270998420249289107e-03,1.158168560487898707e-01,9.932687654453276060e-01,6.010633580849721369e+01
1.840313311043202660e+01,1.965019882585218980e+01,-7.626274619870658356e+00,-9.999989999999999712e-01,0.000000000000000000e+00,0.000000000000000000e+00,6.299307464477005425e+01
1.971390474624896427e+01,2.101883603320502658e+01,-7.262608310880990459e+00,5.179124917785993265e-01,7.186022948440698999e-01,4.640855445983457228e-01,6.524293661838004255e+01
2.101760634293818342e+01,2.243361937322736210e+01,-6.890676491253222125e+00,0.000000000000000000e+00,1.466699169441199220e-02,9.998914337839366340e-01,6.749279859199003795e+01
2.239426719225027895e+01,2.399236569547233344e+01,-6.500066540989549502e+00,-9.359985444585987085e-04,-1.157798199545048701e-01,9.932734553922166754e-01,6.988417700898770590e+01
2.333340814471684865e+01,2.509072640895493578e+01,-6.239815559053048410e+00,-0.000000000000000000e+00,9.997078536729939735e-01,-2.412897233222435420e-02,7.152344036060237897e+01
2.451519672535662764e+01,2.650979883263393688e+01,-5.924642977442152514e+00,-5.517134353487254117e-01,-8.267481538643632888e-01,1.099898874308179869e-01,7.359432021803705481e+01
2.604418358553523660e+01,2.843309934430786612e+01,-5.549050369938909988e+00,-0.000000000000000000e+00,1.173078338873077553e-01,9.930945937374243693e-01,7.629843917353215943e+01
2.662634339860987609e+01,2.918919108481110314e+01,-5.415799935099498086e+00,-1.446577468081838326e-02,1.174289339581008479e-01,9.929749175251970650e-01,7.733463552839180011e+01
2.693907353497584012e+01,2.959645510509986366e+01,-5.345277195027954065e+00,-2.892852187695743246e-02,1.175254575572465404e-01,9.926474235345580377e-01,7.789101077776658144e+01
2.751828582095358655e+01,3.035262404815200554e+01,-5.216620234626664576e+00,-4.338521471065242413e-02,1.175973844833709397e-01,9.921121803047275867e-01,7.892104193766662945e+01
2.837549081375437865e+01,3.148172764554843894e+01,-5.032917491601254234e+00,-5.783282757118142492e-02,1.176446996828739572e-01,9.913692998542297241e-01,8.044738639663522406e+01
2.923042096324898864e+01,3.262174417845747598e+01,-4.858696445537298736e+00,-7.226833674808322283e-02,1.176673932530797329e-01,9.904189376574468184e-01,8.197373085560381867e+01
3.008290842949529775e+01,3.377083559861337392e+01,-4.693929385036621049e+00,-8.668872106397773614e-02,1.176654604443095054e-01,9.892612926120847305e-01,8.350007531457241328e+01
3.055994356810367307e+01,3.441734464822820883e+01,-4.605103492186554348e+00,-1.010909625068564521e-01,1.176389016608759552e-01,9.878966069975486652e-01,8.435532562772920073e+01
3.173094827811966567e+01,3.601919551387667440e+01,-4.401101387708652446e+00,-1.154720468617103507e-01,1.175877224609991195e-01,9.863251664242416172e-01,8.646411939583471451e+01
3.257656774819554357e+01,3.718913358967139260e+01,-4.267426021750370779e+00,-1.298289643413637340e-01,1.175119335556433497e-01,9.845472997737925169e-01,8.799682483877838024e+01
3.341893801765695571e+01,3.835911983398065672e+01,-4.144330869817650864e+00,-1.441587102163809642e-01,1.174115508062761187e-01,9.825633791302291753e-01,8.952953028172204597e+01
3.428063382831100370e+01,3.955822274198014554e+01,-4.029380587959567883e+00,-1.584582854439154642e-01,1.172865952215489949e-01,9.803738197021110157e-01,9.110419438554150418e+01
3.513817538173643840e+01,4.075117251234220106e+01,-3.926485127046405843e+00,-1.727246972953683235e-01,1.171370929529011035e-01,9.779790797356348042e-01,9.267885848936096238e+01
3.599128983037903140e+01,4.193471983582497131e+01,-3.835821371727936135e+00,-1.869549599827260433e-01,1.169630752890866571e-01,9.753796604187343622e-01,9.425352259318042059e+01
3.683969243921576009e+01,4.310580930859519100e+01,-3.757566122507090878e+00,-2.011460952834450977e-01,1.167645786496269572e-01,9.725761057761924677e-01,9.582818669699987879e+01
3.768308730303552068e+01,4.426157959057005087e+01,-3.691896094525424221e+00,-2.152951331637546484e-01,1.165416445771889353e-01,9.695690025557882619e-01,9.740285080081933700e+01
3.852116676155272756e+01,4.539918291655438765e+01,-3.638767364415080419e+00,-2.293991124002445203e-01,1.162943197288913433e-01,9.663589801055045836e-01,9.897751490463879520e+01
3.935360991882586745e+01,4.651560571093561691e+01,-3.597694818667636074e+00,-2.434550811996100406e-01,1.160226558665406194e-01,9.629467102418172164e-01,1.005521790084582534e+02
4.018008332577497299e+01,4.760785104771296261e+01,-3.567972708904114221e+00,-2.574600978164233722e-01,1.157267098457982896e-01,9.593329071090975768e-01,1.021268431122777116e+02
4.101910728918497995e+01,4.869723709503391973e+01,-3.548693641836257129e+00,-2.714112311688024470e-01,1.154065436042826381e-01,9.555183270301578213e-01,1.037381329339357450e+02
4.185086964247106067e+01,4.975494897832079744e+01,-3.540043083702249849e+00,-2.853055614518480998e-01,1.150622241486063957e-01,9.515037683479666830e-01,1.053494227555937783e+02
4.267497088032734354e+01,5.077836093927030703e+01,-3.541247246880043331e+00,-2.991401807487215070e-01,1.146938235403539008e-01,9.472900712585722305e-01,1.069607125772518117e+02
4.349100169644267311e+01,5.176506988513374807e+01,-3.551532272755863140e+00,-3.129121936392338377e-01,1.143014188810001358e-01,9.428781176352659665e-01,1.085720023989098451e+02
4.429854382534008295e+01,5.271289556219486627e+01,-3.570124237295339231e+00,-3.266187178058209128e-01,1.138850922957751061e-01,9.382688308440225722e-01,1.101832922205678784e+02
4.509717088477069069e+01,5.361988072525580407e+01,-3.596249156614986120e+00,-3.402568846367752808e-01,1.134449309164766578e-01,9.334631755502579287e-01,1.117945820422259118e+02
4.588644921865623871e+01,5.448429130312851498e+01,-3.629132992554005899e+00,-3.538238398266113638e-01,1.129810268632357173e-01,9.284621575169426100e-01,1.134058718638839451e+02
4.666593741926823213e+01,5.530441489405864530e+01,-3.667910857178912298e+00,-3.673167439734357220e-01,1.124934772252373788e-01,9.232668233941138114e-01,1.150171616855419785e+02
4.743518482608214981e+01,5.607836037659335915e+01,-3.711536217942109417e+00,-3.807327731731985909e-01,1.119823840404021442e-01,9.178782604998323436e-01,1.166284515072000119e+02
4.819373216148659367e+01,5.680426141703087950e+01,-3.758871706283033465e+00,-3.940691196107025118e-01,1.114478542740312689e-01,9.122975965926244379e-01,1.182397413288580452e+02
4.894111319655533521e+01,5.748047886501741033e+01,-3.808779926883175460e+00,-4.073229921472446002e-01,1.108899997964211959e-01,9.065259996354648742e-01,1.198510311505160786e+02
4.967685560942555867e+01,5.810560092219552075e+01,-3.860123465853774416e+00,-4.204916169047668295e-01,1.103089373594511313e-01,9.005646775513413971e-01,1.214623209721741119e+02
5.037376684432807394e+01,5.865874067980939088e+01,-3.909842279057440528e+00,-4.335722378463973681e-01,1.097047885721490479e-01,8.944148779704581553e-01,1.230130338369359322e+02
5.105956212103251346e+01,5.916435203019602085e+01,-3.958850073074529963e+00,-4.465621173532553501e-01,1.090776798752413901e-01,8.880778879691288985e-01,1.245637467016977524e+02
5.173382502274525763e+01,5.962179834444960136e+01,-4.006170659816398860e+00,-4.594585367974025614e-01,1.084277425146910889e-01,8.815550338004138897e-01,1.261144595664595727e+02
5.239613688768649524e+01,6.003063122902212712e+01,-4.050827862400762314e+00,-4.722587971108215266e-01,1.077551125142304500e-01,8.748476806165580433e-01,1.276651724312213929e+02
5.304607749335806943e+01,6.039059064385203612e+01,-4.091845521660354201e+00,-4.849602193502984826e-01,1.070599306468935363e-01,8.679572321832871307e-01,1.292158852959832132e+02
5.368322574122196755e+01,6.070160501737036896e+01,-4.128247502651497314e+00,-4.975601452580965534e-01,1.063423424055551375e-01,8.608851305860237835e-01,1.307665981607450192e+02
5.430716034178476548e+01,6.096379135838265029e+01,-4.159057701162554466e+00,-5.100559378182990544e-01,1.056024979724815155e-01,8.536328559280832451e-01,1.323173110255068252e+02
5.491745933095174337e+01,6.117723500072690967e+01,-4.183565027595506081e+00,-5.224449818087065767e-01,1.048405521878998103e-01,8.462019260209105997e-01,1.338680238902686312e+02
5.551369850967206787e+01,6.134177025604320477e+01,-4.201588389080466612e+00,-5.347246843481759937e-01,1.040566645175928090e-01,8.385938960664290898e-01,1.354187367550304373e+02
5.609545168810730331e+01,6.145720225605865039e+01,-4.213211713309660489e+00,-5.468924754392812115e-01,1.032509990195251692e-01,8.308103583315602503e-01,1.369694496197922433e+02
5.666229201174616747e+01,6.152352789224873675e+01,-4.218518970604307583e+00,-5.589458085061851378e-01,1.024237243095091204e-01,8.228529418149885810e-01,1.385201624845540493e+02
5.721379265847949114e+01,6.154093593554836161e+01,-4.217594173354576981e+00,-5.708821609276127917e-01,1.015750135259157333e-01,8.147233119062370355e-01,1.400708753493158554e+02
5.776337006975163035e+01,6.150766855969414593e+01,-4.210164855690345043e+00,-5.826990345648078717e-01,1.007050442934399742e-01,8.064231700371274902e-01,1.416629677535833309e+02
5.829539853752856970e+01,6.142257337650078597e+01,-4.196177783365589775e+00,-5.943939562843677527e-01,9.981399868592660818e-02,7.979542533256963610e-01,1.432550601578508065e+02
5.880940876506193149e+01,6.128650905101429203e+01,-4.175726413127665460e+00,-6.059644784758447811e-01,9.890206318826516574e-02,7.893183342126435242e-01,1.448471525621182820e+02
5.930493472063130866e+01,6.110055363911796178e+01,-4.148904247107388699e+00,-6.174081795640062875e-01,9.796942865736144035e-02,7.805172200903861546e-01,1.464392449663857576e+02
5.978151445641589845e+01,6.086600470883062286e+01,-4.115804832162093696e+00,-6.287226645156458460e-01,9.701629028219423134e-02,7.715527529247991900e-01,1.480313373706532332e+02
6.023869092785744783e+01,6.058437945776842071e+01,-4.076521759218457497e+00,-6.399055653408398658e-01,9.604284754296515958e-02,7.624268088697180312e-01,1.496234297749207087e+02
6.067601281350872000e+01,6.025741482676784244e+01,-4.031148662615089862e+00,-6.509545415885445996e-01,9.504930416935050697e-02,7.531412978742879627e-01,1.512155221791881843e+02
6.109303533536164110e+01,5.988706760966775988e+01,-3.979779219444898430e+00,-6.618672808364298721e-01,9.403586809786365630e-02,7.436981632832384559e-01,1.528076145834556598e+02
6.148932107964956373e+01,5.947551455924813979e+01,-3.922507148897220297e+00,-6.726414991748476124e-01,9.300275142833701325e-02,7.340993814301695064e-01,1.543997069877231354e+02
6.186444081811763596e+01,5.902515248932323288e+01,-3.859426211599742640e+00,-6.832749416848310497e-01,9.195017037953265304e-02,7.243469612239323840e-01,1.559917993919906110e+02
6.221797432975570530e+01,5.853859837298711710e+01,-3.790630208960194203e+00,-6.937653829100293157e-01,9.087834524389074020e-02,7.144429437281931694e-01,1.575838917962580865e+02
6.254951122298788846e+01,5.801868943700925740e+01,-3.716212982507832496e+00,-7.041106273224744250e-01,8.978750034142560232e-02,7.043894017342664515e-01,1.591759842005255621e+02
6.286757980264857082e+01,5.745042467922527862e+01,-3.633596787007547846e+00,-7.143085097820858209e-01,8.867786397277853394e-02,6.941884393273078935e-01,1.608177560236051704e+02
6.316069347545634116e+01,5.685237368911774070e+01,-3.545203264319575887e+00,-7.243568959898134541e-01,8.754966837143780822e-02,6.838421914459582585e-01,1.624595278466847788e+02
6.342842009237709533e+01,5.622755273054193736e+01,-3.451663845887669169e+00,-7.342536829343284666e-01,8.640314965513526402e-02,6.733528234355286024e-01,1.641012996697643871e+02
6.366865069504024888e+01,5.558412315029160311e+01,-3.354574100693161309e+00,-7.439967993321645601e-01,8.523854777643009861e-02,6.627225305948225564e-01,1.657303144908346439e+02
6.388325391156884336e+01,5.492024042888495927e+01,-3.254134539154531325e+00,-7.535842060612203408e-01,8.405610647249010803e-02,6.519535377166886247e-01,1.673593293119049008e+02
6.407183505122651468e+01,5.423835628575161394e+01,-3.151450359690076031e+00,-7.630138965875287171e-01,8.285607321408056114e-02,6.410480986223996425e-01,1.689883441329751577e+02
6.428909933846941271e+01,5.319499322121728113e+01,-2.998114075451658866e+00,-7.722838973852084177e-01,8.163869915377185149e-02,6.300084956899567601e-01,1.713957818958127746e+02
6.440651170116672120e+01,5.233739457184537969e+01,-2.876900561264872369e+00,-7.813922683495060362e-01,8.040423907337666820e-02,6.188370393764172084e-01,1.733093333169784671e+02
6.447990220795550442e+01,5.146136231933883920e+01,-2.758496257577883970e+00,-7.903371032028437826e-01,7.915295133062712207e-02,6.075360677343429883e-01,1.752228847381441597e+02
6.450932281050243944e+01,5.063651873516317181e+01,-2.652627355605811754e+00,-7.991165298937874528e-01,7.788509780510408098e-02,5.961079459224771782e-01,1.769943616397087567e+02
6.450253050402055521e+01,4.980077979858467074e+01,-2.551376348110764081e+00,-8.077287109888525718e-01,7.660094384342877594e-02,5.845550657107437820e-01,1.787658385412733537e+02
6.445900573570338565e+01,4.895597414330379848e+01,-2.455588909716657664e+00,-8.161718440570631117e-01,7.530075820372908457e-02,5.728798449796792536e-01,1.805373154428379507e+02
6.437823026829755690e+01,4.810355394106082372e+01,-2.365612460479632251e+00,-8.244441620471864018e-01,7.398481299939183020e-02,5.610847272143997255e-01,1.823087923444025478e+02
6.425968846637837828e+01,4.724499398355420965e+01,-2.281545266355150758e+00,-8.325439336575640725e-01,7.265338364211262889e-02,5.491721809932079701e-01,1.840802692459671448e+02
6.411405151035380356e+01,4.643287812972913287e+01,-2.207733527075289803e+00,-8.404694636984583189e-01,7.130674878425559415e-02,5.371446994709486722e-01,1.857479976157101191e+02
6.393593794329520819e+01,4.561879739580882642e+01,-2.138892912337604812e+00,-8.482190934468425425e-01,6.994519026053468147e-02,5.250047998572211494e-01,1.874157259854530935e+02
6.374563555752873611e+01,4.487463956122439157e+01,-2.079957995546175553e+00,-8.557912009935605413e-01,6.856899302902878801e-02,5.127550228895536577e-01,1.889390883555622622e+02
6.352982765653428743e+01,4.413089005109114282e+01,-2.024226404773187937e+00,-8.631842015827776438e-01,6.717844511154359710e-02,5.003979323016596314e-01,1.904624507256714310e+02
6.328823912695252574e+01,4.338824554700793357e+01,-1.971165866532615274e+00,-8.703965479436601704e-01,6.577383753333176930e-02,4.879361142868734458e-01,1.919858130957805997e+02
6.295253419513257853e+01,4.248109511881533962e+01,-1.909136462788647348e+00,-8.774267306142062850e-01,6.435546426218460847e-02,4.753721769568916011e-01,1.938525587422797400e+02
6.256896401066234148e+01,4.157889754781882630e+01,-1.849536204488116731e+00,-8.842732782571657291e-01,6.292362214690797040e-02,4.627087497959218587e-01,1.957193043887788804e+02
6.190034698082019560e+01,4.027779204974615368e+01,-1.764658256390181368e+00,-8.909347579679798290e-01,6.147861085519511215e-02,4.499484831103620630e-01,1.984406693608128194e+02
6.147906784852239781e+01,3.957029094252435186e+01,-1.718236303356552419e+00,-8.974097755746776039e-01,6.002073281090943013e-02,4.370940474741192849e-01,1.999363587990146698e+02
6.051495694503750400e+01,3.817845340081763084e+01,-1.621543506865117834e+00,-9.036969759296663574e-01,5.855029313079061076e-02,4.241481331696878021e-01,2.029129500469389313e+02
5.952056060771608514e+01,3.698310692610733952e+01,-1.529187853804420794e+00,-9.097950431933529147e-01,5.706759956059673927e-02,4.111134496251001025e-01,2.055053673847398272e+02
5.879714038424632605e+01,3.619789841399134644e+01,-1.463192379908110130e+00,-9.157027011095411062e-01,5.557296241069668158e-02,3.979927248468748124e-01,2.072214651416229287e+02
5.803277327826268106e+01,3.541605848185570693e+01,-1.393344132924788203e+00,-9.214187132725411011e-01,5.406669449112518067e-02,3.847887048490708506e-01,2.089375628985060303e+02
5.722696879024622518e+01,3.463681588506479869e+01,-1.318969428035888125e+00,-9.269418833859418561e-01,5.254911104611515588e-02,3.715041530785770929e-01,2.106536606553891318e+02
5.635349963643415094e+01,3.383710718537023610e+01,-1.236907199390917755e+00,-9.322710555129856136e-01,5.102052968812029188e-02,3.581418498367504033e-01,2.124193393247330448e+02
5.543386979482654198e+01,3.303896404827257527e+01,-1.148420771267029572e+00,-9.374051143184987112e-01,4.948127033134199632e-02,3.447045916975269297e-01,2.141850179940769578e+02
5.459546498312049323e+01,3.234352444571763385e+01,-1.065790515921043680e+00,-9.423429853023218561e-01,4.793165512477475659e-02,3.311951909221284573e-01,2.157256422970113476e+02
5.372543451206977494e+01,3.164882783055038118e+01,-9.780416596626012593e-01,-9.470836350241957913e-01,4.637200838478355153e-02,3.176164748704840557e-01,2.172662665999457374e+02
5.282344382556385654e+01,3.095469142225108428e+01,-8.848071149517704459e-01,-9.516260713200528354e-01,4.480265652722768832e-02,3.039712854094913652e-01,2.188068909028801272e+02
5.188915481099142113e+01,3.026084188542326459e+01,-7.857548562808234216e-01,-9.559693435096692227e-01,4.322392799914534511e-02,2.902624783182432555e-01,2.203475152058145170e+02
5.020125864406505656e+01,2.908138735416370579e+01,-5.980962412083823398e-01,-9.601125425956354986e-01,4.163615321001279401e-02,2.764929226903409809e-01,2.229568572653024887e+02
4.908222478010620904e+01,2.834389756272229377e+01,-4.683746291891339730e-01,-9.640548014536025612e-01,4.003966446259302897e-02,2.626655003334215643e-01,2.245814899898486487e+02
4.792389632654243314e+01,2.760532880626126939e+01,-3.314263703888100654e-01,-9.677952950137654886e-01,3.843479588338803016e-02,2.487831051660229220e-01,2.262061227143948088e+02
4.672583542579846494e+01,2.686543458057363054e+01,-1.874657487901331132e-01,-9.713332404335428549e-01,3.682188335270936835e-02,2.348486426119158477e-01,2.278307554389409688e+02
4.510387972775485110e+01,2.590305325500879619e+01,1.060703266416814644e-02,-9.746678972614197800e-01,3.520126443438180430e-02,2.208650289920265353e-01,2.299361849680944658e+02
4.339439136213799486e+01,2.493593047497837745e+01,2.220859316892962176e-01,-9.777985675919196318e-01,3.357327830509442695e-02,2.068351909140797307e-01,2.320416144972479628e+02
4.179554309481082441e+01,2.406911916668516938e+01,4.205590314592339563e-01,-9.807245962116686311e-01,3.193826568341416594e-02,1.927620646600862464e-01,2.339228117885992333e+02
4.013221917594146504e+01,2.320139331019319329e+01,6.258667284052137347e-01,-9.834453707365280462e-01,3.029656875847683978e-02,1.786485955718092877e-01,2.358040090799505037e+02
3.840361826462834927e+01,2.233412271229841650e+01,8.360662639286504660e-01,-9.859603217397591157e-01,2.864853111837014840e-02,1.644977374343316590e-01,2.376852063713017742e+02
3.679501007461825424e+01,2.155616372420145410e+01,1.027483615922297311e+00,-9.882689228712007168e-01,2.699449767822404214e-02,1.503124518578572155e-01,2.393772263515389511e+02
3.513753912298790283e+01,2.078215596935438114e+01,1.219327213288356804e+00,-9.903706909674294678e-01,2.533481460802328861e-02,1.360957076578740987e-01,2.410692463317761280e+02
3.343069125036108602e+01,2.001398571165107043e+01,1.409734152461390444e+00,-9.922651861528797301e-01,2.366982926015727406e-02,1.218504802338092885e-01,2.427612663120133050e+02
3.143888277326248115e+01,1.915646575517691730e+01,1.620118451661742176e+00,-9.939520119319078528e-01,2.199989009672267612e-02,1.075797509463073953e-01,2.446723705017103612e+02
2.937481786444439535e+01,1.831373347350546865e+01,1.821991916653626475e+00,-9.954308152717716851e-01,2.032534661659348221e-02,9.328650649325898048e-02,2.465834746914074174e+02
2.760269036351418492e+01,1.762527723601837693e+01,1.981712383541958555e+00,-9.967012866765183610e-01,1.864654928227428565e-02,7.897373828471355994e-02,2.481763902549058116e+02
2.578749934306920011e+01,1.695185578280576877e+01,2.131883514791697021e+00,-9.977631602517579301e-01,1.696384944655181942e-02,6.464444181680635559e-02,2.497693058184042059e+02
2.392887640101855951e+01,1.629627180756132176e+01,2.270100227002350035e+00,-9.986162137603106226e-01,1.527759927896011824e-02,5.030161604482896731e-02,2.513622213819026001e+02
2.186737779964590800e+01,1.561165043378491823e+01,2.402461789279759063e+00,-9.992602686687181990e-01,1.358815169207482770e-02,3.594826275557711642e-02,2.530850393346039482e+02
1.975020894358842227e+01,1.495739568104090012e+01,2.513161624889350687e+00,-9.996951901846080624e-01,1.189586026765197466e-02,2.158738593910534964e-02,2.548078572873052963e+02
1.780490106327861355e+01,1.439893667602809302e+01,2.592426939452369794e+00,-9.999208872849028040e-01,1.020107918262657190e-02,7.221991160019926650e-03,2.563537788340681800e+02
1.581855912045955215e+01,1.387011102001624430e+01,2.651425094111231839e+00,-9.999373127348675228e-01,8.504163134986935171e-03,-7.144915071555686670e-03,2.578997003808310637e+02
1.379090945230036702e+01,1.337458095688803539e+01,2.688042814303619021e+00,-9.997444630979953617e-01,6.805467269539702997e-03,-2.151032592921519812e-02,2.594456219275939475e+02
1.172169076703709578e+01,1.291619301889909011e+01,2.700274496485606246e+00,-9.993423787367223809e-01,5.105347103581368839e-03,-3.587123489956964284e-02,2.609915434743568312e+02
8.820597642027481200e+00,1.237127400157593549e+01,2.664991362860452462e+00,-9.987311438039799816e-01,3.404158452492089381e-03,-5.022463641148044305e-02,2.630983951370834575e+02
6.592369176221639648e+00,1.203001396081886298e+01,2.597154174499635371e+00,-9.979108862255783308e-01,1.702257355266851733e-03,-6.456752646509686389e-02,2.646719166653975890e+02
4.319572744207615500e+00,1.174327657046323559e+01,2.497269953717119240e+00,-9.968817776734306690e-01,0.000000000000000000e+00,-7.889690326056383873e-02,2.662454381937117205e+02
1.148115513048857672e-01,1.145485088644444005e+01,2.193724174608212341e+00,-7.142513392293288188e-01,-6.601633892673604009e-01,-2.324377849663518680e-01,2.690423153242666103e+02
-3.196835860655062866e+00,1.147480645532868415e+01,1.895817136789849533e+00,-0.000000000000000000e+00,1.705397561330195683e-02,9.998535702379517387e-01,2.711813290364380578e+02
-6.453214785486720118e+00,1.171406844991945917e+01,1.665358107328591908e+00,-0.000000000000000000e+00,9.968731427319705851e-01,-7.900593205829629928e-02,2.733203427486095052e+02
-9.310832613583349016e+00,1.210256532944503860e+01,1.551252957185618619e+00,-7.270129289260917060e-01,2.249116686482311445e-01,6.487410442403730437e-01,2.752575089428830779e+02
-1.173855880374178717e+01,1.254846700548973182e+01,1.513056434508211590e+00,9.968779763712167785e-01,0.000000000000000000e+00,-7.894491893662693160e-02,2.769460215713796742e+02
-1.219012769361496495e+01,1.264104030729627759e+01,1.510839490487015269e+00,-4.199765354729555478e-01,-5.494543922602732611e-01,-7.223002010792287653e-01,2.772638023249403432e+02
-1.510532782313031319e+01,1.332227261054792677e+01,1.541909108607714574e+00,-9.796745246597280410e-01,-0.000000000000000000e+00,2.005886979235688150e-01,2.793519319047393878e+02
-1.619360365914005584e+01,1.361265938118416940e+01,1.573067426822275960e+00,-0.000000000000000000e+00,-0.000000000000000000e+00,-9.999989999999792101e-01,2.801474229694475184e+02
-1.686773765554762505e+01,1.379690680574860551e+01,1.594452910002958079e+00,-0.000000000000000000e+00,2.192496970719146412e-02,-9.997586186755638149e-01,2.806420738369828314e+02
-1.916873020864635180e+01,1.446935622302494373e+01,1.691596861001613439e+00,-0.000000000000000000e+00,-5.697617808901234149e-01,-8.218086839619550554e-01,2.823526598806212746e+02
-2.141447193875633914e+01,1.520071099793134550e+01,1.829237610539550918e+00,9.997494087567808663e-01,-0.000000000000000000e+00,-2.234098678773217134e-02,2.840632459242597179e+02
-2.388674329760488035e+01,1.609320844339049827e+01,2.031258538839844974e+00,-9.796745246552609476e-01,-0.000000000000000000e+00,2.005886979226541300e-01,2.860001234538141830e+02
-2.628059573278795114e+01,1.704658346245611611e+01,2.278320600376138927e+00,-0.000000000000000000e+00,8.080491350128801709e-02,9.967289330380396661e-01,2.879370009833686481e+02
-2.689388613855084031e+01,1.730308528773849730e+01,2.348449363737346918e+00,-0.000000000000000000e+00,-8.566789207586456012e-02,-9.963227448358041860e-01,2.884420932743479966e+02
-2.824627442717025971e+01,1.787928171694776580e+01,2.508073519552391328e+00,-5.759863546494999875e-01,0.000000000000000000e+00,-8.174580840981232610e-01,2.895637433614400038e+02
-3.064096758460057401e+01,1.895399793504879327e+01,2.817526213014768466e+00,8.370268619307913438e-01,-1.940497361589696712e-01,5.115943044073594237e-01,2.915982218871575924e+02
-3.238739269149203182e+01,1.978374802567639534e+01,3.064299025604113158e+00,0.000000000000000000e+00,-2.786296520869569956e-02,9.996107518284006455e-01,2.931261772873576206e+02
-3.409626342611502281e+01,2.062628301213677062e+01,3.316509743390435361e+00,-0.000000000000000000e+00,2.016697227909001328e-02,9.997956257111796363e-01,2.946541326875576488e+02
-3.576792740310671093e+01,2.147823461969918313e+01,3.570148893129267087e+00,4.595995113954216005e-01,-5.348094314390456905e-01,-7.090452462073064677e-01,2.961820880877576769e+02
-3.740274259132215917e+01,2.233647580781600084e+01,3.821293964371817786e+00,6.991536932632081980e-01,-5.387427636396280306e-01,-4.700407937809575332e-01,2.977100434879577051e+02
-3.941107410958834123e+01,2.342535950750794882e+01,4.127507454506827322e+00,-8.217572942071289521e-01,1.566598654475999386e-02,5.696205107629729314e-01,2.996424975149617467e+02
-4.134772901563930247e+01,2.451189088048506193e+01,4.411795421986549393e+00,-0.000000000000000000e+00,-9.950635238632332680e-01,9.922995251858036936e-02,3.015749515419657882e+02
-4.321369903997499762e+01,2.559006414864689205e+01,4.665282316206114999e+00,9.968779763718004228e-01,-0.000000000000000000e+00,-7.894491893667314464e-02,3.035074055689698298e+02
-4.483292229669998363e+01,2.654795395333063368e+01,4.861958788197450865e+00,-5.741094903287573548e-01,1.828998376289033435e-03,-8.187752731243463922e-01,3.052431107428334940e+02
-4.640198370242752191e+01,2.749350171838532830e+01,5.025634768925906215e+00,4.896725565857791285e-01,1.691298468474937769e-02,-8.717412106103467062e-01,3.069788159166971582e+02
-4.679321261025758361e+01,2.773164125050703888e+01,5.062344416599452224e+00,0.000000000000000000e+00,2.016697227946875198e-02,9.997956257299558391e-01,3.074191170015756143e+02
-4.824786288325667272e+01,2.862410492268548978e+01,5.182189040409254766e+00,-0.000000000000000000e+00,-9.993865585873626944e-01,3.499294952975979395e-02,3.090826228308427517e+02
-4.965954007728637976e+01,2.950073379206898139e+01,5.265615196396861819e+00,-9.796745246597647894e-01,-0.000000000000000000e+00,2.005886979235763368e-01,3.107461286601098891e+02
-5.111567852943747425e+01,3.041413121375997264e+01,5.310764094448785499e+00,9.994709311514917704e-01,-0.000000000000000000e+00,3.249396525048883072e-02,3.125187012298287641e+02
-5.252149235596422727e+01,3.130301981775667741e+01,5.307589948484013220e+00,-9.546707119046310419e-01,-0.000000000000000000e+00,-2.976605983795946320e-01,3.142912737995476391e+02
-5.398118396501025984e+01,3.223097423453000943e+01,5.246109507448344367e+00,5.752485914334223294e-01,-0.000000000000000000e+00,-8.179774190368480635e-01,3.162045701443610142e+02
-5.537985367717141116e+01,3.312248979616489208e+01,5.121228387526316261e+00,6.008035540422096421e-01,8.946493359296256442e-02,-7.943734103613261377e-01,3.181178664891743892e+02
-5.544864337922549424e+01,3.316637034760051961e+01,5.113343952990965668e+00,0.000000000000000000e+00,0.000000000000000000e+00,-9.999989999993537104e-01,3.182140563109689992e+02
-5.668743307552950483e+01,3.395633833939516677e+01,4.944135140618628910e+00,9.968779763717972031e-01,-0.000000000000000000e+00,-7.894491893667289484e-02,3.199792790965235554e+02
-5.787969423264623714e+01,3.471465179428340520e+01,4.727460933023180267e+00,0.000000000000000000e+00,-9.968312352734686188e-01,-7.953293898571152376e-02,3.217445018820781115e+02
-5.911828283888063140e+01,3.549714772481330272e+01,4.440675390443563408e+00,-0.000000000000000000e+00,9.968731427266619427e-01,-7.900593205787558027e-02,3.236579681635880661e+02
-6.029983101718938343e+01,3.623499738747968024e+01,4.102830186653035227e+00,5.227064052945303851e-01,-8.494460335488579483e-01,-7.223191781865273553e-02,3.255714344450980207e+02
-6.142537685607849340e+01,3.692663640748441622e+01,3.719844852230222543e+00,9.796526068682938071e-01,-0.000000000000000000e+00,2.006957145972344259e-01,3.274849007266079752e+02
-6.237293974499646509e+01,3.749857538551203362e+01,3.351969069291601766e+00,9.546769266714698610e-01,-0.000000000000000000e+00,-2.976406653671949121e-01,3.291690459113141287e+02
-6.328345540967711003e+01,3.803805614336845764e+01,2.961513611571018334e+00,7.342455860440374460e-01,2.131448798323128391e-01,6.445546366103657165e-01,3.308531910960202822e+02
-6.415754658046040504e+01,3.854497610174697542e+01,2.552408719808629822e+00,6.355972790727207888e-01,2.092487626592402228e-01,7.431211571135819538e-01,3.325373362807264357e+02
-6.499583313797531048e+01,3.901947402655767405e+01,2.128550036681004176e+00,4.662972870394074820e-01,1.652197473818264178e-02,-8.844726476564190865e-01,3.342214814654325892e+02
-6.584630548733031219e+01,3.948686984072985950e+01,1.666323430659482296e+00,-8.875683493733785845e-01,2.518998153463607517e-02,-4.599846628110191848e-01,3.360098362883581444e+02
-6.665549293692990318e+01,3.991609801858314199e+01,1.195840393256104139e+00,3.588155418937528096e-01,-5.920762440856245368e-01,-7.215920787304321848e-01,3.377981911112836997e+02
-6.742416521258775219e+01,4.030809086978742073e+01,7.217309716457405155e-01,7.268315228409760742e-01,-5.907656121671474025e-01,-3.502997700310304663e-01,3.395865459342092549e+02
-6.832577563324544201e+01,4.074176679242328447e+01,1.283985974375786154e-01,5.764363129603190528e-01,-1.163998612659859549e-03,-8.171400260717270880e-01,3.418331500898481181e+02
-6.915071116902409187e+01,4.110625622609454410e+01,-4.535957389355311786e-01,-3.571165318403913824e-01,-5.924852232853269340e-01,-7.220990533689143342e-01,3.440797542454869813e+02
-6.980726028003874717e+01,4.137250129246197616e+01,-9.417160395375919757e-01,9.796526068682960275e-01,-0.000000000000000000e+00,2.006957145972348977e-01,3.460221404963771192e+02
-7.041641666046612613e+01,4.160036680473426429e+01,-1.411798114034636953e+00,0.000000000000000000e+00,1.519999199372480334e-02,9.998834733324691859e-01,3.479645267472672572e+02
-7.096078411820062115e+01,4.178725635066945898e+01,-1.844944006441102236e+00,-0.000000000000000000e+00,1.686014655690531170e-03,9.999975786743832140e-01,3.498381785749494952e+02
-7.139721691862847308e+01,4.192586932962112201e+01,-2.199999146270898986e+00,-0.000000000000000000e+00,-1.182827058891439825e-02,9.999290434900498514e-01,3.514450610823338934e+02
-7.180836379980058837e+01,4.204775859862571963e+01,-2.539950195174265346e+00,-0.000000000000000000e+00,-2.534039547853437005e-02,9.996778802979707779e-01,3.530519435897182916e+02
-7.218848633794691239e+01,4.215272511120640075e+01,-2.858684972487337106e+00,-0.000000000000000000e+00,-3.884789214622928061e-02,9.992441349719544119e-01,3.546314714484562955e+02
-7.254539439655414412e+01,4.224442146306928692e+01,-3.161477539110362223e+00,-0.000000000000000000e+00,-5.234829357040653858e-02,9.986278867327526010e-01,3.562109993071942995e+02
-7.287947018320743098e+01,4.232414090239057458e+01,-3.447658329627796281e+00,-0.000000000000000000e+00,-6.583913402539862125e-02,9.978292481335893083e-01,3.577905271659323034e+02
-7.319218043333097512e+01,4.239338246409499789e+01,-3.717654682639972119e+00,-0.000000000000000000e+00,-7.931794953180412722e-02,9.968483650396035012e-01,3.593760263130449175e+02
-7.348254757448525254e+01,4.245321393040143221e+01,-3.969863664342892839e+00,-0.000000000000000000e+00,-9.278227830650950803e-02,9.956854166012052421e-01,3.609615254601575316e+02
-7.375027198717933175e+01,4.250503849020668667e+01,-4.203330871942950075e+00,-0.000000000000000000e+00,-1.062296612123099782e-01,9.943406152213545290e-01,3.625427489596182227e+02
-7.399654925262247218e+01,4.255050908877325355e+01,-4.418584826578262792e+00,-0.000000000000000000e+00,-1.196576422070468326e-01,9.928142065167662178e-01,3.641239724590789137e+02
-7.435093435341816814e+01,4.261387476208317793e+01,-4.729516324557212492e+00,-0.000000000000000000e+00,-1.330637687921794599e-01,9.911064692730489067e-01,3.668740225112421740e+02
-7.439978871878052757e+01,4.262247105223993771e+01,-4.772534592247981600e+00,-0.000000000000000000e+00,-1.464455924607102055e-01,9.892177153937855572e-01,3.673254196823474444e+02
-7.456628585046561852e+01,4.265265275378352072e+01,-4.918743518048463770e+00,-0.000000000000000000e+00,-1.598006691443802363e-01,9.871482898435669506e-01,3.689782095755043656e+02
-7.470980577873515927e+01,4.268066491433259557e+01,-5.043719529735872342e+00,-0.000000000000000000e+00,-1.731265596600540801e-01,9.848985705849845340e-01,3.706309994686612868e+02
-7.483071461543623570e+01,4.270717868817204277e+01,-5.147136003431702633e+00,-0.000000000000000000e+00,-1.864208301552129354e-01,9.824689685095986391e-01,3.722837893618182079e+02
-7.496142054014381984e+01,4.274847248841861358e+01,-5.251143082185572020e+00,-0.000000000000000000e+00,-1.996810525524732316e-01,9.798599273628916251e-01,3.749852023376957391e+02
-7.497495521166855781e+01,4.275519181401301694e+01,-5.260401878590124092e+00,-0.000000000000000000e+00,-2.129048049930511166e-01,9.770719236632209315e-01,3.754370040723335933e+02
-7.500807309680673995e+01,4.279560153559786784e+01,-5.268927624356595452e+00,-0.000000000000000000e+00,-2.260896722790909918e-01,9.741054666147862529e-01,3.781144303587176410e+02
-7.496704801244955263e+01,4.283134654533400720e+01,-5.208734342666761385e+00,-0.000000000000000000e+00,-2.392332463147772703e-01,9.709610980146278214e-01,3.804547655798012897e+02
-7.483948159807408729e+01,4.287137633906809242e+01,-5.066762838863093421e+00,-0.000000000000000000e+00,-2.523331265461489781e-01,9.676393921536704523e-01,3.831657672742510385e+02
-7.472045029229707325e+01,4.289461999908102996e+01,-4.944625494194350601e+00,-0.000000000000000000e+00,-2.653869203995374848e-01,9.641409557118348905e-01,3.848621306390451764e+02
-7.458855109268135664e+01,4.291463500945537390e+01,-4.814267726258463220e+00,-0.000000000000000000e+00,-2.783922437185454291e-01,9.604664276472321127e-01,3.864687383325978089e+02
-7.443884214120649290e+01,4.293196720760456486e+01,-4.671666213841912274e+00,-0.000000000000000000e+00,-2.913467211994896222e-01,9.566164790794635664e-01,3.880753460261504415e+02
-7.427903041001199824e+01,4.294536019524544201e+01,-4.524998506888260330e+00,-0.000000000000000000e+00,-3.042479868252263575e-01,9.525918131670461086e-01,3.896170804303950490e+02
-7.410399727411065385e+01,4.295481381583295644e+01,-4.370333807640178314e+00,-0.000000000000000000e+00,-3.170936842972809089e-01,9.483931649789872909e-01,3.911588148346396565e+02
-7.391398228204923271e+01,4.295945063550524168e+01,-4.208989608597095256e+00,-0.000000000000000000e+00,-3.298814674662012836e-01,9.440213013605310843e-01,3.927005492388842640e+02
-7.365092380316031040e+01,4.295604039107762873e+01,-3.997673813345690164e+00,-0.000000000000000000e+00,-3.426090007600597898e-01,9.394770207931001371e-01,3.946400530238337865e+02
-7.335883033271379361e+01,4.293979624176188992e+01,-3.778718140309999196e+00,-0.000000000000000000e+00,-3.552739596110207621e-01,9.347611532484610963e-01,3.965795568087833090e+02
-7.303830964763470490e+01,4.290873437600557594e+01,-3.554882915966744328e+00,-0.000000000000000000e+00,-3.678740308799007264e-01,9.298745600371378650e-01,3.985190605937328314e+02
-7.271951907099453649e+01,4.286604090545795742e+01,-3.346708483440850479e+00,-0.000000000000000000e+00,-3.804069132786392915e-01,9.248181336511007711e-01,4.003049848893569447e+02
-7.237954220089399371e+01,4.280918699709364006e+01,-3.138535960306267913e+00,-0.000000000000000000e+00,-3.928703177906063826e-01,9.195927976007617355e-01,4.020909091849810579e+02
-7.201881993059213016e+01,4.273703859929163684e+01,-2.931938917163429359e+00,-0.000000000000000000e+00,-4.052619680886683784e-01,9.141995062463045274e-01,4.038768334806051712e+02
-7.169385060445040381e+01,4.266288828522828425e+01,-2.756638343663772694e+00,-0.000000000000000000e+00,-4.175796009509367135e-01,9.086392446233789721e-01,4.054108889543014698e+02
-7.135639055430524991e+01,4.257787506272256195e+01,-2.584073894058406040e+00,-0.000000000000000000e+00,-4.298209666741221735e-01,9.029130282631940840e-01,4.069449444279977683e+02
-7.100668173859313015e+01,4.248170184813369588e+01,-2.415018855405412168e+00,-0.000000000000000000e+00,-4.419838294844206650e-01,8.970219030070419874e-01,4.084789999016940669e+02
-7.064496411417439958e+01,4.237406084687894037e+01,-2.250187651223757079e+00,-0.000000000000000000e+00,-4.540659679458558529e-01,8.909669448152840454e-01,4.100130553753903655e+02
-7.027147700885795700e+01,4.225471327772656593e+01,-2.090265257138451016e+00,-0.000000000000000000e+00,-4.660651753660008945e-01,8.847492595708387197e-01,4.115471108490866641e+02
-6.970256515665360553e+01,4.205542763307588672e+01,-1.871073124933058551e+00,-0.000000000000000000e+00,-4.779792601990099365e-01,8.783699828772015827e-01,4.137753540583346989e+02
-6.909828877333602293e+01,4.182152956913938624e+01,-1.671222388848473850e+00,-0.000000000000000000e+00,-4.898060464458817709e-01,8.718302798510401130e-01,4.160035972675827338e+02
-6.859055407702793161e+01,4.161078239869150508e+01,-1.523785125845397825e+00,-0.000000000000000000e+00,-5.015433740518838723e-01,8.651313449093958052e-01,4.177925781126367610e+02
-6.802674796257996093e+01,4.136405534997036426e+01,-1.376398084396058374e+00,-0.000000000000000000e+00,-5.131890993010655988e-01,8.582744015515366698e-01,4.197100005893018988e+02
-6.744242001994727786e+01,4.109528137691724936e+01,-1.238627889260196735e+00,-0.000000000000000000e+00,-5.247410952077867785e-01,8.512607021354972048e-01,4.216274230659670366e+02
-6.683811379864710034e+01,4.080473328180090675e+01,-1.108054063116417076e+00,-0.000000000000000000e+00,-5.361972519051898534e-01,8.440915276493473618e-01,4.235448455426321743e+02
-6.628864532733105364e+01,4.053096609626911118e+01,-9.963353717072361837e-01,-0.000000000000000000e+00,-5.475554770305469665e-01,8.367681874772344708e-01,4.252399311707904985e+02
-6.572628658644273969e+01,4.024273617947137893e+01,-8.860908635240382081e-01,-0.000000000000000000e+00,-5.588136961074089415e-01,8.292920191602364266e-01,4.269350167989488227e+02
-6.509655319486022051e+01,3.991105968545554816e+01,-7.655360953892040854e-01,-0.000000000000000000e+00,-5.699698529244879852e-01,8.216643881520739878e-01,4.287874910091637730e+02
-6.449474246610819250e+01,3.958606379911213224e+01,-6.516191037653203955e-01,-0.000000000000000000e+00,-5.810219099112052810e-01,8.138866875697251535e-01,4.305164043920318591e+02
-6.388024251060899417e+01,3.924705212843553426e+01,-5.352437429324313767e-01,-0.000000000000000000e+00,-5.919678485098321952e-01,8.059603379389853606e-01,4.322453177748999451e+02
-6.334332501374845492e+01,3.894551681316457348e+01,-4.329449995562899556e-01,-0.000000000000000000e+00,-6.028056695441613710e-01,7.978867869350247943e-01,4.337302406261237024e+02
-6.310757116784574094e+01,3.881175351840541765e+01,-3.878169445336686616e-01,-0.000000000000000000e+00,-6.135333935846355446e-01,7.896675091179843342e-01,4.343771228829025404e+02
-6.253006533370641051e+01,3.848046043522192861e+01,-2.767437710901208270e-01,-0.000000000000000000e+00,-6.241490613098731322e-01,7.813040056636626485e-01,4.359482980328901931e+02
-6.194392987021809205e+01,3.813851136963916844e+01,-1.633636586176838712e-01,-0.000000000000000000e+00,-6.346507338645168694e-01,7.727978040893422884e-01,4.375194731828778458e+02
-6.140218151348953768e+01,3.781726823928695325e+01,-5.837453514270183469e-02,-0.000000000000000000e+00,-6.450364932133491047e-01,7.641504579748042980e-01,4.389529461146747735e+02
-6.073059223071101798e+01,3.741139292044688602e+01,7.113261174237971163e-02,-0.000000000000000000e+00,-6.553044424916021349e-01,7.553635466785826313e-01,4.407046881510376579e+02
-6.004760958600083143e+01,3.698920598371940827e+01,2.010568438584759143e-01,-0.000000000000000000e+00,-6.654527063514017460e-01,7.464386750495117795e-01,4.424564301874005423e+02
-5.935354575910436381e+01,3.655005716137026894e+01,3.301428030750703790e-01,-0.000000000000000000e+00,-6.754794313042828957e-01,7.373774731336163457e-01,4.442081722237634267e+02
-5.864871174483168659e+01,3.609324414949279003e+01,4.570014515001602495e-01,-0.000000000000000000e+00,-6.853827860597105914e-01,7.281815958764008556e-01,4.459599142601263111e+02
-5.762092174868603678e+01,3.540339317042341349e+01,6.296741885266370353e-01,-0.000000000000000000e+00,-6.951609618595487872e-01,7.188527228205915387e-01,4.484558067237550745e+02
-5.697730074122375754e+01,3.495724511474254825e+01,7.303199065508871879e-01,-0.000000000000000000e+00,-7.048121728084131288e-01,7.093925577993848153e-01,4.499873625635356689e+02
-5.632746198341999389e+01,3.449737906028391166e+01,8.274758096646134264e-01,-0.000000000000000000e+00,-7.143346561998474842e-01,6.998028286252593322e-01,4.515189184033162633e+02
-5.567158855530081496e+01,3.402353782530380499e+01,9.207524380394215280e-01,-0.000000000000000000e+00,-7.237266728382666381e-01,6.900852867744097230e-01,4.530504742430968577e+02
-5.500986414042805706e+01,3.353556831591546228e+01,1.009760357070162318e+00,-0.000000000000000000e+00,-7.329865073566042000e-01,6.802417070668570487e-01,4.545820300828774521e+02
-5.434247265192009024e+01,3.303342146996286743e+01,1.094110159906946267e+00,-0.000000000000000000e+00,-7.421124685296084378e-01,6.702738873422968702e-01,4.561135859226580465e+02
-5.366959785868057509e+01,3.251715219920993150e+01,1.173412469987025641e+00,-0.000000000000000000e+00,-7.511028895827291940e-01,6.601836481317421290e-01,4.576451417624386409e+02
-5.299142206562297019e+01,3.198686330715913684e+01,1.247393004325154209e+00,-0.000000000000000000e+00,-7.599561284965397068e-01,6.499728323250214546e-01,4.591766976022192353e+02
-5.230812506603012935e+01,3.144264839883929596e+01,1.316007636055400498e+00,-0.000000000000000000e+00,-7.686705683066362704e-01,6.396433048341946259e-01,4.607082534419998296e+02
-5.161988512734656354e+01,3.088464633331618714e+01,1.379327333958749291e+00,-0.000000000000000000e+00,-7.772446173989622231e-01,6.291969522529465841e-01,4.622398092817804240e+02
-5.092687971008925274e+01,3.031309668382772315e+01,1.437423101242145451e+00,-0.000000000000000000e+00,-7.856767098005026373e-01,6.186356825120181702e-01,4.637713651215610184e+02
-5.022928510599790997e+01,2.972833967750473150e+01,1.490365975075996108e+00,-0.000000000000000000e+00,-7.939653054652949793e-01,6.079614245307448650e-01,4.653029209613416128e+02
-4.952727607639449303e+01,2.913081613346173881e+01,1.538227026131509856e+00,-0.000000000000000000e+00,-8.021088905557058890e-01,5.971761278647566007e-01,4.668344768011222072e+02
-4.882102549075426623e+01,2.852106739925870826e+01,1.581077358117870535e+00,-0.000000000000000000e+00,-8.101059777189192346e-01,5.862817623499144704e-01,4.683660326409028016e+02
-4.806983848963904649e+01,2.786367667465022180e+01,1.620850298823640845e+00,-0.000000000000000000e+00,-8.179551063585897008e-01,5.752803177425361847e-01,4.699849865328579313e+02
-4.731388055975570239e+01,2.719369988330690191e+01,1.654881439818075561e+00,-0.000000000000000000e+00,-8.256548429016072888e-01,5.641738033559918764e-01,4.716039404248130609e+02
-4.655335723930508607e+01,2.651219894300840352e+01,1.683259637611321580e+00,-0.000000000000000000e+00,-8.332037810599276506e-01,5.529642476937193241e-01,4.732228943167681905e+02
-4.578846961113680436e+01,2.582036806967598608e+01,1.706073789776264338e+00,-0.000000000000000000e+00,-8.406005420874190781e-01,5.416536980787408639e-01,4.748418482087233201e+02
-4.501941380012682004e+01,2.511953367707378248e+01,1.723412834302059826e+00,-0.000000000000000000e+00,-8.478437750316785149e-01,5.302442202797396087e-01,4.764608021006784497e+02
-4.424638047088837567e+01,2.441115427411672556e+01,1.735365748947449438e+00,-0.000000000000000000e+00,-8.549321569807720733e-01,5.187378981337669170e-01,4.780797559926335794e+02
-4.346955325854819563e+01,2.369671229768303178e+01,1.742111194393111573e+00,-0.000000000000000000e+00,-8.618643933048549810e-01,5.071368331656512796e-01,4.796987098845887090e+02
-4.268910775345168673e+01,2.297760467988950239e+01,1.744007156742285458e+00,-0.000000000000000000e+00,-8.686392178926237717e-01,4.954431442041761224e-01,4.813176637765438386e+02
-4.190521290395523124e+01,2.225524891035573916e+01,1.741501301119646739e+00,-0.000000000000000000e+00,-8.752553933825624188e-01,4.836589669950950854e-01,4.829366176684989682e+02
-4.111803187237143931e+01,2.153119036557524879e+01,1.735041324618477487e+00,-0.000000000000000000e+00,-8.817117113889367808e-01,4.717864538110610462e-01,4.845555715604540978e+02
-4.032772154877446980e+01,2.080710220701223889e+01,1.725074953046914272e+00,-0.000000000000000000e+00,-8.880069927224960580e-01,4.598277730585338952e-01,4.861745254524092275e+02
-3.953443206513026809e+01,2.008478527688324533e+01,1.712049937674044120e+00,-0.000000000000000000e+00,-8.941400876058435143e-01,4.477851088817421665e-01,4.877934793443643571e+02
-3.875792121680220959e+01,1.938362367646973183e+01,1.696850745573421637e+00,-0.000000000000000000e+00,-9.001098758834339408e-01,4.356606607637713013e-01,4.893727520113143896e+02
-3.797897345193345586e+01,1.868753987313771958e+01,1.679599821477890664e+00,-0.000000000000000000e+00,-9.059152672261618910e-01,4.234566431248490970e-01,4.909520246782644222e+02
-3.761838909629486949e+01,1.836728614799161718e+01,1.671105675697014403e+00,-0.000000000000000000e+00,-9.115552013305022738e-01,4.111752849179034497e-01,4.916820883707489998e+02
-3.663925557956316226e+01,1.750846281789347003e+01,1.646394647473359285e+00,-0.000000000000000000e+00,-9.170286481121669997e-01,3.988188292214656649e-01,4.936592775981091563e+02
-3.565475012917033837e+01,1.666666403349281111e+01,1.618973352939202304e+00,-0.000000000000000000e+00,-9.223346078942420423e-01,3.863895328299940535e-01,4.956364668254693129e+02
-3.480280759730040785e+01,1.595503731176605022e+01,1.593631243421806065e+00,-0.000000000000000000e+00,-9.274721115897729407e-01,3.738896658416914764e-01,4.973401002483557249e+02
-3.394815753939908376e+01,1.525565453538166594e+01,1.566969780995211892e+00,-0.000000000000000000e+00,-9.324402208787589963e-01,3.613215112438950549e-01,4.990437336712421370e+02
-3.301544623379977139e+01,1.451040915212523252e+01,1.536187515786837654e+00,-0.000000000000000000e+00,-9.372380283795341827e-01,3.486873644961082652e-01,5.008965341539060887e+02
-3.207923056035225784e+01,1.378265761480662732e+01,1.503067191663236324e+00,-0.000000000000000000e+00,-9.418646578144918013e-01,3.359895331107595196e-01,5.027493346365700404e+02
-3.113966378830997073e+01,1.307311301658661407e+01,1.467016450071854328e+00,-0.000000000000000000e+00,-9.463192641701322350e-01,3.232303362317542894e-01,5.046021351192339921e+02
-3.019689283295918969e+01,1.238228214899710622e+01,1.427116546815520248e+00,-0.000000000000000000e+00,-9.506010338513983804e-01,3.104121042109074247e-01,5.064549356018979438e+02
-2.910957372163381152e+01,1.161485260413849296e+01,1.374566163661776086e+00,-0.000000000000000000e+00,-9.547091848302746708e-01,2.975371781823250017e-01,5.085831919509165573e+02
-2.801718746618314881e+01,1.087834813616069951e+01,1.312314257034983500e+00,-0.000000000000000000e+00,-9.586429667886184891e-01,2.846079096348188564e-01,5.107114482999352276e+02
-2.728572569714974705e+01,1.040133564461148552e+01,1.264993176399274111e+00,-0.000000000000000000e+00,-9.624016612552023231e-01,2.716266599824282424e-01,5.121325121927999362e+02
-2.581159060688048967e+01,9.491971715125536946e+00,1.144876201560459439e+00,-0.000000000000000000e+00,-9.659845817369376864e-01,2.585958001331299383e-01,5.149820309329513748e+02
-2.484484023167681599e+01,8.933874475614516086e+00,1.045509429409074320e+00,-0.000000000000000000e+00,-9.693910738442594877e-01,2.455177100558139647e-01,5.168399083536106673e+02
