2.693126662975409147e+01,-3.852920471942512748e+00,-3.435351939177010205e+00,-8.837997313690916512e-02,-2.282131123509203649e-02,-9.958243660926384688e-01,3.140311632410006126e+01
2.755396703897368837e+01,-3.643541284349098852e+00,-3.965482416139913369e+00,-9.939298340575317137e-02,-2.279751640366579554e-02,-9.947860614712598082e-01,3.317252173666928883e+01
2.828379023292602312e+01,-3.389331991494469509e+00,-4.545722684180460327e+00,-1.103938314477309751e-01,-2.277093194764225406e-02,-9.936260295697251221e-01,3.524485360914150789e+01
2.901402741179214573e+01,-3.122268458467287289e+00,-5.069864298450521112e+00,-1.213811711434566315e-01,-2.274156112001069277e-02,-9.923444123345663836e-01,3.731718548161372695e+01
2.990579347870718152e+01,-2.771401593802084840e+00,-5.610176832289910820e+00,-1.323536580264552676e-01,-2.270940751471298841e-02,-9.909413665900279611e-01,3.984732668583496462e+01
3.055685422633190029e+01,-2.496347173223860239e+00,-5.929939169507585817e+00,-1.433099494476752778e-01,-2.267447506620389255e-02,-9.894170640188795218e-01,4.169401875091510590e+01
3.120826758207441998e+01,-2.205907500586470782e+00,-6.189269226227844811e+00,-1.542487047397777533e-01,-2.263676804896963199e-02,-9.877716911414081702e-01,4.354071081599524717e+01
3.189441779626300288e+01,-1.880464194999543759e+00,-6.392551810103916488e+00,-1.651685853811838411e-01,-2.259629107700488609e-02,-9.860054492925979241e-01,4.548502801563778775e+01
3.248989041063916972e+01,-1.580766197624571046e+00,-6.512470406628512620e+00,-1.760682551598597156e-01,-2.255304910324823497e-02,-9.841185545974940885e-01,4.717159914931144726e+01
3.308569042629401480e+01,-1.264571577002550518e+00,-6.584857002276494065e+00,-1.869463803368186516e-01,-2.250704741897617545e-02,-9.821112379447604068e-01,4.885817028298509967e+01
3.310538261139710414e+01,-1.253839878392371432e+00,-6.586481162926268063e+00,-1.978016298093205061e-01,-2.245829165315563550e-02,-9.799837449584264393e-01,4.891389638844230348e+01
3.367099332903657682e+01,-9.378237752650574466e-01,-6.614539437050748205e+00,-2.086326752737494017e-01,-2.240678777175529948e-02,-9.777363359678363786e-01,5.051398453533273170e+01
3.423691009979426525e+01,-6.055553952899738190e-01,-6.607318868942404499e+00,-2.194381913881478519e-01,-2.235254207701558443e-02,-9.753692859757934208e-01,5.211407268222315992e+01
3.512047271864945230e+01,-3.863141854752275700e-02,-6.520844798212203308e+00,-2.302168559343896470e-01,-2.229556120667756242e-02,-9.728828846249144569e-01,5.461353278951893486e+01
3.615909183186291642e+01,7.313240771611940749e-01,-6.302185667114780898e+00,-2.409673499799698804e-01,-2.223585213317077341e-02,-9.702774361621876453e-01,5.755889355606510804e+01
3.705495249780841505e+01,1.491253297772384689e+00,-6.032892155220985764e+00,-2.516883580393931008e-01,-2.217342216276009872e-02,-9.675532594017483001e-01,6.010633580849721369e+01
3.806702180981010741e+01,2.461812992040425918e+00,-5.670271909860222337e+00,-2.623785682351404414e-01,-2.210827893465180244e-02,-9.647106876858680957e-01,6.299307464477005425e+01
3.885373087176417783e+01,3.297400310188697503e+00,-5.364312105239685380e+00,-2.730366724581941296e-01,-2.204043042005882080e-02,-9.617500688441694701e-01,6.524293661838004255e+01
3.963931938157818280e+01,4.194751834688374537e+00,-5.057322069995807468e+00,-2.836613665281020880e-01,-2.196988492122544517e-02,-9.586717651510664462e-01,6.749279859199003795e+01
4.047261281832752644e+01,5.220844284489028375e+00,-4.746809531499290635e+00,-2.942513503525613361e-01,-2.189665107041145406e-02,-9.554761532814372016e-01,6.988417700898770590e+01
4.104325609426681609e+01,5.963629388580773849e+00,-4.548572154193781358e+00,-3.048053280865014036e-01,-2.182073782883594409e-02,-9.521636242645361570e-01,7.152344036060237897e+01
4.176379352683611046e+01,6.944202070029322549e+00,-4.319209562300067695e+00,-3.153220082906481037e-01,-2.174215448558082520e-02,-9.487345834361486929e-01,7.359432021803705481e+01
4.270105642421771108e+01,8.317268545651964828e+00,-4.063313191606714447e+00,-3.258001040895485700e-01,-2.166091065645425751e-02,-9.451894503889951560e-01,7.629843917353215943e+01
4.305941834161701109e+01,8.868878276096449298e+00,-3.976986061424870211e+00,-3.362383333290372978e-01,-2.157701628281409947e-02,-9.415286589213915924e-01,7.733463552839180011e+01
4.325214452599465886e+01,9.167111078761381648e+00,-3.931758286828966664e+00,-3.466354187331252001e-01,-2.149048163035147813e-02,-9.377526569841704296e-01,7.789101077776658144e+01
4.360949531053076811e+01,9.722841368298594134e+00,-3.849876302921719340e+00,-3.569900880602917548e-01,-2.140131728783475212e-02,-9.338619066258714296e-01,7.892104193766662945e+01
4.413948921635513045e+01,1.055953105613821030e+01,-3.734482560523777028e+00,-3.673010742591613642e-01,-2.130953416581387108e-02,-9.298568839362065797e-01,8.044738639663522406e+01
4.466951950996080001e+01,1.141325188170017846e+01,-3.626305132165998035e+00,-3.775671156235435588e-01,-2.121514349528540525e-02,-9.257380789878066896e-01,8.197373085560381867e+01
4.519946738080388116e+01,1.228215373422827916e+01,-3.524595425080926159e+00,-3.877869559468216099e-01,-2.111815682631832877e-02,-9.215059957762574694e-01,8.350007531457241328e+01
4.549659798849197045e+01,1.277399560319585703e+01,-3.469944797115581903e+00,-3.979593446756657937e-01,-2.101858602664081338e-02,-9.171611521584318583e-01,8.435532562772920073e+01
4.622792818698528805e+01,1.400345465230346242e+01,-3.345598094771453646e+00,-4.080830370630569859e-01,-2.091644328018809826e-02,-9.127040797891271540e-01,8.646411939583471451e+01
4.675783141466810378e+01,1.491114278949497951e+01,-3.266252250308310678e+00,-4.181567943205983240e-01,-2.081174108561171035e-02,-9.081353240560116058e-01,8.799682483877838024e+01
4.728704089691547097e+01,1.582483704586761597e+01,-3.196832244140650481e+00,-4.281793837700991201e-01,-2.070449225475013907e-02,-9.034554440128931274e-01,8.952953028172204597e+01
4.782974508773630617e+01,1.676675764303491434e+01,-3.137741129041639265e+00,-4.381495789944109265e-01,-2.059470991106121182e-02,-8.986650123113139044e-01,9.110419438554150418e+01
4.837115140393267865e+01,1.770860765617974764e+01,-3.092772435816908860e+00,-4.480661599874968815e-01,-2.048240748801633676e-02,-8.937646151304822206e-01,9.267885848936096238e+01
4.891101435318378066e+01,1.864693371840487401e+01,-3.063443555896750325e+00,-4.579279133037177929e-01,-2.036759872745683153e-02,-8.887548521055491646e-01,9.425352259318042059e+01
4.944907591135100233e+01,1.957849801286968017e+01,-3.051271773141650989e+00,-4.677336322063147533e-01,-2.025029767791244537e-02,-8.836363362542373201e-01,9.582818669699987879e+01
4.998506632023664764e+01,2.050027841357571745e+01,-3.057774253410391108e+00,-4.774821168150707451e-01,-2.013051869288244589e-02,-8.784096939018336547e-01,9.740285080081933700e+01
5.051870153246188977e+01,2.140926354503424989e+01,-3.083795186766561613e+00,-4.871721742531356369e-01,-2.000827642907933648e-02,-8.730755646045531559e-01,9.897751490463879520e+01
5.104967964294855420e+01,2.230225148732671059e+01,-3.128832934311981617e+00,-4.968026187929903137e-01,-1.988358584463547837e-02,-8.676346010712837620e-01,1.005521790084582534e+02
5.157768353843694342e+01,2.317606046528587171e+01,-3.191712878997649216e+00,-5.063722720015400025e-01,-1.975646219727283590e-02,-8.620874690837216914e-01,1.021268431122777116e+02
5.211445815167228091e+01,2.404699017545394923e+01,-3.273458264723561939e+00,-5.158799628843135920e-01,-1.962692104243604629e-02,-8.564348474149067192e-01,1.037381329339357450e+02
5.264723097815259223e+01,2.489127891161902184e+01,-3.371711602321955770e+00,-5.253245280287518471e-01,-1.949497823138910194e-02,-8.506774277461689460e-01,1.053494227555937783e+02
5.317561894650228993e+01,2.570619631213901712e+01,-3.485189561989825435e+00,-5.347048117465694750e-01,-1.936064990927577681e-02,-8.448159145824951644e-01,1.069607125772518117e+02
5.369922893231543526e+01,2.648926725924169645e+01,-3.612608704275772187e+00,-5.440196662151726148e-01,-1.922395251314414077e-02,-8.388510251663260364e-01,1.085720023989098451e+02
5.421765872374569994e+01,2.723827203118218065e+01,-3.752685489318239309e+00,-5.532679516181118196e-01,-1.908490276993531770e-02,-8.327834893897949620e-01,1.101832922205678784e+02
5.473049798756731832e+01,2.795124644982176676e+01,-3.904136286084285867e+00,-5.624485362845570435e-01,-1.894351769443677891e-02,-8.266140497054180747e-01,1.117945820422259118e+02
5.523732923570020859e+01,2.862648202362578331e+01,-4.065677381608853835e+00,-5.715602968277764262e-01,-1.879981458720045989e-02,-8.203434610352499101e-01,1.134058718638839451e+02
5.573772556087966024e+01,2.926231833459593545e+01,-4.235673513312713467e+00,-5.806021182826001104e-01,-1.865381103242581481e-02,-8.139724906785090752e-01,1.150171616855419785e+02
5.623124732172946239e+01,2.985693899533879403e+01,-4.411786403851134075e+00,-5.895728942418545504e-01,-1.850552489580827714e-02,-8.075019182176934596e-01,1.166284515072000119e+02
5.671744478341683049e+01,3.040858490082024090e+01,-4.591326254867122536e+00,-5.984715269917498803e-01,-1.835497432235316459e-02,-8.009325354231899841e-01,1.182397413288580452e+02
5.719586182786945017e+01,3.091576391265575907e+01,-4.771603243275235329e+00,-6.072969276462036881e-01,-1.820217773415546900e-02,-7.942651461563929871e-01,1.198510311505160786e+02
5.766603696319744898e+01,3.137725100277439694e+01,-4.949927540623757061e+00,-6.160480162800832105e-01,-1.804715382814573235e-02,-7.875005662713437937e-01,1.214623209721741119e+02
5.811051496261527660e+01,3.177812399593026882e+01,-5.117298190663141177e+00,-6.247237220613542918e-01,-1.788992157380229001e-02,-7.806396235149034579e-01,1.230130338369359322e+02
5.854690780816795126e+01,3.213672358201129953e+01,-5.278182606020425105e+00,-6.333229833821143462e-01,-1.773050021083012046e-02,-7.736831574254673383e-01,1.245637467016977524e+02
5.897481087588328563e+01,3.245267345398941927e+01,-5.430259021257681340e+00,-6.418447479884986651e-01,-1.756890924680670416e-02,-7.666320192302404912e-01,1.261144595664595727e+02
5.939381837869986924e+01,3.272581842230124494e+01,-5.571205729610398727e+00,-6.502879731094424187e-01,-1.740516845479504054e-02,-7.594870717410800998e-01,1.276651724312213929e+02
5.980352417092137074e+01,3.295622451039490386e+01,-5.698701098467026327e+00,-6.586516255842812528e-01,-1.723929787092419105e-02,-7.522491892489200360e-01,1.292158852959832132e+02
6.020352255300985433e+01,3.314417904660589898e+01,-5.810423584848146028e+00,-6.669346819891771583e-01,-1.707131779193764645e-02,-7.449192574167937675e-01,1.307665981607450192e+02
6.059340907671268184e+01,3.329019075236045211e+01,-5.904051750885188632e+00,-6.751361287623519614e-01,-1.690124877270979958e-02,-7.374981731714612687e-01,1.323173110255068252e+02
6.097277863066446457e+01,3.339470509767812700e+01,-5.977984239423829393e+00,-6.832549623281151119e-01,-1.672911162373080102e-02,-7.299868445936616990e-01,1.338680238902686312e+02
6.134122213739389196e+01,3.345782240767087501e+01,-6.032059744826051784e+00,-6.912901892196687825e-01,-1.655492740856018274e-02,-7.223861908069982851e-01,1.354187367550304373e+02
6.169832800927047600e+01,3.347958681213987120e+01,-6.066837053919721612e+00,-6.992408262006775121e-01,-1.637871744124945808e-02,-7.146971418654728403e-01,1.369694496197922433e+02
6.204368500710209844e+01,3.346027245193848643e+01,-6.082875082146784074e+00,-7.071059003855841851e-01,-1.620050328373412105e-02,-7.069206386396831299e-01,1.385201624845540493e+02
6.237688307705532509e+01,3.340038357896229115e+01,-6.080732869836008803e+00,-7.148844493586604676e-01,-1.602030674319526726e-02,-6.990576327016956304e-01,1.400708753493158554e+02
6.270570889319169794e+01,3.329693278375255971e+01,-6.060004238830500434e+00,-7.225755212917777115e-01,-1.583814986939124578e-02,-6.911090862086100017e-01,1.416629677535833309e+02
6.302047536013149909e+01,3.315149735833603728e+01,-6.020904891173926465e+00,-7.301781750608786759e-01,-1.565405495195956731e-02,-6.830759717848262635e-01,1.432550601578508065e+02
6.332073670549434041e+01,3.296541488638187900e+01,-5.964053767600039357e+00,-7.376914803611435145e-01,-1.546804451768951649e-02,-6.749592724030326618e-01,1.448471525621182820e+02
6.360605238062311884e+01,3.274028574026014837e+01,-5.890069933539242797e+00,-7.451145178208299358e-01,-1.528014132776571443e-02,-6.667599812639273260e-01,1.464392449663857576e+02
6.387598804242809081e+01,3.247797317541955664e+01,-5.799572574768105504e+00,-7.524463791137752100e-01,-1.509036837498299415e-02,-6.584791016746867065e-01,1.480313373706532332e+02
6.413011653564208814e+01,3.218060342016500641e+01,-5.693180993058231110e+00,-7.596861670705484793e-01,-1.489874888093293756e-02,-6.501176469261984447e-01,1.496234297749207087e+02
6.436801887547993317e+01,3.185056576083322710e+01,-5.571514601824524071e+00,-7.668329957882357162e-01,-1.470530629316242101e-02,-6.416766401690721100e-01,1.512155221791881843e+02
6.458928523069516814e+01,3.149051262236437410e+01,-5.435192921772857844e+00,-7.738859907388483395e-01,-1.451006428230448321e-02,-6.331571142884431236e-01,1.528076145834556598e+02
6.479351590702718511e+01,3.110335964426788280e+01,-5.284835576547184388e+00,-7.808442888763386103e-01,-1.431304673918193555e-02,-6.245601117775858580e-01,1.543997069877231354e+02
6.498032233103185717e+01,3.069228575198064135e+01,-5.121062288376104554e+00,-7.877070387422099307e-01,-1.411427777188398180e-02,-6.158866846103507875e-01,1.559917993919906110e+02
6.514932803428878572e+01,3.026073322361569495e+01,-4.944492873718909109e+00,-7.944734005697103862e-01,-1.391378170281626879e-02,-6.071378941124407902e-01,1.575838917962580865e+02
6.530016963797811513e+01,2.981240775209970195e+01,-4.755747238911133046e+00,-8.011425463865951002e-01,-1.371158306572472022e-02,-5.983148108315438085e-01,1.591759842005255621e+02
6.543603089858847000e+01,2.933658617537833990e+01,-4.548864820135364972e+00,-8.077136601164451868e-01,-1.350770660269348666e-02,-5.894185144063367465e-01,1.608177560236051704e+02
6.555124299697662593e+01,2.885108108830585749e+01,-4.330545265690061818e+00,-8.141859376785314240e-01,-1.330217726111739517e-02,-5.804500934343757024e-01,1.624595278466847788e+02
6.564543117315528775e+01,2.835961267814099074e+01,-4.102901992455632474e+00,-8.205585870862105446e-01,-1.309502019064931640e-02,-5.714106453388925200e-01,1.641012996697643871e+02
6.571782630717336815e+01,2.786959314818088984e+01,-3.870374933005699791e+00,-8.268308285438400462e-01,-1.288626074012270278e-02,-5.623012762345070970e-01,1.657303144908346439e+02
6.576897295557891709e+01,2.738056910644037956e+01,-3.634064404925155589e+00,-8.330018945422035248e-01,-1.267592445444984742e-02,-5.531231007918808729e-01,1.673593293119049008e+02
6.579852934986463708e+01,2.689527678186022186e+01,-3.397375251169367782e+00,-8.390710299524315463e-01,-1.246403707149605286e-02,-5.438772421013190472e-01,1.689883441329751577e+02
6.579091140055280107e+01,2.619315208290526087e+01,-3.056945123149573007e+00,-8.450374921184063970e-01,-1.225062451893023721e-02,-5.345648315353445090e-01,1.713957818958127746e+02
6.573867170696615858e+01,2.565152384118339057e+01,-2.800617313433702016e+00,-8.509005509476432749e-01,-1.203571291105231568e-02,-5.251870086102579105e-01,1.733093333169784671e+02
6.564970302502104005e+01,2.512559227137856865e+01,-2.562120950080718274e+00,-8.566594890006314911e-01,-1.181932854559770638e-02,-5.157449208467007606e-01,1.752228847381441597e+02
6.553519334474984248e+01,2.465348437261112835e+01,-2.360475531009976091e+00,-8.623136015786299069e-01,-1.160149790051943387e-02,-5.062397236292390801e-01,1.769943616397087567e+02
6.539045067637074737e+01,2.419615813477663480e+01,-2.179847351749265361e+00,-8.678621968099000661e-01,-1.138224763074813066e-02,-4.966725800649851585e-01,1.787658385412733537e+02
6.521498837115639446e+01,2.375465318155142214e+01,-2.022502211606012956e+00,-8.733045957343746890e-01,-1.116160456493040312e-02,-4.870446608412723477e-01,1.805373154428379507e+02
6.500831121778641375e+01,2.332940579931354463e+01,-1.889190758864762287e+00,-8.786401323867398805e-01,-1.093959570214593155e-02,-4.773571440824045387e-01,1.823087923444025478e+02
6.476991915749556483e+01,2.292083415920009770e+01,-1.779905958447487890e+00,-8.838681538779339375e-01,-1.071624820860374826e-02,-4.676112152054948679e-01,1.840802692459671448e+02
6.451688538853854027e+01,2.255185119211742517e+01,-1.698462737662551847e+00,-8.889880204750398862e-01,-1.049158941431795576e-02,-4.578080667754093058e-01,1.857479976157101191e+02
6.423653802944694746e+01,2.219853509564803673e+01,-1.636943396951535901e+00,-8.939991056795729696e-01,-1.026564680976354595e-02,-4.479488983588401085e-01,1.874157259854530935e+02
6.395724235739703545e+01,2.188948837587805230e+01,-1.596761050900546541e+00,-8.989007963041456550e-01,-1.003844804251245379e-02,-4.380349163775180132e-01,1.889390883555622622e+02
6.365649888377601684e+01,2.159327427589834869e+01,-1.570001593584848587e+00,-9.036924925475061654e-01,-9.810020913850458005e-03,-4.280673339605879368e-01,1.904624507256714310e+02
6.333401963421824377e+01,2.131007854105846278e+01,-1.555005166134475036e+00,-9.083736080679358782e-01,-9.580393375375240855e-03,-4.180473707961631091e-01,1.919858130957805997e+02
6.290507489726628165e+01,2.098328434364093198e+01,-1.550981146176142023e+00,-9.129435700550034838e-01,-9.349593525576054692e-03,-4.079762529820764039e-01,1.938525587422797400e+02
6.243506878062385823e+01,2.068139355359775067e+01,-1.560530845519755072e+00,-9.174018192996594712e-01,-9.117649606395404616e-03,-3.978552128758469086e-01,1.957193043887788804e+02
6.165443048635135881e+01,2.029722392827452282e+01,-1.594604619526426070e+00,-9.217478102626700531e-01,-8.884589999773206959e-03,-3.876854889438813845e-01,1.984406693608128194e+02
6.117846882653874019e+01,2.011323116469596428e+01,-1.621294672973248918e+00,-9.259810111413750988e-01,-8.650443224173774009e-03,-3.774683256099271023e-01,1.999363587990146698e+02
6.012025888417726804e+01,1.980163669519652814e+01,-1.682383671188878882e+00,-9.301009039347670759e-01,-8.415237931096100285e-03,-3.672049731027957620e-01,2.029129500469389313e+02
5.906087383528071655e+01,1.958936077202152859e+01,-1.739084237118209808e+00,-9.341069845068802335e-01,-8.179002901567877098e-03,-3.568966873033768139e-01,2.055053673847398272e+02
5.830184989868335776e+01,1.946989067196951595e+01,-1.775085536001009379e+00,-9.379987626484840302e-01,-7.941767042623658693e-03,-3.465447295909602765e-01,2.072214651416229287e+02
5.750687086006248450e+01,1.936134141482887117e+01,-1.808225915343250501e+00,-9.417757621370708154e-01,-7.703559383767578060e-03,-3.361503666888844277e-01,2.089375628985060303e+02
5.667532637219544966e+01,1.926161606993902353e+01,-1.836907448391299935e+00,-9.454375207951333238e-01,-7.464409073421116383e-03,-3.257148705095316843e-01,2.106536606553891318e+02
5.578035320358034710e+01,1.916628648476365271e+01,-1.859882445909169624e+00,-9.489835905467230992e-01,-7.224345375356266974e-03,-3.152395179986872131e-01,2.124193393247330448e+02
5.484415263715850841e+01,1.907652894742729899e+01,-1.874293505333942678e+00,-9.524135374722833003e-01,-6.983397665114627999e-03,-3.047255909792836448e-01,2.141850179940769578e+02
5.399511128756352463e+01,1.900116081593394668e+01,-1.878865743528963739e+00,-9.557269418617487799e-01,-6.741595426412790894e-03,-2.941743759945472103e-01,2.157256422970113476e+02
5.311780124653064661e+01,1.892721903416110507e+01,-1.875167249572801786e+00,-9.589233982659074451e-01,-6.498968247534493703e-03,-2.835871641505668950e-01,2.172662665999457374e+02
5.221178477496634684e+01,1.885358149476101275e+01,-1.862030649572342433e+00,-9.620025155460171229e-01,-6.255545817709978230e-03,-2.729652509583055386e-01,2.188068909028801272e+02
5.127661418013383354e+01,1.877887229080643294e+01,-1.838237311920682293e+00,-9.649639169216711609e-01,-6.011357923482990757e-03,-2.623099361750703684e-01,2.203475152058145170e+02
4.959472707713895545e+01,1.863764932591167423e+01,-1.761809962992810341e+00,-9.678072400169055456e-01,-5.766434445065873882e-03,-2.516225236454658343e-01,2.229568572653024887e+02
4.848400372487563459e+01,1.853788891469046263e+01,-1.689831438211328640e+00,-9.705321369045447621e-01,-5.520805352683194438e-03,-2.409043211418441521e-01,2.245814899898486487e+02
4.733696976926378142e+01,1.842971839546851243e+01,-1.601872523192558129e+00,-9.731382741487801802e-01,-5.274500702904348984e-03,-2.301566402042768966e-01,2.262061227143948088e+02
4.615301176723934162e+01,1.831116306839285812e+01,-1.497506121509007304e+00,-9.756253328459720819e-01,-5.027550634965609160e-03,-2.193807959800640750e-01,2.278307554389409688e+02
4.455323975034859529e+01,1.813491277633035637e+01,-1.334179525802049238e+00,-9.779930086636772213e-01,-4.779985367082042330e-03,-2.085781070628024148e-01,2.299361849680944658e+02
4.286993898875682163e+01,1.792644536791944176e+01,-1.136294698871042064e+00,-9.802410118778901449e-01,-4.531835192749781097e-03,-1.977498953310322938e-01,2.320416144972479628e+02
4.129743840570027658e+01,1.771214751167444490e+01,-9.319574832125219199e-01,-9.823690674084984975e-01,-4.283130477039050199e-03,-1.868974857864810213e-01,2.339228117885992333e+02
3.966284270774983867e+01,1.747143469886367484e+01,-7.041750037583101030e-01,-9.843769148529457613e-01,-4.033901652878461690e-03,-1.760222063919256175e-01,2.358040090799505037e+02
3.796495276743306846e+01,1.720310305403114626e+01,-4.551042373405205788e-01,-9.862643085180978764e-01,-3.784179217330986469e-03,-1.651253879086921617e-01,2.376852063713017742e+02
3.638537340501403605e+01,1.693921669767217253e+01,-2.155705227244419375e-01,-9.880310174503099674e-01,-3.533993727862090508e-03,-1.542083637338130531e-01,2.393772263515389511e+02
3.475800798421913385e+01,1.665576451158767313e+01,3.580853665355807069e-02,-9.896768254636892914e-01,-3.283375798600463805e-03,-1.432724697368613354e-01,2.410692463317761280e+02
3.308205772453876392e+01,1.635344340832707388e+01,2.963261143003515508e-01,-9.912015311665502981e-01,-3.032356096591826491e-03,-1.323190440964828740e-01,2.427612663120133050e+02
3.112561155033036897e+01,1.598901094187064231e+01,5.979680313859260243e-01,-9.926049479860610258e-01,-2.780965338046247071e-03,-1.213494271366452465e-01,2.446723705017103612e+02
2.909685449461028028e+01,1.560116401411573150e+01,9.026855635317012627e-01,-9.938869041910745050e-01,-2.529234284579455917e-03,-1.103649611626247445e-01,2.465834746914074174e+02
2.735392337818827357e+01,1.526418107030884919e+01,1.154566422044996266e+00,-9.950472429131435037e-01,-2.277193739448585968e-03,-9.936699029675050143e-02,2.481763902549058116e+02
2.556760008568146247e+01,1.491902946816500553e+01,1.400144995245438562e+00,-9.960858221657185041e-01,-2.024874543782831555e-03,-8.835686031392607498e-02,2.497693058184042059e+02
2.373727377007076100e+01,1.456819199475066640e+01,1.634966701105067699e+00,-9.970025148615222488e-01,-1.772307572809469220e-03,-7.733591847694963606e-02,2.513622213819026001e+02
2.170535524788489923e+01,1.418535358443519101e+01,1.870650793864323980e+00,-9.977972088281035212e-01,-1.519523732075689837e-03,-6.630551337165055403e-02,2.530850393346039482e+02
1.961629533200509812e+01,1.380282087834213023e+01,2.080906601115280363e+00,-9.984698068215625000e-01,-1.266553953666739452e-03,-5.526699474186541616e-02,2.548078572873052963e+02
1.769480698153769893e+01,1.346381858431983503e+01,2.244335275290916254e+00,-9.990202265384520164e-01,-1.013429192420801450e-03,-4.422171332427161927e-02,2.563537788340681800e+02
1.573084473597148403e+01,1.313281328348512922e+01,2.380910919480728971e+00,-9.994484006258492759e-01,-7.601804221410977426e-04,-3.317102068309968343e-02,2.578997003808310637e+02
1.372391617369287964e+01,1.281367371533421817e+01,2.487039717371558378e+00,-9.997542766895983757e-01,-5.068386318056679113e-04,-2.211626904474421965e-02,2.594456219275939475e+02
1.167354127395271490e+01,1.251047838507733267e+01,2.559540286300450163e+00,-9.999378173007216208e-01,-2.534348217752878190e-04,-1.105881113229377488e-02,2.609915434743568312e+02
8.793771888882114141e+00,1.213642898850573459e+01,2.589204793227358081e+00,-9.999989999999999712e-01,-0.000000000000000000e+00,-0.000000000000000000e+00,2.630983951370834575e+02
6.577863136117806597e+00,1.189254372472356280e+01,2.556201165970125366e+00,-9.089459700179759460e-01,4.169115275721624880e-01,-4.199995240729656492e-05,2.646719166653975890e+02
4.314583569861629719e+00,1.168225321621396517e+01,2.479469124260138990e+00,-8.937831490306216153e-01,2.429597686784277025e-02,4.478385736136746287e-01,2.662454381937117205e+02
1.148115513049141473e-01,1.145485088644448979e+01,2.193724174608285615e+00,-4.199765354729856903e-01,-5.494543922603126740e-01,-7.223002010792805017e-01,2.690423153242666103e+02
-3.196835860655091732e+00,1.147480645532875343e+01,1.895817136789904156e+00,-4.595974337850232128e-01,-8.868719073912960660e-01,4.718494186908193250e-02,2.711813290364380578e+02
-6.438747662916924241e+00,1.171921419875836001e+01,1.664733432358743270e+00,-8.735703862521377872e-01,2.831098010944075455e-02,-4.858716586391932934e-01,2.733203427486095052e+02
-9.265286566987597894e+00,1.212343110831645809e+01,1.558582122024998018e+00,-0.000000000000000000e+00,-9.993865585873616952e-01,3.499294952975975925e-02,2.752575089428830779e+02
-1.165390150169120886e+01,1.258644308322045191e+01,1.538567654444114030e+00,-5.741094903288492812e-01,1.828998376289326603e-03,-8.187752731244776205e-01,2.769460215713796742e+02
-1.209711652082407518e+01,1.268233607386693507e+01,1.541024810128232003e+00,-8.536475879973478564e-01,2.904298598275515883e-02,5.200387490096067822e-01,2.772638023249403432e+02
-1.494799026745437232e+01,1.338257645406639540e+01,1.616842658035383407e+00,-0.000000000000000000e+00,9.993857527531183615e-01,3.501595629961486156e-02,2.793519319047393878e+02
-1.600775673877104310e+01,1.367888973942785569e+01,1.671519537653918475e+00,-5.759863546499165432e-01,0.000000000000000000e+00,-8.174580840987142327e-01,2.801474229694475184e+02
-1.666373497854668173e+01,1.386659436475642693e+01,1.708669515330398792e+00,-0.000000000000000000e+00,-5.697617808903238101e-01,-8.218086839622441575e-01,2.806420738369828314e+02
-1.889679819421685636e+01,1.454697177522333362e+01,1.872756696376220109e+00,9.968779763717983133e-01,-0.000000000000000000e+00,-7.894491893667299198e-02,2.823526598806212746e+02
-2.106533665403440736e+01,1.527765262840432747e+01,2.100385803272383889e+00,0.000000000000000000e+00,9.997078536730037435e-01,-2.412897233222458665e-02,2.840632459242597179e+02
-2.343874530262632661e+01,1.615555733724000476e+01,2.433976886393358630e+00,5.179124917784722060e-01,7.186022948438935964e-01,4.640855445982318694e-01,2.860001234538141830e+02
-2.572145219059775556e+01,1.707655155445089434e+01,2.845201627466303673e+00,0.000000000000000000e+00,-8.566789209262543059e-02,-9.963227450307342581e-01,2.879370009833686481e+02
-2.630410228453115451e+01,1.732196258170694136e+01,2.962732653033797181e+00,1.270998420215170783e-03,1.158168560456809271e-01,9.932687654186646009e-01,2.884420932743479966e+02
-2.758714444000484178e+01,1.787108448609803446e+01,3.231832554604687768e+00,0.000000000000000000e+00,-2.786296520853402334e-02,9.996107518226002853e-01,2.895637433614400038e+02
-2.984780459021156318e+01,1.888032224961254357e+01,3.760105040034685153e+00,-5.024135394088143913e-01,7.294793312446347100e-01,4.641535744839093147e-01,2.915982218871575924e+02
-3.148636847805717309e+01,1.964560273519877853e+01,4.186409372394992445e+00,-8.875683493733491636e-01,2.518998153463523904e-02,-4.599846628110039748e-01,2.931261772873576206e+02
-3.308251963350907943e+01,2.041193507436105037e+01,4.625577740995082010e+00,-0.000000000000000000e+00,2.192496970816468910e-02,-9.997586187199419827e-01,2.946541326875576488e+02
-3.463685132383060505e+01,2.117562018584136752e+01,5.069876314755578761e+00,4.595995113954425282e-01,-5.348094314390700044e-01,-7.090452462073387752e-01,2.961820880877576769e+02
-3.614996711029120036e+01,2.193336232930319341e+01,5.511726700485885644e+00,-7.142513392296471197e-01,-6.601633892676544990e-01,-2.324377849664553963e-01,2.977100434879577051e+02
-3.799760007288281827e+01,2.287512586089562205e+01,6.052903086095924756e+00,-9.546707119067674441e-01,-0.000000000000000000e+00,-2.976605983802608213e-01,2.996424975149617467e+02
-3.976568114830865142e+01,2.379039038870314116e+01,6.557873964980659665e+00,4.896725565858217055e-01,1.691298468475084874e-02,-8.717412106104224234e-01,3.015749515419657882e+02
-4.145581778068961398e+01,2.467398766416923195e+01,7.010248708933737305e+00,4.662972870224132982e-01,1.652197473758049845e-02,-8.844726476241844271e-01,3.035074055689698298e+02
-4.291171352579618059e+01,2.543895384384606118e+01,7.362460964307305566e+00,0.000000000000000000e+00,1.705397561328305181e-02,9.998535702368432920e-01,3.052431107428334940e+02
-4.431309068613153102e+01,2.617636569424159632e+01,7.656169061549440435e+00,-0.000000000000000000e+00,2.016697227361248165e-02,9.997956254396260789e-01,3.069788159166971582e+02
-4.466124428093062448e+01,2.635972266163569699e+01,7.722078861672889261e+00,-0.000000000000000000e+00,-9.950635238632310475e-01,9.922995251858011956e-02,3.074191170015756143e+02
-4.595148719560637574e+01,2.703879591158215234e+01,7.937144394090291044e+00,5.227064052945386008e-01,-8.494460335488712710e-01,-7.223191781865387351e-02,3.090826228308427517e+02
-4.719567712955051064e+01,2.769049177715129062e+01,8.086988746642260750e+00,0.000000000000000000e+00,-9.999989999994972131e-07,9.999989999994973733e-01,3.107461286601098891e+02
-4.847017330475613051e+01,2.835185659180555717e+01,8.168855899938082032e+00,6.355972790763377844e-01,2.092487626604309925e-01,7.431211571178107933e-01,3.125187012298287641e+02
-4.969130718220903020e+01,2.897642718912540971e+01,8.165305571028548925e+00,8.506807646959714253e-01,5.164672500193949745e-01,9.798885770686760477e-02,3.142912737995476391e+02
-5.094852260533704680e+01,2.960594468505171406e+01,8.059766910902807169e+00,-9.796745246590590206e-01,0.000000000000000000e+00,2.005886979234318135e-01,3.162045701443610142e+02
-5.214176898201034049e+01,3.018627098465599090e+01,7.843927159757693168e+00,-8.217572942066042607e-01,1.566598654474999144e-02,5.696205107626091113e-01,3.181178664891743892e+02
-5.220016497076812101e+01,3.021420251465987405e+01,7.830280517908850157e+00,-0.000000000000000000e+00,2.016697227948529778e-02,9.997956257307760719e-01,3.182140563109689992e+02
-5.324741282682668952e+01,3.070706165522672748e+01,7.536892255134700846e+00,-0.000000000000000000e+00,1.466699169184629455e-02,9.998914336090254373e-01,3.199792790965235554e+02
-5.424664563405612938e+01,3.115965939950838859e+01,7.161177824984672036e+00,5.752485914330266459e-01,0.000000000000000000e+00,-8.179774190362856245e-01,3.217445018820781115e+02
-5.527459575471739583e+01,3.160111281533324856e+01,6.666801022712833813e+00,0.000000000000000000e+00,-0.000000000000000000e+00,-9.999989999992615619e-01,3.236579681635880661e+02
-5.624436045250708816e+01,3.198797269420250444e+01,6.090203001392908710e+00,-7.127413081393706440e-01,-4.228955894936839432e-01,-5.596044567898798006e-01,3.255714344450980207e+02
-5.715741851462544076e+01,3.231907158968470384e+01,5.444257975923549431e+00,-0.000000000000000000e+00,-9.950635238631603263e-01,9.922995251857308352e-02,3.274849007266079752e+02
-5.791779134879534041e+01,3.256635574452415938e+01,4.830592774759941754e+00,7.294162694264236801e-01,5.001404990659676919e-01,4.667005325589907994e-01,3.291690459113141287e+02
-5.864133525474305486e+01,3.277500885850091805e+01,4.186109103554537469e+00,9.994709311542976371e-01,0.000000000000000000e+00,3.249396525058005636e-02,3.308531910960202822e+02
-5.932892832662925997e+01,3.294553318820365462e+01,3.519174441159841127e+00,8.370268619311098668e-01,-1.940497361590435010e-01,5.115943044075540458e-01,3.325373362807264357e+02
-5.998144097576570033e+01,3.307877989186727063e+01,2.837913441055452068e+00,3.783536023999215514e-01,-7.581172033181192704e-01,-5.311354418462200799e-01,3.342214814654325892e+02
-6.063570447989751244e+01,3.317914119957693231e+01,2.107350283268644375e+00,-9.796745246596296752e-01,-0.000000000000000000e+00,2.005886979235486645e-01,3.360098362883581444e+02
-6.125005445360896772e+01,3.323736312726582298e+01,1.378167659078949114e+00,9.997494087521848760e-01,-0.000000000000000000e+00,-2.234098678762946530e-02,3.377981911112836997e+02
-6.182555666189605859e+01,3.325550870649649227e+01,6.590191172720540891e-01,0.000000000000000000e+00,9.968731427319725835e-01,-7.900593205829646581e-02,3.395865459342092549e+02
-6.248744389266227728e+01,3.321751555986065085e+01,-2.153264502342021602e-01,7.342455860441465809e-01,2.131448798323445082e-01,6.445546366104615288e-01,3.418331500898481181e+02
-6.307660889465845599e+01,3.311104035159883097e+01,-1.041238471038114177e+00,0.000000000000000000e+00,-9.968312352734320925e-01,-7.953293898570860943e-02,3.440797542454869813e+02
-6.353286904074425223e+01,3.297309395897636364e+01,-1.708150175039861107e+00,-5.335776174016584328e-01,1.795098712836205868e-02,-8.455593936971655955e-01,3.460221404963771192e+02
-6.394530940420974474e+01,3.280159484334931363e+01,-2.327017579584045759e+00,-0.000000000000000000e+00,0.000000000000000000e+00,-9.999989999991268919e-01,3.479645267472672572e+02
-6.430357974259668197e+01,3.260970759824010656e+01,-2.875292603000457081e+00,6.008035540474860881e-01,8.946493359374828314e-02,-7.943734103683026682e-01,3.498381785749494952e+02
-6.458332547416154057e+01,3.242926063287890770e+01,-3.308621133201540498e+00,4.301035175188563930e-01,3.026596604827136439e-02,9.022709878512489290e-01,3.514450610823338934e+02
-6.484050516051382829e+01,3.223791579168161547e+01,-3.710078317412735860e+00,1.182598423658326320e-01,0.000000000000000000e+00,9.929816764075052316e-01,3.530519435897182916e+02
-6.507204394633932054e+01,3.204144736060327858e+01,-4.074081485593686658e+00,-9.994701503669238818e-01,0.000000000000000000e+00,3.251797235700848443e-02,3.546314714484562955e+02
-6.528321008600261166e+01,3.183889000676124326e+01,-4.408082131741948295e+00,3.588155418937233332e-01,-5.920762440855757980e-01,-7.215920787303728989e-01,3.562109993071942995e+02
-6.547449562243591004e+01,3.163233266734954796e+01,-4.712284342975352480e+00,-9.968817776733853719e-01,-0.000000000000000000e+00,-7.889690326056024439e-02,3.577905271659323034e+02
-6.564695296677697911e+01,3.142301287807029198e+01,-4.988059338116988428e+00,-0.000000000000000000e+00,9.997078536730037435e-01,-2.412897233222458665e-02,3.593760263130449175e+02
-6.580025478531145211e+01,3.121393202028943392e+01,-5.234709078071694499e+00,-0.000000000000000000e+00,9.968731427148271873e-01,-7.900593205693762222e-02,3.609615254601575316e+02
-6.593455058193025309e+01,3.100802690462790068e+01,-5.452421558048645700e+00,-0.000000000000000000e+00,1.466699169441395938e-02,9.998914337840705269e-01,3.625427489596182227e+02
-6.605074777589659618e+01,3.080699093818196133e+01,-5.642935320484387951e+00,9.546769266724455250e-01,0.000000000000000000e+00,-2.976406653674991132e-01,3.641239724590789137e+02
-6.619017337224184416e+01,3.048469924606916948e+01,-5.894605850642340883e+00,0.000000000000000000e+00,-4.977924468363426613e-01,-8.672950362326763418e-01,3.668740225112421740e+02
-6.620516013151426193e+01,3.043554876006248122e+01,-5.926337421784254822e+00,-5.517134353491308651e-01,-8.267481538649708028e-01,1.099898874308987973e-01,3.673254196823474444e+02
-6.624989813485805712e+01,3.026258718926485614e+01,-6.027932931487098855e+00,-3.571165318403286548e-01,-5.924852232852229061e-01,-7.220990533687875468e-01,3.689782095755043656e+02
-6.627573834903763839e+01,3.010333992722293317e+01,-6.102288323325749886e+00,9.968779763717525721e-01,-0.000000000000000000e+00,-7.894491893666935600e-02,3.706309994686612868e+02
-6.628311832033406858e+01,2.995905803903399089e+01,-6.148507750334529121e+00,0.000000000000000000e+00,1.519999199372507222e-02,9.998834733324868385e-01,3.722837893618182079e+02
-6.624057760483580637e+01,2.977217460063413412e+01,-6.142975647815989149e+00,-0.000000000000000000e+00,1.173078338862773295e-01,9.930945937287011249e-01,3.749852023376957391e+02
-6.622666560232551092e+01,2.974714202614766734e+01,-6.132077122788587076e+00,5.119696326531483210e-01,1.099999210732001920e-05,-8.590023836512926669e-01,3.754370040723335933e+02
-6.610633664119760056e+01,2.963568917589332230e+01,-6.008908235464956782e+00,7.268315228414338192e-01,-5.907656121675193273e-01,-3.502997700312510121e-01,3.781144303587176410e+02
-6.594492797056581423e+01,2.959204818423103234e+01,-5.814802764844637650e+00,-4.015486972678070088e-01,-7.363974448214752888e-01,-5.444955894984966349e-01,3.804547655798012897e+02
-6.569434842401743424e+01,2.959852398639819171e+01,-5.499643505883858197e+00,-4.272875887420779506e-01,2.998997113510071949e-02,9.036171302820088513e-01,3.831657672742510385e+02
-6.550656297441263121e+01,2.962839150665771015e+01,-5.261753482210074218e+00,5.764363129578226053e-01,-1.163998612654818660e-03,-8.171400260681881411e-01,3.848621306390451764e+02
-6.531372263484875873e+01,2.966743791716873346e+01,-5.018193388483440209e+00,0.000000000000000000e+00,8.080491350123117367e-02,9.967289330373387823e-01,3.864687383325978089e+02
-6.510704636649516885e+01,2.971487953903396217e+01,-4.760620447383312914e+00,9.796526068684234811e-01,0.000000000000000000e+00,2.006957145972610157e-01,3.880753460261504415e+02
-6.489625067142662829e+01,2.976644993720135801e+01,-4.503502015937612235e+00,-7.270129289259358307e-01,2.249116686481829330e-01,6.487410442402340438e-01,3.896170804303950490e+02
-6.467378618609629370e+01,2.982200346275088876e+01,-4.239719508484907529e+00,-0.000000000000000000e+00,9.999989999991857167e-07,9.999989999991858447e-01,3.911588148346396565e+02
-6.443991807056309540e+01,2.987965137765868917e+01,-3.971882661188910202e+00,-9.359985444576961102e-04,-1.157798199543932233e-01,9.932734553912587749e-01,3.927005492388842640e+02
-6.412762334639013773e+01,2.995224768409229199e+01,-3.633209501888862381e+00,9.796526068684237032e-01,-0.000000000000000000e+00,2.006957145972610712e-01,3.946400530238337865e+02
-6.379367277322574381e+01,3.002136603635390344e+01,-3.297194506478363873e+00,4.737066590286643786e-01,3.605097405071569505e-02,8.799433666218128280e-01,3.965795568087833090e+02
-6.343875545667736304e+01,3.008248732263005110e+01,-2.968640048802870801e+00,9.968779763717081632e-01,0.000000000000000000e+00,-7.894491893666584492e-02,3.985190605937328314e+02
-6.309469050982371385e+01,3.012847678791032280e+01,-2.676068817294524393e+00,6.991536932642747892e-01,-5.387427636404500397e-01,-4.700407937816746817e-01,4.003049848893569447e+02
-6.273536408913322759e+01,3.016195420400189775e+01,-2.395922949790528111e+00,-9.796745246591813672e-01,-0.000000000000000000e+00,2.005886979234568490e-01,4.020909091849810579e+02
-6.236128868629293720e+01,3.018007282650566836e+01,-2.130756211816560164e+00,-9.734276516937230284e-01,-0.000000000000000000e+00,2.289904078951074395e-01,4.038768334806051712e+02
-6.202934933184558020e+01,3.018228324252084249e+01,-1.915879007128000744e+00,-9.663575650892872737e-01,-0.000000000000000000e+00,2.571984766364810993e-01,4.054108889543014698e+02
-6.168876012156644606e+01,3.017166211394369668e+01,-1.713571708628802259e+00,-9.584702415621334515e-01,-0.000000000000000000e+00,2.851890531359723702e-01,4.069449444279977683e+02
-6.133980973231949463e+01,3.014712077451682148e+01,-1.525119466553133574e+00,-9.497723484855764564e-01,-0.000000000000000000e+00,3.129384700546603559e-01,4.084789999016940669e+02
-6.098278482359602037e+01,3.010760251141494237e+01,-1.351770942215432036e+00,-9.402712382717893780e-01,-0.000000000000000000e+00,3.404232636965888181e-01,4.100130553753903655e+02
-6.061797269800336352e+01,3.005216598836702957e+01,-1.194756499108975412e+00,-9.299749421832678165e-01,-0.000000000000000000e+00,3.676201938103031974e-01,4.115471108490866641e+02
-6.007095599824469190e+01,2.993447042390972612e+01,-1.005082289651049843e+00,-9.188921635737932192e-01,-0.000000000000000000e+00,3.945062632041775319e-01,4.137753540583346989e+02
-5.950146726800279851e+01,2.976514430714988180e+01,-8.681143235133012004e-01,-9.070322705643593109e-01,-0.000000000000000000e+00,4.210587371592332540e-01,4.160035972675827338e+02
-5.903027291457045322e+01,2.959376650354924010e+01,-7.925187080686602048e-01,-8.944052881599724447e-01,-0.000000000000000000e+00,4.472551626233320921e-01,4.177925781126367610e+02
-5.851349521313706958e+01,2.937695300682289101e+01,-7.382932252843634746e-01,-8.810218898136904508e-01,-0.000000000000000000e+00,4.730733871707566984e-01,4.197100005893018988e+02
-5.798472686415169619e+01,2.912435930599749057e+01,-7.059863929636933655e-01,-8.668933884447134197e-01,-0.000000000000000000e+00,4.984915777113709257e-01,4.216274230659670366e+02
-5.744462486077606655e+01,2.883580297701662332e+01,-6.871407418219257490e-01,-8.520317269177695163e-01,-0.000000000000000000e+00,5.234882389337551789e-01,4.235448455426321743e+02
-5.695880004539933594e+01,2.855238578682813610e+01,-6.744085092098653922e-01,-8.364494679914986630e-01,-0.000000000000000000e+00,5.480422314668653705e-01,4.252399311707904985e+02
-5.646619222486733491e+01,2.824436972077992181e+01,-6.589957950873782666e-01,-8.201597837439493777e-01,-0.000000000000000000e+00,5.721327897450193545e-01,4.269350167989488227e+02
-5.592008849267156023e+01,2.787901748525348111e+01,-6.327729966058078803e-01,-8.031764444837610206e-01,-0.000000000000000000e+00,5.957395395611788658e-01,4.287874910091637730e+02
-5.540343109550617839e+01,2.751137169892454182e+01,-5.949521854587910275e-01,-7.855138071560048285e-01,-0.000000000000000000e+00,6.188425152937795382e-01,4.305164043920318591e+02
-5.488075710143768760e+01,2.711960379674161814e+01,-5.408220240138992274e-01,-7.671868032520980929e-01,-0.000000000000000000e+00,6.414221767925626372e-01,4.322453177748999451e+02
-5.442772687524195163e+01,2.676549870683404464e+01,-4.803258898306659863e-01,-7.482109262336228417e-01,-0.000000000000000000e+00,6.634594259091233237e-01,4.337302406261237024e+02
-5.422963468227779771e+01,2.660729938215827417e+01,-4.506606192372935582e-01,-7.286022184802739554e-01,-0.000000000000000000e+00,6.849356226581835294e-01,4.343771228829025404e+02
-5.374659376923548137e+01,2.621275954271858666e+01,-3.699621261719540088e-01,-7.083772577726037412e-01,-0.000000000000000000e+00,7.058326009958245661e-01,4.359482980328901931e+02
-5.326002505564906642e+01,2.580103650412567262e+01,-2.752679929085727895e-01,-6.875531433205789300e-01,-0.000000000000000000e+00,7.261326842012705285e-01,4.375194731828778458e+02
-5.281340035296961588e+01,2.541091694310525995e+01,-1.783589043242281014e-01,-6.661474813494240310e-01,-0.000000000000000000e+00,7.458186998490424768e-01,4.389529461146747735e+02
-5.226397736648679881e+01,2.491400694916050540e+01,-4.851490406927441018e-02,-6.441783702545579304e-01,-0.000000000000000000e+00,7.648739943586755352e-01,4.407046881510376579e+02
-5.171024512665711370e+01,2.439291979094753060e+01,9.154641460379424334e-02,-6.216643853378338580e-01,-0.000000000000000000e+00,7.832824471094969043e-01,4.424564301874005423e+02
-5.115252422561373180e+01,2.384744519916882055e+01,2.378580183655783220e-01,-5.986245631376717613e-01,-0.000000000000000000e+00,8.010284841082887519e-01,4.442081722237634267e+02
-5.059112882560264524e+01,2.327733309781871895e+01,3.860470927235589156e-01,-5.750783853660291767e-01,-0.000000000000000000e+00,8.180970911980265381e-01,4.459599142601263111e+02
-4.978284856812444303e+01,2.241249438115736936e+01,5.915360312608648474e-01,-5.510457624654945263e-01,-0.000000000000000000e+00,8.344738267962509282e-01,4.484558067237550745e+02
-4.928251032500015327e+01,2.185179891660330043e+01,7.121871109171346026e-01,-5.265470168001781248e-01,-0.000000000000000000e+00,8.501448341519768359e-01,4.499873625635356689e+02
-4.878073102593004506e+01,2.127393507790464966e+01,8.279510240560279399e-01,-5.016028654943628373e-01,-0.000000000000000000e+00,8.650968531104648029e-01,4.515189184033162633e+02
-4.827768546947347517e+01,2.067897046490331192e+01,9.376711607933815307e-01,-4.762344029332463147e-01,-0.000000000000000000e+00,8.793172313755481806e-01,4.530504742430968577e+02
-4.777354797577219614e+01,2.006707400623544046e+01,1.040190950546892923e+00,-4.504630829403765135e-01,-0.000000000000000000e+00,8.927939352596424571e-01,4.545820300828774521e+02
-4.726849202246534531e+01,1.943851592302948106e+01,1.134353869557650496e+00,-4.243107006467524700e-01,-0.000000000000000000e+00,9.055155599119557586e-01,4.561135859226580465e+02
-4.676268988073028510e+01,1.879366769096391110e+01,1.219003448411436263e+00,-3.977993740667925548e-01,-0.000000000000000000e+00,9.174713390158748538e-01,4.576451417624386409e+02
-4.625631021621997974e+01,1.813299549911094743e+01,1.293365522133776979e+00,-3.709515253966704229e-01,-0.000000000000000000e+00,9.286511539469378684e-01,4.591766976022192353e+02
-4.574951572431699987e+01,1.745705136970141425e+01,1.357430477798471369e+00,-3.437898620508479941e-01,-0.000000000000000000e+00,9.390455423832292370e-01,4.607082534419998296e+02
-4.524246486429021985e+01,1.676647611096289125e+01,1.411571012015313986e+00,-3.163373574527754695e-01,-0.000000000000000000e+00,9.486457063605421292e-01,4.622398092817804240e+02
-4.473531357061985858e+01,1.606200460618176606e+01,1.456159885931271436e+00,-2.886172315960918722e-01,-0.000000000000000000e+00,9.574435197650771334e-01,4.637713651215610184e+02
-4.422821491493910884e+01,1.534446576846956845e+01,1.491569922805356052e+00,-2.606529313927999358e-01,-0.000000000000000000e+00,9.654315352569577957e-01,4.653029209613416128e+02
-4.372131876811372564e+01,1.461478249400627227e+01,1.518174005583199593e+00,-2.324681108251589468e-01,-0.000000000000000000e+00,9.726029906183140117e-01,4.668344768011222072e+02
-4.321477146246197520e+01,1.387397161376117438e+01,1.536345074471331840e+00,-2.040866109181856403e-01,-0.000000000000000000e+00,9.789518145201987487e-01,4.683660326409028016e+02
-4.267977482864344552e+01,1.307979554276707113e+01,1.546591997104579619e+00,-1.755324395499200663e-01,-0.000000000000000000e+00,9.844726317030794149e-01,4.699849865328579313e+02
-4.214533222477333396e+01,1.227542137351906781e+01,1.547864732848554636e+00,-1.468297511166640756e-01,-0.000000000000000000e+00,9.891607675661979737e-01,4.716039404248130609e+02
-4.161160991659271247e+01,1.146247776316010558e+01,1.540625012117645021e+00,-1.180028260706744575e-01,-0.000000000000000000e+00,9.930122521615702968e-01,4.732228943167681905e+02
-4.107876767479024949e+01,1.064271693646380967e+01,1.525334627172881152e+00,-8.907605034783637465e-02,-0.000000000000000000e+00,9.960238235889509184e-01,4.748418482087233201e+02
-4.054695830528723377e+01,9.818014607652195025e+00,1.502455428765808731e+00,-6.007389470301825046e-02,-0.000000000000000000e+00,9.981929307886019398e-01,4.764608021006784497e+02
-4.001632717974929676e+01,8.990369899976430546e+00,1.472449322782042325e+00,-3.102089397086779318e-02,-0.000000000000000000e+00,9.995177357292486242e-01,4.780797559926335794e+02
-3.948700932088151916e+01,8.161817619634561538e+00,1.436106793429478889e+00,-1.941626269941741385e-03,-0.000000000000000000e+00,9.999971149891382360e-01,4.796987098845887090e+02
-3.895912693926157999e+01,7.334337440164004462e+00,1.394875424038556577e+00,2.713930783192749358e-02,-0.000000000000000000e+00,9.996306607286623569e-01,4.813176637765438386e+02
-3.843279210261331258e+01,6.509936831683208247e+00,1.350531359996996583e+00,5.619730617301406383e-02,-0.000000000000000000e+00,9.984186810535521373e-01,4.829366176684989682e+02
-3.790810896966935672e+01,5.690737080419411065e+00,1.304850769296680646e+00,8.520778585584175280e-02,-0.000000000000000000e+00,9.963621997681956222e-01,4.845555715604540978e+02
-3.738517335707230416e+01,4.878973207663551470e+00,1.259609829625366384e+00,1.141462040900632913e-01,-0.000000000000000000e+00,9.934629555191850647e-01,4.861745254524092275e+02
