3.962444847734661124e+01,3.506589978221144932e+00,-5.358866460228231432e+00,-4.922619921450333003e-01,-6.826227233414304818e-01,-5.400947589715021646e-01,6.524293661838004255e+01
4.040025587566326948e+01,4.416488718456968776e+00,-5.051048309703790373e+00,-5.000989762155253482e-01,-6.791103187285596476e-01,-5.373157256080756117e-01,6.749279859199003795e+01
4.122313851441666799e+01,5.456304903886656454e+00,-4.739098988597184814e+00,-5.078952129559449746e-01,-6.755425812374785677e-01,-5.344929125747109877e-01,6.988417700898770590e+01
4.178664275322113753e+01,6.208765035013507294e+00,-4.539834723685899576e+00,-5.156500671414955272e-01,-6.719198015621957731e-01,-5.316265498700665226e-01,7.152344036060237897e+01
4.249816481261649415e+01,7.201929462152777184e+00,-4.309415804888178769e+00,-5.233629069191705341e-01,-6.682422748814526026e-01,-5.287168710411450645e-01,7.359432021803705481e+01
4.342362950781708264e+01,8.591606746044131881e+00,-4.050390399505305439e+00,-5.310331038592335240e-01,-6.645103008346722184e-01,-5.257641131642650789e-01,7.629843917353215943e+01
4.377746541700522442e+01,9.149603085544764980e+00,-3.962315598962600216e+00,-5.386600330064224007e-01,-6.607241834975456918e-01,-5.227685168257434345e-01,7.733463552839180011e+01
4.396776568188504086e+01,9.451299210065483791e+00,-3.916223503326290434e+00,-5.462430729308684896e-01,-6.568842313572561542e-01,-5.197303261022939713e-01,7.789101077776658144e+01
4.432063328943824132e+01,1.001350102530509290e+01,-3.832848871943396407e+00,-5.537816057787285917e-01,-6.529907572873439037e-01,-5.166497885411391877e-01,7.892104193766662945e+01
4.484399494134987663e+01,1.085994062586648568e+01,-3.715374028359784475e+00,-5.612750173225266037e-01,-6.490440785222141296e-01,-5.135271551398415957e-01,8.044738639663522406e+01
4.536740247543387738e+01,1.172359299375589714e+01,-3.605117766162388993e+00,-5.687226970111987079e-01,-6.450445166312891443e-01,-5.103626803258523026e-01,8.197373085560381867e+01
4.589073760617680620e+01,1.260258807347968357e+01,-3.501259252491156992e+00,-5.761240380198394684e-01,-6.409923974928074530e-01,-5.071566219357810379e-01,8.350007531457241328e+01
4.618416974157345578e+01,1.310014620909652727e+01,-3.445395218306418261e+00,-5.834784372991438373e-01,-6.368880512672712157e-01,-5.039092411943874028e-01,8.435532562772920073e+01
4.690638894727958075e+01,1.434380599653374233e+01,-3.317638852090007973e+00,-5.907852956245427389e-01,-6.327318123705470976e-01,-5.006208026932984501e-01,8.646411939583471451e+01
4.742967489852631502e+01,1.526190136008236387e+01,-3.235527381282630621e+00,-5.980440176450256828e-01,-6.285240194466169550e-01,-4.972915743694483193e-01,8.799682483877838024e+01
4.795227869316026670e+01,1.618607323833750300e+01,-3.163503567443227471e+00,-6.052540119316481837e-01,-6.242650153399864621e-01,-4.939218274832481992e-01,8.952953028172204597e+01
4.848820840224102824e+01,1.713880381934006891e+01,-3.102029332850375187e+00,-6.124146910257203258e-01,-6.199551470677513443e-01,-4.905118365964849514e-01,9.110419438554150418e+01
4.902285238299262460e+01,1.809148145940077157e+01,-3.055090138258651944e+00,-6.195254714866703649e-01,-6.155947657913218851e-01,-4.870618795499494502e-01,9.267885848936096238e+01
4.955596547802544904e+01,1.904062514519000260e+01,-3.024334449771459266e+00,-6.265857739395832571e-01,-6.111842267878129231e-01,-4.835722374407999680e-01,9.425352259318042059e+01
5.008728989874988002e+01,1.998297117590404781e+01,-3.011410622184622632e+00,-6.335950231224045659e-01,-6.067238894210944533e-01,-4.800431945996572192e-01,9.582818669699987879e+01
5.061655602967465484e+01,2.091547330557823159e+01,-3.017966887653316999e+00,-6.405526479328135236e-01,-6.022141171125136028e-01,-4.764750385674398347e-01,9.740285080081933700e+01
5.114347992258291242e+01,2.183509606534904890e+01,-3.044935979815949434e+00,-6.474580814747525892e-01,-5.976552773112818739e-01,-4.728680600719344373e-01,9.897751490463879520e+01
5.166775976870348330e+01,2.273861171348746879e+01,-3.091819762837304975e+00,-6.543107611046183880e-01,-5.930477414645379808e-01,-4.692225530041085890e-01,1.005521790084582534e+02
5.218907849902203111e+01,2.362281263860430869e+01,-3.157404599376879784e+00,-6.611101284771034869e-01,-5.883918849870819479e-01,-4.655388143941652235e-01,1.021268431122777116e+02
5.271902559018301559e+01,2.450421099697613414e+01,-3.242748456404522361e+00,-6.678556295906887819e-01,-5.836880872307877999e-01,-4.618171443873411719e-01,1.037381329339357450e+02
5.324498367487453265e+01,2.535877866523668089e+01,-3.345383299016468026e+00,-6.745467148327823903e-01,-5.789367314536947307e-01,-4.580578462194520584e-01,1.053494227555937783e+02
5.376656946990426178e+01,2.618376342566854831e+01,-3.463986935672840328e+00,-6.811828390245008302e-01,-5.741382047887803042e-01,-4.542612261921853967e-01,1.069607125772518117e+02
5.428338955950103895e+01,2.697667016723697131e+01,-3.597237059828288341e+00,-6.877634614650880440e-01,-5.692928982124171311e-01,-4.504275936481440534e-01,1.085720023989098451e+02
5.479504136797111613e+01,2.773526103940290000e+01,-3.743811259449960627e+00,-6.942880459759707135e-01,-5.644012065125179056e-01,-4.465572609456410214e-01,1.101832922205678784e+02
5.530111413283077582e+01,2.845755560132380069e+01,-3.902387026536059178e+00,-7.007560609444445365e-01,-5.594635282563690248e-01,-4.426505434332507205e-01,1.117945820422259118e+02
5.580118987840849343e+01,2.914183096643998994e+01,-4.071641766634900961e+00,-7.071669793669883575e-01,-5.544802657581555660e-01,-4.387077594241134970e-01,1.134058718638839451e+02
5.629484119670495801e+01,2.978641083550735402e+01,-4.249877204547166443e+00,-7.135202788922039296e-01,-5.494518250461825071e-01,-4.347292301700013684e-01,1.150171616855419785e+02
5.678162796063492124e+01,3.038945808239236612e+01,-4.434643792732602563e+00,-7.198154418633744278e-01,-5.443786158297924116e-01,-4.307152798351430167e-01,1.166284515072000119e+02
5.726109990803958283e+01,3.094919133690355650e+01,-4.623116332759718006e+00,-7.260519553606430421e-01,-5.392610514659826881e-01,-4.266662354698114168e-01,1.182397413288580452e+02
5.773280031220639330e+01,3.146409801765954484e+01,-4.812469599459765490e+00,-7.322293112428035489e-01,-5.340995489257275297e-01,-4.225824269836769287e-01,1.198510311505160786e+02
5.819626699819928461e+01,3.193293447756193970e+01,-4.999878361263591309e+00,-7.383470061887027480e-01,-5.288945287600029799e-01,-4.184641871189271889e-01,1.214623209721741119e+02
5.863429621077849418e+01,3.234050612935926949e+01,-5.175864125288578421e+00,-7.444045417382494367e-01,-5.236464150655228966e-01,-4.143118514231557414e-01,1.230130338369359322e+02
5.906424726884893062e+01,3.270542197426330944e+01,-5.345101119468362860e+00,-7.504014243330283662e-01,-5.183556354501830388e-01,-4.101257582220230180e-01,1.245637467016977524e+02
5.948571474240239354e+01,3.302729415267970836e+01,-5.505139220779220466e+00,-7.563371653565128527e-01,-5.130226209982220453e-01,-4.059062485916898333e-01,1.261144595664595727e+02
5.989829199882158406e+01,3.330595753193377817e+01,-5.653528367476590155e+00,-7.622112811738781524e-01,-5.076478062350974207e-01,-4.016536663310282251e-01,1.276651724312213929e+02
6.030157201320372451e+01,3.354146980316986060e+01,-5.787818575430399015e+00,-7.680232931714043865e-01,-5.022316290920814108e-01,-3.973683579336091398e-01,1.292158852959832132e+02
6.069514817902765458e+01,3.373411157455282705e+01,-5.905559954460009919e+00,-7.737727277954751237e-01,-4.967745308705796004e-01,-3.930506725594706263e-01,1.307665981607450192e+02
6.107861511915911024e+01,3.388438646077037930e+01,-6.004302724668685087e+00,-7.794591165911596287e-01,-4.912769562061750639e-01,-3.887009620066704807e-01,1.323173110255068252e+02
6.145156681023462397e+01,3.399273417010748943e+01,-6.082358405695323711e+00,-7.850819962403828844e-01,-4.857393530324002895e-01,-3.843195806826213423e-01,1.338680238902686312e+02
6.181359330739802971e+01,3.405924632820501330e+01,-6.139561000890028986e+00,-7.906409085996745079e-01,-4.801621725442412614e-01,-3.799068855752154028e-01,1.354187367550304373e+02
6.216428215658546463e+01,3.408395767723740732e+01,-6.176505825502298208e+00,-7.961354007374977781e-01,-4.745458691613749780e-01,-3.754632362237378951e-01,1.369694496197922433e+02
6.250322122045337636e+01,3.406713454623701409e+01,-6.193788329792993430e+00,-8.015650249711534503e-01,-4.688909004911447354e-01,-3.709889946895723600e-01,1.385201624845540493e+02
6.282999952104431429e+01,3.400927495249183607e+01,-6.192004095063442293e+00,-8.069293389032563546e-01,-4.631977272912754517e-01,-3.664845255267014656e-01,1.400708753493158554e+02
6.315223118299184790e+01,3.390742151033698804e+01,-6.170780639878454821e+00,-8.122279054577804525e-01,-4.574668134323324753e-01,-3.619501957520038227e-01,1.416629677535833309e+02
6.346039917401227370e+01,3.376308694273912181e+01,-6.130372324948909935e+00,-8.174602929156706832e-01,-4.516986258599264836e-01,-3.573863748153504050e-01,1.432550601578508065e+02
6.375405669248956997e+01,3.357760686413112694e+01,-6.071436435197997028e+00,-8.226260749500193814e-01,-4.458936345566684167e-01,-3.527934345695029061e-01,1.448471525621182820e+02
6.403276215595523979e+01,3.335258140401857929e+01,-5.994630385697030661e+00,-8.277248306608010475e-01,-4.400523125038764971e-01,-3.481717492398166969e-01,1.464392449663857576e+02
6.429608018939367753e+01,3.308987530282131218e+01,-5.900611717045431526e+00,-8.327561446091689135e-01,-4.341751356430386122e-01,-3.435216953937488271e-01,1.480313373706532332e+02
6.454358261396436092e+01,3.279161800308456520e+01,-5.790038090750060817e+00,-8.377196068513009797e-01,-4.282625828370345000e-01,-3.388436519101775124e-01,1.496234297749207087e+02
6.477484943613333712e+01,3.246020373605776399e+01,-5.663567284603898244e+00,-8.426148129718042945e-01,-4.223151358311188486e-01,-3.341379999485314389e-01,1.512155221791881843e+02
6.498946983720765047e+01,3.209829160363907619e+01,-5.521857188064127619e+00,-8.474413641166640421e-01,-4.163332792136704152e-01,-3.294051229177342166e-01,1.528076145834556598e+02
6.518704316326537196e+01,3.170880565568373299e+01,-5.365565797629614941e+00,-8.521988670257422127e-01,-4.103175003767088880e-01,-3.246454064449653121e-01,1.543997069877231354e+02
6.536717991547436668e+01,3.129493496267432562e+01,-5.195351212217834025e+00,-8.568869340648200827e-01,-4.042682894761834844e-01,-3.198592383442398490e-01,1.559917993919906110e+02
6.552950274079300641e+01,3.086013368375121857e+01,-5.011871628541250345e+00,-8.615051832571811730e-01,-3.981861393920366199e-01,-3.150470085848113277e-01,1.575838917962580865e+02
6.567364742304557979e+01,3.040812113010124662e+01,-4.815785336483190626e+00,-8.660532383147342417e-01,-3.920715456880454197e-01,-3.102091092593973198e-01,1.591759842005255621e+02
6.580258720832318886e+01,2.992804969326634179e+01,-4.600942674568325508e+00,-8.705307286686735369e-01,-3.859250065714439071e-01,-3.053459345522328006e-01,1.608177560236051704e+02
6.591086122909318590e+01,2.943785209939342806e+01,-4.374349679195627338e+00,-8.749372894996713113e-01,-3.797470228523315838e-01,-3.004578807069539503e-01,1.624595278466847788e+02
6.599809420961172179e+01,2.894126495833685198e+01,-4.138230805982854754e+00,-8.792725617676026006e-01,-3.735380979028678494e-01,-2.955453459943122030e-01,1.641012996697643871e+02
6.606357089708322405e+01,2.844576370153161804e+01,-3.897224049473443586e+00,-8.835361922408000446e-01,-3.672987376162588635e-01,-2.906087306797251468e-01,1.657303144908346439e+02
6.610778164948860081e+01,2.795087629409505325e+01,-3.652510483759130899e+00,-8.877278335248340868e-01,-3.610294503655390730e-01,-2.856484369906635012e-01,1.673593293119049008e+02
6.613038469954302911e+01,2.745935722237590326e+01,-3.407676590733683675e+00,-8.918471440908188885e-01,-3.547307469621499565e-01,-2.806648690838786098e-01,1.689883441329751577e+02
6.611246276125386601e+01,2.674715034536471947e+01,-3.055721325869959593e+00,-8.958937883032386251e-01,-3.484031406143205944e-01,-2.756584330124732807e-01,1.713957818958127746e+02
6.605200919845599117e+01,2.619675068880650315e+01,-2.790847823225941493e+00,-8.998674364472961651e-01,-3.420471468852533392e-01,-2.706295366928177515e-01,1.733093333169784671e+02
6.595480518171318352e+01,2.566153184482004335e+01,-2.544700233514803234e+00,-9.037677647557764704e-01,-3.356632836511159734e-01,-2.655785898713128867e-01,1.752228847381441597e+02
6.583265320217074645e+01,2.518041918367398679e+01,-2.336951365269570591e+00,-9.075944554354273830e-01,-3.292520710588479615e-01,-2.605060040910060493e-01,1.769943616397087567e+02
6.568025148430358229e+01,2.471375055862335657e+01,-2.151347692640553699e+00,-9.113471966928536894e-01,-3.228140314837790736e-01,-2.554121926580592561e-01,1.787658385412733537e+02
6.549711513001808783e+01,2.426259444778597896e+01,-1.990220347870197193e+00,-9.150256827599209108e-01,-3.163496894870684861e-01,-2.502975706080745044e-01,1.805373154428379507e+02
6.528275102037117961e+01,2.382741691376166315e+01,-1.854314672448346357e+00,-9.186296139186690413e-01,-3.098595717729644705e-01,-2.451625546722770166e-01,1.823087923444025478e+02
6.503666142523286453e+01,2.340866688585664335e+01,-1.743582999492093277e+00,-9.221586965257344559e-01,-3.033442071458896661e-01,-2.400075632435616779e-01,1.840802692459671448e+02
6.477637255419209339e+01,2.302991468959733368e+01,-1.661856483788496375e+00,-9.256126430362739965e-01,-2.968041264673562663e-01,-2.348330163424033334e-01,1.857479976157101191e+02
6.448876334972459290e+01,2.266668624974507296e+01,-1.601118150870863177e+00,-9.289911720273962281e-01,-2.902398626127123404e-01,-2.296393355826346905e-01,1.874157259854530935e+02
6.420282934915736917e+01,2.234848991301331012e+01,-1.562567913014446530e+00,-9.322940082210900981e-01,-2.836519504277243975e-01,-2.244269441370941032e-01,1.889390883555622622e+02
6.389544348241089011e+01,2.204306163900858806e+01,-1.538281487059504959e+00,-9.355208825066541056e-01,-2.770409266849995777e-01,-2.191962667031465695e-01,1.904624507256714310e+02
6.356631986435860426e+01,2.175059822466594284e+01,-1.526477428943889159e+00,-9.386715319626248721e-01,-2.704073300402512481e-01,-2.139477294680807440e-01,1.919858130957805997e+02
6.312923939339297164e+01,2.141235014903899270e+01,-1.526986483444219722e+00,-9.417456998781994493e-01,-2.637517009884099428e-01,-2.086817600743839374e-01,1.938525587422797400e+02
6.265111379193141516e+01,2.109887891627315071e+01,-1.541438654422345955e+00,-9.447431357741514768e-01,-2.570745818195860344e-01,-2.033987875848991822e-01,1.957193043887788804e+02
6.185871772430825644e+01,2.069725623209492582e+01,-1.582276108093146005e+00,-9.476635954232405235e-01,-2.503765165748844668e-01,-1.980992424478658642e-01,1.984406693608128194e+02
6.137633364749267884e+01,2.050339562556999695e+01,-1.612439747392407474e+00,-9.505068408701125016e-01,-2.436580510020781298e-01,-1.927835564618483599e-01,1.999363587990146698e+02
6.030547262427796795e+01,2.017146639224591098e+01,-1.680264104256359747e+00,-9.532726404506874918e-01,-2.369197325111420394e-01,-1.874521627405540125e-01,2.029129500469389313e+02
5.923525839234685719e+01,1.994059767020339180e+01,-1.742586417774273810e+00,-9.559607688110360879e-01,-2.301621101296504324e-01,-1.821054956775435552e-01,2.055053673847398272e+02
5.846914058443341133e+01,1.980859190236795442e+01,-1.782331064753970518e+00,-9.585710069257413757e-01,-2.233857344580447990e-01,-1.767439909108386165e-01,2.072214651416229287e+02
5.766710831337181276e+01,1.968743626707851035e+01,-1.819161292516905615e+00,-9.611031421157458787e-01,-2.165911576247711579e-01,-1.713680852874262250e-01,2.089375628985060303e+02
5.682855682848285994e+01,1.957503261217462409e+01,-1.851430379633720369e+00,-9.635569680656796976e-01,-2.097789332412947905e-01,-1.659782168276661973e-01,2.106536606553891318e+02
5.592643011851415480e+01,1.946658022718041181e+01,-1.877944495894075194e+00,-9.659322848406726170e-01,-2.029496163569927403e-01,-1.605748246896018805e-01,2.124193393247330448e+02
5.498314058174576502e+01,1.936361997344575769e+01,-1.895693830080404263e+00,-9.682288989026434090e-01,-1.961037634139295993e-01,-1.551583491331784692e-01,2.141850179940769578e+02
5.412796536420448490e+01,1.927667516606461362e+01,-1.902906484842778356e+00,-9.704466231260716613e-01,-1.892419322015203853e-01,-1.497292314843720329e-01,2.157256422970113476e+02
5.324456731788244213e+01,1.919111245126083531e+01,-1.901474716411528210e+00,-9.725852768132430270e-01,-1.823646818110830348e-01,-1.442879140992311404e-01,2.172662665999457374e+02
5.233251268785470245e+01,1.910581427832813617e+01,-1.890165032025102665e+00,-9.746446857089743343e-01,-1.754725725902842870e-01,-1.388348403278344134e-01,2.188068909028801272e+02
5.139135789629762030e+01,1.901941288639666894e+01,-1.867683654429120432e+00,-9.766246820148113406e-01,-1.685661660974845377e-01,-1.333704544781676715e-01,2.203475152058145170e+02
4.969957791575160400e+01,1.885850306016624600e+01,-1.794100575683137411e+00,-9.785251044027015732e-01,-1.616460250559832446e-01,-1.278952017799227792e-01,2.229568572653024887e+02
4.858285825003815717e+01,1.874658058786770098e+01,-1.724211866388664527e+00,-9.803457980281403694e-01,-1.547127133081687422e-01,-1.224095283482207752e-01,2.245814899898486487e+02
4.742991410518715867e+01,1.862627779976472908e+01,-1.637596737514009693e+00,-9.820866145427864513e-01,-1.477667957695784906e-01,-1.169138811472639899e-01,2.262061227143948088e+02
4.624013795265962301e+01,1.849564377339517662e+01,-1.533785743282477965e+00,-9.837474121065516997e-01,-1.408088383828703938e-01,-1.114087079539179681e-01,2.278307554389409688e+02
4.463301063272599123e+01,1.830395700612076837e+01,-1.370501791204433051e+00,-9.853280553991572432e-01,-1.338394080717112133e-01,-1.058944573212277640e-01,2.299361849680944658e+02
4.294261030746849883e+01,1.808044589407263203e+01,-1.172319005935996250e+00,-9.868284156311606381e-01,-1.268590726945848512e-01,-1.003715785418707040e-01,2.320416144972479628e+02
4.136398254658098494e+01,1.785305905833175544e+01,-9.671510794596506200e-01,-9.882483705544502506e-01,-1.198684009985239995e-01,-9.484052161154871152e-02,2.339228117885992333e+02
3.972346149198801868e+01,1.759959903595326480e+01,-7.377405426844733105e-01,-9.895878044722054012e-01,-1.128679625727704722e-01,-8.930173719232409324e-02,2.358040090799505037e+02
3.801986085208213240e+01,1.731891773373393306e+01,-4.862533853862618938e-01,-9.908466082483258219e-01,-1.058583278023654400e-01,-8.375567657589985671e-02,2.376852063713017742e+02
3.643532732189147794e+01,1.704426956879258270e+01,-2.438073564415745020e-01,-9.920246793163224330e-01,-9.884006782167627236e-02,-7.820279164684991458e-02,2.393772263515389511e+02
3.480317759310052850e+01,1.675038160472229976e+01,1.122599347233980624e-02,-9.931219216876768785e-01,-9.181375446786134431e-02,-7.264353484580021725e-02,2.410692463317761280e+02
3.312262182241401831e+01,1.643798424587103213e+01,2.760525517877850943e-01,-9.941382459596627141e-01,-8.477996023427747385e-02,-6.707835913256440796e-02,2.427612663120133050e+02
3.116121994025424513e+01,1.606270613702793426e+01,5.831875127811426696e-01,-9.950735693226294698e-01,-7.773925822383490059e-02,-6.150771794923805963e-02,2.446723705017103612e+02
2.912780034161905363e+01,1.566468208119106542e+01,8.939071134837003330e-01,-9.959278155667526944e-01,-7.069222210230165226e-02,-5.593206518325290200e-02,2.465834746914074174e+02
2.738119709547207137e+01,1.531969878652054895e+01,1.151010794653134939e+00,-9.967009150882424340e-01,-6.363942605156189258e-02,-5.035185513039446698e-02,2.481763902549058116e+02
2.559138271009040722e+01,1.496694899057226635e+01,1.401770528773016666e+00,-9.973928048950156944e-01,-5.658144472283332949e-02,-4.476754245778752361e-02,2.497693058184042059e+02
2.375775413456297613e+01,1.460894334310540366e+01,1.641499019625138223e+00,-9.980034286118304454e-01,-4.951885318984531464e-02,-3.917958216685030887e-02,2.513622213819026001e+02
2.172249681245599007e+01,1.421889538795122654e+01,1.881985142253150611e+00,-9.985327364848786136e-01,-4.245222690198252602e-02,-3.358842955622157872e-02,2.530850393346039482e+02
1.963036080132302530e+01,1.382977700364529383e+01,2.096337118957930734e+00,-9.989806853858418378e-01,-3.538214163739905604e-02,-2.799454018466419891e-02,2.548078572873052963e+02
1.770633230937678704e+01,1.348539890438746802e+01,2.262496674813252451e+00,-9.993472388154057695e-01,-2.830917345610412320e-02,-2.239836983394634731e-02,2.563537788340681800e+02
1.574003302027250406e+01,1.314952343587877870e+01,2.400553450644872910e+00,-9.996323669062344708e-01,-2.123389865302644994e-02,-1.680037447170574724e-02,2.578997003808310637e+02
1.373097807616320409e+01,1.282604897263528798e+01,2.506711851263897284e+00,-9.998360464254054669e-01,-1.415689371105833920e-02,-1.120101021429792225e-02,2.594456219275939475e+02
1.167869516679493636e+01,1.251908605932177387e+01,2.577614404566668682e+00,-9.999582607763031206e-01,-7.078735254084408089e-03,-5.600733289632275728e-03,2.609915434743568312e+02
8.796774874788724219e+00,1.214098803719970121e+01,2.603873557894404112e+00,-9.999989999999717716e-01,-0.000000000000000000e+00,-0.000000000000000000e+00,2.630983951370834575e+02
6.579610345235496816e+00,1.189494179259691187e+01,2.567274193572882002e+00,-9.089459700179759460e-01,4.169115275721624880e-01,-4.199995240729656492e-05,2.646719166653975890e+02
4.315334779156205336e+00,1.168320720301478133e+01,2.484891374607072212e+00,-9.994701503655357699e-01,0.000000000000000000e+00,3.251797235696332611e-02,2.662454381937117205e+02
1.148115513049339231e-01,1.145485088644452354e+01,2.193724174608336241e+00,-0.000000000000000000e+00,8.080491350128965466e-02,9.967289330380598722e-01,2.690423153242666103e+02
-3.196835860655111272e+00,1.147480645532880139e+01,1.895817136789941904e+00,-8.735703862520746155e-01,2.831098010943870757e-02,-4.858716586391581549e-01,2.711813290364380578e+02
-6.439174846929265783e+00,1.171854944167911050e+01,1.662263574754165862e+00,9.796526068661792763e-01,0.000000000000000000e+00,2.006957145968012446e-01,2.733203427486095052e+02
-9.266747498286774132e+00,1.212131808308755154e+01,1.552088633852571009e+00,0.000000000000000000e+00,-0.000000000000000000e+00,-9.999989999999792101e-01,2.752575089428830779e+02
-1.165668910067321917e+01,1.258281986384190176e+01,1.528898455284853242e+00,-8.875683493732664520e-01,2.518998153463289369e-02,-4.599846628109611202e-01,2.769460215713796742e+02
-1.210018864603018329e+01,1.267842404991385408e+01,1.530890706940499557e+00,6.008035540478658953e-01,8.946493359380484900e-02,-7.943734103688049331e-01,2.772638023249403432e+02
-1.495325591310981039e+01,1.337658190516475898e+01,1.603195814200092828e+00,-4.272875887407193152e-01,2.998997113500536521e-02,9.036171302791355942e-01,2.793519319047393878e+02
-1.601399553277038379e+01,1.367204611460938501e+01,1.656624533817482536e+00,-0.000000000000000000e+00,2.192496970813841844e-02,-9.997586187187441631e-01,2.801474229694475184e+02
-1.667059364142609468e+01,1.385923929071205052e+01,1.693289593055776088e+00,9.994709311547939068e-01,0.000000000000000000e+00,3.249396525059618929e-02,2.806420738369828314e+02
-1.890597132538518466e+01,1.453791651965549114e+01,1.856922136030417780e+00,3.588155418937307162e-01,-5.920762440855881215e-01,-7.215920787303877759e-01,2.823526598806212746e+02
-2.107712791325396395e+01,1.526702080802679795e+01,2.085957281855485235e+00,0.000000000000000000e+00,-5.697617808895392155e-01,-8.218086839611122851e-01,2.840632459242597179e+02
-2.345386631396853261e+01,1.614331691890030740e+01,2.422807137463439453e+00,5.179124917783585191e-01,7.186022948437359448e-01,4.640855445981300065e-01,2.860001234538141830e+02
-2.574028485783026809e+01,1.706292343929479571e+01,2.838537004622526450e+00,8.370268619317265957e-01,-1.940497361591864700e-01,5.115943044079309665e-01,2.879370009833686481e+02
-2.632395380849728284e+01,1.730801000626274089e+01,2.957493582550005939e+00,-9.796745246593382417e-01,-0.000000000000000000e+00,2.005886979234889622e-01,2.884420932743479966e+02
-2.760929828011887466e+01,1.785646014341279653e+01,3.230503646416509334e+00,-0.000000000000000000e+00,2.016697227948924948e-02,9.997956257309721373e-01,2.895637433614400038e+02
-2.987437282286352414e+01,1.886475152350174156e+01,3.767346806843191231e+00,-0.000000000000000000e+00,1.519999199079750431e-02,9.998834731399059983e-01,2.915982218871575924e+02
-3.151645535700556522e+01,1.962956752137663941e+01,4.200964235344379460e+00,-0.000000000000000000e+00,9.993857527531184726e-01,3.501595629961485462e-02,2.931261772873576206e+02
-3.311625699842539916e+01,2.039562708321204809e+01,4.648334779483978885e+00,4.662972870394404001e-01,1.652197473818381099e-02,-8.844726476564815920e-01,2.946541326875576488e+02
-3.467435917788775157e+01,2.115923202276424675e+01,5.101341569258948994e+00,4.737066590287111190e-01,3.605097405071924777e-02,8.799433666218994254e-01,2.961820880877576769e+02
-3.619135366025132328e+01,2.191708424055086368e+01,5.552031518194134208e+00,0.000000000000000000e+00,-8.566789209254577209e-02,-9.963227450298079990e-01,2.977100434879577051e+02
-3.804404754869838712e+01,2.285933723909392512e+01,6.104378591442168656e+00,-0.000000000000000000e+00,9.968731427319725835e-01,-7.900593205829646581e-02,2.996424975149617467e+02
-3.981735562582311161e+01,2.377554780023673331e+01,6.620434314233487605e+00,-8.536475879973495218e-01,2.904298598275521434e-02,5.200387490096077814e-01,3.015749515419657882e+02
-4.151285520739670432e+01,2.466053281133999420e+01,7.083566277230204378e+00,-0.000000000000000000e+00,1.705397561329956638e-02,9.998535702378117396e-01,3.035074055689698298e+02
-4.297365536357759197e+01,2.542706223763562789e+01,7.444573887969423431e+00,8.506807646963443492e-01,5.164672500196214600e-01,9.798885770691055652e-02,3.052431107428334940e+02
-4.437999386000834789e+01,2.616626714238794449e+01,7.745605832134152102e+00,4.301035175188522297e-01,3.026596604827107642e-02,9.022709878512402693e-01,3.069788159166971582e+02
-4.472941212313131842e+01,2.635010637380606724e+01,7.813105572347512684e+00,-8.217572942078598119e-01,1.566598654477392716e-02,5.696205107634794151e-01,3.074191170015756143e+02
-4.602444427061800525e+01,2.703107579008485217e+01,8.032925319806501818e+00,-9.796745246582549971e-01,0.000000000000000000e+00,2.005886979232671674e-01,3.090826228308427517e+02
-4.727343718816666751e+01,2.768480767884548044e+01,8.185440163535588454e+00,-9.968817776708351897e-01,-0.000000000000000000e+00,-7.889690326035841972e-02,3.107461286601098891e+02
-4.855304910319865996e+01,2.834850193484119174e+01,8.268034818597097768e+00,3.783536023999054532e-01,-7.581172033180870740e-01,-5.311354418461974314e-01,3.125187012298287641e+02
-4.977927819054607284e+01,2.897557147625155238e+01,8.263229143519875919e+00,9.968779763716992814e-01,-0.000000000000000000e+00,-7.894491893666513715e-02,3.142912737995476391e+02
-5.104194607492092928e+01,2.960799318922908085e+01,8.154610013988698114e+00,-4.199765354729555478e-01,-5.494543922602732611e-01,-7.223002010792287653e-01,3.162045701443610142e+02
-5.224056999412483293e+01,3.019144988493304638e+01,7.934399015452918924e+00,-0.000000000000000000e+00,1.173078338872369231e-01,9.930945937368247378e-01,3.181178664891743892e+02
-5.229923410099964798e+01,3.021954414353315244e+01,7.920498687843151586e+00,5.227064052949662587e-01,-8.494460335495662706e-01,-7.223191781871297901e-02,3.182140563109689992e+02
-5.335135688814229127e+01,3.071544173820267076e+01,7.621404789595236373e+00,0.000000000000000000e+00,-0.000000000000000000e+00,-9.999989999999973067e-01,3.199792790965235554e+02
-5.435536565930899400e+01,3.117118229616755443e+01,7.238034059967398015e+00,-7.270129289258745464e-01,2.249116686481640037e-01,6.487410442401793098e-01,3.217445018820781115e+02
-5.538835473470829385e+01,3.161620280557250595e+01,6.733955826958370139e+00,-5.024135394084731088e-01,7.294793312441392175e-01,4.641535744835940114e-01,3.236579681635880661e+02
-5.636298683322866765e+01,3.200683945930013863e+01,6.146982609607338333e+00,9.546769266722314740e-01,0.000000000000000000e+00,-2.976406653674323888e-01,3.255714344450980207e+02
-5.728071648193122201e+01,3.234193114690357618e+01,5.490269757795650740e+00,-5.335776174016404472e-01,1.795098712836145152e-02,-8.455593936971370628e-01,3.274849007266079752e+02
-5.804503012209431034e+01,3.259286652395187645e+01,4.866681490413011346e+00,4.896725565857655282e-01,1.691298468474890931e-02,-8.717412106103223923e-01,3.291690459113141287e+02
-5.877234904845405339e+01,3.280525042323907314e+01,4.211771899504114458e+00,-8.937831490306005211e-01,2.429597686784219432e-02,4.478385736136640261e-01,3.308531910960202822e+02
-5.946353730464695531e+01,3.297957942482715765e+01,3.534239206756272011e+00,-9.796745246569850130e-01,0.000000000000000000e+00,2.005886979230071532e-01,3.325373362807264357e+02
-6.011945136473337215e+01,3.311669650778547691e+01,2.842521998566585495e+00,-0.000000000000000000e+00,9.999989999994792136e-07,9.999989999994791656e-01,3.342214814654325892e+02
-6.077709215458423131e+01,3.322125302518757906e+01,2.101353399541571410e+00,9.968779763717972031e-01,0.000000000000000000e+00,-7.894491893667289484e-02,3.360098362883581444e+02
-6.139455456708461867e+01,3.328376616906071916e+01,1.362377469289812737e+00,-5.759863546498232845e-01,0.000000000000000000e+00,-8.174580840985818941e-01,3.377981911112836997e+02
-6.197288705086030092e+01,3.330628192067305093e+01,6.344673227189666642e-01,-9.359985444641780129e-04,-1.157798199551950125e-01,9.932734553981372727e-01,3.395865459342092549e+02
-6.263784385793244525e+01,3.327402939651572211e+01,-2.498179689902312872e-01,-4.595974337851606584e-01,-8.868719073915612983e-01,4.718494186909603927e-02,3.418331500898481181e+02
-6.322944979117320941e+01,3.317365465593669427e+01,-1.085111948560180339e+00,-0.000000000000000000e+00,-9.999989999994989072e-07,9.999989999994989276e-01,3.440797542454869813e+02
-6.368731456523976675e+01,3.304112774873138392e+01,-1.759317920462651230e+00,6.991536932645122659e-01,-5.387427636406330045e-01,-4.700407937818342763e-01,3.460221404963771192e+02
-6.410089917523707470e+01,3.287504958566426438e+01,-2.384221544784923541e+00,-7.142513392296598873e-01,-6.601633892676662674e-01,-2.324377849664595874e-01,3.479645267472672572e+02
-6.445982402790797039e+01,3.268834242099424614e+01,-2.937072746730048145e+00,-0.000000000000000000e+00,1.466699169441354131e-02,9.998914337840421052e-01,3.498381785749494952e+02
-6.473979450777785871e+01,3.251225769466920923e+01,-3.373014581520389576e+00,9.997494087567807552e-01,0.000000000000000000e+00,-2.234098678773217134e-02,3.514450610823338934e+02
-6.499690136893632086e+01,3.232517486926414563e+01,-3.775631808938085587e+00,5.752485914333117512e-01,-0.000000000000000000e+00,-8.179774190366910780e-01,3.530519435897182916e+02
-6.522807182549253469e+01,3.213278699767134583e+01,-4.139410246849127617e+00,-3.571165318403913269e-01,-5.924852232853268230e-01,-7.220990533689142232e-01,3.546314714484562955e+02
-6.543856906482116642e+01,3.193419142394009214e+01,-4.471862504845648623e+00,-0.000000000000000000e+00,-9.950635238630660684e-01,9.922995251856367438e-02,3.562109993071942995e+02
-6.562887662192598270e+01,3.173146698537397370e+01,-4.773236486992690430e+00,4.595995113955653744e-01,-5.348094314392131121e-01,-7.090452462075284012e-01,3.577905271659323034e+02
-6.580003246047363064e+01,3.152585543575763438e+01,-5.044936519173480072e+00,5.119696326531738562e-01,1.099999210732057146e-05,-8.590023836513356326e-01,3.593760263130449175e+02
-6.595170341234529587e+01,3.132033226363872203e+01,-5.286324882871740627e+00,0.000000000000000000e+00,-9.950635238632306034e-01,9.922995251858007792e-02,3.609615254601575316e+02
-6.608403693108792254e+01,3.111781325254665020e+01,-5.497656219521204868e+00,-5.741094903288476159e-01,1.828998376289320965e-03,-8.187752731244751780e-01,3.625427489596182227e+02
-6.619792890935180196e+01,3.091999088498004156e+01,-5.680713378609358877e+00,-4.015486972676887700e-01,-7.363974448212584623e-01,-5.444955894983363187e-01,3.641239724590789137e+02
-6.633211728641255434e+01,3.060241877935157717e+01,-5.921987053656295963e+00,9.968779763717299236e-01,-0.000000000000000000e+00,-7.894491893666755189e-02,3.668740225112421740e+02
-6.634608814516640507e+01,3.055392325176271129e+01,-5.952551252021581973e+00,0.000000000000000000e+00,9.968731427319725835e-01,-7.900593205829646581e-02,3.673254196823474444e+02
-6.638688006462921010e+01,3.038323629228158040e+01,-6.049299307891947919e+00,7.294162694264187952e-01,5.001404990659643612e-01,4.667005325589876352e-01,3.689782095755043656e+02
-6.640834985266020851e+01,3.022603139387438276e+01,-6.117848630310972702e+00,5.764363129605560854e-01,-1.163998612660338333e-03,-8.171400260720631525e-01,3.706309994686612868e+02
-6.641092665324309507e+01,3.008356033760312442e+01,-6.157187173338341424e+00,7.268315228413902984e-01,-5.907656121674840222e-01,-3.502997700312300289e-01,3.722837893618182079e+02
-6.635920772333130913e+01,2.989861438335660893e+01,-6.142198760047333117e+00,1.270998420255638845e-03,1.158168560493684635e-01,9.932687654502897479e-01,3.749852023376957391e+02
-6.634359397519077106e+01,2.987376420230313911e+01,-6.130133215695590998e+00,0.000000000000000000e+00,1.466699169428380307e-02,9.998914337751974024e-01,3.754370040723335933e+02
-6.621217818433979119e+01,2.976261151786180648e+01,-6.002143782482613155e+00,-0.000000000000000000e+00,2.016697227595911149e-02,9.997956255559624639e-01,3.781144303587176410e+02
-6.603956275800092612e+01,2.971817090639024883e+01,-5.806227362679249993e+00,9.796526068684232591e-01,0.000000000000000000e+00,2.006957145972609879e-01,3.804547655798012897e+02
-6.577417483592702752e+01,2.972263694235599374e+01,-5.491304507953943315e+00,-9.546707118986682561e-01,-0.000000000000000000e+00,-2.976605983777355080e-01,3.831657672742510385e+02
-6.557620041544146261e+01,2.975077898132474630e+01,-5.254214975870207027e+00,0.000000000000000000e+00,-4.977924468363426058e-01,-8.672950362326762308e-01,3.848621306390451764e+02
-6.537323582100177077e+01,2.978807858599716951e+01,-5.010433529863703050e+00,1.182598423659674269e-01,0.000000000000000000e+00,9.929816764086371039e-01,3.864687383325978089e+02
-6.515598056822850026e+01,2.983369375636761589e+01,-4.751808791102072327e+00,-5.517134353491601750e-01,-8.267481538650147677e-01,1.099898874309046259e-01,3.880753460261504415e+02
-6.493460874071526234e+01,2.988346053912783162e+01,-4.493052904085225840e+00,6.355972790765792579e-01,2.092487626605104567e-01,7.431211571180930120e-01,3.896170804303950490e+02
-6.470115622593789340e+01,2.993718470629295325e+01,-4.227170391674968997e+00,0.000000000000000000e+00,9.997078536729850917e-01,-2.412897233222413562e-02,3.911588148346396565e+02
-6.445588319120076903e+01,2.999300011756944784e+01,-3.956925039513123021e+00,-0.000000000000000000e+00,-9.993865584971789451e-01,3.499294952660206293e-02,3.927005492388842640e+02
-6.412855290624995064e+01,3.006333656680742905e+01,-3.615010301240064727e+00,-0.000000000000000000e+00,9.997078535827910173e-01,-2.412897233004721032e-02,3.946400530238337865e+02
-6.377871166934914982e+01,3.013030879763739378e+01,-3.275690284797991847e+00,-0.000000000000000000e+00,-2.786296520870034515e-02,9.996107518285672899e-01,3.965795568087833090e+02
-6.340703593213164169e+01,3.018946629201372289e+01,-2.943885565912956803e+00,7.342455860439367488e-01,2.131448798322836125e-01,6.445546366102772318e-01,3.985190605937328314e+02
-6.304679125896064562e+01,3.023384695843025938e+01,-2.648528044897253686e+00,0.000000000000000000e+00,-9.968312352734320925e-01,-7.953293898570860943e-02,4.003049848893569447e+02
-6.267058879345184152e+01,3.026593516268886219e+01,-2.365963238414978242e+00,1.629008035044526501e-02,-9.966262541650197093e-01,-8.042849489896181092e-02,4.020909091849810579e+02
-6.227893185657195119e+01,3.028292485445466298e+01,-2.098845992263186133e+00,3.257582408714331662e-02,-9.961559598982877572e-01,-8.130263983844605857e-02,4.038768334806051712e+02
-6.193135787513996604e+01,3.028437185025971701e+01,-1.882835773978830174e+00,4.885289575417159358e-02,-9.954204776718071912e-01,-8.215514109658739184e-02,4.054108889543014698e+02
-6.157467628172333463e+01,3.027316700192060139e+01,-1.680077482336097994e+00,6.511696220426770043e-02,-9.944200032806029821e-01,-8.298577172764128040e-02,4.069449444279977683e+02
-6.120917073006874176e+01,3.024823703319929891e+01,-1.491938446351835479e+00,8.136369375238661217e-02,-9.931548030640640068e-01,-8.379431060811215470e-02,4.084789999016940669e+02
-6.083512294234684248e+01,3.020853955234781552e+01,-1.319753497974897272e+00,9.758876532833603290e-02,-9.916252138350359902e-01,-8.458054249562005356e-02,4.100130553753903655e+02
-6.045281529910536733e+01,3.015314632549300100e+01,-1.164841164203299639e+00,1.137878576281828591e-01,-9.898316427901516779e-01,-8.534425808620123288e-02,4.115471108490866641e+02
-5.987930498088785924e+01,3.003621447684084345e+01,-9.789149947855467770e-01,1.299566582641243917e-01,-9.877745674014238864e-01,-8.608525407002819152e-02,4.137753540583346989e+02
-5.928183815321458638e+01,2.986874446581114384e+01,-8.456708124180927211e-01,1.460908629125181046e-01,-9.854545352891278531e-01,-8.680333318553359878e-02,4.160035972675827338e+02
-5.878718677334673970e+01,2.969954235656803831e+01,-7.735516257320081968e-01,1.621861764597636868e-01,-9.828721640760095246e-01,-8.749830427192399618e-02,4.177925781126367610e+02
-5.824435678464100619e+01,2.948563355684631659e+01,-7.239017665683319391e-01,1.782383141457335729e-01,-9.800281412228568634e-01,-8.816998232006949265e-02,4.197100005893018988e+02
-5.768855157619250917e+01,2.923658218761556782e+01,-6.966870499281313522e-01,1.942430027044461660e-01,-9.769232238454781392e-01,-8.881818852175552004e-02,4.216274230659670366e+02
-5.712041698254031274e+01,2.895220608067889501e+01,-6.831598005331448453e-01,2.101959815016785083e-01,-9.735582385131356098e-01,-8.944275031728367298e-02,4.235448455426321743e+02
-5.660901686572101710e+01,2.867295777014279778e+01,-6.750742855518189200e-01,2.260930036692161693e-01,-9.699340810284903247e-01,-9.004350144140928214e-02,4.252399311707904985e+02
-5.609012936775354774e+01,2.836949108109890361e+01,-6.639935373410443820e-01,2.419298372354369564e-01,-9.660517161891141180e-01,-9.062028196760274490e-02,4.269350167989488227e+02
-5.551445489063625871e+01,2.800957645103489213e+01,-6.418919273286655125e-01,2.577022662519287133e-01,-9.619121775306338495e-01,-9.117293835062380281e-02,4.287874910091637730e+02
-5.496938396257548476e+01,2.764743543565744943e+01,-6.071253999854419048e-01,2.734060919158413094e-01,-9.575165670515751737e-01,-9.170132346739663654e-02,4.305164043920318591e+02
-5.441753025410782385e+01,2.726153644037990276e+01,-5.550637775673604724e-01,2.890371336876717545e-01,-9.528660549199812202e-01,-9.220529665617524517e-02,4.322453177748999451e+02
-5.393886120488274116e+01,2.691271094770421612e+01,-4.953930250460550910e-01,3.045912304041882845e-01,-9.479618791618806828e-01,-9.268472375398847940e-02,4.337302406261237024e+02
-5.372947064550253771e+01,2.675684931638786779e+01,-4.657976272291342590e-01,3.200642413861943258e-01,-9.428053453316935784e-01,-9.313947713235536108e-02,4.343771228829025404e+02
-5.321864169790519838e+01,2.636808540450495641e+01,-3.845741276757593807e-01,3.354520475408390157e-01,-9.373978261646565002e-01,-9.356943573126022540e-02,4.359482980328901931e+02
-5.270369680901840326e+01,2.596232531776003682e+01,-2.883659025877048365e-01,3.507505524581792100e-01,-9.317407612113641768e-01,-9.397448509137933115e-02,4.375194731828778458e+02
-5.223068832114221038e+01,2.557777756891657361e+01,-1.892817994629698852e-01,3.659556835017030996e-01,-9.258356564545239253e-01,-9.435451738455036264e-02,4.389529461146747735e+02
-5.164833874922619117e+01,2.508785481820576635e+01,-5.599421006931649958e-02,3.810633928925236114e-01,-9.196840839080231422e-01,-9.470943144247627454e-02,4.407046881510376579e+02
-5.106085998211981547e+01,2.457397163819209140e+01,8.810121314244540036e-02,3.960696587869526608e-01,-9.132876811984195209e-01,-9.503913278365622164e-02,4.424564301874005423e+02
-5.046856971795183711e+01,2.403588479438538172e+01,2.388313916961669892e-01,4.109704863471712599e-01,-9.066481511289622430e-01,-9.534353363853625973e-02,4.442081722237634267e+02
-4.987177961561314277e+01,2.347330942122417596e+01,3.915963927710536807e-01,4.257619088047079337e-01,-8.997672612262631597e-01,-9.562255297287311495e-02,4.459599142601263111e+02
-4.901129906773198286e+01,2.261971016233292886e+01,6.037853418225276325e-01,4.404399885164445028e-01,-8.926468432697379773e-01,-9.587611650930495666e-02,4.484558067237550745e+02
-4.847792377385658824e+01,2.206615206467914092e+01,7.285129908124619025e-01,4.550008180128666258e-01,-8.852887928039396837e-01,-9.610415674712322054e-02,4.499873625635356689e+02
-4.794254674819399753e+01,2.149539638515154394e+01,8.480568751774439917e-01,4.694405210382814886e-01,-8.776950686339206609e-01,-9.630661298024031924e-02,4.515189184033162633e+02
-4.740534219136275595e+01,2.090748722129452020e+01,9.611811709044957297e-01,4.837552535827225331e-01,-8.698676923037499398e-01,-9.648343131334841116e-02,4.530504742430968577e+02
-4.686648389886067179e+01,2.030257065554241080e+01,1.066650095726716208e+00,4.979412049052720501e-01,-8.618087475583311452e-01,-9.663456467626524438e-02,4.545820300828774521e+02
-4.632614489461737151e+01,1.968089471468286433e+01,1.163227917159995295e+00,5.119945985485231388e-01,-8.535203797886610211e-01,-9.675997283646257940e-02,4.561135859226580465e+02
-4.578449706468862956e+01,1.904280932766926782e+01,1.249678960539480910e+00,5.259116933439148545e-01,-8.450047954606768608e-01,-9.685962240977473436e-02,4.576451417624386409e+02
-4.524170885025343836e+01,1.838875733153392744e+01,1.325174816420986890e+00,5.396887844076727614e-01,-8.362642615278449432e-01,-9.693348686928351943e-02,4.591766976022192353e+02
-4.469794298666957388e+01,1.771926322034422796e+01,1.389701545333528188e+00,5.533222041270859926e-01,-8.273011048276470714e-01,-9.698154655237796462e-02,4.607082534419998296e+02
-4.415335815813677556e+01,1.703493866573189663e+01,1.443652478503970604e+00,5.668083231368652442e-01,-8.181177114621253077e-01,-9.700378866598645400e-02,4.622398092817804240e+02
-4.360811061742424499e+01,1.633649029162835475e+01,1.487421015932784529e+00,5.801435512853134746e-01,-8.087165261626498847e-01,-9.700020728998015596e-02,4.637713651215610184e+02
-4.306235384465887250e+01,1.562471962498120526e+01,1.521400623834679333e+00,5.933243385900591749e-01,-7.991000516390802666e-01,-9.697080337874668110e-02,4.653029209613416128e+02
-4.251623820626711137e+01,1.490052304493357482e+01,1.545984832078917570e+00,6.063471761830927509e-01,-7.892708479134903365e-01,-9.691558476093360686e-02,4.668344768011222072e+02
-4.196991061407270962e+01,1.416489173046689665e+01,1.561567231629317209e+00,6.192085972448592157e-01,-7.792315316386394519e-01,-9.683456613736210472e-02,4.683660326409028016e+02
-4.139223777233137724e+01,1.337582582544782284e+01,1.568501249348357662e+00,6.319051779271538383e-01,-7.689847754013648951e-01,-9.672776907711087835e-02,4.699849865328579313e+02
-4.081446019332997821e+01,1.257615469137893527e+01,1.565909531932565546e+00,6.444335382645771659e-01,-7.585333070110883424e-01,-9.659522201177193901e-02,4.716039404248130609e+02
-4.023674513691288723e+01,1.176747728680810567e+01,1.554276093912097201e+00,6.567903430743081694e-01,-7.478799087736185403e-01,-9.643696022787910660e-02,4.732228943167681905e+02
-3.965925346579969357e+01,1.095151717815818593e+01,1.534085015510158412e+00,6.689723028439541475e-01,-7.370274167504493601e-01,-9.625302585751210893e-02,4.748418482087233201e+02
-3.908213917192760078e+01,1.013012245581397863e+01,1.505820439124952559e+00,6.809761746072401367e-01,-7.259787200037470800e-01,-9.604346786707780581e-02,4.764608021006784497e+02
-3.850554890304349698e+01,9.305265647953499197e+00,1.469966565811288595e+00,6.927987628073093429e-01,-7.147367598272293954e-01,-9.580834204427253475e-02,4.780797559926335794e+02
-3.792961919033330531e+01,8.478953301303915779e+00,1.427358155645533699e+00,7.044369201473980047e-01,-7.033045289631403296e-01,-9.554771098322815959e-02,4.796987098845887090e+02
-3.735447414113068731e+01,7.653132617354938105e+00,1.379531025542865885e+00,7.158875484286647550e-01,-6.916850708055303221e-01,-9.526164406784635996e-02,4.813176637765438386e+02
-3.678022797765090957e+01,6.829777280806395900e+00,1.328371534212128946e+00,7.271475993749471067e-01,-6.798814785900519908e-01,-9.495021745332545005e-02,4.829366176684989682e+02
-3.620698712608309933e+01,6.010976233433058979e+00,1.275766064563081725e+00,7.382140754442281239e-01,-6.678968945704897298e-01,-9.461351404588461134e-02,4.845555715604540978e+02
-3.563484977803138776e+01,5.198933587495542241e+00,1.223601009997177247e+00,7.490840306265946769e-01,-6.557345091822404104e-01,-9.425162348069079932e-02,4.861745254524092275e+02
-3.506390545220072852e+01,4.395968537062537429e+00,1.173762760698283669e+00,7.597545712284781150e-01,-6.433975601929683430e-01,-9.386464209799459668e-02,4.877934793443643571e+02
-3.450820569824382034e+01,3.623578143143944885e+00,1.129140584417244186e+00,7.702228566429674128e-01,-6.308893318406614270e-01,-9.345267291748104999e-02,4.893727520113143896e+02
-3.395383024962112017e+01,2.863940988818296507e+00,1.090122770732142143e+00,7.804861001059859582e-01,-6.182131539593171965e-01,-9.301582561084230372e-02,4.909520246782644222e+02
-3.369811440986024564e+01,2.516571956344378691e+00,1.073984758589209054e+00,7.905415694381384695e-01,-6.053724010924920185e-01,-9.255421647257958129e-02,4.916820883707489998e+02
-3.300704402135719562e+01,1.593024342075802791e+00,1.039442850162969334e+00,8.003865877720243160e-01,-5.923704915949478123e-01,-9.206796838904213187e-02,4.936592775981091563e+02
-3.231757220234322858e+01,7.013465585647998823e-01,1.022825749374642212e+00,8.100185342648243969e-01,-5.792108867226397617e-01,-9.155721080571137260e-02,4.956364668254693129e+02
-3.172496576825673742e+01,-4.224298437867698292e-02,1.024943508705534301e+00,8.194348447959761694e-01,-5.658970897112819420e-01,-9.102207969273906629e-02,4.973401002483557249e+02
-3.113391787546741440e+01,-7.644386912227849606e-01,1.043618540777874193e+00,8.286330126497447601e-01,-5.524326448437385517e-01,-9.046271750874847195e-02,4.990437336712421370e+02
-3.049282742577196004e+01,-1.524339649430723087e+00,1.084556989077670064e+00,8.376105891825146310e-01,-5.388211365064922154e-01,-8.987927316290850177e-02,5.008965341539060887e+02
-2.985345403132173914e+01,-2.256564663347274013e+00,1.148389796597524937e+00,8.463651844746212793e-01,-5.250661882354326071e-01,-8.927190197529046023e-02,5.027493346365700404e+02
-2.921581685284401786e+01,-2.961231477730029482e+00,1.235515081937786031e+00,8.548944679665464452e-01,-5.111714617512294057e-01,-8.864076563551850918e-02,5.046021351192339921e+02
-2.857992856485135036e+01,-3.638716570220798197e+00,1.345361708948956014e+00,8.631961690793162889e-01,-4.971406559845374384e-01,-8.798603215972444769e-02,5.064549356018979438e+02
-2.785153090118850372e+01,-4.381216211432060526e+00,1.499355011561598117e+00,8.712680778189270114e-01,-4.829775060912988582e-01,-8.730787584581826966e-02,5.085831919509165573e+02
-2.712516960285914536e+01,-5.083611616020727197e+00,1.681394152640668160e+00,8.791080453646448190e-01,-4.686857824584036991e-01,-8.660647722708680885e-02,5.107114482999352276e+02
-2.664143813671692840e+01,-5.533746600106905333e+00,1.815015716957718794e+00,8.867139846410202475e-01,-4.542692896999716567e-01,-8.588202302413230904e-02,5.121325121927999362e+02
-2.567402178504267241e+01,-6.380159756361803325e+00,2.100905473226184927e+00,8.940838708734640816e-01,-4.397318656445233787e-01,-8.513470609516411713e-02,5.149820309329513748e+02
-2.504492891355283390e+01,-6.890835424384389007e+00,2.294714993248109014e+00,9.012157421272413149e-01,-4.250773803133119921e-01,-8.436472538465654425e-02,5.168399083536106673e+02
