-3.857831901856287882e+00,3.156040963754182638e+00,-3.102335685959610512e+00,7.555779954875633253e-01,-6.076637744114020689e-01,2.446316210122588264e-01,1.053494227555937783e+02
-3.543573244218685137e+00,3.473545762482944443e+00,-3.200199671096911391e+00,6.978988629173457081e-01,-3.245201447617960810e-01,6.384527020693985255e-01,1.069607125772518117e+02
-3.217462279816757142e+00,3.773385977487850873e+00,-3.314153551146236332e+00,4.737066590285227141e-01,3.605097405070491201e-02,8.799433666215495942e-01,1.085720023989098451e+02
-2.882691791451320817e+00,4.052646232630991996e+00,-3.442992346697976824e+00,4.650748811337548916e-01,3.490054193159840973e-02,8.845819956757450253e-01,1.101832922205678784e+02
-2.542478503940565293e+00,4.308433194110840248e+00,-3.585510971160001947e+00,4.563978325501906741e-01,3.374671277263496111e-02,8.891345105118962922e-01,1.117945820422259118e+02
-2.200063023672039986e+00,4.537875702260012467e+00,-3.740504239434701450e+00,4.476763566194249533e-01,3.258959871500868855e-02,8.936004687456318152e-01,1.134058718638839451e+02
-1.858709777865775514e+00,4.738124903082189476e+00,-3.906766876592421500e+00,4.389113009865659998e-01,3.142931221802088004e-02,8.979794363807247493e-01,1.150171616855419785e+02
-1.521706953548754848e+00,4.906354379520411868e+00,-4.083093526545037655e+00,4.301035175106210917e-01,3.026596604769185919e-02,9.022709878339729705e-01,1.166284515072000119e+02
-1.192366436242264571e+00,5.039760282455524987e+00,-4.268278760720156662e+00,0.000000000000000000e+00,1.466699169439458252e-02,9.998914337827495835e-01,1.182397413288580452e+02
-8.740237483623570780e-01,5.135561461436119579e+00,-4.461117086735071346e+00,-0.000000000000000000e+00,9.997078536730038545e-01,-2.412897233222458665e-02,1.198510311505160786e+02
-5.698652667581095566e-01,5.192071357798758946e+00,-4.659842539964503594e+00,-1.564342862244314791e-01,9.873997946180388396e-01,-2.383190472861469039e-02,1.214623209721741119e+02
-2.935151300797734786e-01,5.209346192844900081e+00,-4.854009175952723076e+00,-3.090166443650474992e-01,9.507786819426757852e-01,-2.294801668945145590e-02,1.230130338369359322e+02
-3.603825266306088376e-02,5.191225228901945599e+00,-5.047873918977800578e+00,-4.539899928896469761e-01,8.907462468303627423e-01,-2.149907241984399739e-02,1.245637467016977524e+02
2.001020776229177900e-01,5.139158971502165940e+00,-5.238276305416816214e+00,-5.877846080853237343e-01,8.087806840125332242e-01,-1.952074966269026074e-02,1.261144595664595727e+02
4.124536146570520478e-01,5.054613906104774124e+00,-5.422055894700635648e+00,-7.071060222273818363e-01,7.069002543749136613e-01,-1.706176121032449908e-02,1.276651724312213929e+02
5.985751955708326077e-01,4.939072439909434564e+00,-5.596052290386827721e+00,-8.090161443650425444e-01,5.876135893954230749e-01,-1.418265545125848258e-02,1.292158852959832132e+02
7.560367821304402325e-01,4.794032843495757312e+00,-5.757105161231073076e+00,-8.910056062486306772e-01,4.538579209265699577e-01,-1.095432548275268939e-02,1.307665981607450192e+02
8.824195019952366659e-01,4.621009192288951795e+00,-5.902054262257068196e+00,-9.510555519192325225e-01,3.089267571760362374e-01,-7.456263496578082774e-03,1.323173110255068252e+02
9.753156898541005537e-01,4.421531307850881554e+00,-6.027739455827051174e+00,-9.876873493619412470e-01,1.563887856606748783e-01,-3.774603418801295365e-03,1.338680238902686312e+02
1.032328928439866678e+00,4.197144698997099077e+00,-6.131000732712767132e+00,-9.999989999999999712e-01,0.000000000000000000e+00,-0.000000000000000000e+00,1.354187367550304373e+02
1.052445768528881720e+00,3.949818225515600023e+00,-6.209728316626227596e+00,-9.979990427177831691e-01,-6.321321645902382158e-02,-0.000000000000000000e+00,1.369694496197922433e+02
1.037411862549040942e+00,3.682339592472358980e+00,-6.263912761747107538e+00,-9.920071710277085231e-01,-1.261735813487375180e-01,-0.000000000000000000e+00,1.385201624845540493e+02
9.903669062607939333e-01,3.397889286065885805e+00,-6.294594869323397290e+00,-9.820473525433922601e-01,-1.886292590329631536e-01,-0.000000000000000000e+00,1.400708753493158554e+02
9.124561911754407451e-01,3.091632241142408866e+00,-6.302961723860527776e+00,-9.681594261667315626e-01,-2.503304326791926937e-01,-0.000000000000000000e+00,1.416629677535833309e+02
8.082588745427876642e-01,2.774403126858600466e+00,-6.289208420201707561e+00,-9.503989427209657004e-01,-3.110303034685554802e-01,-0.000000000000000000e+00,1.432550601578508065e+02
6.811628431257130689e-01,2.449516200872389415e+00,-6.254440340564708656e+00,-9.288369427448868176e-01,-3.704860777319651244e-01,-0.000000000000000000e+00,1.448471525621182820e+02
5.345824513174078918e-01,2.120262309961814751e+00,-6.199763014816636719e+00,-9.035596723370652450e-01,-4.284599380654159351e-01,-0.000000000000000000e+00,1.464392449663857576e+02
3.719584570121272082e-01,1.789908746421258190e+00,-6.126282112704158678e+00,-8.746682381866617284e-01,-4.847199945415033850e-01,-0.000000000000000000e+00,1.480313373706532332e+02
1.967579571663919946e-01,1.461699104736713606e+00,-6.035103436083169903e+00,-8.422782031703681671e-01,-5.390412122138221740e-01,-0.000000000000000000e+00,1.496234297749207087e+02
1.247432305006917000e-02,1.138853138541001231e+00,-5.927332911147993322e+00,-8.065191241324881632e-01,-5.912063112056406000e-01,-0.000000000000000000e+00,1.512155221791881843e+02
-1.773728648122162299e-01,8.245666178501309673e-01,-5.804076580660070483e+00,-7.675340336961854470e-01,-6.410066357837759243e-01,-0.000000000000000000e+00,1.528076145834556598e+02
-3.692378820074518342e-01,5.220111865825659558e-01,-5.666440596176065547e+00,-7.254788681775891090e-01,-6.882429889424812597e-01,-0.000000000000000000e+00,1.543997069877231354e+02
-5.595489259079129418e-01,2.343342203627172271e-01,-5.515531210275447016e+00,-6.805218438898490430e-01,-7.327264291598956092e-01,-0.000000000000000000e+00,1.559917993919906110e+02
-7.447081816523016817e-01,-3.534131539015063217e-02,-5.352454768787717754e+00,-6.328427843305384215e-01,-7.742790261406741203e-01,-0.000000000000000000e+00,1.575838917962580865e+02
-9.210918884340196788e-01,-2.839170070862235273e-01,-5.178317703019369667e+00,-5.826324009421770533e-01,-8.127345725222061557e-01,-0.000000000000000000e+00,1.591759842005255621e+02
-1.090150664943971393e+00,-5.151514802419172590e-01,-4.988452578337730259e+00,-5.300915303213193930e-01,-8.479392486976971011e-01,-0.000000000000000000e+00,1.608177560236051704e+02
-1.242667320650849172e+00,-7.185027141117414917e-01,-4.790003463586963939e+00,-8.509987894274501780e-03,-3.496795025699068749e-01,9.368296673303262434e-01,1.624595278466847788e+02
-1.375171477853911917e+00,-8.925019519358154962e-01,-4.585885447536425019e+00,-4.595974337851332359e-01,-8.868719073915083406e-01,4.718494186909322902e-02,1.641012996697643871e+02
-1.483491187173945791e+00,-1.035222898846843043e+00,-4.381186711917385956e+00,2.187648692057458655e-01,-3.412217959916943322e-01,9.141704534394711201e-01,1.657303144908346439e+02
-1.566036885915376153e+00,-1.148054388839440554e+00,-4.178095078710186705e+00,-9.999989999999751022e-01,-0.000000000000000000e+00,0.000000000000000000e+00,1.673593293119049008e+02
-1.621546103103824965e+00,-1.232636024132238717e+00,-3.981039040870157475e+00,-9.983881034473690574e-01,-0.000000000000000000e+00,-5.673794904931526994e-02,1.689883441329751577e+02
-1.664164098290426441e+00,-1.320085131005057866e+00,-3.706701773289863500e+00,-8.843226863661161063e-01,-5.171297208211044374e-07,4.668740583698547386e-01,1.713957818958127746e+02
-1.669026775490194403e+00,-1.366951936858829875e+00,-3.508195037761700164e+00,-5.162965976028376369e-01,-8.857495822893780261e-07,8.564086777373548509e-01,1.733093333169784671e+02
-1.648365637126370187e+00,-1.401791984815292436e+00,-3.333770941944291799e+00,-0.000000000000000000e+00,-9.999989999994984836e-07,9.999989999994983725e-01,1.752228847381441597e+02
-1.608502684382911330e+00,-1.432408814450045309e+00,-3.197338403752968183e+00,-0.000000000000000000e+00,2.443750072174463630e-03,9.999960139685539762e-01,1.769943616397087567e+02
-1.547503914249978241e+00,-1.467387107974257976e+00,-3.087994213744773120e+00,-0.000000000000000000e+00,4.888485347683177093e-03,9.999870512053840033e-01,1.787658385412733537e+02
-1.461326537178416318e+00,-1.508937131928901776e+00,-3.006807923068548494e+00,-0.000000000000000000e+00,7.333191487407806144e-03,9.999721116960981204e-01,1.805373154428379507e+02
-1.346490606921094013e+00,-1.559321887789848704e+00,-2.951859478421274385e+00,-0.000000000000000000e+00,9.777854151386738968e-03,9.999511955267309515e-01,1.823087923444025478e+02
-1.202210525252421780e+00,-1.621180130180087442e+00,-2.918573404746857225e+00,-0.000000000000000000e+00,1.222245899987987015e-02,9.999243028163828928e-01,1.840802692459671448e+02
-1.038964591667055126e+00,-1.692225826821040613e+00,-2.902575772672086885e+00,-0.000000000000000000e+00,1.466699169343334101e-02,9.998914337172190026e-01,1.857479976157101191e+02
-8.486135012823041723e-01,-1.778005774812958961e+00,-2.897042643087249569e+00,-4.257548302915932226e-01,-7.652377653068040964e-01,4.828477886770242700e-01,1.874157259854530935e+02
-6.508167684315155910e-01,-1.870833085429393750e+00,-2.897042662945328306e+00,-4.015486972677502209e-01,-7.363974448213711499e-01,-5.444955894984196965e-01,1.889390883555622622e+02
-4.310321869632176006e-01,-1.978001357516116387e+00,-2.898553820071396281e+00,-4.894438838814983983e-01,-6.695207467747799068e-01,-5.587348692962192942e-01,1.904624507256714310e+02
-1.920783709757165614e-01,-2.098396033178137721e+00,-2.900464427799775535e+00,-5.712695287348824591e-01,-5.943414575233728625e-01,-5.660453669155655065e-01,1.919858130957805997e+02
1.196716774856179527e-01,-2.259366482297553436e+00,-2.903391497262444609e+00,-6.460109494443040390e-01,-5.117918505623750836e-01,-5.663364326039413976e-01,1.938525587422797400e+02
4.449058673152305743e-01,-2.429577817309839460e+00,-2.906928174185315239e+00,-7.127413081385771676e-01,-4.228955894932131532e-01,-5.596044567892568544e-01,1.957193043887788804e+02
9.283720792813873190e-01,-2.682224220086041111e+00,-2.913121021365591812e+00,-2.172967494851736903e-01,3.431016044485753480e-01,9.138169464881819026e-01,1.984406693608128194e+02
1.192474109174651575e+00,-2.817190909812546717e+00,-2.917013667111342468e+00,-3.999995304125910326e-06,1.561658166660317149e-01,9.877298404348973104e-01,1.999363587990146698e+02
1.699201588188287593e+00,-3.061357565492941024e+00,-2.923238548336863918e+00,-9.741568796143648123e-01,-4.289895066157300985e-02,-2.217567449557902581e-01,2.029129500469389313e+02
2.106858458120498323e+00,-3.234376373074849376e+00,-2.922507603148974731e+00,-8.962736280301438763e-01,4.381243293416716145e-01,-6.883789462646959512e-02,2.055053673847398272e+02
2.343451756533963870e+00,-3.312892728978621193e+00,-2.914767352606622008e+00,-8.737916366729624462e-01,3.157986545958043623e-01,3.698072273996348969e-01,2.072214651416229287e+02
2.538289516966837134e+00,-3.348697007613557819e+00,-2.897043203038359493e+00,-6.696665005625734857e-01,1.278249046681574075e-01,7.315774543893701631e-01,2.089375628985060303e+02
2.683898674009185026e+00,-3.336051256748551630e+00,-2.868575570744701153e+00,1.016999272028901863e-02,-9.999472842347653101e-01,0.000000000000000000e+00,2.106536606553891318e+02
2.779666558248053310e+00,-3.269114821019561301e+00,-2.830409706502575506e+00,-8.384479280489662845e-01,5.561892889150736596e-02,5.421343068842903179e-01,2.124193393247330448e+02
2.826758070252200383e+00,-3.145094478716770947e+00,-2.784365042879391794e+00,-8.406930082700752038e-01,5.182633905845813321e-02,5.390243931180106474e-01,2.141850179940769578e+02
2.833086619195517741e+00,-2.986794165401045920e+00,-2.736538780835352735e+00,-8.429136279749595007e-01,4.803224121228478333e-02,5.358987959762394615e-01,2.157256422970113476e+02
2.810667029926718019e+00,-2.780412761131529020e+00,-2.680007900758529793e+00,-8.451097227082601249e-01,4.423674543363578793e-02,5.327576061285546061e-01,2.172662665999457374e+02
2.764683293498109595e+00,-2.527972712548759215e+00,-2.613451632317317141e+00,-8.472812287414765997e-01,4.043996184489800916e-02,5.296009147070180889e-01,2.188068909028801272e+02
2.700038487654880193e+00,-2.231976296648372049e+00,-2.535638213210543057e+00,-8.494280830534002291e-01,3.664200060569317019e-02,5.264288132898146122e-01,2.203475152058145170e+02
2.568180189626008136e+00,-1.659508498702877866e+00,-2.381597683215366690e+00,-8.515502233318862357e-01,3.284297190978999886e-02,5.232413938986870683e-01,2.229568572653024887e+02
2.477663755632338205e+00,-1.264382913899158245e+00,-2.270443143145940201e+00,-8.536475879756056928e-01,2.904298598201544152e-02,5.200387489963614884e-01,2.245814899898486487e+02
2.382464785903600557e+00,-8.389236857795557833e-01,-2.143683880930778329e+00,-9.136358933484375333e-01,3.105775774206338130e-02,4.053429043037704016e-01,2.262061227143948088e+02
2.285713767412713260e+00,-3.887979325022125621e-01,-2.000630413646266703e+00,-9.583136462607911854e-01,3.255206896392243143e-02,2.838543961197729781e-01,2.278307554389409688e+02
2.162946084547115344e+00,2.193568247148642292e-01,-1.792552157257142786e+00,-9.869321454142410133e-01,3.350087826462529172e-02,1.576091098369269417e-01,2.299361849680944658e+02
2.047235753028459726e+00,8.438013103855074304e-01,-1.560395647281171527e+00,-9.990118086539223619e-01,3.388828572008618228e-02,2.872264369917597315e-02,2.320416144972479628e+02
1.952544369128227153e+00,1.407529181223458270e+00,-1.331496982359456460e+00,-9.943502095224103776e-01,3.370779930640169231e-02,-1.006451443876592022e-01,2.339228117885992333e+02
1.867647167779358242e+00,1.969539148952034413e+00,-1.081857787365735124e+00,-9.730254691351997165e-01,3.296244368007777981e-02,-2.283263316419669731e-01,2.358040090799505037e+02
1.792691139290799374e+00,2.523924741894286061e+00,-8.127555421613766873e-01,-9.353949466113522515e-01,3.166470947678325792e-02,-3.521812601885160876e-01,2.376852063713017742e+02
1.733749452011327907e+00,3.011256217516022460e+00,-5.548419027727673480e-01,-8.820892500689468951e-01,2.983634398044938615e-02,-4.701343930101397062e-01,2.393772263515389511e+02
1.681954755081708663e+00,3.484074979616645695e+00,-2.829649896616888705e-01,-8.140016686143852764e-01,2.750798667289589688e-02,-5.802090952084217879e-01,2.410692463317761280e+02
1.634382099393409948e+00,3.941032682235637630e+00,4.574844391743107682e-04,-7.322732024811444695e-01,2.471865577336504471e-02,-6.805607577470035308e-01,2.427612663120133050e+02
1.581143266549589477e+00,4.438469506477274784e+00,3.304774028964300725e-01,-6.382734422226027382e-01,2.151509437387026311e-02,-7.695077086474328976e-01,2.446723705017103612e+02
1.523928616410423764e+00,4.917350904551590851e+00,6.663188803979690489e-01,-5.335776174016589879e-01,1.795098712836207949e-02,-8.455593936971665947e-01,2.465834746914074174e+02
1.469475109973749971e+00,5.303306657100708144e+00,9.463616635814634526e-01,-8.875683493725092799e-01,2.518998153461140393e-02,-4.599846628105687674e-01,2.481763902549058116e+02
1.405882275403698811e+00,5.679174406714832202e+00,1.221260375125496012e+00,-7.597787949678806996e-01,2.856543748780321704e-02,-6.495523062069372688e-01,2.497693058184042059e+02
1.332039055367031599e+00,6.047523592278729154e+00,1.486103846098529191e+00,-5.922698624999988004e-01,3.044756205157407580e-02,-8.051629375100725072e-01,2.513622213819026001e+02
1.241929770938399624e+00,6.439993257150356420e+00,1.757076971593378723e+00,-3.937985186057808562e-01,3.073796245104583325e-02,-9.186816120989989010e-01,2.530850393346039482e+02
1.144394884244920751e+00,6.828498367889053178e+00,2.008672557808315329e+00,-1.747403682034724126e-01,2.942145755021353254e-02,-9.841738573831245729e-01,2.548078572873052963e+02
1.053225708893632984e+00,7.174701846560278540e+00,2.214569502544380786e+00,5.345276159967278506e-02,2.656687135588815460e-02,-9.982159103242385090e-01,2.563537788340681800e+02
9.614499626317425385e-01,7.518288005644983230e+00,2.399059137797327601e+00,2.788514973763285831e-01,2.232343490115354379e-02,-9.600736985596330930e-01,2.578997003808310637e+02
8.721886850771463084e-01,7.858344529119782429e+00,2.560788501725704602e+00,4.896725565858324192e-01,1.691298468475121997e-02,-8.717412106104414082e-01,2.594456219275939475e+02
7.880320658780498588e-01,8.193695858744495908e+00,2.698705295038788421e+00,4.819185392894427267e-01,1.678396616534519672e-02,-8.760541192743348526e-01,2.609915434743568312e+02
6.828136251432147530e-01,8.641368639477102320e+00,2.852441990306234576e+00,4.741265793927953998e-01,1.665362611414406696e-02,-8.802980423581512337e-01,2.630983951370834575e+02
6.125171212028950318e-01,8.966369644679110351e+00,2.941460070832167428e+00,4.662972870224132982e-01,1.652197473758049845e-02,-8.844726476241844271e-01,2.646719166653975890e+02
5.508983961532860629e-01,9.279982932575880028e+00,3.005558829311873126e+00,5.425788513437966865e-01,-9.759050112558487200e-02,-8.343154584244053540e-01,2.662454381937117205e+02
4.557717645621036096e-01,9.810437041468640373e+00,3.075575711813646862e+00,6.072729337032060082e-01,-2.096188141405131433e-01,-7.663403530749788306e-01,2.690423153242666103e+02
3.910078334762334684e-01,1.018986913682365270e+01,3.098516996640519938e+00,6.589979080968586533e-01,-3.171704631826980925e-01,-6.819990134959230677e-01,2.711813290364380578e+02
3.320392191083958444e-01,1.053884713963870112e+01,3.097731261849957729e+00,6.966491127443015241e-01,-4.179485455763965462e-01,-5.830926401214086008e-01,2.733203427486095052e+02
2.865201600826409734e-01,1.082468956950789796e+01,3.086593501215145974e+00,7.194224422990269652e-01,-5.098008083718150729e-01,-4.717334896953110923e-01,2.752575089428830779e+02
2.583402207983513943e-01,1.104740095727964011e+01,3.081881197304776165e+00,7.268315228414715667e-01,-5.907656121675500804e-01,-3.502997700312692197e-01,2.769460215713796742e+02
2.556655891003032366e-01,1.108640468361727471e+01,3.082635262533125697e+00,3.588155418934004803e-01,-5.920762440850431130e-01,-7.215920787297237515e-01,2.772638023249403432e+02
2.558700919276761243e-01,1.132284449073785737e+01,3.109589353486962970e+00,9.796526068684218158e-01,-0.000000000000000000e+00,2.006957145972606549e-01,2.793519319047393878e+02
2.622271579373132155e-01,1.140268500357083248e+01,3.133606688382241323e+00,9.796526061767043547e-01,-0.000000000000000000e+00,2.006957144555525374e-01,2.801474229694475184e+02
2.694109583976155298e-01,1.144858050370350000e+01,3.155346830162987892e+00,9.969265735217056612e-01,1.237348186384753732e-02,7.734535509308596013e-02,2.806420738369828314e+02
3.029599629842753550e-01,1.159010632020053677e+01,3.263103881626725045e+00,9.985818554224957788e-01,2.455311065364407241e-02,-4.721676375809008563e-02,2.823526598806212746e+02
3.414544797572994783e-01,1.170707286593843577e+01,3.418799771271522570e+00,9.845925174251731748e-01,3.634807075008189559e-02,-1.710391545366056476e-01,2.840632459242597179e+02
3.852763625611031473e-01,1.181257970731252449e+01,3.653325222198358979e+00,9.551777228406169717e-01,4.757357286898546839e-02,-2.921819175699156834e-01,2.860001234538141830e+02
4.234019472864155031e-01,1.189315352166762629e+01,3.948237171341102414e+00,9.107983006361806133e-01,5.805374902483229765e-02,-4.087471318352697280e-01,2.879370009833686481e+02
4.305276317817493537e-01,1.191007962646731855e+01,4.036511549474167460e+00,8.521495268940568746e-01,6.762440777044485818e-02,-5.189085885672628518e-01,2.884420932743479966e+02
4.385173058435585802e-01,1.194067252166209769e+01,4.254229535437652920e+00,7.801502334519764270e-01,7.613560655527953913e-02,-6.209404018583390972e-01,2.895637433614400038e+02
4.369247800084313238e-01,1.197804414369831605e+01,4.699972979667987438e+00,6.959284141592327888e-01,8.345400090247497016e-02,-7.132440480646629055e-01,2.915982218871575924e+02
4.230800884219630409e-01,1.199315580029407968e+01,5.067094565556160113e+00,6.008035540478099401e-01,8.946493359379650845e-02,-7.943734103687308812e-01,2.931261772873576206e+02
3.979795026755874043e-01,1.199754717144052130e+01,5.456324901422308749e+00,0.000000000000000000e+00,2.192496970815314972e-02,-9.997586187194160701e-01,2.946541326875576488e+02
3.640273278068575924e-01,1.199276017591153298e+01,5.858898045675918986e+00,4.770202322144586060e-01,1.844162797650683236e-02,-8.786976752087577447e-01,2.961820880877576769e+02
3.236398360252799034e-01,1.198032087939600565e+01,6.266047970350556717e+00,8.384982794343323054e-01,1.049141407014996669e-02,-5.448014001613514790e-01,2.977100434879577051e+02
2.676871961519619036e-01,1.195671836151431044e+01,6.774604355606628658e+00,9.968779763717973141e-01,0.000000000000000000e+00,-7.894491893667290872e-02,2.996424975149617467e+02
2.104417950808437909e-01,1.192751807890923210e+01,7.262754110036689248e+00,9.968779756680072879e-01,-0.000000000000000000e+00,-7.894491888093824183e-02,3.015749515419657882e+02
1.555036156709665718e-01,1.189570193902730644e+01,7.715691230622951480e+00,9.968779756680852255e-01,-0.000000000000000000e+00,-7.894491888094441745e-02,3.035074055689698298e+02
1.113159270119383898e-01,1.186745865764844510e+01,8.078484273643475433e+00,9.968779756681320769e-01,-0.000000000000000000e+00,-7.894491888094813670e-02,3.052431107428334940e+02
7.466892856208229290e-02,1.184198717542568069e+01,8.386222375756577918e+00,9.968779756681476201e-01,-0.000000000000000000e+00,-7.894491888094937182e-02,3.069788159166971582e+02
6.753584231098511137e-02,1.183622535172644241e+01,8.453472784409814977e+00,9.968779756681320769e-01,-0.000000000000000000e+00,-7.894491888094813670e-02,3.074191170015756143e+02
4.897821062649094365e-02,1.181775881234827885e+01,8.662187792454668411e+00,9.968779756680852255e-01,-0.000000000000000000e+00,-7.894491888094441745e-02,3.090826228308427517e+02
3.893804345012770451e-02,1.180420589499380313e+01,8.801200712488180145e+00,9.968779756680072879e-01,-0.000000000000000000e+00,-7.894491888093824183e-02,3.107461286601098891e+02
3.724668248683086352e-02,1.179427528669292968e+01,8.868758267257463856e+00,9.968779756678982640e-01,-0.000000000000000000e+00,-7.894491888092960985e-02,3.125187012298287641e+02
4.475785627262181959e-02,1.178762489275398018e+01,8.850267452993907824e+00,-9.968817776680953813e-01,-0.000000000000000000e+00,-7.889690326014157928e-02,3.142912737995476391e+02
6.367983671044429028e-02,1.178288657304976361e+01,8.732821805278474514e+00,9.968779763664620264e-01,-0.000000000000000000e+00,-7.894491893625038559e-02,3.162045701443610142e+02
9.448345906571813113e-02,1.178021458887394424e+01,8.514708310418434678e+00,0.000000000000000000e+00,-0.000000000000000000e+00,-9.999989999999968626e-01,3.181178664891743892e+02
9.656265350410427051e-02,1.178013280015011510e+01,8.501120381847535157e+00,-0.000000000000000000e+00,-0.000000000000000000e+00,-9.999989992938940198e-01,3.182140563109689992e+02
1.446650161429406667e-01,1.177949294351717491e+01,8.205622643370480418e+00,-0.000000000000000000e+00,9.968731427319694749e-01,-7.900593205829621601e-02,3.199792790965235554e+02
2.045560552981435798e-01,1.178038706136460156e+01,7.823511089887269065e+00,-0.000000000000000000e+00,-9.968312352681582000e-01,-7.953293898528782102e-02,3.217445018820781115e+02
2.814634571177330180e-01,1.178264044153556611e+01,7.322676253983406269e+00,-0.000000000000000000e+00,9.968731427266619427e-01,-7.900593205787558027e-02,3.236579681635880661e+02
3.681557030811683506e-01,1.178568144162709608e+01,6.744517223179958165e+00,-9.796745246597646783e-01,0.000000000000000000e+00,2.005886979235763090e-01,3.255714344450980207e+02
4.615956334734078736e-01,1.178870624344034646e+01,6.100198979089600293e+00,-7.744289291514477869e-01,-6.772012124676549116e-02,-6.290244978322703240e-01,3.274849007266079752e+02
5.469639832963444359e-01,1.179029981575147623e+01,5.485166555177325876e+00,-0.000000000000000000e+00,-8.566789209263858673e-02,-9.963227450308872468e-01,3.291690459113141287e+02
6.327078495575951811e-01,1.178966611700254852e+01,4.831864865870612036e+00,-1.897944589642378832e-01,-3.604137342227722862e-01,-9.132787107619113609e-01,3.308531910960202822e+02
7.161580334015963389e-01,1.178568096687674149e+01,4.148945948553226515e+00,-3.571165318402182987e-01,-5.924852232850398304e-01,-7.220990533685643920e-01,3.325373362807264357e+02
7.946355820814147153e-01,1.177723970015232169e+01,3.445062073507033418e+00,-7.276310544702175864e-01,-4.777519535019162378e-01,-4.922439633936577796e-01,3.342214814654325892e+02
8.697874587619113251e-01,1.176230849041164106e+01,2.684635374385528017e+00,-9.502337949370633918e-01,-2.659020387987073297e-01,-1.623263402045622139e-01,3.360098362883581444e+02
9.339527255255747340e-01,1.174009611853230872e+01,1.920644740163424791e+00,-9.796745246597435841e-01,-0.000000000000000000e+00,2.005886979235719514e-01,3.377981911112836997e+02
9.846648056424407436e-01,1.170923984964827191e+01,1.162380237561678076e+00,-9.796745239680101358e-01,-0.000000000000000000e+00,2.005886977819393013e-01,3.395865459342092549e+02
1.028390734009491325e+00,1.165734876975135315e+01,2.296884712030130560e-01,-9.546707119062373126e-01,-0.000000000000000000e+00,-2.976605983800955091e-01,3.418331500898481181e+02
1.050323411033220022e+00,1.159019730692881822e+01,-6.695182433836224245e-01,-5.759863546495468389e-01,0.000000000000000000e+00,-8.174580840981896523e-01,3.440797542454869813e+02
1.051536501753555397e+00,1.151823271691730355e+01,-1.408084553905314396e+00,9.546769266724426384e-01,0.000000000000000000e+00,-2.976406653674982250e-01,3.460221404963771192e+02
1.037868494733923619e+00,1.143206115738283302e+01,-2.100391009576229262e+00,-5.741094903288209705e-01,1.828998376289236397e-03,-8.187752731244372084e-01,3.479645267472672572e+02
1.013999513244487227e+00,1.133553626672502546e+01,-2.719413550418392944e+00,-0.000000000000000000e+00,-9.950635238632307145e-01,9.922995251858010568e-02,3.498381785749494952e+02
9.878580141827754124e-01,1.124280695521972717e+01,-3.207958977427853853e+00,5.764363129605547531e-01,-1.163998612660335514e-03,-8.171400260720611541e-01,3.514450610823338934e+02
9.590564766408968822e-01,1.114256950784494826e+01,-3.654655039420923845e+00,5.752485911879960945e-01,-0.000000000000000000e+00,-8.179774186878632225e-01,3.530519435897182916e+02
9.299665695482338679e-01,1.104034915570096231e+01,-4.053144328494528104e+00,0.000000000000000000e+00,8.080491350123092387e-02,9.967289330373355627e-01,3.546314714484562955e+02
9.009963107168916796e-01,1.093960889416321081e+01,-4.411809913786949977e+00,9.997494087567806442e-01,0.000000000000000000e+00,-2.234098678773216787e-02,3.562109993071942995e+02
8.738354276095486872e-01,1.084574909399941767e+01,-4.731296297286271546e+00,0.000000000000000000e+00,9.997078536730038545e-01,-2.412897233222458665e-02,3.577905271659323034e+02
8.517558081250180546e-01,1.076349597814603953e+01,-5.013311996115681346e+00,-4.272875887421053731e-01,2.998997113510264850e-02,9.036171302820669160e-01,3.593760263130449175e+02
8.381030310097854485e-01,1.069821479589629121e+01,-5.257384591596365730e+00,3.478986530581669179e-01,4.490191220302124919e-01,8.230105438282815378e-01,3.609615254601575316e+02
8.345151893393495390e-01,1.065526262326357632e+01,-5.463876881298548760e+00,8.506807646963191472e-01,5.164672500196061389e-01,9.798885770690765606e-02,3.625427489596182227e+02
8.412052692135445486e-01,1.063964692243506605e+01,-5.634625099544513738e+00,0.000000000000000000e+00,9.993857527529492746e-01,3.501595629960892880e-02,3.641239724590789137e+02
8.680998774327711720e-01,1.067296107909290726e+01,-5.869921946385686873e+00,7.294162694263894853e-01,5.001404990659442662e-01,4.667005325589688725e-01,3.668740225112421740e+02
8.742571866767715472e-01,1.068592964730381567e+01,-5.901658229462320548e+00,5.179124917774815540e-01,7.186022948425190293e-01,4.640855445973440796e-01,3.673254196823474444e+02
9.005067649063703827e-01,1.076063960436433220e+01,-5.994617011684522545e+00,-5.024135394088025119e-01,7.294793312446173905e-01,4.641535744838983235e-01,3.689782095755043656e+02
9.270627752640774322e-01,1.087656445460653565e+01,-6.053259305597022077e+00,1.270998420255520451e-03,1.158168560493576804e-01,9.932687654501972663e-01,3.706309994686612868e+02
9.496669704018991798e-01,1.103392389190501000e+01,-6.076118343243610553e+00,0.000000000000000000e+00,1.173078338390019654e-01,9.930945933284813787e-01,3.722837893618182079e+02
9.729700358443028607e-01,1.136216719181782153e+01,-6.050032830956416419e+00,1.182598423654877134e-01,0.000000000000000000e+00,9.929816764046089927e-01,3.749852023376957391e+02
9.733190414887143982e-01,1.142512099553040272e+01,-6.037939156066387092e+00,-9.994701503669238818e-01,0.000000000000000000e+00,3.251797235700848443e-02,3.754370040723335933e+02
9.468262046304870561e-01,1.184410612143146402e+01,-5.920758345762858532e+00,-6.959237973784124787e-01,-8.054127696074957210e-02,7.135833314682863415e-01,3.781144303587176410e+02
8.957992866976807189e-01,1.227006467902135078e+01,-5.763573736061664121e+00,-9.359985444648430625e-04,-1.157798199552772800e-01,9.932734553988429305e-01,3.804547655798012897e+02
8.150079141629592572e-01,1.283239526073612780e+01,-5.526368802485863263e+00,9.994709311547940178e-01,-0.000000000000000000e+00,3.249396525059618929e-02,3.831657672742510385e+02
7.620046047903709097e-01,1.322607394012511861e+01,-5.350986898459256125e+00,7.502093386830640531e-01,-6.493026638259133954e-01,1.248599171111838685e-01,3.848621306390451764e+02
7.159288051392636021e-01,1.363484044946457985e+01,-5.166437662183873236e+00,1.316509140226055641e-01,-9.789811277717602733e-01,1.557626023902780044e-01,3.864687383325978089e+02
6.772620543730337728e-01,1.407630436788790718e+01,-4.968862044936193989e+00,-5.517134353490528165e-01,-8.267481538648538963e-01,1.099898874308832403e-01,3.880753460261504415e+02
6.488165109607735292e-01,1.452760754139883304e+01,-4.771558039057302913e+00,-0.000000000000000000e+00,-9.993865585865699952e-01,3.499294952973203837e-02,3.896170804303950490e+02
6.289842845127782134e-01,1.500229367927591717e+01,-4.570764030978192949e+00,5.227064052945151751e-01,-8.494460335488333014e-01,-7.223191781865063998e-02,3.911588148346396565e+02
6.167368698498180146e-01,1.549578702622097559e+01,-4.369977617047579699e+00,6.982881594509620093e-01,-6.862659254954096566e-01,2.035453902102576651e-01,3.927005492388842640e+02
6.091854007005927940e-01,1.613402052056791192e+01,-4.121150065477494628e+00,7.806413966762656420e-01,-4.314624048668976308e-01,4.521473244233080169e-01,3.946400530238337865e+02
6.072163024426385780e-01,1.678202676050898745e+01,-3.879826532352071755e+00,7.587711395517350299e-01,-1.190543038769926593e-01,6.403830342170618861e-01,3.965795568087833090e+02
6.080368189102257626e-01,1.743098402647334311e+01,-3.649897195355476409e+00,6.355972790766489799e-01,2.092487626605334106e-01,7.431211571181745024e-01,3.985190605937328314e+02
6.086568065520151505e-01,1.802160740638990433e+01,-3.452049805131112592e+00,0.000000000000000000e+00,2.016697227947948992e-02,9.997956257304881911e-01,4.003049848893569447e+02
6.069590529643742460e-01,1.859771754339268313e+01,-3.270869206867061063e+00,-0.000000000000000000e+00,2.016697226524963651e-02,9.997956250250304988e-01,4.020909091849810579e+02
6.018274421136725616e-01,1.915154917162017512e+01,-3.108332633237660847e+00,-0.000000000000000000e+00,1.861049644941947454e-02,9.998258092494709537e-01,4.038768334806051712e+02
5.937548222132686959e-01,1.960226398211186094e+01,-2.985692402278818491e+00,-0.000000000000000000e+00,1.705397560833250836e-02,9.998535699465991300e-01,4.054108889543014698e+02
5.812991528013223830e-01,2.002272060095898354e+01,-2.880869684713674328e+00,-1.917059800119866042e-01,1.812536973898002529e-02,9.812839997681250814e-01,4.069449444279977683e+02
5.642891266458442967e-01,2.040760045639463982e+01,-2.794775952445024636e+00,-3.763002066546797253e-01,1.852436278830402530e-02,9.263115040073012230e-01,4.084789999016940669e+02
5.433803213562327095e-01,2.075206265111756920e+01,-2.727936195356351234e+00,-5.469347672930134907e-01,1.823615303250249522e-02,8.369753897515633811e-01,4.100130553753903655e+02
5.196244733143450256e-01,2.105149959710396601e+01,-2.680682097810359821e+00,-6.972795955787784994e-01,1.727143169903781056e-02,7.165897454173212333e-01,4.115471108490866641e+02
4.829460021153005322e-01,2.140947800156389746e+01,-2.642194356310158199e+00,-8.217572942076923903e-01,1.566598654477073527e-02,5.696205107633635079e-01,4.137753540583346989e+02
4.466422404653294653e-01,2.167796260420189824e+01,-2.633481826877857923e+00,-5.997178998212540080e-01,7.155085790564087332e-04,8.002099278828666007e-01,4.160035972675827338e+02
4.194170319550759585e-01,2.181845449354968025e+01,-2.644318478544223083e+00,-3.160895954939996200e-01,-1.430844328188020723e-02,9.486203856508851340e-01,4.177925781126367610e+02
3.929648149978108851e-01,2.188721090573340078e+01,-2.664617810799922992e+00,-0.000000000000000000e+00,-2.786296520869436383e-02,9.996107518283526838e-01,4.197100005893018988e+02
3.709512076929900593e-01,2.187208568895113103e+01,-2.684496887894321393e+00,4.595995113954453037e-01,-5.348094314390733350e-01,-7.090452462073431050e-01,4.216274230659670366e+02
3.572200298747560954e-01,2.177336204676371878e+01,-2.698463909410869555e+00,8.370268619318710357e-01,-1.940497361592199432e-01,5.115943044080193403e-01,4.235448455426321743e+02
3.555769937475646847e-01,2.161507349878241868e+01,-2.702335961678340670e+00,-4.199765354728736688e-01,-5.494543922601661246e-01,-7.223002010790878780e-01,4.252399311707904985e+02
3.667859410189571179e-01,2.138900738785848787e+01,-2.694577942655318914e+00,6.991536932645603386e-01,-5.387427636406700859e-01,-4.700407937818666393e-01,4.269350167989488227e+02
3.954505275676920006e-01,2.106967175164435702e+01,-2.669833712635222955e+00,0.000000000000000000e+00,1.519999199372301137e-02,9.998834733323513912e-01,4.287874910091637730e+02
4.395271086245471914e-01,2.070783551345233775e+01,-2.628624030387622490e+00,1.189517953495845964e-01,4.801939949905260907e-02,9.917371666195052837e-01,4.305164043920318591e+02
5.026539933962211881e-01,2.028766432110007401e+01,-2.566909273892027166e+00,2.360844370542942716e-01,8.010443926189191044e-02,9.684241928984734793e-01,4.322453177748999451e+02
5.745252486800003222e-01,1.988185979138690129e+01,-2.494844053358429292e+00,3.496066198606967435e-01,1.109644360283907477e-01,9.303010831372408029e-01,4.337302406261237024e+02
6.140353609687245751e-01,1.969120456723695156e+01,-2.456490363827297685e+00,4.577822542185659982e-01,1.401274493363235119e-01,8.779508560648028315e-01,4.343771228829025404e+02
7.301574228278935319e-01,1.919599295135180483e+01,-2.345455596504919082e+00,5.589570147662942246e-01,1.671474904763166902e-01,8.121741020685296908e-01,4.359482980328901931e+02
8.659968647617937165e-01,1.866065889967639890e+01,-2.211459993219219378e+00,6.515836385139938125e-01,1.916113426145672760e-01,7.339767403685131253e-01,4.375194731828778458e+02
1.007230268233468840e+00,1.813787098956049704e+01,-2.067983382462206698e+00,7.342455860439268678e-01,2.131448798322807259e-01,6.445546366102686831e-01,4.389529461146747735e+02
1.198947572665370886e+00,1.745726802914729348e+01,-1.867521125263443382e+00,5.296261371049649364e-03,3.208053605389800667e-01,9.471292785390514890e-01,4.407046881510376579e+02
1.408944591401617208e+00,1.673360751610558594e+01,-1.646705614331811285e+00,-7.270129289261012540e-01,2.249116686482341143e-01,6.487410442403815924e-01,4.424564301874005423e+02
1.639053900266329356e+00,1.596653903507726469e+01,-1.414523460144692324e+00,-8.833083786843737295e-01,-4.189862841558845696e-01,-2.102731600406161361e-01,4.442081722237634267e+02
1.891267123488098445e+00,1.515591704829013509e+01,-1.179686850956458422e+00,-0.000000000000000000e+00,-5.697617808903334691e-01,-8.218086839622579243e-01,4.459599142601263111e+02
2.281466901085248189e+00,1.393724063979045269e+01,-8.515130166471786000e-01,-7.142513392295073427e-01,-6.601633892675252691e-01,-2.324377849664099327e-01,4.484558067237550745e+02
2.539091694992206882e+00,1.315279244188078955e+01,-6.583954401085679864e-01,-7.866917747110766523e-01,-5.999432705642728791e-01,-1.455407973979757907e-01,4.499873625635356689e+02
2.814091935355354845e+00,1.233681365504134853e+01,-4.750667781295180303e-01,-8.462106345526284601e-01,-5.298689742571268679e-01,-5.625328515305844795e-02,4.515189184033162633e+02
3.104477363523642008e+00,1.149236007071503707e+01,-3.018722511061763814e-01,-8.918303165653851394e-01,-4.510914849724467213e-01,3.395818960260799796e-02,4.530504742430968577e+02
3.408282852343276215e+00,1.062250014872966020e+01,-1.391570135148784415e-01,-9.228015138230601933e-01,-3.649047365803014253e-01,1.236118898326908772e-01,4.545820300828774521e+02
3.723568438523920943e+00,9.730314885500281008e+00,1.273384833206133750e-02,-9.386155213045316303e-01,-2.727243595118904462e-01,2.112352406581725350e-01,4.561135859226580465e+02
4.048419354726381592e+00,8.818897682097828650e+00,1.534553185298016265e-01,-9.390125909744709842e-01,-1.760644294910894414e-01,2.953890158082934647e-01,4.576451417624386409e+02
4.380946061372848810e+00,7.891354212186457495e+00,2.826624538235711359e-01,-9.239861981421666481e-01,-7.651259947576546927e-02,3.746909763591166898e-01,4.591766976022192353e+02
4.719284278181304693e+00,6.950802289830935621e+00,4.000103858513683885e-01,-8.937831490311479721e-01,2.429597686785708172e-02,4.478385736139383622e-01,4.607082534419998296e+02
5.061595015425089272e+00,6.000371737173706421e+00,5.051543233867343830e-01,-9.241325611954082087e-01,1.083556543586387533e-01,3.663823979214446136e-01,4.622398092817804240e+02
5.406064604918281447e+00,5.043204251982082553e+00,5.977495545806983390e-01,-9.409690694337842221e-01,1.908309044523144038e-01,2.795689114955250965e-01,4.637713651215610184e+02
5.750904730728001013e+00,4.082453275064636067e+00,6.774514492030170310e-01,-9.440464974518757435e-01,2.705157665155980551e-01,1.886675136725022295e-01,4.653029209613416128e+02
6.094352459610571593e+00,3.121283857558557084e+00,7.439154608830295112e-01,-9.333198499414820937e-01,3.462450816379840091e-01,9.500737417002060037e-02,4.668344768011222072e+02
6.434670271168386968e+00,2.162872528092445457e+00,7.967971293498298246e-01,-9.089459700185579250e-01,4.169115275724294412e-01,-4.199995240732345313e-05,4.683660326409028016e+02
6.789199859047431396e+00,1.156178533706157197e+00,8.384278040770510865e-01,-9.379447850849553792e-01,2.342722996625442866e-01,-2.556835343596929322e-01,4.699849865328579313e+02
7.136674417644804258e+00,1.595711475516863875e-01,8.670052880263042772e-01,-8.735703862515963314e-01,2.831098010942321302e-02,-4.858716586388920899e-01,4.716039404248130609e+02
7.475392157873089971e+00,-8.232120711774297828e-01,8.844190625288242957e-01,-8.564755953996687765e-01,-1.988000547158761122e-01,-4.763676025194892305e-01,4.732228943167681905e+02
7.803682388117466395e+00,-1.788421597963670839e+00,8.925586900446352834e-01,-7.948765504937457260e-01,-4.155810150481050180e-01,-4.421104945680901510e-01,4.748418482087233201e+02
8.119905547614450825e+00,-2.732296115354539978e+00,8.933138004287833889e-01,-6.919740779611686099e-01,-6.107675039546378581e-01,-3.848804120027653486e-01,4.764608021006784497e+02
8.422453239450803153e+00,-3.651062685497870497e+00,8.885740771972263641e-01,-5.531152192510916388e-01,-7.742172302844502196e-01,-3.076511572613253032e-01,4.780797559926335794e+02
8.709748263182325090e+00,-4.540936922822268684e+00,8.802292437930591129e-01,-3.855153796436366909e-01,-8.974370230348468480e-01,-2.144357287054622363e-01,4.796987098845887090e+02
8.980244647073124753e+00,-5.398123166861016564e+00,8.701690498527951956e-01,-1.978833947814153948e-01,-9.740241482838157827e-01,-1.100777935404344821e-01,4.813176637765438386e+02
9.232427679955133470e+00,-6.218814655217695275e+00,8.602832574725088888e-01,3.099996898510452229e-05,-9.999989995195006642e-01,-0.000000000000000000e+00,4.829366176684989682e+02
9.464813942707007044e+00,-6.999193696670553244e+00,8.524616274738214816e-01,2.499997267777621953e-05,-7.954151306986418923e-01,-6.060633376393507188e-01,4.845555715604540978e+02
9.675951339352531377e+00,-7.735431844413962921e+00,8.485939056699587368e-01,1.249998704530147521e-05,-7.954196756453777439e-01,-6.060573718961056455e-01,4.861745254524092275e+02
9.864419127778296215e+00,-8.423690069436414518e+00,8.505698091300888386e-01,0.000000000000000000e+00,-7.954242209842218303e-01,-6.060514064505511111e-01,4.877934793443643571e+02
1.002483630561695804e+01,-9.044759467738554548e+00,8.600024726730074454e-01,-0.000000000000000000e+00,-6.060633378291391260e-01,7.954151309477258680e-01,4.893727520113143896e+02
1.016078220244164321e+01,-9.612696417865182141e+00,8.786821914696816282e-01,-5.163343074813554479e-01,-6.993530620126775510e-01,-4.942693370753668547e-01,4.909520246782644222e+02
1.021239581102869032e+01,-9.855009160874066865e+00,8.914134845239288785e-01,-2.327097549698321222e-01,-7.626911969294452032e-01,-6.034453646062709620e-01,4.916820883707489998e+02
1.032180714951473988e+01,-1.045485378279984268e+01,9.391688822690325011e-01,-6.700535388571197126e-01,-6.710063629198294022e-01,-3.174534863364295023e-01,4.936592775981091563e+02
1.040016949695547765e+01,-1.098554660805421079e+01,1.005583942468224912e+00,-9.187989706201391549e-01,-3.904549228754652379e-01,5.789131878396368280e-02,4.956364668254693129e+02
1.044046081269381254e+01,-1.138842330585910112e+01,1.081413048416487888e+00,-9.089321683888758052e-01,-2.999997255206519727e-06,4.169416185267721953e-01,4.973401002483557249e+02
1.045236187948575868e+01,-1.174284333306817452e+01,1.177717356963528861e+00,-7.742447476626014291e-01,3.056282090361985282e-01,5.541971387141507721e-01,4.990437336712421370e+02
1.043268740225477487e+01,-1.208112713640275437e+01,1.305522606270236530e+00,-5.386031923324989812e-01,5.714084050104533130e-01,6.191906296878761928e-01,5.008965341539060887e+02
1.037872594452463204e+01,-1.237854031890516993e+01,1.455607934774974854e+00,-2.327328258595024180e-01,7.626824293289000689e-01,6.034475484751410379e-01,5.027493346365700404e+02
1.028897575360493022e+01,-1.264210177430615012e+01,1.626451974481762930e+00,-9.089459700190846148e-01,4.169115275726710257e-01,-4.199995240734779347e-05,5.046021351192339921e+02
1.016066424372409394e+01,-1.287820450941301686e+01,1.815696859493403093e+00,-7.655588836089527449e-01,6.205717417684705195e-01,1.697301064837873630e-01,5.064549356018979438e+02
9.967809016605746919e+00,-1.312357257649701836e+01,2.049555942973680267e+00,-5.526130236044405342e-01,7.678467639836310532e-01,3.240805350272543683e-01,5.085831919509165573e+02
9.736719548725776718e+00,-1.334930682176482009e+01,2.294832257686407750e+00,-2.894566032810570455e-01,8.453551578259258514e-01,4.489850019262019987e-01,5.107114482999352276e+02
9.563589352331776539e+00,-1.349180446558415269e+01,2.463652433414268206e+00,-0.000000000000000000e+00,8.460544322754661728e-01,5.330946422796267736e-01,5.121325121927999362e+02
9.182406457640183817e+00,-1.376340072206689591e+01,2.806649728165319768e+00,-0.000000000000000000e+00,5.332983833111852867e-01,8.459260217988052721e-01,5.149820309329513748e+02
8.908638218765233319e+00,-1.392890385097860850e+01,3.027880023110652186e+00,-0.000000000000000000e+00,9.366689651603837818e-01,3.502131489548154231e-01,5.168399083536106673e+02
8.604672047300189419e+00,-1.407972433434270876e+01,3.241082601469411184e+00,-0.000000000000000000e+00,9.574659465880903664e-01,-2.885428237158021991e-01,5.186977857742699598e+02
8.149308058090122486e+00,-1.424921514420277724e+01,3.505687878613150232e+00,-0.000000000000000000e+00,5.871935072204331751e-01,-8.094453564477935847e-01,5.211701687080599186e+02
7.808299562689963835e+00,-1.432987746597224721e+01,3.661300548868425597e+00,-0.000000000000000000e+00,-2.291096583323577046e-02,-9.997365091086141131e-01,5.227942044743847418e+02
7.420140159320780526e+00,-1.437505293802254336e+01,3.794303599238045166e+00,-0.000000000000000000e+00,2.371197228132256377e-02,-9.997178313559172969e-01,5.244182402407095651e+02
6.678896185497971594e+00,-1.439667968262869202e+01,3.973579128052390441e+00,2.467465232155975352e-01,3.802238382244655934e-01,-8.913719684441564484e-01,5.271845382986685991e+02
6.227472427553007783e+00,-1.438694244351038698e+01,4.044295332428669454e+00,4.442119517835491083e-01,6.607960370785164184e-01,-6.049978010494152514e-01,5.287163247841320981e+02
5.738958570514972379e+00,-1.436317018173147808e+01,4.086932674176596336e+00,5.529576574120685928e-01,8.093914985370842530e-01,-1.977908774575835027e-01,5.302481112695955972e+02
5.102398105179873689e+00,-1.432107917529546093e+01,4.104430435505181052e+00,6.330747205413910228e-01,6.697087121567691925e-01,-3.882069539213438003e-01,5.321191770996987316e+02
4.433336297760932077e+00,-1.427021186819498233e+01,4.088419037910149711e+00,6.738218606874376571e-01,4.883777846847032755e-01,-5.544810542176521473e-01,5.339902429298018660e+02
3.873120067363234220e+00,-1.422598039681377280e+01,4.051180498670215790e+00,6.726650747676629072e-01,2.766754193497524827e-01,-6.862728389756437286e-01,5.355018928250600538e+02
3.299650644218247830e+00,-1.418195189994337646e+01,3.992505980554824419e+00,6.296763133483201935e-01,4.776707554500392305e-02,-7.753863855539026018e-01,5.370135427203182417e+02
2.719279002480689655e+00,-1.414091758129403509e+01,3.914685340386028223e+00,5.475289997605649051e-01,-1.841117861228331598e-01,-8.162798813105962559e-01,5.385251926155764295e+02
2.138333560713597148e+00,-1.410570961668895862e+01,3.820008556279831602e+00,4.313317626729679111e-01,-4.045409945984007605e-01,-8.064102517946539761e-01,5.400368425108346173e+02
1.563120076273376569e+00,-1.407920103741394158e+01,3.710765713138246991e+00,2.883107282158150486e-01,-5.998124345700049931e-01,-7.463912963933344580e-01,5.415484924060928051e+02
7.884052006615599462e-01,-1.405831737984309626e+01,3.542892532879983847e+00,2.141508642833327702e-01,-3.106663818158266199e-01,-9.260798057062994415e-01,5.436302904821046695e+02
4.241245895093426893e-02,-1.405526307011390941e+01,3.360422231563009010e+00,1.139945282122541564e-01,1.619245426652142841e-02,-9.933484041177693680e-01,5.457120885581165339e+02
-5.080045821835061925e-01,-1.406735734461149079e+01,3.209554482345930104e+00,0.000000000000000000e+00,3.410856895400027899e-01,-9.400311443731724781e-01,5.473354630452903393e+02
-1.019505509314649672e+00,-1.409371397073529764e+01,3.052476577412060355e+00,9.311514953131336814e-01,0.000000000000000000e+00,3.646298023695679902e-01,5.489588375324641447e+02
-1.485494313190338866e+00,-1.413293054865781606e+01,2.891006346178543573e+00,9.303518496993785636e-01,-2.382997053627622288e-03,3.666575466592515986e-01,5.505822120196379501e+02
-1.965026879413245053e+00,-1.419089379604667656e+01,2.700891632623927396e+00,0.000000000000000000e+00,4.167097442643965394e-02,9.991303868316832038e-01,5.524631527302445875e+02
-2.376752843474628563e+00,-1.425750943272936766e+01,2.509567515972704221e+00,6.246798302265287733e-02,1.023062753027419586e-01,9.927885863214693796e-01,5.543440934408512248e+02
-2.715051123592013393e+00,-1.432690321931069555e+01,2.319284633239610205e+00,1.244599972428666601e-01,1.621620752083089423e-01,9.788826132127017576e-01,5.562250341514578622e+02
-3.110051417895274284e+00,-1.442424587524120660e+01,2.040262387171905445e+00,1.855037212426259297e-01,2.207823289433772651e-01,9.575184241733348811e-01,5.590551264604648622e+02
-3.261782362053617046e+00,-1.446723472348164741e+01,1.898412729664025411e+00,2.451340595977395120e-01,2.777204058499213590e-01,9.288587992799380855e-01,5.605690565880156555e+02
-3.358676583158657802e+00,-1.449930025743375595e+01,1.768159786656821275e+00,3.028966861532992327e-01,3.325424924007094329e-01,8.931221015434958055e-01,5.620829867155664488e+02
-3.410280374694124372e+00,-1.452265465699542268e+01,1.649788668483568754e+00,3.583515052132412171e-01,3.848308971060683259e-01,8.505806130780285690e-01,5.636601389276372629e+02
-3.421606987696639290e+00,-1.453862704651534621e+01,1.553920689774542563e+00,4.110760042989387575e-01,4.341872325836136914e-01,8.015584605948884445e-01,5.652372911397080770e+02
