1.172298826290262941e+00,-4.553678835943005154e+00,-4.937473995237490421e+00,-7.999227061989339083e-01,4.935627555986968340e-01,3.413465546847512244e-01,3.524485360914150789e+01
7.929152672832056048e-01,-4.488783269577017343e+00,-5.428688615509027038e+00,-6.953913218118569217e-01,4.878521336430078348e-01,5.276639131592594234e-01,3.731718548161372695e+01
3.054062726024574514e-01,-4.410974607944029735e+00,-5.975090119565895641e+00,-5.590988380652673895e-01,4.598595074236505043e-01,6.898809482133662074e-01,3.984732668583496462e+01
-6.165272295637534011e-02,-4.353772903448240861e+00,-6.330097853361972504e+00,-3.972702142425185712e-01,4.108633903831756529e-01,8.205886005301080699e-01,4.169401875091510590e+01
-4.344444251109263466e-01,-4.294863275237062794e+00,-6.637143108806566438e+00,-2.172967494851983650e-01,3.431016044486143168e-01,9.138169464882857085e-01,4.354071081599524717e+01
-8.280510088019220616e-01,-4.229257127391490734e+00,-6.907644719081782014e+00,-4.298583657853375928e-01,3.173684571748877081e-01,8.452792720492493528e-01,4.548502801563778775e+01
-1.166604234611305246e+00,-4.167771907244318896e+00,-7.097240036114078165e+00,-6.206940099143520850e-01,2.755948276708204969e-01,7.340193710106435176e-01,4.717159914931144726e+01
-1.499012192842007707e+00,-4.100423098882299833e+00,-7.243871332160962240e+00,-7.801584494637566758e-01,2.198920430494069045e-01,5.856605528248827186e-01,4.885817028298509967e+01
-1.509727159847864986e+00,-4.097992530483293372e+00,-7.247901411294260576e+00,-9.001920122278114222e-01,1.530754373613722463e-01,4.077011792956451441e-01,4.891389638844230348e+01
-1.808755499013206647e+00,-4.021833275381904826e+00,-7.341477763133614332e+00,-9.747279364108520916e-01,7.852206102073465421e-02,2.091356878066746861e-01,5.051398453533273170e+01
-2.098246394161237038e+00,-3.938243697016735378e+00,-7.399098207094581880e+00,-9.999989999999755463e-01,0.000000000000000000e+00,0.000000000000000000e+00,5.211407268222315992e+01
-2.534614305017556468e+00,-3.794934831230159400e+00,-7.437430094755265841e+00,-9.983881034473690574e-01,-0.000000000000000000e+00,-5.673794904931526994e-02,5.461353278951893486e+01
-3.030015919741979591e+00,-3.610247586870678038e+00,-7.428474530862363423e+00,2.039378542715169496e-01,3.347537607940029303e-01,9.199713426133235838e-01,5.755889355606510804e+01
-3.442496749036576098e+00,-3.437587772352899584e+00,-7.380425621599775887e+00,-8.509987894270711409e-03,-3.496795025697511106e-01,9.368296673299086885e-01,6.010633580849721369e+01
-3.891583547104938035e+00,-3.229045707854416136e+00,-7.287226635846333345e+00,-5.300915303213886709e-01,-8.479392486978079013e-01,0.000000000000000000e+00,6.299307464477005425e+01
-4.226836242567324042e+00,-3.058270680930451402e+00,-7.189331615878093551e+00,-2.272997664908240137e-03,5.869383970275309226e-01,-8.096271682553140003e-01,6.524293661838004255e+01
-4.546855708585311184e+00,-2.881043048436886966e+00,-7.070558420547052414e+00,2.187648692053255350e-01,-3.412217959910388010e-01,9.141704534377146363e-01,6.749279859199003795e+01
-4.869980655164726002e+00,-2.686866390218775269e+00,-6.926042521694003362e+00,9.726792459822421189e-02,0.000000000000000000e+00,9.952572284798643087e-01,6.988417700898770590e+01
-5.079199482361265616e+00,-2.550240918911494514e+00,-6.816332131886037260e+00,-6.799996278704141409e-05,-9.702994690039160042e-02,9.952804553330789616e-01,7.152344036060237897e+01
-5.326907115745708410e+00,-2.373032542023461922e+00,-6.665036044832677753e+00,-0.000000000000000000e+00,5.892782266475079522e-01,-8.079289396963428294e-01,7.359432021803705481e+01
-5.626357439533207661e+00,-2.133923430521433406e+00,-6.452345995751167074e+00,-0.000000000000000000e+00,9.950482571503957985e-01,-9.938292580604352056e-02,7.629843917353215943e+01
-5.731292092241957903e+00,-2.038869991619173927e+00,-6.366580649653202251e+00,6.075376243257879505e-01,7.797075178635928250e-01,1.514999063192045137e-01,7.733463552839180011e+01
-5.782323310878592970e+00,-1.985954283554451028e+00,-6.318923113694220106e+00,0.000000000000000000e+00,-9.924842934880487855e-01,-1.223639128937682868e-01,7.789101077776658144e+01
-5.866957982818177264e+00,-1.884443534821758970e+00,-6.228203847617482580e+00,-0.000000000000000000e+00,-9.983890695156890649e-01,-5.672094713688979190e-02,7.892104193766662945e+01
-5.977780611730331373e+00,-1.728668883765227315e+00,-6.090718598210356660e+00,5.293393743992732547e-01,8.484089973062443057e-01,-0.000000000000000000e+00,8.044738639663522406e+01
-6.074216571495675510e+00,-1.567664366322373937e+00,-5.951042817343915381e+00,9.984358225270002496e-01,0.000000000000000000e+00,-5.589193408565497345e-02,8.197373085560381867e+01
-6.156669436386109417e+00,-1.401797336237692315e+00,-5.810074147665447164e+00,9.360262369443479447e-01,-2.510647953300841340e-01,2.466157989569395803e-01,8.350007531457241328e+01
-6.195310963760549683e+00,-1.306393386914424637e+00,-5.730821187715804399e+00,9.973505985878612368e-01,-0.000000000000000000e+00,-7.273089780327682274e-02,8.435532562772920073e+01
-6.272196460507813320e+00,-1.065599712749857764e+00,-5.535952868483471789e+00,9.973505978851086029e-01,-0.000000000000000000e+00,-7.273089775202921936e-02,8.646411939583471451e+01
-6.314825370334330223e+00,-8.870864892370289301e-01,-5.395808292908893300e+00,9.948943568806407622e-01,-0.000000000000000000e+00,-1.009119347685325796e-01,8.799682483877838024e+01
-6.344475759174046381e+00,-7.058137707898293201e-01,-5.258224663911111207e+00,9.497874378597080947e-01,-2.078098770058433784e-02,-3.122018152205298103e-01,8.952953028172204597e+01
-6.361719972347469110e+00,-5.174786159845347067e-01,-5.120480885860732023e+00,8.067610110634285681e-01,-5.008968508125558605e-01,-3.134278479557670583e-01,9.110419438554150418e+01
-6.365868931769315786e+00,-3.277878095287088955e-01,-4.987332004950634889e+00,4.612619272224951494e-01,-8.553027301751170430e-01,-2.359929538146210704e-01,9.267885848936096238e+01
-6.357059618908350807e+00,-1.374907647317200887e-01,-4.859772991774890194e+00,0.000000000000000000e+00,-9.950534475071183271e-01,-9.933094484754553810e-02,9.425352259318042059e+01
-6.335383700228004678e+00,5.259318301060744716e-02,-4.738695168041608063e+00,0.000000000000000000e+00,-9.974737096893087074e-01,-7.102252087089834520e-02,9.582818669699987879e+01
-6.300837795380360262e+00,2.415033413031506260e-01,-4.624782590024550721e+00,0.000000000000000000e+00,-9.990887847932493626e-01,-4.265677077202058992e-02,9.740285080081933700e+01
-6.253374958516827675e+00,4.282079125503708839e-01,-4.518615654285010663e+00,0.000000000000000000e+00,-9.998973695526177652e-01,-1.425658985042697544e-02,9.897751490463879520e+01
-6.192955459961122955e+00,6.116747489960911999e-01,-4.420774704105966180e+00,0.000000000000000000e+00,-9.998988114651590209e-01,1.415509883213774897e-02,1.005521790084582534e+02
-6.119546787193404391e+00,7.908713925465844508e-01,-4.331840025504240188e+00,0.000000000000000000e+00,-9.990931093136409258e-01,4.255536293210526039e-02,1.021268431122777116e+02
-6.031106309346131233e+00,9.688001894477787923e-01,-4.250548462943931405e+00,0.000000000000000000e+00,-9.974809131672223161e-01,7.092127931152159004e-02,1.037381329339357450e+02
-5.929315778600185993e+00,1.140214041660687183e+00,-4.179573756427749309e+00,0.000000000000000000e+00,-9.950635238591930554e-01,9.922995251817745554e-02,1.053494227555937783e+02
-5.814458126956539630e+00,1.304097888237854441e+00,-4.119212984938149802e+00,5.119696326536157249e-01,1.099999210733006162e-05,-8.590023836520768175e-01,1.069607125772518117e+02
-5.687411405112913876e+00,1.459573019111100711e+00,-4.069142216533656153e+00,4.577162883206991051e-01,-6.801462706206118369e-02,-8.864918555244805098e-01,1.085720023989098451e+02
-5.549353733073752792e+00,1.605834807101975903e+00,-4.028726977929768083e+00,3.996517389686284893e-01,-1.354739068109789557e-01,-9.065998610813139624e-01,1.101832922205678784e+02
-5.401468912883379048e+00,1.742087460208697092e+00,-3.997332726311767281e+00,3.382594646593803933e-01,-2.018051365037372979e-01,-9.191589750686112170e-01,1.117945820422259118e+02
-5.244946403687343661e+00,1.867544053603944709e+00,-3.974324853901245902e+00,2.740506525458014098e-01,-2.664560070425104343e-01,-9.240646276913966339e-01,1.134058718638839451e+02
-5.080981296724547569e+00,1.981426561518256690e+00,-3.959068692525732569e+00,2.075599406144825743e-01,-3.288882014345907989e-01,-9.212759749442993584e-01,1.150171616855419785e+02
-4.910774290249263707e+00,2.082965889013324912e+00,-3.950929518188175393e+00,1.393409662666698634e-01,-3.885818767076947289e-01,-9.108162384447009430e-01,1.166284515072000119e+02
-4.735531664383720418e+00,2.171401903644111897e+00,-3.949272555636945015e+00,6.996175677941639248e-02,-4.450399920023947464e-01,-8.927725119576465085e-01,1.182397413288580452e+02
-4.556465255900981504e+00,2.245983467009562418e+00,-3.953462982936413628e+00,0.000000000000000000e+00,-4.977924468361116794e-01,-8.672950362322737750e-01,1.198510311505160786e+02
-4.374792432938082953e+00,2.305968466191914423e+00,-3.962865936037806236e+00,2.302893885235219318e-01,-6.458094247081015427e-01,-7.279388604071578284e-01,1.214623209721741119e+02
-4.198609928601943153e+00,2.348964075322330647e+00,-3.976326033313966501e+00,4.388482805365123696e-01,-7.328862274201475291e-01,-5.198922622293987716e-01,1.230130338369359322e+02
-4.022238944927926774e+00,2.376560664014962132e+00,-3.993602455681581453e+00,6.059964154931114511e-01,-7.508058430340034395e-01,-2.627868536900023200e-01,1.245637467016977524e+02
-3.846821957797699199e+00,2.388095665329845740e+00,-4.014107338885411380e+00,7.159609931182473463e-01,-6.978770862250416318e-01,1.911619342960860224e-02,1.261144595664595727e+02
-3.673506284677924061e+00,2.382914666597569564e+00,-4.037252797132067528e+00,7.583652183922914292e-01,-5.790943738687150955e-01,2.992154770102620764e-01,1.276651724312213929e+02
-3.503444062635546530e+00,2.360371435917342886e+00,-4.062450927011076018e+00,7.292076631243281648e-01,-4.056665109298185357e-01,5.510797273966736576e-01,1.292158852959832132e+02
-3.337792226296989018e+00,2.319827948561491660e+00,-4.089113811415605149e+00,6.312398873402415012e-01,-1.939588933223285183e-01,7.509421764223062068e-01,1.307665981607450192e+02
-3.177583879748725249e+00,2.261026672104006874e+00,-4.116535216957782239e+00,4.737066590285227141e-01,3.605097405070491201e-02,8.799433666215495942e-01,1.323173110255068252e+02
-3.023596042555310781e+00,2.184461593533980839e+00,-4.143772292172617888e+00,4.399588817986772038e-01,3.348271317417667731e-02,8.973923836557532452e-01,1.338680238902686312e+02
-2.876472799177282713e+00,2.091004075959372432e+00,-4.169763880309568016e+00,4.055731788079599553e-01,3.086590347600287956e-02,9.135401976009428493e-01,1.354187367550304373e+02
-2.736852079017342287e+00,1.981529944474035076e+00,-4.193448832912960000e+00,3.705994082079671070e-01,2.820433924518468347e-02,9.283633953804577565e-01,1.369694496197922433e+02
-2.605365644635497802e+00,1.856919452578221774e+00,-4.213766016897269928e+00,3.350882807246570727e-01,2.550187965538383561e-02,9.418404845056468355e-01,1.385201624845540493e+02
-2.482639080033549828e+00,1.718057248549172078e+00,-4.229654321622625446e+00,2.990912861392515665e-01,2.276244316999249603e-02,9.539519242264710153e-01,1.400708753493158554e+02
-2.366278913730970768e+00,1.561770483709748358e+00,-4.240321762747462309e+00,2.626606186411394872e-01,1.999000186135723237e-02,9.646801538539027110e-01,1.416629677535833309e+02
-2.260209772822937335e+00,1.392694424236189388e+00,-4.244231941189349655e+00,2.258491011606189314e-01,1.718857565236362253e-02,9.740096182127675473e-01,1.432550601578508065e+02
-2.164617310020170216e+00,1.212003296017704512e+00,-4.240625343629486288e+00,1.887101087910141584e-01,1.436222648871745763e-02,9.819267901882452465e-01,1.448471525621182820e+02
-2.078770360312929277e+00,1.021327019254808732e+00,-4.229460903495153801e+00,1.512974914110137015e-01,1.151505245035808027e-02,9.884201903334527417e-01,1.464392449663857576e+02
-2.001471424403551858e+00,8.225165289144753533e-01,-4.211056804289461830e+00,1.136654956192205690e-01,8.651181810526650112e-03,9.934804035097590802e-01,1.480313373706532332e+02
-1.931509450202870903e+00,6.174136184327440047e-01,-4.185731280396376874e+00,7.586868609389824103e-02,5.774767051087578706e-03,9.971000925357698108e-01,1.496234297749207087e+02
-1.867659858826719921e+00,4.078508637631793055e-01,-4.153802614844354757e+00,3.796186649172022393e-02,2.889978842764105542e-03,9.992740088252239916e-01,1.512155221791881843e+02
-1.808684570757440602e+00,1.956515475395403936e-01,-4.115589137069927794e+00,0.000000000000000000e+00,9.999989999983950115e-07,9.999989999983950328e-01,1.528076145834556598e+02
-1.753332032169922616e+00,-1.737041664688455597e-02,-4.071409220681237784e+00,-0.000000000000000000e+00,1.466699169343320570e-02,9.998914337172097877e-01,1.543997069877231354e+02
-1.700337241422850809e+00,-2.294105598541641144e-01,-4.021581281221586757e+00,-0.000000000000000000e+00,-9.999989999326389967e-07,9.999989999326391876e-01,1.559917993919906110e+02
-1.648421775715449122e+00,-4.386739332794347690e-01,-3.966423773933011709e+00,-1.710479639359899773e-01,-3.300672315967960180e-01,9.283297995111869927e-01,1.575838917962580865e+02
-1.596293817908995383e+00,-6.433751836313038597e-01,-3.906255191520814130e+00,-3.175782561597086384e-01,-6.128222889424789210e-01,7.235958080248489077e-01,1.591759842005255621e+02
-1.540976127753897806e+00,-8.479172793457802060e-01,-3.839371727856006000e+00,-4.185875539198737338e-01,-8.077366976260051956e-01,4.151432126544217227e-01,1.608177560236051704e+02
-1.482731255095470324e+00,-1.044197025520767097e+00,-3.768180464694425691e+00,-4.595974337851653768e-01,-8.868719073915704021e-01,4.718494186909653193e-02,1.624595278466847788e+02
-1.420189976185681546e+00,-1.230780946644363993e+00,-3.693603259491584634e+00,3.783536023998775311e-01,-7.581172033180310077e-01,-5.311354418461582405e-01,1.641012996697643871e+02
-1.352517434192929802e+00,-1.405027536642793340e+00,-3.617351404458051700e+00,5.760832163300317887e-01,-5.993410883361652841e-01,-5.558024718319491964e-01,1.657303144908346439e+02
-1.278024831710079967e+00,-1.567336740063177025e+00,-3.540062602685465354e+00,7.364161080991873387e-01,-4.016585135365037806e-01,-5.443893406699148452e-01,1.673593293119049008e+02
-1.195818849773274684e+00,-1.717074829299877647e+00,-3.463183776450907914e+00,5.836459457603827561e-01,-5.284704494326251112e-01,-6.165017389069522569e-01,1.689883441329751577e+02
-1.062255803893408901e+00,-1.919628484608599805e+00,-3.352645405597495909e+00,4.048333339439183498e-01,-6.317018903521598450e-01,-6.611056598264963835e-01,1.713957818958127746e+02
-9.459052991258474208e-01,-2.065854979698684257e+00,-3.269328974739341032e+00,2.079569199490128029e-01,-7.067466238828843395e-01,-6.762108614009125773e-01,1.733093333169784671e+02
-8.183406658515911536e-01,-2.197366555357547213e+00,-3.192402975837650647e+00,1.801366246168164837e-03,-7.502561229372629592e-01,-6.611433317183709191e-01,1.752228847381441597e+02
-6.889855371739136425e-01,-2.305843040583499093e+00,-3.128416743787087118e+00,-2.044346132693516394e-01,-7.602889606564363634e-01,-6.165753686306303383e-01,1.769943616397087567e+02
-5.476560757827175774e-01,-2.401635139005146247e+00,-3.072795381916143320e+00,-4.015486972678125599e-01,-7.363974448214853918e-01,-5.444955894985041844e-01,1.787658385412733537e+02
-3.938325832930874570e-01,-2.485560536696465483e+00,-3.026380705774840862e+00,7.901121582995470627e-01,4.634195063227362910e-02,6.112063488865405736e-01,1.805373154428379507e+02
-2.276107072745220949e-01,-2.558740616323484041e+00,-2.989272009026312293e+00,6.981383209447480365e-01,-4.827575230681822593e-01,5.287211540520697639e-01,1.823087923444025478e+02
-4.984572296335341296e-02,-2.622244626707038506e+00,-2.960905254037320855e+00,4.000648127480780913e-01,-8.693439410617712637e-01,2.901504053531395178e-01,1.840802692459671448e+02
1.273055465859625757e-01,-2.673760067964031428e+00,-2.941724205918874624e+00,-1.611475306916044375e-02,-9.992882546077846984e-01,-3.407783623919932725e-02,1.857479976157101191e+02
3.132096635256306216e-01,-2.717811543401275287e+00,-2.929382993979583460e+00,-4.275358545887685824e-01,-8.342281304995037283e-01,-3.482449128364833446e-01,1.874157259854530935e+02
4.899265804855494899e-01,-2.751746888759187826e+00,-2.923614013055471528e+00,-7.127413081383575655e-01,-4.228955894930828130e-01,-5.596044567890843258e-01,1.889390883555622622e+02
6.721653715158815157e-01,-2.779502152396547299e+00,-2.922350244454622992e+00,-8.162637039383380255e-01,-3.054692944632069751e-01,4.903061041553442578e-01,1.904624507256714310e+02
8.582780542261965184e-01,-2.800818673910741907e+00,-2.924451463895003211e+00,-3.999995304134481452e-06,1.561658166663663361e-01,9.877298404370138396e-01,1.919858130957805997e+02
1.088651853920661772e+00,-2.818235430842466638e+00,-2.929630685856289940e+00,-7.828344534522074794e-01,9.102111357163510108e-02,6.155350318002562604e-01,1.938525587422797400e+02
1.318494875764777197e+00,-2.825730704220499767e+00,-2.935708939810078633e+00,-9.741568796143648123e-01,-4.289895066157300985e-02,-2.217567449557902581e-01,1.957193043887788804e+02
1.647668160345210131e+00,-2.819930595412382779e+00,-2.942986815231765085e+00,-9.850879750273047186e-01,-3.811247786723133413e-02,-1.677710359027759224e-01,1.984406693608128194e+02
1.822036829912072164e+00,-2.805611607349415060e+00,-2.944404428936714169e+00,-9.930077922742797103e-01,-3.320950056666926303e-02,-1.132724748345578791e-01,1.999363587990146698e+02
2.148783549753573219e+00,-2.750625106954000643e+00,-2.938145676497261771e+00,-9.978921217875967864e-01,-2.820500638237728730e-02,-5.842765517864606517e-02,2.029129500469389313e+02
2.407895767686265120e+00,-2.675262842294237053e+00,-2.920237537578430409e+00,-9.997260328080500580e-01,-2.311429325199597373e-02,-3.404228805218010353e-03,2.055053673847398272e+02
2.557277006682264542e+00,-2.603958084391380101e+00,-2.897043324233296246e+00,-9.985039190255717845e-01,-1.795292266894518360e-02,5.162960641511779580e-02,2.072214651416229287e+02
2.680397947036366357e+00,-2.508944224506177711e+00,-2.861382469889979241e+00,-9.942295157246312520e-01,-1.273667211753948779e-02,1.065056207231379476e-01,2.089375628985060303e+02
2.775340722611515876e+00,-2.388696173444030180e+00,-2.814415639217183962e+00,-9.869158883813680117e-01,-7.481486847845030159e-03,1.610560666822251907e-01,2.106536606553891318e+02
2.845441899744508785e+00,-2.238026137359661494e+00,-2.755423509802865212e+00,-9.765853927468930440e-01,-2.203431137569600295e-03,2.151141919183696682e-01,2.124193393247330448e+02
2.891086674002676826e+00,-2.059727319621133645e+00,-2.685849459577741793e+00,-9.632696065381501915e-01,3.081360810151467615e-03,2.685147488227394019e-01,2.141850179940769578e+02
2.912055682040713300e+00,-1.879793040885707978e+00,-2.615952201216201090e+00,-9.470092329443425827e-01,8.356734183090406762e-03,3.210944996597716594e-01,2.157256422970113476e+02
2.916209916943675040e+00,-1.675932963199936898e+00,-2.536820962900793841e+00,-9.278539762429159898e-01,1.360656293973578311e-02,3.726927155376349443e-01,2.172662665999457374e+02
2.905417237141941111e+00,-1.448939258416481302e+00,-2.448363530925318443e+00,-9.058623899042145267e-01,1.881479910172026079e-02,4.231516677165007567e-01,2.188068909028801272e+02
2.881474930827274239e+00,-1.199779110195612342e+00,-2.350516763899719308e+00,-8.811016976479185692e-01,2.396552180826432704e-02,4.723171097532924967e-01,2.203475152058145170e+02
2.822493659500768803e+00,-7.428191961891370543e-01,-2.168855641323063299e+00,-8.536475879969822600e-01,2.904298598274272086e-02,5.200387490093840714e-01,2.229568572653024887e+02
2.776495973935020789e+00,-4.387875949728260450e-01,-2.045891137597939835e+00,-7.960281472500745359e-01,2.883749683740395586e-02,6.045705811247497063e-01,2.245814899898486487e+02
2.722630972771162838e+00,-1.175504797983642907e-01,-1.913219722417172752e+00,-7.300777280822440263e-01,2.833020336042223544e-02,6.827751537187686237e-01,2.262061227143948088e+02
2.662296212748981983e+00,2.187518376087333460e-01,-1.771004513630440202e+00,-6.564865485628578190e-01,2.752641481742396784e-02,7.538340056294068336e-01,2.278307554389409688e+02
2.577897301871853397e+00,6.711543722021832137e-01,-1.574546797170492729e+00,-5.760247912764523415e-01,2.643454346765967619e-02,8.170034606698982627e-01,2.299361849680944658e+02
2.489517931539090512e+00,1.136743865600413406e+00,-1.366278006259274536e+00,-4.895345428882862948e-01,2.506601651927608740e-02,8.716224102987835121e-01,2.320416144972479628e+02
2.408361259742400673e+00,1.561314951240891258e+00,-1.170136487393030889e+00,-3.979209813077181357e-01,2.343515653473628862e-02,9.171192322012166054e-01,2.339228117885992333e+02
2.325978574186219117e+00,1.991545448013559927e+00,-9.646011101245516306e-01,-3.021429026643008275e-01,2.155903153811478817e-02,9.530177724097060876e-01,2.358040090799505037e+02
2.243114572311597499e+00,2.424925102658843645e+00,-7.505197634248899075e-01,-2.032026872105990867e-01,1.945727639272338411e-02,9.789423283859696179e-01,2.376852063713017742e+02
2.168577056626543431e+00,2.815463423849088986e+00,-5.511183460204723827e-01,-1.021358091303693205e-01,1.715188731787164675e-02,9.946215809314686851e-01,2.393772263515389511e+02
2.094207896116038192e+00,3.205008226478729405e+00,-3.457555896169135501e-01,-0.000000000000000000e+00,1.466699169441148046e-02,9.998914337839015509e-01,2.410692463317761280e+02
2.019827849468036174e+00,3.592404371906414706e+00,-1.354790043365650121e-01,-5.997774009038151499e-01,4.583813991939530291e-02,7.988516347161966902e-01,2.427612663120133050e+02
1.935456913353719832e+00,4.026508282825881579e+00,1.062468177580159073e-01,-9.589712208786084213e-01,5.862258804264504353e-02,2.773726549082560222e-01,2.446723705017103612e+02
1.850339523147879639e+00,4.456327042189320409e+00,3.506271891708483412e-01,-9.334980015239883189e-01,4.789207085142484221e-02,-3.553671772909953175e-01,2.465834746914074174e+02
1.778219121513720191e+00,4.810678966102131859e+00,5.550006651165233507e-01,-5.335776174011942485e-01,1.795098712834644616e-02,-8.455593936964301838e-01,2.481763902549058116e+02
1.704471330981304211e+00,5.161068111393125157e+00,7.584817010318958275e-01,-8.875683493725092799e-01,2.518998153461140393e-02,-4.599846628105687674e-01,2.497693058184042059e+02
1.628991709208040817e+00,5.507530893345951029e+00,9.595361176777424950e-01,-7.780832646201422120e-01,2.822227366637174162e-02,-6.275252477690641539e-01,2.513622213819026001e+02
1.545644373347321743e+00,5.878025915126449341e+00,1.172785323944409486e+00,-6.374234149580911835e-01,3.012380916477269341e-02,-7.699233378623214774e-01,2.530850393346039482e+02
1.460823074054421022e+00,6.244281094516130004e+00,1.380285013882466938e+00,-4.712244983302307788e-01,3.081840094902302957e-02,-8.814735948041244606e-01,2.548078572873052963e+02
1.383488486105993731e+00,6.568937212669803571e+00,1.560063205933304609e+00,-2.861454638353470581e-01,3.027821959471725319e-02,-9.577066372043326892e-01,2.563537788340681800e+02
1.305037932714238291e+00,6.889126348463637584e+00,1.732477292018872461e+00,-8.960171086700713383e-02,2.852490829602475145e-02,-9.955681106870999386e-01,2.578997003808310637e+02
1.225647093160604273e+00,7.204246130686118299e+00,1.896729031400407273e+00,1.105320189643744372e-01,2.562871562388422536e-02,-9.935410619193685289e-01,2.594456219275939475e+02
1.145487214611740079e+00,7.513692854925183795e+00,2.052020238260570117e+00,3.062371524643767162e-01,2.170568085656000845e-02,-9.517067142086624854e-01,2.609915434743568312e+02
1.036128266516584739e+00,7.926694192025160568e+00,2.250851562387851779e+00,4.896725565858324192e-01,1.691298468475121997e-02,-8.717412106104414082e-01,2.630983951370834575e+02
9.555897145903028411e-01,8.227532085394306804e+00,2.390234185599981132e+00,4.838606244995389272e-01,1.681634508519099999e-02,-8.749823464078338997e-01,2.646719166653975890e+02
8.775660209844426962e-01,8.519527649233626931e+00,2.521663503339679036e+00,4.780272641022016988e-01,1.671896069572938182e-02,-8.781847249053709170e-01,2.662454381937117205e+02
7.468538791046634984e-01,9.020762794476254953e+00,2.744512213509255893e+00,4.721727323223930406e-01,1.662083580582001535e-02,-8.813482050798151501e-01,2.690423153242666103e+02
6.554328787171412873e-01,9.388612534053869751e+00,2.910429345417604008e+00,4.662972870224132982e-01,1.652197473758049845e-02,-8.844726476241844271e-01,2.711813290364380578e+02
5.743992645017501619e-01,9.739110366835756594e+00,3.075743065109170171e+00,5.564926453069906076e-01,-1.202404257099042445e-01,-8.221047231014597667e-01,2.733203427486095052e+02
5.120412332322290538e-01,1.003954695687360221e+01,3.228316315379189838e+00,6.295875639642395383e-01,-2.533079807199871136e-01,-7.344743468673999853e-01,2.752575089428830779e+02
4.681202429820852107e-01,1.028576557480071862e+01,3.366665750122975531e+00,6.833359094384706678e-01,-3.785916771610151055e-01,-6.242742801502143557e-01,2.769460215713796742e+02
4.617882184639520715e-01,1.032904824913557817e+01,3.394017437131637394e+00,7.160860319781832128e-01,-4.922416762770984167e-01,-4.948908232548988595e-01,2.772638023249403432e+02
4.326444855571297543e-01,1.059311514092697948e+01,3.584167511182466015e+00,7.268315228414715667e-01,-5.907656121675500804e-01,-3.502997700312692197e-01,2.793519319047393878e+02
4.259914888768495667e-01,1.068593439016902735e+01,3.661446267756597983e+00,6.221680029251122068e-01,-6.101231512316643846e-01,-4.905657106509647702e-01,2.801474229694475184e+02
4.242785039585268425e-01,1.073880145237806261e+01,3.712700764106827034e+00,4.982150171738308764e-01,-6.105645825338235078e-01,-6.156221951955381799e-01,2.806420738369828314e+02
4.257761239768648176e-01,1.090499627764690871e+01,3.901247932559912979e+00,3.588155418934004803e-01,-5.920762440850431130e-01,-7.215920787297237515e-01,2.823526598806212746e+02
4.327864025685991822e-01,1.105490025069560112e+01,4.101152923798324856e+00,-3.571165318402440003e-01,-5.924852232850824629e-01,-7.220990533686163504e-01,2.840632459242597179e+02
4.438205978981785704e-01,1.120687751136437527e+01,4.339665359877824535e+00,-0.000000000000000000e+00,-8.566789209259167981e-02,-9.963227450303417942e-01,2.860001234538141830e+02
4.544816209942545426e-01,1.134218897483613375e+01,4.589024577844273978e+00,1.063715156360538899e-01,-8.446283202780217880e-02,-9.907316138433519548e-01,2.879370009833686481e+02
4.563327496565717789e-01,1.137341343121333814e+01,4.656458242516777979e+00,2.115359659530316461e-01,-8.229931858294414759e-02,-9.738980220077548822e-01,2.884420932743479966e+02
4.575642101258951544e-01,1.143413266611121593e+01,4.810766746204554245e+00,3.142999842970026214e-01,-7.920190248446364045e-02,-9.460129906693921509e-01,2.895637433614400038e+02
4.549017276347940841e-01,1.152938078213873752e+01,5.096459708971913471e+00,4.134974430385555677e-01,-7.520573200723140728e-02,-9.073929482177552908e-01,2.915982218871575924e+02
4.498115579648718776e-01,1.159052400697122387e+01,5.312093346554140894e+00,5.080026862173876445e-01,-7.035615413366796966e-02,-8.584761396642778264e-01,2.931261772873576206e+02
4.422683042937007869e-01,1.164206381140878754e+01,5.525186945315863518e+00,5.967433029661399768e-01,-6.470819998500139392e-02,-7.998176537318764101e-01,2.946541326875576488e+02
4.329625888944883538e-01,1.168472959393059973e+01,5.732266099182421470e+00,6.787122967769464443e-01,-5.832596036257906014e-02,-7.320831240732832423e-01,2.961820880877576769e+02
4.225902063915860096e-01,1.171924564913624067e+01,5.929856441014835333e+00,7.529795125249642007e-01,-5.128185848387766671e-02,-6.560411760776977408e-01,2.977100434879577051e+02
4.090884889874084607e-01,1.175356758621302333e+01,6.163044995165821938e+00,8.187021915802263905e-01,-4.365582816438210584e-02,-5.725547049586316994e-01,2.996424975149617467e+02
3.962607056102403491e-01,1.177969509086828914e+01,6.374261526055692073e+00,8.751345352275509137e-01,-3.553440676955918476e-02,-4.825710840785968347e-01,3.015749515419657882e+02
3.851494122181158275e-01,1.179890934160289540e+01,6.558043200089466396e+00,9.216361678623217202e-01,-2.700975322854721680e-02,-3.871114146079107088e-01,3.035074055689698298e+02
3.776010710919007751e-01,1.181111297585376718e+01,6.693737174737782070e+00,9.576794039106425460e-01,-1.817860225191702053e-02,-2.872589384973619486e-01,3.052431107428334940e+02
3.731991355203898575e-01,1.181934084991042155e+01,6.795777600406758268e+00,9.828552359944344730e-01,-9.141166620244308219e-03,-1.841467462439092539e-01,3.069788159166971582e+02
3.729691919456851745e-01,1.182062359312424427e+01,6.812657479048759512e+00,9.968779763717973141e-01,-0.000000000000000000e+00,-7.894491893667290872e-02,3.074191170015756143e+02
3.755654864266513848e-01,1.182287094506772185e+01,6.840607785824568410e+00,-9.796745246527556183e-01,-0.000000000000000000e+00,2.005886979221412070e-01,3.090826228308427517e+02
3.817066249720599824e-01,1.182284213008341389e+01,6.829747268641370717e+00,-0.000000000000000000e+00,9.968731427319724725e-01,-7.900593205829645194e-02,3.107461286601098891e+02
3.921299635207842194e-01,1.182060413683158728e+01,6.774965679379639560e+00,-0.000000000000000000e+00,0.000000000000000000e+00,-9.999989999999968626e-01,3.125187012298287641e+02
4.066308420463350393e-01,1.181624247483462220e+01,6.675729631724487412e+00,9.968779763717972031e-01,-0.000000000000000000e+00,-7.894491893667289484e-02,3.142912737995476391e+02
4.269243970570192337e-01,1.180942631661188535e+01,6.519729749970575305e+00,-9.968817776680953813e-01,-0.000000000000000000e+00,-7.889690326014157928e-02,3.162045701443610142e+02
4.520154474388113353e-01,1.180090579750213209e+01,6.314404204129571596e+00,-0.000000000000000000e+00,9.968731427319725835e-01,-7.900593205829646581e-02,3.181178664891743892e+02
4.535232279183906701e-01,1.180041441276171099e+01,6.302341499377211775e+00,-0.000000000000000000e+00,0.000000000000000000e+00,-9.999989999999968626e-01,3.182140563109689992e+02
4.856800834376683307e-01,1.179045816988197437e+01,6.049722344647754824e+00,9.968779763717972031e-01,-0.000000000000000000e+00,-7.894491893667289484e-02,3.199792790965235554e+02
5.221298594927957781e-01,1.177977676460768386e+01,5.754222277423540532e+00,0.000000000000000000e+00,-9.968312352734686188e-01,-7.953293898571152376e-02,3.217445018820781115e+02
5.658592837880198623e-01,1.176778875522257906e+01,5.390727829712625763e+00,-0.000000000000000000e+00,2.192496970816742649e-02,-9.997586187200667718e-01,3.236579681635880661e+02
6.130156902846612965e-01,1.175576039054000432e+01,4.988136857156024284e+00,6.008035540474822023e-01,8.946493359374771415e-02,-7.943734103682975611e-01,3.255714344450980207e+02
6.625905805435589047e-01,1.174400570229796514e+01,4.551061367496237686e+00,7.394889314637235200e-01,7.995153089775990096e-02,-6.684024782646601492e-01,3.274849007266079752e+02
7.074255538557880918e-01,1.173407971939320049e+01,4.140179418487077712e+00,8.521495268940568746e-01,6.762440777044487206e-02,-5.189085885672628518e-01,3.291690459113141287e+02
7.525586591389146207e-01,1.172469668974079049e+01,3.707118121879406036e+00,9.348205202346947518e-01,5.291739346619585976e-02,-3.511528789831132591e-01,3.308531910960202822e+02
7.971151505847066110e-01,1.171597112782591665e+01,3.255738251475008393e+00,9.845925174251732859e-01,3.634807075008190946e-02,-1.710391545366057586e-01,3.325373362807264357e+02
8.402211960282568448e-01,1.170802449563564274e+01,2.789900725125045167e+00,9.997139295386805458e-01,1.849956042777991735e-02,1.509388458719029477e-02,3.342214814654325892e+02
8.835124045003230897e-01,1.170054632878085421e+01,2.284046884112597819e+00,9.796526068683385491e-01,0.000000000000000000e+00,2.006957145972436130e-01,3.360098362883581444e+02
9.233952832195971849e-01,1.169416278089281036e+01,1.771260201639231813e+00,9.796526061767043547e-01,-0.000000000000000000e+00,2.006957144555525374e-01,3.377981911112836997e+02
9.590174002867426495e-01,1.168900187377091449e+01,1.255807446067411792e+00,-9.796745246582524436e-01,-0.000000000000000000e+00,2.005886979232666678e-01,3.395865459342092549e+02
9.973332280569665587e-01,1.168419806083973889e+01,6.105924903208069798e-01,-9.796745239680101358e-01,-0.000000000000000000e+00,2.005886977819393013e-01,3.418331500898481181e+02
1.028400515951263694e+00,1.168133897349796513e+01,-2.613188167013246258e-02,-9.546707119062373126e-01,-0.000000000000000000e+00,-2.976605983800955091e-01,3.440797542454869813e+02
1.048910937387334208e+00,1.168095788657056389e+01,-5.641583481564751423e-01,9.546769266717656244e-01,-0.000000000000000000e+00,-2.976406653672871716e-01,3.460221404963771192e+02
1.063431685252623105e+00,1.168311948375563425e+01,-1.085386507678863577e+00,5.764363129601857150e-01,-1.163998612659590233e-03,-8.171400260715380170e-01,3.479645267472672572e+02
1.072230050781794564e+00,1.168822000723757881e+01,-1.568834696718658162e+00,-5.759863546498812381e-01,0.000000000000000000e+00,-8.174580840986641617e-01,3.498381785749494952e+02
1.075877460324511148e+00,1.169589256823857504e+01,-1.964987810034074522e+00,-0.000000000000000000e+00,-9.950635238632309365e-01,9.922995251858010568e-02,3.514450610823338934e+02
1.076103858192333673e+00,1.170777505255450457e+01,-2.341301868047346080e+00,-0.000000000000000000e+00,8.080491350128965466e-02,9.967289330380600942e-01,3.530519435897182916e+02
1.073308131466550908e+00,1.172471517906171634e+01,-2.690688405734720678e+00,-0.000000000000000000e+00,-5.697617808899569924e-01,-8.218086839617149142e-01,3.546314714484562955e+02
1.067669352005716776e+00,1.174826983614614662e+01,-3.018705023736394821e+00,-4.272875887418756680e-01,2.998997113508652251e-02,9.036171302815810824e-01,3.562109993071942995e+02
1.059133370336145408e+00,1.178001340783325013e+01,-3.324552215400447874e+00,4.301035175187842285e-01,3.026596604826629205e-02,9.022709878510976056e-01,3.577905271659323034e+02
1.047494757149449507e+00,1.182179307380965660e+01,-3.608522411799874430e+00,0.000000000000000000e+00,9.997078536730037435e-01,-2.412897233222458665e-02,3.593760263130449175e+02
1.032442501749693875e+00,1.187518415325895482e+01,-3.868752468270095335e+00,-5.741094903288493922e-01,1.828998376289327037e-03,-8.187752731244778426e-01,3.609615254601575316e+02
1.013310755321193080e+00,1.194169477745865926e+01,-4.104048685947990549e+00,-0.000000000000000000e+00,9.997078536730037435e-01,-2.412897233222458665e-02,3.625427489596182227e+02
9.890253187184578909e-01,1.202305763220676482e+01,-4.314731999580712518e+00,5.752485914334510841e-01,0.000000000000000000e+00,-8.179774190368891418e-01,3.641239724590789137e+02
9.351641932840707439e-01,1.219287814636905409e+01,-4.638087595806838159e+00,9.997494087565386156e-01,-0.000000000000000000e+00,-2.234098678772675900e-02,3.668740225112421740e+02
9.238247682712908970e-01,1.222566188890936445e+01,-4.684332961831985997e+00,0.000000000000000000e+00,9.993857527531195828e-01,3.501595629961489625e-02,3.673254196823474444e+02
8.714437697292838347e-01,1.236383732864827145e+01,-4.828676887301839749e+00,-5.024135394086214346e-01,7.294793312443546007e-01,4.641535744837311239e-01,3.689782095755043656e+02
8.077093912020685273e-01,1.252025947419085128e+01,-4.947039877317257250e+00,-9.999989999998434298e-01,0.000000000000000000e+00,0.000000000000000000e+00,3.706309994686612868e+02
7.338300554977831291e-01,1.269561163503983181e+01,-5.039219855367758072e+00,8.506807646955818480e-01,5.164672500191584970e-01,9.798885770682272400e-02,3.722837893618182079e+02
6.014639035160479485e-01,1.301492474322242821e+01,-5.146957462924060422e+00,7.294162694253270018e-01,5.001404990652157379e-01,4.667005325582890829e-01,3.749852023376957391e+02
5.780622320686716886e-01,1.307398037021973813e+01,-5.158029633749320553e+00,1.270998420255545387e-03,1.158168560493599564e-01,9.932687654502168062e-01,3.754370040723335933e+02
4.354941002153139284e-01,1.345780627639790517e+01,-5.183282259765869426e+00,5.179124917785871141e-01,7.186022948440531355e-01,4.640855445983348426e-01,3.781144303587176410e+02
3.118888206350415304e-01,1.382270739508481938e+01,-5.170880404788785967e+00,-9.994701503667711151e-01,0.000000000000000000e+00,3.251797235700351618e-02,3.804547655798012897e+02
1.747577859586851856e-01,1.427826453817694308e+01,-5.120320779111837695e+00,-0.000000000000000000e+00,1.173078338873076720e-01,9.930945937374238142e-01,3.831657672742510385e+02
9.491640393801595299e-02,1.458253217269608548e+01,-5.068861752074483640e+00,-9.359985444617364980e-04,-1.157798199548929902e-01,9.932734553955463452e-01,3.848621306390451764e+02
2.593684656520480261e-02,1.488705339187342602e+01,-5.003847708278378548e+00,1.182598423654860065e-01,0.000000000000000000e+00,9.929816764045947819e-01,3.864687383325978089e+02
-3.576852312033531461e-02,1.520577478056793908e+01,-4.924774231248735923e+00,-5.517134353491601750e-01,-8.267481538650147677e-01,1.099898874309046259e-01,3.880753460261504415e+02
-8.769938828543627496e-02,1.552292464535939764e+01,-4.837444579050629301e+00,-0.000000000000000000e+00,-9.993865585865699952e-01,3.499294952973203837e-02,3.896170804303950490e+02
-1.323584213618302641e-01,1.584882594512596832e+01,-4.740552775506925443e+00,5.227064052945151751e-01,-8.494460335488333014e-01,-7.223191781865063998e-02,3.911588148346396565e+02
-1.699157788067223174e-01,1.618073699854480196e+01,-4.635798586773810293e+00,9.994709311546237096e-01,-0.000000000000000000e+00,3.249396525059065205e-02,3.927005492388842640e+02
-2.083350029873078102e-01,1.660194078892880398e+01,-4.496099647217541850e+00,9.703611437209275214e-01,5.875426022465297243e-02,2.344038985658476182e-01,3.946400530238337865e+02
-2.381275813507960359e-01,1.702229932733283491e+01,-4.350548280083266661e+00,8.975199630704039366e-01,1.148606204948527804e-01,4.257498722848651052e-01,3.965795568087833090e+02
-2.597538659009304141e-01,1.743704775909103688e+01,-4.201334463667002694e+00,7.842301355936485141e-01,1.657905401802285961e-01,5.979085140842100854e-01,3.985190605937328314e+02
-2.726700906462242169e-01,1.780948851131090649e+01,-4.062541304175614876e+00,6.355972790764422564e-01,2.092487626604653816e-01,7.431211571179329178e-01,4.003049848893569447e+02
-2.789749523107530882e-01,1.816830844852457005e+01,-3.924115026408754314e+00,0.000000000000000000e+00,2.016697227947948992e-02,9.997956257304881911e-01,4.020909091849810579e+02
-2.787060675880604910e-01,1.850937799443515175e+01,-3.787505047292441418e+00,7.342455860439258686e-01,2.131448798322804206e-01,6.445546366102676838e-01,4.038768334806051712e+02
-2.728455324336938603e-01,1.878365040624598237e+01,-3.672808748321668926e+00,0.000000000000000000e+00,2.016697227948333407e-02,9.997956257306789274e-01,4.054108889543014698e+02
-2.614004085098939889e-01,1.903603010077943480e+01,-3.561767055667671489e+00,-0.000000000000000000e+00,1.938874012711227016e-02,9.998110202311153438e-01,4.069449444279977683e+02
-2.442288328077684423e-01,1.926354651161651432e+01,-3.455273134423700654e+00,-0.000000000000000000e+00,1.861049644941947454e-02,9.998258092494709537e-01,4.084789999016940669e+02
-2.209535287367309087e-01,1.946343053815798285e+01,-3.354070647895911694e+00,-0.000000000000000000e+00,1.783224151750433320e-02,9.998399924897070079e-01,4.100130553753903655e+02
-1.910885730717629405e-01,1.963301127990370887e+01,-3.258828488808697799e+00,-0.000000000000000000e+00,1.705397560833250836e-02,9.998535699465991300e-01,4.115471108490866641e+02
-1.371985335464309952e-01,1.983095041535379366e+01,-3.130239061274462831e+00,3.295113413379334721e-01,-6.375935753044800758e-02,9.419952336709417340e-01,4.137753540583346989e+02
-7.162919897365738198e-02,1.997564315856153527e+01,-3.012149228338501850e+00,6.199899474792784915e-01,-1.370199834863624344e-01,7.725516093775061099e-01,4.160035972675827338e+02
-8.791430583993982764e-03,2.004588535846228226e+01,-2.925209771985841201e+00,8.370268619317428049e-01,-1.940497361591902448e-01,5.115943044079409585e-01,4.177925781126367610e+02
7.011763856298272590e-02,2.006969613128716290e+01,-2.838648195749839953e+00,0.000000000000000000e+00,-2.786296520869569956e-02,9.996107518284006455e-01,4.197100005893018988e+02
1.608871539951956253e-01,2.004038643688028287e+01,-2.756135936147568799e+00,-0.000000000000000000e+00,1.519999199338746380e-02,9.998834733102782701e-01,4.216274230659670366e+02
2.632444936987606843e-01,1.995709363357581623e+01,-2.674340561808041361e+00,4.595995113954241540e-01,-5.348094314390486881e-01,-7.090452462073104645e-01,4.235448455426321743e+02
3.633125494414992662e-01,1.983569493179852827e+01,-2.599435076570435932e+00,6.991536932632081980e-01,-5.387427636396280306e-01,-4.700407937809575332e-01,4.252399311707904985e+02
4.722047327344467416e-01,1.966671601526450885e+01,-2.518860695246651904e+00,-4.199765354729590450e-01,-5.494543922602780350e-01,-7.223002010792348715e-01,4.269350167989488227e+02
5.999671997939678425e-01,1.943044452602775962e+01,-2.421364257452625512e+00,-8.217572942078683607e-01,1.566598654477408675e-02,5.696205107634852993e-01,4.287874910091637730e+02
7.271115077864652720e-01,1.916271078200928812e+01,-2.319439258086519740e+00,-8.124784207468892516e-01,4.212909528074874205e-02,5.814653516300491987e-01,4.305164043920318591e+02
8.630280207854585939e-01,1.884912829156375125e+01,-2.206238917435463520e+00,-8.024466305158267643e-01,6.855315426832334080e-02,5.927713473243773068e-01,4.322453177748999451e+02
9.884999859727483518e-01,1.854167117308480428e+01,-2.099815730827088167e+00,-7.916712200141434730e-01,9.491367808447349896e-02,6.035280218093767024e-01,4.337302406261237024e+02
1.047497605385283137e+00,1.839162970552782994e+01,-2.049700161969707057e+00,-7.801621746499253218e-01,1.211862402296333824e-01,6.137254079961460551e-01,4.343771228829025404e+02
1.201909283519313254e+00,1.798890471943957792e+01,-1.919530727890415456e+00,-7.679301594871857928e-01,1.473464957438258838e-01,6.233540569673506893e-01,4.359482980328901931e+02
1.367899044409534692e+00,1.754867372418711113e+01,-1.782076469475551539e+00,-7.549865093677484706e-01,1.733702037470828128e-01,6.324050467233119921e-01,4.375194731828778458e+02
1.530898579501340562e+00,1.711379299293315981e+01,-1.651599203932356152e+00,-7.413432184142337844e-01,1.992332498833895016e-01,6.408699904409976833e-01,4.389529461146747735e+02
1.744727584340848070e+00,1.654283259315242915e+01,-1.487999509695633549e+00,-7.270129289238149717e-01,2.249116686475268190e-01,6.487410442383414466e-01,4.407046881510376579e+02
1.973033850115803345e+00,1.593346798689910315e+01,-1.322428533784404392e+00,-9.017308211791940087e-01,-1.136463540324677141e-01,4.170899571463849709e-01,4.424564301874005423e+02
2.215667832291504880e+00,1.528695429501295600e+01,-1.157161204220523265e+00,-8.971751246285712966e-01,-4.296103845413990485e-01,1.025168924770933909e-01,4.442081722237634267e+02
2.472275669888855276e+00,1.460468216472258618e+01,-9.941939545541593759e-01,-7.142513392296423458e-01,-6.601633892676501691e-01,-2.324377849664538698e-01,4.459599142601263111e+02
2.855698346479321081e+00,1.358394695231383054e+01,-7.675072622744149031e-01,-7.732022810781057354e-01,-6.128097225756420352e-01,-1.631578268211787974e-01,4.484558067237550745e+02
3.100969883963126783e+00,1.292985826363320356e+01,-6.327581206811879744e-01,-8.240212043447914247e-01,-5.590109480894113192e-01,-9.216189400760373129e-02,4.499873625635356689e+02
3.355777378363411945e+00,1.225042647822506581e+01,-5.027095295733186031e-01,-8.661736340115911981e-01,-4.993328851426502846e-01,-2.019667198029115665e-02,4.515189184033162633e+02
3.618959959444864261e+00,1.154772750183439278e+01,-3.773525953110382636e-01,-8.992162428750661851e-01,-4.344031863718567088e-01,5.198096017280232767e-02,4.530504742430968577e+02
3.889372056938883215e+00,1.082384526543036074e+01,-2.566783937337817623e-01,-9.228015138230601933e-01,-3.649047365803014253e-01,1.236118898326908772e-01,4.545820300828774521e+02
4.165883421634267947e+00,1.008087164214622433e+01,-1.406779702188444559e-01,-9.366813945261709407e-01,-2.915684708010311543e-01,1.939427543996615211e-01,4.561135859226580465e+02
4.447379146292034235e+00,9.320906364130602029e+00,-2.934233974072262760e-02,-9.407099061307507837e-01,-2.151656870762202467e-01,2.622338643526535007e-01,4.576451417624386409e+02
4.732759686384151898e+00,8.546056939310297196e+00,7.733751306969492700e-02,-9.348446785314390439e-01,-1.364999347773477589e-01,3.277669825165404616e-01,4.591766976022192353e+02
5.020940880656597827e+00,7.758438568068403818e+00,1.793706338657956034e-01,-9.191473960795190079e-01,-5.639856374999107497e-02,3.898528777473054263e-01,4.607082534419998296e+02
5.310853971516821481e+00,6.960174059838072580e+00,2.767660985253732053e-01,-8.937831490311479721e-01,2.429597686785708172e-02,4.478385736139383622e-01,4.622398092817804240e+02
5.601445625246571858e+00,6.153393749609899821e+00,3.695330130910650102e-01,-9.200031557894672307e-01,9.442273463808094347e-02,3.803636950611596901e-01,4.637713651215610184e+02
5.891677952040271116e+00,5.340235414354245869e+00,4.576805137111165656e-01,-9.368776473181100739e-01,1.635903161935075845e-01,3.090250514170266305e-01,4.653029209613416128e+02
6.180528525868062673e+00,4.522844189358712796e+00,5.412177665796803483e-01,-9.442352179885739050e-01,2.310961158699232909e-01,2.345473051218564531e-01,4.668344768011222072e+02
6.466990404163099448e+00,3.703372484480838445e+00,6.201539678765208841e-01,-9.420011327136011969e-01,2.962544089637016986e-01,1.576870037000270841e-01,4.683660326409028016e+02
6.766124179427015051e+00,2.837223099287777384e+00,6.987393689097473048e-01,-9.301980857204249498e-01,3.584033164562046014e-01,7.922489555178764686e-02,4.699849865328579313e+02
7.060420623927296191e+00,1.973517424967778044e+00,7.724781118749273201e-01,-9.089459700185579250e-01,4.169115275724294412e-01,-4.199995240732345313e-05,4.716039404248130609e+02
7.348790866661542687e+00,1.114698858089179678e+00,8.415266130473467721e-01,-9.439344440998473917e-01,3.183618598128822863e-01,-8.735840806385501700e-02,4.732228943167681905e+02
7.630130172483499784e+00,2.632454932344693299e-01,9.063334166031136174e-01,-9.614030968487304873e-01,2.139032509533519144e-01,-1.730534154595326779e-01,4.748418482087233201e+02
7.903335357026437968e+00,-5.783428905857268543e-01,9.674931444486246646e-01,-9.610276973569803483e-01,1.054744947431623808e-01,-2.555364863816051990e-01,4.764608021006784497e+02
8.167322068289669446e+00,-1.407558019287750373e+00,1.025600444988417737e+00,-9.428152073845162962e-01,-4.911925645780512543e-03,-3.332766984229095786e-01,4.780797559926335794e+02
8.421024811104947716e+00,-2.221883231308029671e+00,1.081249988802458262e+00,-9.071036531064059494e-01,-1.152071899589890147e-01,-4.048311572784402679e-01,4.796987098845887090e+02
8.663396971364177190e+00,-3.018793585304782034e+00,1.135036464323497141e+00,-8.545558521075705682e-01,-2.233641679601139629e-01,-4.688717778889486820e-01,4.813176637765438386e+02
8.893410840008209917e+00,-3.795755967967524125e+00,1.187554573514537193e+00,-7.861471119059895152e-01,-3.273754154740285971e-01,-5.242099348405889758e-01,4.829366176684989682e+02
9.110057636776257795e+00,-4.550229201932315171e+00,1.239399027546110643e+00,-7.031471282090642205e-01,-4.253104340795372806e-01,-5.698185244048201703e-01,4.845555715604540978e+02
9.312347533716451409e+00,-5.279664153802642090e+00,1.291164542473459464e+00,-6.070964188158706198e-01,-5.153515027863436737e-01,-6.048510286320648577e-01,4.861745254524092275e+02
9.499309678457874995e+00,-5.981503842275541771e+00,1.343445834913835402e+00,-4.997777305618800181e-01,-5.958274165139535450e-01,-6.286572275614259464e-01,4.877934793443643571e+02
9.665844604138129625e+00,-6.636727537010365552e+00,1.395525282590249994e+00,-3.831829500683736622e-01,-6.652445050408939409e-01,-6.407952678432834448e-01,4.893727520113143896e+02
9.815736829908438210e+00,-7.260336487404282835e+00,1.449224008283535925e+00,-2.594761325628791027e-01,-7.223143565899214913e-01,-6.410398637330836369e-01,4.909520246782644222e+02
