-6.144495327664709627e+00,-1.552394914763009170e+00,-4.960710530850256816e+00,9.006736406773987458e-01,-2.381898037718807037e-01,3.633876860442821766e-01,9.582818669699987879e+01
-6.034547128211524836e+00,-1.484979105044295977e+00,-4.964988238758418326e+00,9.360262369457534870e-01,-2.510647953304611657e-01,2.466157989573098952e-01,9.740285080081933700e+01
-5.922931590685256431e+00,-1.419822952354017565e+00,-4.969103298699899973e+00,-6.799996278746670594e-05,-9.702994690099846220e-02,9.952804553393037601e-01,9.897751490463879520e+01
-5.809776580178403371e+00,-1.357024647036919829e+00,-4.973091251224254883e+00,-5.947822234765078460e-05,-5.885605933602992001e-01,8.084518689482174114e-01,1.005521790084582534e+02
-5.695272236594407289e+00,-1.296644390376153755e+00,-4.976914352352075355e+00,-3.451029040502767551e-05,-9.173495890144113263e-01,3.980800551954966626e-01,1.021268431122777116e+02
-5.576918053636878980e+00,-1.237399618506582311e+00,-4.980618640489718807e+00,-0.000000000000000000e+00,-9.924842934886829449e-01,-1.223639128938464604e-01,1.037381329339357450e+02
-5.457574230217093536e+00,-1.180759608285796958e+00,-4.984075694221271391e+00,0.000000000000000000e+00,-9.950534474652565908e-01,-9.933094484336670027e-02,1.053494227555937783e+02
-5.337441112333793036e+00,-1.126783007324412056e+00,-4.987245996902540668e+00,2.039378542715026832e-01,3.347537607939795601e-01,9.199713426132591909e-01,1.069607125772518117e+02
-5.216719458676793764e+00,-1.075526974611543229e+00,-4.990090033921216417e+00,0.000000000000000000e+00,-9.983890695297594764e-01,-5.672094713768916635e-02,1.085720023989098451e+02
-5.095610436452939318e+00,-1.027047178191355048e+00,-4.992568292981692579e+00,-0.000000000000000000e+00,-9.982292784116840734e-01,5.946686239021731213e-02,1.101832922205678784e+02
-4.974315617207939688e+00,-9.813977928557359176e-01,-4.994641264389765745e+00,-0.000000000000000000e+00,-9.845937316092863156e-01,1.748518906862067679e-01,1.117945820422259118e+02
-4.853036972640501823e+00,-9.386314978514153085e-01,-4.996269441337279460e+00,-0.000000000000000000e+00,-9.576665041045593352e-01,2.878764785754280298e-01,1.134058718638839451e+02
-4.731976870408982627e+00,-8.987994746045148142e-01,-4.997413320186757879e+00,-0.000000000000000000e+00,-9.178111043029762994e-01,3.970148319886667720e-01,1.150171616855419785e+02
-4.611338069931242956e+00,-8.619514044666157782e-01,-4.998033400756205502e+00,-0.000000000000000000e+00,-8.655655667883271898e-01,5.007936197589243354e-01,1.166284515072000119e+02
-4.491323718176518653e+00,-8.281354664825311129e-01,-4.998090186604072116e+00,-0.000000000000000000e+00,-8.016351890003720060e-01,5.978118631787030512e-01,1.182397413288580452e+02
-4.372137345455596069e+00,-7.973983351794423635e-01,-4.997544185314009901e+00,-0.000000000000000000e+00,-7.268830098925290750e-01,6.867598488048395344e-01,1.198510311505160786e+02
-4.253982861208863930e+00,-7.697851783760023547e-01,-4.996355908779823274e+00,-0.000000000000000000e+00,-6.423181591126841949e-01,7.664368091858442256e-01,1.214623209721741119e+02
-4.141459265461828743e+00,-7.462502258214317452e-01,-4.994556867305788295e+00,-0.000000000000000000e+00,-5.490822339998782109e-01,8.357671328226590202e-01,1.230130338369359322e+02
-4.030316810986164455e+00,-7.257867500974183317e-01,-4.992065796363343466e+00,-0.000000000000000000e+00,-4.484338883146127830e-01,8.938148845325654124e-01,1.245637467016977524e+02
-3.920745359527645579e+00,-7.084324602252606295e-01,-4.988846135013040417e+00,-0.000000000000000000e+00,-3.417318407612470743e-01,9.397964401990868133e-01,1.261144595664595727e+02
-3.812935096008533087e+00,-6.942237146826417682e-01,-4.984861327152986910e+00,-0.000000000000000000e+00,-2.304165326915718626e-01,9.730910653496717133e-01,1.276651724312213929e+02
-3.707076524895108083e+00,-6.831955195974986905e-01,-4.980074821762445758e+00,-0.000000000000000000e+00,-1.159906826113884654e-01,9.932492947635688241e-01,1.292158852959832132e+02
-3.603360466559984765e+00,-6.753815269558779422e-01,-4.974450073145026074e+00,-0.000000000000000000e+00,9.999989999994984836e-07,9.999989999994983725e-01,1.307665981607450192e+02
-3.501947070719756194e+00,-6.707058680172990339e-01,-4.967916578316655674e+00,2.187648692054317834e-01,-3.412217959912045018e-01,9.141704534381587255e-01,1.323173110255068252e+02
-3.402933776375529629e+00,-6.688752900692963577e-01,-4.960335914620390696e+00,-5.300915303214064345e-01,-8.479392486978359900e-01,0.000000000000000000e+00,1.338680238902686312e+02
-3.306384711891582562e+00,-6.694877813622520657e-01,-4.951535703505683728e+00,-6.465681517149340918e-01,-7.627939518478753511e-01,-9.644283945140280298e-03,1.354187367550304373e+02
-3.212361149733157006e+00,-6.721409010634323833e-01,-4.941343574534353245e+00,-7.495252916561296885e-01,-6.616989701418294345e-01,-1.908690864793545494e-02,1.369694496197922433e+02
-3.120921505354731007e+00,-6.764317948354937604e-01,-4.929587166530581932e+00,-8.368101705223641718e-01,-5.467681567412285837e-01,-2.813043342883405837e-02,1.385201624845540493e+02
-3.032121336116419208e+00,-6.819572104260176459e-01,-4.916094128730614798e+00,-9.065977072115639634e-01,-4.204046613062187854e-01,-3.658576268859425190e-02,1.400708753493158554e+02
-2.943716669449905510e+00,-6.884847556529987145e-01,-4.900279712341689020e+00,-9.574286788787111924e-01,-2.852506824885772119e-01,-4.427609965971879974e-02,1.416629677535833309e+02
-2.858129925980460229e+00,-6.954482470517927561e-01,-4.882323263725527163e+00,-9.882402314912133168e-01,-1.441322227110364562e-01,-5.104064301287121463e-02,1.432550601578508065e+02
-2.775410510607855041e+00,-7.024214450061735393e-01,-4.862043150871677710e+00,-9.983881034637833718e-01,-0.000000000000000000e+00,-5.673794905024809321e-02,1.448471525621182820e+02
-2.695604730808600191e+00,-7.089777477325507338e-01,-4.839257758081592087e+00,-9.999989999833805987e-01,-0.000000000000000000e+00,-0.000000000000000000e+00,1.464392449663857576e+02
-2.618755795629313265e+00,-7.146902086362045825e-01,-4.813785487246353689e+00,-8.509987894274916378e-03,-3.496795025699239168e-01,9.368296673303716515e-01,1.480313373706532332e+02
-2.544903814718981749e+00,-7.191315536703192235e-01,-4.785444759124048097e+00,-6.594040520464908295e-02,-1.796759677961251855e-01,9.815123073905102080e-01,1.496234297749207087e+02
-2.473981957235990237e+00,-7.218047125480303583e-01,-4.754129800792385119e+00,-1.211159161851198263e-01,-3.528236488088104788e-03,9.926310928008247325e-01,1.512155221791881843e+02
-2.405706902697441141e+00,-7.221058597625321651e-01,-4.719919325828173307e+00,-1.721497475853306092e-01,1.727401720966549870e-01,9.698058039376268313e-01,1.528076145834556598e+02
-2.339676942857852104e+00,-7.194270018557632485e-01,-4.683033640838639045e+00,-2.172967494851028858e-01,3.431016044484635485e-01,9.138169464878841408e-01,1.543997069877231354e+02
-2.275480966076490308e+00,-7.131946127092525511e-01,-4.643725964477838808e+00,-9.571824232550600609e-02,6.153225543562520355e-02,9.935037995023620061e-01,1.559917993919906110e+02
-2.212703635814176728e+00,-7.028382122305779633e-01,-4.602249532407529209e+00,3.547180000391316618e-02,-2.262161396076476649e-01,9.734300229509887936e-01,1.575838917962580865e+02
-2.150925399122890713e+00,-6.877903900550185190e-01,-4.558857595518099437e+00,1.631001998650939144e-01,-4.912498514296039231e-01,8.556108392662036266e-01,1.591759842005255621e+02
-2.087808643039128942e+00,-6.668524791583816391e-01,-4.512399321936187313e+00,2.743512521574289487e-01,-7.069556695168012217e-01,6.518765771007106746e-01,1.608177560236051704e+02
-2.024828593778628782e+00,-6.399055576193520833e-01,-4.464495735829308920e+00,3.580537021369535888e-01,-8.516735021566477215e-01,3.826849776323800190e-01,1.624595278466847788e+02
-1.961554554017617358e+00,-6.064093482168888549e-01,-4.415434655319338653e+00,4.058026418366015853e-01,-9.108716614958249913e-01,7.506685126465294233e-02,1.641012996697643871e+02
-1.898107868937898957e+00,-5.662470161044943495e-01,-4.365927935975718377e+00,4.128035407797724377e-01,-8.786061305969609103e-01,-2.400885336605740050e-01,1.657303144908346439e+02
-1.833651324991537157e+00,-5.187870145827420121e-01,-4.315933010522170932e+00,3.783536023996327824e-01,-7.581172033175407332e-01,-5.311354418458147375e-01,1.673593293119049008e+02
-1.767866590351001577e+00,-4.637173311892442973e-01,-4.265767959424218603e+00,-8.962736280307991299e-01,4.381243293419919138e-01,-6.883789462651992985e-02,1.689883441329751577e+02
-1.668186181913785315e+00,-3.708563493267267308e-01,-4.191831747511983508e+00,-3.999995304135573277e-06,1.561658166664089964e-01,9.877298404372834018e-01,1.713957818958127746e+02
-1.586654687603866076e+00,-2.878177666448862304e-01,-4.133567328574386579e+00,-9.741568796143648123e-01,-4.289895066157300985e-02,-2.217567449557902581e-01,1.733093333169784671e+02
-1.502594197224773387e+00,-1.955454551659360218e-01,-4.076059221776739072e+00,-9.381232094327371929e-01,-3.029739505011381229e-01,-1.677188994796103838e-01,1.752228847381441597e+02
-1.422265930880469265e+00,-1.017608943153644335e-01,-4.023616062226892609e+00,-8.346782254132320000e-01,-5.412779043288478142e-01,-1.016291803952965311e-01,1.769943616397087567e+02
-1.339319559665843373e+00,6.049356056268178142e-05,-3.971912073474977767e+00,-6.712552483924417723e-01,-7.406869001735216784e-01,-2.823663256007536218e-02,1.787658385412733537e+02
-1.253662603989047053e+00,1.095082123211130604e-01,-3.920815055374932800e+00,-4.595974337851031488e-01,-8.868719073914502760e-01,4.718494186909014121e-02,1.805373154428379507e+02
-1.165262969839037543e+00,2.261724605688751888e-01,-3.870139395929422577e+00,-0.000000000000000000e+00,-9.999989999994989072e-07,9.999989999994989276e-01,1.823087923444025478e+02
-1.074206006607857145e+00,3.496461023550669345e-01,-3.819592666347123799e+00,-7.127413081393705330e-01,-4.228955894936839432e-01,-5.596044567898798006e-01,1.840802692459671448e+02
-9.861293665628901861e-01,4.719340108000846246e-01,-3.771807288402356129e+00,-4.015486972673014687e-01,-7.363974448205481416e-01,-5.444955894978111832e-01,1.857479976157101191e+02
-8.958484500319384702e-01,5.999151096458108512e-01,-3.723512113127861234e+00,-4.768896702221384065e-01,-8.671829066530412078e-01,-1.434156506231860639e-01,1.874157259854530935e+02
-8.115092005692844390e-01,7.217136020223328119e-01,-3.678658584110976015e+00,-4.646514460208849839e-01,-8.387131164355235979e-01,2.840023627164877662e-01,1.889390883555622622e+02
-7.254616439693916119e-01,8.481303693667504584e-01,-3.632767174569258906e+00,-3.670813979517902892e-01,-6.562162124336804458e-01,6.592643853687231159e-01,1.904624507256714310e+02
-6.379061031178281382e-01,9.789044440128846780e-01,-3.585469152542662741e+00,-2.020979772415607278e-01,-3.532072148926421740e-01,9.134544711925641769e-01,1.919858130957805997e+02
-5.289999961343222479e-01,1.144131371893065907e+00,-3.525258170335251240e+00,-0.000000000000000000e+00,1.466699169441102249e-02,9.998914337838703537e-01,1.938525587422797400e+02
-4.187699261488209146e-01,1.313958830739057282e+00,-3.462199026834078985e+00,0.000000000000000000e+00,-4.977924468358315702e-01,-8.672950362317858319e-01,1.957193043887788804e+02
-2.566115700057704507e-01,1.567562083385527494e+00,-3.365047892283963726e+00,7.159609931182473463e-01,-6.978770862250416318e-01,1.911619342960860224e-02,1.984406693608128194e+02
-1.672083760717029965e-01,1.709968148761910722e+00,-3.308130450705939474e+00,4.737066590285227141e-01,3.605097405070491201e-02,8.799433666215495942e-01,1.999363587990146698e+02
1.044215539832302544e-02,1.998432541643250460e+00,-3.186398354505455277e+00,-8.536475879973483005e-01,2.904298598275517271e-02,5.200387490096071152e-01,2.029129500469389313e+02
1.643722404880215704e-01,2.252582630624513804e+00,-3.071382930908913345e+00,-7.687454767886837681e-01,2.865680329350629718e-02,6.389109324011742475e-01,2.055053673847398272e+02
2.649866644560775475e-01,2.421813086029807494e+00,-2.988194621449219213e+00,-6.674390030638233107e-01,2.765910880704941510e-02,7.441492799762083887e-01,2.072214651416229287e+02
3.638183265726950832e-01,2.591055381180304984e+00,-2.897043601319047035e+00,-5.518899625389995789e-01,2.607119267598282872e-02,8.335081056361601792e-01,2.089375628985060303e+02
4.606212057208826649e-01,2.759143630203548803e+00,-2.797629894397333228e+00,-4.245640699929798534e-01,2.392693973377368541e-02,9.050805776426914528e-01,2.106536606553891318e+02
5.579104214063944633e-01,2.930164613819014718e+00,-2.687378004062180636e+00,-2.881783441135405965e-01,2.127210641717297221e-02,9.573394066226340593e-01,2.124193393247330448e+02
6.526772093850251588e-01,3.099820037853060040e+00,-2.569722862439109523e+00,-1.456431305534867382e-01,1.816334438947178956e-02,9.891694351541102659e-01,2.141850179940769578e+02
7.329316228646746145e-01,3.247641905018469721e+00,-2.460850457125797863e+00,-0.000000000000000000e+00,1.466699169441148046e-02,9.998914337839015509e-01,2.157256422970113476e+02
8.105173931935719667e-01,3.395940678357414200e+00,-2.345977704612620229e+00,-0.000000000000000000e+00,1.718363660529295955e-01,9.851244912709663515e-01,2.172662665999457374e+02
8.852383299258271832e-01,3.545233586920998992e+00,-2.225300781724603105e+00,-0.000000000000000000e+00,3.247235145962089620e-01,9.458079292692156415e-01,2.188068909028801272e+02
9.569041748051847485e-01,3.695961824402551166e+00,-2.099024258006382926e+00,-0.000000000000000000e+00,4.695184341033439290e-01,8.829215367389708913e-01,2.203475152058145170e+02
1.073075427282657923e+00,3.954078219679669104e+00,-1.876104349209060995e+00,-0.000000000000000000e+00,6.026127871443219819e-01,7.980324735063577535e-01,2.229568572653024887e+02
1.141919471159151156e+00,4.116772276263340302e+00,-1.732016864092774000e+00,-0.000000000000000000e+00,7.206898240539134637e-01,6.932562134635666951e-01,2.245814899898486487e+02
1.206851636019304674e+00,4.281597970879828630e+00,-1.582964433001048832e+00,-0.000000000000000000e+00,8.208070370882789568e-01,5.712038234004080950e-01,2.262061227143948088e+02
1.267653771172405630e+00,4.448483325727120352e+00,-1.429257040766219511e+00,-0.000000000000000000e+00,9.004694870483797020e-01,4.349168919412949585e-01,2.278307554389409688e+02
1.340883450273738564e+00,4.667186725822525695e+00,-1.224496631148081827e+00,-0.000000000000000000e+00,9.576919753889415743e-01,2.877917307304113104e-01,2.299361849680944658e+02
1.408266128289659580e+00,4.888006809675992770e+00,-1.014723933614933404e+00,-0.000000000000000000e+00,9.910485130202918436e-01,1.334947371304654740e-01,2.320416144972479628e+02
1.462798810274800410e+00,5.086961839196760593e+00,-8.233502329447672796e-01,-0.000000000000000000e+00,9.997078536730038545e-01,-2.412897233222458665e-02,2.339228117885992333e+02
1.511190161310753455e+00,5.287332210401438637e+00,-6.285931151674272188e-01,-0.000000000000000000e+00,9.997078529671034053e-01,-2.412897231518696187e-02,2.358040090799505037e+02
1.553015768349736536e+00,5.488868264601664215e+00,-4.310222848405820817e-01,-6.277820351702255719e-01,7.192475395895281398e-01,2.976082880449597012e-01,2.376852063713017742e+02
1.584273642356168077e+00,5.671008365718098965e+00,-2.513105000480133078e-01,-8.937831490312991845e-01,2.429597686786118954e-02,4.478385736140141349e-01,2.393772263515389511e+02
1.608650423317760980e+00,5.853916589784149416e+00,-7.012936118639863381e-02,-9.949581533000058098e-01,2.829221256534347056e-02,9.620719251117093584e-02,2.410692463317761280e+02
1.625639666534465677e+00,6.037548727428036166e+00,1.119468166295910921e-01,-9.629109920920509991e-01,2.850019874629762875e-02,-2.683060938191170197e-01,2.427612663120133050e+02
1.635956036395787461e+00,6.245786989934975608e+00,3.178788937862866426e-01,-8.019326437099353333e-01,2.489208529535374970e-02,-5.968939763832497025e-01,2.446723705017103612e+02
1.636838373697719895e+00,6.454904579140114507e+00,5.232844066404784833e-01,-5.335776174016564344e-01,1.795098712836199276e-02,-8.455593936971625979e-01,2.465834746914074174e+02
1.629152133722304940e+00,6.629982146316142355e+00,6.933759591675785483e-01,-8.875683493725092799e-01,2.518998153461140393e-02,-4.599846628105687674e-01,2.481763902549058116e+02
1.612790930093607189e+00,6.805851704380115663e+00,8.617545841857129352e-01,-8.182863982831043437e-01,2.733204251105541410e-02,-5.741588019333145887e-01,2.497693058184042059e+02
1.588081113344664175e+00,6.982460851523412337e+00,1.027947426052292945e+00,-7.344059341719696432e-01,2.898649036480508215e-02,-6.780897486541119790e-01,2.513622213819026001e+02
1.553107507029742651e+00,7.174132044139988729e+00,1.204930852032095823e+00,-6.374234149580911835e-01,3.012380916477269341e-02,-7.699233378623214774e-01,2.530850393346039482e+02
1.510914621987227813e+00,7.366265852628746558e+00,1.378824099735436182e+00,-5.290690441685905743e-01,3.072370876857779404e-02,-8.480212262806617884e-01,2.548078572873052963e+02
1.467514795996412547e+00,7.538842164738508878e+00,1.531852418692674078e+00,-4.112759031472598692e-01,3.077548680364553327e-02,-9.109901211884589012e-01,2.563537788340681800e+02
1.419463899050725786e+00,7.711264655478363039e+00,1.681700634963700258e+00,-2.861454638353470581e-01,3.027821959471725319e-02,-9.577066372043326892e-01,2.578997003808310637e+02
1.367660091067083084e+00,7.883174941591783558e+00,1.828231451041006261e+00,-1.559100974509932680e-01,2.924077863261135765e-02,-9.873373376807089707e-01,2.594456219275939475e+02
1.312998768920832005e+00,8.054208101508418594e+00,1.971307591868007636e+00,-2.289324798002133343e-02,2.768167229200014026e-02,-9.993536031939541653e-01,2.609915434743568312e+02
1.236037475332102398e+00,8.285570602685744745e+00,2.161425408935135462e+00,1.105320189643744372e-01,2.562871562388422536e-02,-9.935410619193685289e-01,2.630983951370834575e+02
1.177682350240410569e+00,8.456555372100654111e+00,2.299696425185816295e+00,2.419853523934297201e-01,2.311853411565426009e-02,-9.700034137095305820e-01,2.646719166653975890e+02
1.119173086832261355e+00,8.625182056005955999e+00,2.434215278507015245e+00,3.691215820204369336e-01,2.019591027340816858e-02,-9.291605797146985646e-01,2.662454381937117205e+02
1.016770759344401531e+00,8.919868634909891014e+00,2.666745698825600641e+00,4.896725565858324192e-01,1.691298468475121997e-02,-8.717412106104414082e-01,2.690423153242666103e+02
9.410763463165033871e-01,9.140516020467227776e+00,2.839768825636669991e+00,4.850247333855841059e-01,1.683573272493731759e-02,-8.743372152872179726e-01,2.711813290364380578e+02
8.690427472887716220e-01,9.355495345991824863e+00,3.008244398337765801e+00,4.803631632366631155e-01,1.675800355253148979e-02,-8.769084334472778686e-01,2.733203427486095052e+02
8.080441072009996173e-01,9.544368066416407004e+00,3.156967839377674334e+00,4.756879775362873874e-01,1.667979935849671358e-02,-8.794547926129034909e-01,2.752575089428830779e+02
7.591529205061220420e-01,9.703410669478346406e+00,3.283488893350206439e+00,4.709993080764173223e-01,1.660112234756874056e-02,-8.819762210272080738e-01,2.769460215713796742e+02
7.507734610436659350e-01,9.732213138140288322e+00,3.306751651793592650e+00,4.662972870224132982e-01,1.652197473758049845e-02,-8.844726476241844271e-01,2.772638023249403432e+02
7.014170105519891285e-01,9.913829155178650154e+00,3.456125908624291476e+00,5.425788513437966865e-01,-9.759050112558487200e-02,-8.343154584244053540e-01,2.793519319047393878e+02
6.848826004115620147e-01,9.980034060892922554e+00,3.511728495711954778e+00,6.072729337032060082e-01,-2.096188141405131433e-01,-7.663403530749788306e-01,2.801474229694475184e+02
6.759449890486385337e-01,1.001929130350461961e+01,3.545497018391673194e+00,6.589979080968586533e-01,-3.171704631826980925e-01,-6.819990134959230677e-01,2.806420738369828314e+02
6.497488874555824578e-01,1.014842883362200787e+01,3.659341815846406387e+00,6.966491127443015241e-01,-4.179485455763965462e-01,-5.830926401214086008e-01,2.823526598806212746e+02
6.282525125151458001e-01,1.027095033477175612e+01,3.769923685015303061e+00,7.194224422990269652e-01,-5.098008083718150729e-01,-4.717334896953110923e-01,2.840632459242597179e+02
6.089501815656643835e-01,1.040220259017562832e+01,3.890899922775603148e+00,7.268315228414715667e-01,-5.907656121675500804e-01,-3.502997700312692197e-01,2.860001234538141830e+02
5.943483063309554781e-01,1.052608736733579420e+01,4.006947791632598843e+00,4.119536804284944509e-01,-7.066875907424828851e-01,-5.752258810874115724e-01,2.879370009833686481e+02
5.916282622522811563e-01,1.055650054855615494e+01,4.035760948152160132e+00,2.985428440869993677e-02,-7.072937074396852264e-01,-7.062877127063779126e-01,2.884420932743479966e+02
5.878295026204540807e-01,1.061989022469330379e+01,4.096233585526644738e+00,-3.571165318403980438e-01,-5.924852232853380363e-01,-7.220990533689277679e-01,2.895637433614400038e+02
5.850564258388021299e-01,1.072754883611008836e+01,4.198661446952032250e+00,3.588155418935747853e-01,-5.920762440853308828e-01,-7.215920787300742489e-01,2.915982218871575924e+02
5.859738416719565413e-01,1.080314121387431570e+01,4.269119137312308077e+00,0.000000000000000000e+00,-8.566789209259183246e-02,-9.963227450303434596e-01,2.931261772873576206e+02
5.897404948346317566e-01,1.087372188230922809e+01,4.332050380618575502e+00,-0.000000000000000000e+00,2.277075525680366808e-01,-9.737285404592570526e-01,2.946541326875576488e+02
5.962746091709160146e-01,1.093953232827427335e+01,4.386453154318347814e+00,-0.000000000000000000e+00,5.186049163115815652e-01,-8.550128307684597972e-01,2.961820880877576769e+02
6.054962354945470082e-01,1.100081455896375360e+01,4.431325491052137799e+00,-0.000000000000000000e+00,7.583082989813855201e-01,-6.518945648622533895e-01,2.977100434879577051e+02
6.204899563544555852e-01,1.107291410106536311e+01,4.474669352635575414e+00,-0.000000000000000000e+00,9.231553521154356456e-01,-3.844244995592986380e-01,2.996424975149617467e+02
6.387254985351231706e-01,1.113998929086846346e+01,4.503113635065560949e+00,-0.000000000000000000e+00,9.968731427319725835e-01,-7.900593205829646581e-02,3.015749515419657882e+02
6.600548948278286421e-01,1.120248991022290674e+01,4.515145624279121250e+00,9.968779763718003117e-01,0.000000000000000000e+00,-7.894491893667313076e-02,3.035074055689698298e+02
6.818098496625384364e-01,1.125493979049986137e+01,4.509984244882478954e+00,0.000000000000000000e+00,9.968731427319725835e-01,-7.900593205829646581e-02,3.052431107428334940e+02
7.059234534419684959e-01,1.130411277730366848e+01,4.487833996764862832e+00,-0.000000000000000000e+00,0.000000000000000000e+00,-9.999989999999968626e-01,3.069788159166971582e+02
7.125662163867928500e-01,1.131584643041600380e+01,4.477729556965648783e+00,-9.796745246597445833e-01,-0.000000000000000000e+00,2.005886979235721734e-01,3.074191170015756143e+02
7.394676970981609587e-01,1.135757405980241153e+01,4.422230291674210001e+00,9.968779763646680170e-01,-0.000000000000000000e+00,-7.894491893610830480e-02,3.090826228308427517e+02
7.679838851746318973e-01,1.139685195387708561e+01,4.349096383086448192e+00,-9.968817776680953813e-01,-0.000000000000000000e+00,-7.889690326014157928e-02,3.107461286601098891e+02
7.997667549731107828e-01,1.143634225812981065e+01,4.252110212789085963e+00,-0.000000000000000000e+00,-9.968312352734685078e-01,-7.953293898571150988e-02,3.125187012298287641e+02
8.326344486962348190e-01,1.147373073552661893e+01,4.135945733752786957e+00,-0.000000000000000000e+00,-0.000000000000000000e+00,-9.999989999999967516e-01,3.142912737995476391e+02
8.689311350310255921e-01,1.151214233445901947e+01,3.989893947968916610e+00,9.968779763717972031e-01,-0.000000000000000000e+00,-7.894491893667289484e-02,3.162045701443610142e+02
9.056532268039104716e-01,1.154900487433041079e+01,3.823389213650427720e+00,6.008035540476738268e-01,8.946493359377623300e-02,-7.943734103685508030e-01,3.181178664891743892e+02
9.075003661937165456e-01,1.155080104826083520e+01,3.814036590380243563e+00,0.000000000000000000e+00,2.192496970815314972e-02,-9.997586187194160701e-01,3.182140563109689992e+02
9.411825594424322317e-01,1.158292980196043587e+01,3.624754720122242535e+00,2.505578524135126939e-01,2.235072953832074882e-02,-9.678425530449935588e-01,3.199792790965235554e+02
9.743609054627633270e-01,1.161445088706652840e+01,3.418035636167365610e+00,4.851305900158052742e-01,2.135055331063716311e-02,-8.741798810918646190e-01,3.217445018820781115e+02
1.009224758262247779e+00,1.164838027532160147e+01,3.176391317726243280e+00,6.887528828468519881e-01,1.898825018630005343e-02,-7.247461022499676053e-01,3.236579681635880661e+02
1.042326126964298050e+00,1.168251150689681417e+01,2.918775648610396622e+00,8.484339820089320527e-01,1.541453084474362668e-02,-5.290748249660268687e-01,3.255714344450980207e+02
1.072930593640466279e+00,1.171729200779185831e+01,2.646966247310839737e+00,9.539865157628326653e-01,1.085739238913220259e-02,-2.996495365836501223e-01,3.274849007266079752e+02
1.097011588511275670e+00,1.174884760226771085e+01,2.396849872165465634e+00,9.986764302199760968e-01,5.607572365098687298e-03,-5.110717030860215115e-02,3.291690459113141287e+02
1.117609426663385808e+00,1.178168985949499259e+01,2.137407277271758499e+00,9.796526068684232591e-01,0.000000000000000000e+00,2.006957145972609602e-01,3.308531910960202822e+02
1.134128794147960084e+00,1.181614912595925659e+01,1.870142311386159495e+00,-9.796745246582524436e-01,-0.000000000000000000e+00,2.005886979232666678e-01,3.325373362807264357e+02
1.145976854149144630e+00,1.185256048685376840e+01,1.596558884780997056e+00,9.796526068669312304e-01,-0.000000000000000000e+00,2.006957145969553158e-01,3.342214814654325892e+02
1.152973146870159615e+00,1.189365880565389411e+01,1.300959987008831975e+00,-9.796745246582524436e-01,-0.000000000000000000e+00,2.005886979232666678e-01,3.360098362883581444e+02
1.153756975687203701e+00,1.193756056806128285e+01,1.001948034289312117e+00,-9.994247164191537580e-01,-0.000000000000000000e+00,3.388563428176515763e-02,3.377981911112836997e+02
1.147695301276378643e+00,1.198464326396345037e+01,7.012229580272724139e-01,-9.910110841342323340e-01,-0.000000000000000000e+00,-1.337723107491554375e-01,3.395865459342092549e+02
1.130673856747698824e+00,1.204830443493266934e+01,3.235597256376201991e-01,-9.546707119062373126e-01,-0.000000000000000000e+00,-2.976605983800955091e-01,3.418331500898481181e+02
1.103360432875015951e+00,1.211709679642021698e+01,-5.148693385858103128e-02,1.007890784795488179e-05,-0.000000000000000000e+00,-9.999989999463630985e-01,3.440797542454869813e+02
1.070461925230773437e+00,1.218150714265203050e+01,-3.713942153424354964e-01,9.546769266717656244e-01,-0.000000000000000000e+00,-2.976406653672871716e-01,3.460221404963771192e+02
1.028825429190968199e+00,1.225116018961202258e+01,-6.851724324228702923e-01,-5.741094903288209705e-01,1.828998376289236397e-03,-8.187752731244372084e-01,3.479645267472672572e+02
9.812492418561101770e-01,1.232361922117797448e+01,-9.805300914845490601e-01,-5.759863544736036900e-01,0.000000000000000000e+00,-8.174580838484853951e-01,3.498381785749494952e+02
9.349184898463160920e-01,1.239047545104049064e+01,-1.226574457168219334e+00,-0.000000000000000000e+00,-9.950635238632309365e-01,9.922995251858010568e-02,3.514450610823338934e+02
8.838143539269103233e-01,1.246226487713434850e+01,-1.464542988731333262e+00,5.764363129605547531e-01,-1.163998612660335514e-03,-8.171400260720611541e-01,3.530519435897182916e+02
8.295941301558761305e-01,1.253794114344893273e+01,-1.689832468121745368e+00,5.752485911879960945e-01,-0.000000000000000000e+00,-8.179774186878632225e-01,3.546314714484562955e+02
7.720539612667415286e-01,1.261902011342829333e+01,-1.905861874914082099e+00,4.301035175188459014e-01,3.026596604827063233e-02,9.022709878512270576e-01,3.562109993071942995e+02
7.118124271302186390e-01,1.270582749112840482e+01,-2.112029883841968214e+00,0.000000000000000000e+00,-5.697617808902183389e-01,-8.218086839620919459e-01,3.577905271659323034e+02
6.492314207974948514e-01,1.279905450180341298e+01,-2.308488541323619359e+00,-0.000000000000000000e+00,-9.415618203735979241e-01,3.368372580443069197e-01,3.593760263130449175e+02
5.851024500563559716e-01,1.289870084231481151e+01,-2.493895404295666030e+00,-0.000000000000000000e+00,8.080491350120935778e-02,9.967289330370694422e-01,3.609615254601575316e+02
5.200871756197933404e-01,1.300478330513218950e+01,-2.667274660816225662e+00,-0.000000000000000000e+00,9.993857527531130325e-01,3.501595629961466727e-02,3.625427489596182227e+02
4.544325289683183167e-01,1.311782982332928249e+01,-2.828684375778090843e+00,-7.063299633411468381e-01,7.062706002211357470e-01,4.772653508133903322e-02,3.641239724590789137e+02
3.401440654553201104e-01,1.332697075971550227e+01,-3.087904538699180357e+00,-9.994701503669276565e-01,0.000000000000000000e+00,3.251797235700860933e-02,3.668740225112421740e+02
3.214278942503037695e-01,1.336333682173138016e+01,-3.126843729656768378e+00,-5.024135394087879680e-01,7.294793312445962963e-01,4.641535744838849453e-01,3.673254196823474444e+02
2.532194371190181759e-01,1.350377791984196030e+01,-3.256003381136721053e+00,7.294162694264941793e-01,5.001404990660159866e-01,4.667005325590358189e-01,3.689782095755043656e+02
1.859606377965654367e-01,1.365142894184822886e+01,-3.371514051530713818e+00,8.506807646949677837e-01,5.164672500187856841e-01,9.798885770675200280e-02,3.706309994686612868e+02
1.202098286296455765e-01,1.380603305725730046e+01,-3.473152955587164747e+00,5.179124917781990911e-01,7.186022948435146773e-01,4.640855445979871208e-01,3.722837893618182079e+02
1.663234716049120585e-02,1.406956538358857856e+01,-3.616301465087378375e+00,0.000000000000000000e+00,1.173078338872851206e-01,9.930945937372328558e-01,3.749852023376957391e+02
7.941255285817935329e-05,1.411530674318387035e+01,-3.636370486020044535e+00,9.997494087567807552e-01,0.000000000000000000e+00,-2.234098678773217134e-02,3.754370040723335933e+02
-9.255559297206990277e-02,1.439541680548719960e+01,-3.732414734346739316e+00,1.270998420255764830e-03,1.158168560493799404e-01,9.932687654503882246e-01,3.781144303587176410e+02
-1.672512211461250620e-01,1.464713457709155797e+01,-3.796744331238934844e+00,9.994709311547939068e-01,0.000000000000000000e+00,3.249396525059618929e-02,3.804547655798012897e+02
-2.451818773943663654e-01,1.494475804256667395e+01,-3.849455724234623233e+00,-9.359985444648430625e-04,-1.157798199552772661e-01,9.932734553988430415e-01,3.831657672742510385e+02
-2.880235519912012765e-01,1.513342806559458253e+01,-3.869546529531206147e+00,-5.517134353491486287e-01,-8.267481538649975592e-01,1.099898874309023500e-01,3.848621306390451764e+02
-3.227934891947896179e-01,1.531316569638615377e+01,-3.877066408073794435e+00,5.227064052949248474e-01,-8.494460335494989911e-01,-7.223191781870724748e-02,3.864687383325978089e+02
-3.515163893339446344e-01,1.549276262748886701e+01,-3.873738405870564172e+00,0.000000000000000000e+00,-9.993865585864855072e-01,3.499294952972908240e-02,3.880753460261504415e+02
-3.731110871485054936e-01,1.566378015951677405e+01,-3.860765092048592528e+00,1.182598423660817938e-01,0.000000000000000000e+00,9.929816764095973358e-01,3.896170804303950490e+02
-3.886433336608021705e-01,1.583223738366159772e+01,-3.838621538555310408e+00,1.819037640395928246e-01,2.479661203056383878e-02,9.830026188471716608e-01,3.911588148346396565e+02
-3.980478366277439561e-01,1.599686259498391294e+01,-3.807890096455357476e+00,2.446809051478295860e-01,4.947506515705013541e-02,9.683395440568346446e-01,3.927005492388842640e+02
-4.020044534603764985e-01,1.619738526419486746e+01,-3.759158474528168092e+00,3.062921349820860728e-01,7.391776742155642399e-02,9.490623223519240037e-01,3.946400530238337865e+02
-3.979319120657264786e-01,1.638933224209457862e+01,-3.701153640082880614e+00,3.664438783832955626e-01,9.800825025006745794e-02,9.252628096269873703e-01,3.965795568087833090e+02
-3.857843571148240613e-01,1.657059179126740034e+01,-3.634719762150701250e+00,4.248495144498470322e-01,1.216317233560021277e-01,8.970544096907550058e-01,3.985190605937328314e+02
-3.671677169653711492e-01,1.672575316444635263e+01,-3.566547665314329318e+00,4.812307421186329259e-01,1.446756216487943558e-01,8.645715339639881147e-01,4.003049848893569447e+02
-3.411055136816739664e-01,1.686734729411741895e+01,-3.492084024222334993e+00,5.353189061197692888e-01,1.670301415445024640e-01,8.279689611130238713e-01,4.020909091849810579e+02
-3.074994187818715363e-01,1.699359637352033303e+01,-3.411970279528654615e+00,5.868562769935712353e-01,1.885887641257198433e-01,7.874210996657539097e-01,4.038768334806051712e+02
-2.720843718040995562e-01,1.708739856844654170e+01,-3.338813786642710557e+00,6.355972790761958979e-01,2.092487626603842521e-01,7.431211571176448150e-01,4.054108889543014698e+02
-2.300686641483753736e-01,1.716520510676609845e+01,-3.261790822476091201e+00,7.342455860396148726e-01,2.131448798310290049e-01,6.445546366064833776e-01,4.069449444279977683e+02
-1.813554341118832902e-01,1.722574348970480784e+01,-3.181342054654479945e+00,4.043452661999404896e-01,1.284836454643818737e-01,9.055356749187665200e-01,4.084789999016940669e+02
-1.257999267525587717e-01,1.726781626107292666e+01,-3.097879553824953280e+00,0.000000000000000000e+00,2.016697227948333407e-02,9.997956257306789274e-01,4.100130553753903655e+02
-6.323733919317327257e-02,1.729026264271661617e+01,-3.011801100647483853e+00,-0.000000000000000000e+00,2.016697226524963651e-02,9.997956250250304988e-01,4.115471108490866641e+02
3.808386629699396508e-02,1.729240224943299253e+01,-2.883610647435816965e+00,-0.000000000000000000e+00,1.519999199079750431e-02,9.998834731399059983e-01,4.137753540583346989e+02
1.501737608329047069e-01,1.726186389057057013e+01,-2.752908226945975478e+00,-0.000000000000000000e+00,-2.786296520808142704e-02,9.996107518063629405e-01,4.160035972675827338e+02
2.490834941467999775e-01,1.720965908506676811e+01,-2.646244043716569738e+00,8.370268619317369208e-01,-1.940497361591888847e-01,5.115943044079372948e-01,4.177925781126367610e+02
3.648119822090754027e-01,1.712299750792884723e+01,-2.530004545143353045e+00,6.991536932645218139e-01,-5.387427636406402209e-01,-4.700407937818407156e-01,4.197100005893018988e+02
4.902521457293754215e-01,1.700487112174094406e+01,-2.411534084280016366e+00,4.595995113947056177e-01,-5.348094314382125791e-01,-7.090452462062019068e-01,4.216274230659670366e+02
6.253188446537333300e-01,1.685471726917698376e+01,-2.290438472490511135e+00,0.000000000000000000e+00,1.705397561329503528e-02,9.998535702375460632e-01,4.235448455426321743e+02
7.532099480750478193e-01,1.669336832602976983e+01,-2.180831828071088552e+00,-8.217572942076923903e-01,1.566598654477073527e-02,5.696205107633635079e-01,4.252399311707904985e+02
8.897082326265274288e-01,1.650320956704326036e+01,-2.068688684301790204e+00,-4.199765354729848021e-01,-5.494543922603116748e-01,-7.223002010792790584e-01,4.269350167989488227e+02
1.048425520531092614e+00,1.626370953663874630e+01,-1.943534978873155961e+00,-9.603951479999112140e-01,-2.717453951402715728e-01,-6.159220664479968244e-02,4.287874910091637730e+02
1.205595802413772732e+00,1.601067000291847364e+01,-1.824512256747164329e+00,-7.270129289260709449e-01,2.249116686482247607e-01,6.487410442403546140e-01,4.305164043920318591e+02
1.371941003751539601e+00,1.572840800167842268e+01,-1.703519890304785456e+00,-8.223828591386680431e-01,8.142300751788905666e-02,5.630761288170031964e-01,4.322453177748999451e+02
1.522822990123803066e+00,1.546122788438523443e+01,-1.598136736950772407e+00,-8.873057348364005170e-01,-6.508018255571708377e-02,4.565644563112066789e-01,4.337302406261237024e+02
1.592201707426911250e+00,1.533426796650117474e+01,-1.551680640519334409e+00,-9.193779145549010323e-01,-2.091739291525047950e-01,3.331493923050377615e-01,4.343771228829025404e+02
1.769497564643293774e+00,1.500055668763553740e+01,-1.437740730935466615e+00,-9.174119762292164415e-01,-3.455234578417281655e-01,1.974001163974219430e-01,4.359482980328901931e+02
1.955149392683542153e+00,1.464180011169470497e+01,-1.323012592792883968e+00,-8.814806834458620566e-01,-4.690806981660293196e-01,5.434246333274142526e-02,4.375194731828778458e+02
2.132086408406266287e+00,1.429220370674419271e+01,-1.217966770185560765e+00,-8.129142984643529246e-01,-5.752711783368805731e-01,-9.072714438399218095e-02,4.389529461146747735e+02
2.357155372581076769e+00,1.383845415782901789e+01,-1.089583502547228688e+00,-7.142513392296423458e-01,-6.601633892676501691e-01,-2.324377849664538698e-01,4.407046881510376579e+02
2.590434519550067538e+00,1.335897810399475283e+01,-9.616705903486399976e-01,-7.774167354450126632e-01,-6.282042776952116991e-01,-3.131461218563036386e-02,4.424564301874005423e+02
2.831384555545065851e+00,1.285473772345157606e+01,-8.347365300275048083e-01,-8.052393099234117502e-01,-5.676858252566311380e-01,1.712321744231491971e-01,4.442081722237634267e+02
3.079419935672187414e+00,1.232675534944834617e+01,-7.092308493401585645e-01,-7.964542000916718933e-01,-4.813593164953761661e-01,3.659944201492443261e-01,4.459599142601263111e+02
3.441173049524210992e+00,1.154214899558002116e+01,-5.329577750176224260e-01,-7.514607962894789273e-01,-3.731493168486088030e-01,5.441178723184498800e-01,4.484558067237550745e+02
3.667632579511168167e+00,1.104220824272068668e+01,-4.265881994666038679e-01,-6.723045836264130992e-01,-2.479752542705951357e-01,6.975047097370085103e-01,4.499873625635356689e+02
3.898394940506122897e+00,1.052527323663569270e+01,-3.221122701406918809e-01,-5.625841501096975339e-01,-1.115277733180997932e-01,8.191816830380188597e-01,4.515189184033162633e+02
4.132801873347973221e+00,9.992490232435265796e+00,-2.195451412044485406e-01,-4.272875887421042629e-01,2.998997113510256871e-02,9.036171302820644735e-01,4.530504742430968577e+02
4.370203540346627058e+00,9.445010005271212705e+00,-1.189019544029890629e-01,-6.622491380479902379e-01,2.485410075984064576e-02,7.488700506970885629e-01,4.545820300828774521e+02
4.609958537102508025e+00,8.883987804631065188e+00,-2.019783896411250085e-02,-8.447736924589402951e-01,1.775028097822136525e-02,5.348273890289575450e-01,4.561135859226580465e+02
4.851433904229722316e+00,8.310583308584787332e+00,7.655208849923743342e-02,-9.604089825077182230e-01,9.240992439394801750e-03,2.784370492197749680e-01,4.576451417624386409e+02
5.094005138983312087e+00,7.725960577983027378e+00,1.713327240863877499e-01,-9.999989999998939449e-01,0.000000000000000000e+00,0.000000000000000000e+00,4.591766976022192353e+02
5.337056206789970503e+00,7.131288010606525951e+00,2.641289767062310889e-01,-9.988576192238217688e-01,4.776459456315295532e-02,-4.811837921797463787e-06,4.607082534419998296e+02
5.579979552682865496e+00,6.527738295266372504e+00,3.549257681749063975e-01,-9.954360832807884751e-01,9.542014466970422104e-02,-9.612690630462968292e-06,4.622398092817804240e+02
5.822176112641098911e+00,5.916488365855882670e+00,4.437080333138740396e-01,-9.897422037339497214e-01,1.428578662148480560e-01,-1.439159914088253151e-05,4.637713651215610184e+02
6.063055324833605653e+00,5.298719355353977534e+00,5.304607200476300077e-01,-9.817889789409803836e-01,1.899694724490443298e-01,-1.913765457185176216e-05,4.653029209613416128e+02
6.302035140766667709e+00,4.675616549780154507e+00,6.151687895009919638e-01,-9.715945643710401924e-01,2.366474211038930575e-01,-2.384002304170546458e-05,4.668344768011222072e+02
6.538542036332692042e+00,4.048369342104470192e+00,6.978172160960404158e-01,-9.591822311604824014e-01,2.827851598179056403e-01,-2.848797039267767802e-05,4.683660326409028016e+02
6.785259066658579918e+00,3.382201524318328101e+00,7.829885910807934390e-01,-9.445803130006057424e-01,3.282773693033580464e-01,-3.307088668769677704e-05,4.699849865328579313e+02
7.028010464451156736e+00,2.714201958074486942e+00,8.659499420036621542e-01,-9.278221414784726395e-01,3.730202037005488913e-01,-3.757831042383776309e-05,4.716039404248130609e+02
7.266184800536264810e+00,2.045713995525601625e+00,9.466845086016478783e-01,-9.089459700179759460e-01,4.169115275721624880e-01,-4.199995240729656492e-05,4.732228943167681905e+02
7.499175049985058905e+00,1.378087899029563079e+00,1.025206707913518311e+00,-9.387032294025746681e-01,2.987077819359678643e-01,-1.720694863131673746e-01,4.748418482087233201e+02
7.726372911176704328e+00,7.126831250339277224e-01,1.101593295299241326e+00,-9.267340335826361741e-01,1.672261144274354017e-01,-3.364482986327326786e-01,4.764608021006784497e+02
7.947174571119731468e+00,5.086606952437012358e-02,1.175952202755746301e+00,-8.735703862515963314e-01,2.831098010942321302e-02,-4.858716586388920899e-01,4.780797559926335794e+02
8.160986447689246859e+00,-6.059922448681368534e-01,1.248391377006025760e+00,-9.711528256965735739e-01,4.007907049344678480e-02,-2.350613903867550258e-01,4.796987098845887090e+02
8.367225202907828674e+00,-1.256516227279804720e+00,1.319018778713484386e+00,-9.982618590084181287e-01,4.893874944602080723e-02,3.280639652188096361e-02,4.813176637765438386e+02
8.565317756097467594e+00,-1.899325777084359457e+00,1.387942381696410044e+00,-9.529303613079398438e-01,5.424710417492820819e-02,2.982934430848891427e-01,4.829366176684989682e+02
8.754701296902037910e+00,-2.533036342421825626e+00,1.455270172142551610e+00,-8.384479280488562614e-01,5.561892889150006625e-02,5.421343068842192636e-01,4.845555715604540978e+02
8.934823298179914275e+00,-3.156258978785482672e+00,1.521110147823960590e+00,-8.266693399976119405e-01,-1.757867614963334879e-01,5.345229806023777952e-01,4.861745254524092275e+02
9.105141528766399261e+00,-3.767600407665472773e+00,1.585570317312068322e+00,-7.704610979378364588e-01,-3.977447433752449579e-01,4.981835160693223741e-01,4.877934793443643571e+02
9.261232435599525914e+00,-4.351005117612642970e+00,1.647209357323194512e+00,-6.728441209073093843e-01,-5.983258055080462601e-01,4.350689823750942820e-01,4.893727520113143896e+02
9.406815365827883468e+00,-4.920187921367996431e+00,1.707701913952267336e+00,-5.390648557890869164e-01,-7.667496340682419254e-01,3.485714846490782781e-01,4.909520246782644222e+02
9.469330134966366330e+00,-5.176241744117963783e+00,1.735167443035121160e+00,-3.763133125254887190e-01,-8.939642072669187201e-01,2.433398589273343682e-01,4.916820883707489998e+02
9.624958703065109589e+00,-5.849827039931644990e+00,1.808253707153246070e+00,-1.933366387098519878e-01,-9.731323074783257976e-01,1.250298215438238325e-01,4.936592775981091563e+02
9.765372640360878265e+00,-6.502949420934255542e+00,1.880099789254035869e+00,3.099996898510448164e-05,-9.999989995194993320e-01,0.000000000000000000e+00,4.956364668254693129e+02
9.872814822848383187e+00,-7.047383216049626142e+00,1.940989890309104071e+00,2.955221501515262230e-05,-9.474735656008080875e-01,-3.198309578739903514e-01,4.973401002483557249e+02
9.966302382456710518e+00,-7.573001607581393735e+00,2.000872117897986691e+00,2.499997267777621953e-05,-7.954151306986418923e-01,-6.060633376393507188e-01,4.990437336712421370e+02
1.005208102806958514e+01,-8.123863170437505943e+00,2.064823007940443933e+00,1.249998704530147521e-05,-7.954196756453777439e-01,-6.060573718961056455e-01,5.008965341539060887e+02
1.012121839803073442e+01,-8.653686015055857439e+00,2.127475211274168387e+00,0.000000000000000000e+00,-7.954242209842218303e-01,-6.060514064505511111e-01,5.027493346365700404e+02
1.017306305183398685e+01,-9.162218303453697033e+00,2.188661597366096778e+00,-0.000000000000000000e+00,-6.060633378291391260e-01,7.954151309477258680e-01,5.046021351192339921e+02
1.020693584255847597e+01,-9.649280110275547884e+00,2.248080368726414147e+00,-5.163343074813554479e-01,-6.993530620126775510e-01,-4.942693370753668547e-01,5.064549356018979438e+02
1.022410136140588577e+01,-1.018393677549054033e+01,2.313764773631050709e+00,-2.327097549698321222e-01,-7.626911969294452032e-01,-6.034453646062709620e-01,5.085831919509165573e+02
1.021828835890094389e+01,-1.069360522635606436e+01,2.376239508885089169e+00,-1.292527902267818218e-01,-4.363430009906341112e-01,-8.904473604354473659e-01,5.107114482999352276e+02
1.019859733726646311e+01,-1.101710145646115535e+01,2.415396093250400611e+00,-0.000000000000000000e+00,-2.291096583325113664e-02,-9.997365091092849099e-01,5.121325121927999362e+02
1.012498172694441756e+01,-1.163150523708056561e+01,2.487817793733327676e+00,-9.089321683887855441e-01,-2.999997255206221571e-06,4.169416185267308395e-01,5.149820309329513748e+02
1.005267268188576324e+01,-1.200919557595695508e+01,2.530342155276370519e+00,-9.464888851558570515e-01,1.466494060920896514e-01,2.874904206562067244e-01,5.168399083536106673e+02
9.954518632981573134e+00,-1.236341939916164101e+01,2.567643897760462313e+00,-9.464935417056116185e-01,2.874834303845027472e-01,1.466330548133755185e-01,5.186977857742699598e+02
9.786797130752647789e+00,-1.280250647321268254e+01,2.609819369589850613e+00,-9.089459700185428259e-01,4.169115275724225023e-01,-4.199995240732275518e-05,5.211701687080599186e+02
9.650867604743936568e+00,-1.306899946364208098e+01,2.632288927896822894e+00,-7.605950727364756414e-01,6.049740074802404388e-01,2.355835002780794774e-01,5.227942044743847418e+02
9.488775197588854127e+00,-1.331318666708651577e+01,2.649291328814650903e+00,-5.263766961309267467e-01,7.247379036797338969e-01,4.446128031679619785e-01,5.244182402407095651e+02
9.168884151214271583e+00,-1.369079702438602020e+01,2.668789406878941062e+00,-2.327328258594906496e-01,7.626824293288614331e-01,6.034475484751106178e-01,5.271845382986685991e+02
8.969030889041247789e+00,-1.387913941061465906e+01,2.674417470784183237e+00,-0.000000000000000000e+00,2.371197228180181582e-02,-9.997178313761231339e-01,5.287163247841320981e+02
8.748349699806919233e+00,-1.404777949871416709e+01,2.675080732863028388e+00,-0.000000000000000000e+00,8.460544322753847934e-01,5.330946422795754813e-01,5.302481112695955972e+02
8.455347790214261749e+00,-1.423080895871526863e+01,2.670200486262937378e+00,-0.000000000000000000e+00,7.071911767215847133e-01,7.070209611926693283e-01,5.321191770996987316e+02
8.141110156103751549e+00,-1.439209723619449655e+01,2.660148067962691432e+00,-0.000000000000000000e+00,5.332983833111852867e-01,8.459260217988052721e-01,5.339902429298018660e+02
7.871940960224109496e+00,-1.450603083023383633e+01,2.648304343361238988e+00,1.235628771366837214e-01,6.701315085742661770e-01,7.318838545909580606e-01,5.355018928250600538e+02
7.589146140994976975e+00,-1.460469006295955907e+01,2.633148757549753860e+00,2.413187014928050433e-01,7.754706035922456220e-01,5.834454792653926969e-01,5.370135427203182417e+02
7.294241455325871648e+00,-1.468900956816605863e+01,2.615089092189339937e+00,3.477333343587682424e-01,8.443650665032587099e-01,4.075870000939576521e-01,5.385251926155764295e+02
6.988710857259145648e+00,-1.475991888551793529e+01,2.594576134383733024e+00,4.378056255131925201e-01,8.735770586236120128e-01,2.125731801431479662e-01,5.400368425108346173e+02
6.674018955659648533e+00,-1.481835007638230550e+01,2.572082180297229570e+00,5.073024503206460256e-01,8.617336790338574470e-01,7.569036783291156235e-03,5.415484924060928051e+02
6.230180208739389158e+00,-1.488276333045265787e+01,2.539085585387585553e+00,5.529576574120615984e-01,8.093914985370741499e-01,-1.977908774575810325e-01,5.436302904821046695e+02
5.778348743451184433e+00,-1.493242839815848555e+01,2.504905354179447041e+00,7.111339615373529766e-01,6.559592538768101999e-01,-2.529900116597877946e-01,5.457120885581165339e+02
5.421657858839957989e+00,-1.496101755944474476e+01,2.477996009974369862e+00,8.326099846259509274e-01,4.686739155409616053e-01,-2.951328080537928278e-01,5.473354630452903393e+02
5.062146977846975204e+00,-1.498059766510086455e+01,2.451424544341687994e+00,9.111164444405666085e-01,2.572008702920449141e-01,-3.220443090430966104e-01,5.489588375324641447e+02
4.701096506987560097e+00,-1.499194980463561322e+01,2.425748990488425960e+00,9.426016076045059533e-01,3.245388502767288658e-02,-3.323356055003705012e-01,5.505822120196379501e+02
4.282433500992248732e+00,-1.499633318326227815e+01,2.397712019414704798e+00,9.254404567143558191e-01,-1.939681284268970074e-01,-3.254755385982061600e-01,5.524631527302445875e+02
