3.338104485376925723e+00,-5.762484486202329670e+00,3.499890799014044873e+00,-6.814910863539281882e-01,5.479192654279791547e-02,-7.297710216270755224e-01,3.184034024717610212e+00
3.303734622247459729e+00,-5.706101175692195326e+00,3.044623741425033892e+00,-6.427181838454625318e-01,1.973997493322810284e-02,-7.658470274905204711e-01,4.776051037076415540e+00
3.252630316620648721e+00,-5.624641154823225797e+00,2.397161878235265942e+00,6.818411546864202588e-01,5.506893172821046567e-02,-7.294230956966385460e-01,7.039065214331573728e+00
3.198761166063710970e+00,-5.542991736992596508e+00,1.762309740582897133e+00,2.883107282156998630e-01,-5.998124345697652959e-01,-7.463912963930362521e-01,9.256851247010271067e+00
3.166552214106482133e+00,-5.497788407750838324e+00,1.419623805070273637e+00,6.426236280061242701e-01,1.961598864494344327e-02,-7.659295566283406131e-01,1.045350786399987086e+01
3.090291869674016478e+00,-5.401078001741758783e+00,7.056253786204018663e-01,2.499997267778949762e-05,-7.954151306990643322e-01,-6.060633376396725724e-01,1.294687750341608279e+01
3.023865624185145595e+00,-5.327074959754270367e+00,1.729133835270074970e-01,-8.735703862521637664e-01,2.831098010944160109e-02,-4.858716586392077263e-01,1.480903517212450460e+01
2.944978724965548356e+00,-5.251626793273891813e+00,-3.585442955906173457e-01,3.099996898510452229e-05,-9.999989995195006642e-01,-0.000000000000000000e+00,1.667119284083292641e+01
2.895437982202035077e+00,-5.211262102112176997e+00,-6.378852224772115775e-01,1.016999271930584155e-02,-9.999472841380963040e-01,-0.000000000000000000e+00,1.765361083562638811e+01
2.804357105561417818e+00,-5.147875443891547498e+00,-1.070045687812230195e+00,-8.384479280489662845e-01,5.561892889150736596e-02,5.421343068842903179e-01,1.918144668493096106e+01
2.697483925074502409e+00,-5.084107090063216816e+00,-1.499064171484809194e+00,-0.000000000000000000e+00,-6.060633378290848361e-01,7.954151309476545917e-01,2.070928253423553400e+01
2.572826598550433275e+00,-5.020267236692617097e+00,-1.923935131698607970e+00,-6.696665005626396550e-01,1.278249046681700085e-01,7.315774543894424387e-01,2.223711838354010695e+01
2.428399640922441538e+00,-4.956601746963213984e+00,-2.343590802469435186e+00,3.143997210389546867e-03,3.833196598875702327e-02,9.992591133759092248e-01,2.376495423284467989e+01
2.206941978239007174e+00,-4.871489470516030096e+00,-2.897042907093057007e+00,-7.805914077488388392e-01,-3.671379567327502039e-03,6.250292594122695000e-01,2.581462986590314657e+01
1.959424839833917575e+00,-4.786689549214957040e+00,-3.436901054230006469e+00,-9.741568796143644793e-01,-4.289895066157298903e-02,-2.217567449557901749e-01,2.786430549896161324e+01
1.725742773123154938e+00,-4.713912255577420218e+00,-3.887735036471747563e+00,-8.962736280301438763e-01,4.381243293416716145e-01,-6.883789462646959512e-02,2.963371091153083725e+01
1.474403279175902304e+00,-4.641606781501593559e+00,-4.320402448078765723e+00,-8.744466614707149255e-01,4.725178528187939375e-01,1.098540623384009068e-01,3.140311632410006126e+01
1.207718841269450616e+00,-4.569693845631711326e+00,-4.731998448197875184e+00,-8.232468448760007496e-01,4.910394006783760368e-01,2.848559976288213558e-01,3.317252173666928883e+01
8.802612126233849699e-01,-4.485743487204132407e+00,-5.185824911174869989e+00,-7.443939851623661008e-01,4.930668298369808578e-01,4.502895692445993414e-01,3.524485360914150789e+01
5.407510576721578088e-01,-4.401806463389974944e+00,-5.607538424878732108e+00,-6.405367555330576668e-01,4.785320340854029575e-01,6.005978331354623334e-01,3.731718548161372695e+01
1.154701014051317393e-01,-4.298623602596295612e+00,-6.077983622137209885e+00,-5.151637299643131440e-01,4.479232330835088982e-01,7.307318992591199658e-01,3.984732668583496462e+01
-2.000443323905327364e-01,-4.222343878236999970e+00,-6.385046455031268664e+00,-3.724862058580303281e-01,4.022685752200806930e-01,8.363205245821013767e-01,4.169401875091510590e+01
-5.183517980617303733e-01,-4.144796717581722412e+00,-6.652399171225916952e+00,-2.172967494851983650e-01,3.431016044486143168e-01,9.138169464882857085e-01,4.354071081599524717e+01
-8.542142949622029136e-01,-4.061138268613178504e+00,-6.890269105442706099e+00,-4.298583657853375928e-01,3.173684571748877081e-01,8.452792720492493528e-01,4.548502801563778775e+01
-1.144348422191376002e+00,-3.986255601172012053e+00,-7.059613619460629153e+00,-6.206940099143520850e-01,2.755948276708204969e-01,7.340193710106435176e-01,4.717159914931144726e+01
-1.431634374094494788e+00,-3.908553229954353725e+00,-7.193945928699012171e+00,-7.801584494637566758e-01,2.198920430494069045e-01,5.856605528248827186e-01,4.885817028298509967e+01
-1.441000780097529743e+00,-3.905897116975046934e+00,-7.197627156842518303e+00,-9.001920122278114222e-01,1.530754373613722463e-01,4.077011792956451441e-01,4.891389638844230348e+01
-1.705781769559638006e+00,-3.826897054233091122e+00,-7.282606517642773447e+00,-9.747279364108520916e-01,7.852206102073465421e-02,2.091356878066746861e-01,5.051398453533273170e+01
-1.965687446523136206e+00,-3.744459542943058050e+00,-7.338342783992284346e+00,-9.999989999999755463e-01,0.000000000000000000e+00,0.000000000000000000e+00,5.211407268222315992e+01
-2.362954033193471304e+00,-3.609596326230736452e+00,-7.383266934032185702e+00,2.039378542715195863e-01,3.347537607940073157e-01,9.199713426133354632e-01,5.461353278951893486e+01
-2.819580259219116147e+00,-3.442722252535893368e+00,-7.391953387894172778e+00,-9.983881034639273677e-01,0.000000000000000000e+00,-5.673794905025626722e-02,5.755889355606510804e+01
-3.203658257906755402e+00,-3.291777773461059819e+00,-7.366492142243720842e+00,-8.509987894274907705e-03,-3.496795025699235837e-01,9.368296673303707633e-01,6.010633580849721369e+01
-3.625421697494112472e+00,-3.113944063523682360e+00,-7.306115034521422302e+00,-5.300915303213886709e-01,-8.479392486978079013e-01,0.000000000000000000e+00,6.299307464477005425e+01
-3.942688152400039225e+00,-2.970846270685767454e+00,-7.238795890668989763e+00,-0.000000000000000000e+00,5.892782266479874576e-01,-8.079289396970000814e-01,6.524293661838004255e+01
-4.247670797488506622e+00,-2.824124895109081379e+00,-7.155095284253736310e+00,2.187648692053320298e-01,-3.412217959910489040e-01,9.141704534377418367e-01,6.749279859199003795e+01
-4.557769835065162312e+00,-2.664764829293399195e+00,-7.052437651878308067e+00,-2.272997664904146623e-03,5.869383970264737682e-01,-8.096271682538559444e-01,6.988417700898770590e+01
-4.760082638900253293e+00,-2.553512612489532874e+00,-6.974849154637488446e+00,-6.799996278740284643e-05,-9.702994690090732677e-02,9.952804553383689523e-01,7.152344036060237897e+01
-5.001935814612097353e+00,-2.410580761909715708e+00,-6.869652109064618983e+00,9.726792459778155209e-02,0.000000000000000000e+00,9.952572284753349319e-01,7.359432021803705481e+01
-5.298430824947053530e+00,-2.220477310286474548e+00,-6.724800328901514135e+00,5.293393743997391043e-01,8.484089973069909307e-01,0.000000000000000000e+00,7.629843917353215943e+01
-5.404291064142384471e+00,-2.146494456892319658e+00,-6.666968711115478285e+00,6.075376243234049678e-01,7.797075178605343826e-01,1.514999063186102668e-01,7.733463552839180011e+01
-5.456929218192833275e+00,-2.106348449270215362e+00,-6.634808495064688394e+00,0.000000000000000000e+00,9.950482571501976237e-01,-9.938292580602370307e-02,7.789101077776658144e+01
-5.546521360026624770e+00,-2.031345054201033840e+00,-6.573327943762198977e+00,-0.000000000000000000e+00,-9.983890695244284075e-01,-5.672094713738629751e-02,7.892104193766662945e+01
-5.667520214313631399e+00,-1.919234229434771288e+00,-6.479641260526632252e+00,-0.000000000000000000e+00,-9.924842934746124223e-01,-1.223639128921116953e-01,8.044738639663522406e+01
-5.776838465279963586e+00,-1.806304640655483018e+00,-6.383835371796672931e+00,4.972571944671514421e-01,-8.572650259664695849e-01,-1.335288650668080557e-01,8.197373085560381867e+01
-5.874719830462713510e+00,-1.692814911978832271e+00,-6.286387191440381272e+00,8.624059018153572564e-01,-4.942927713560466008e-01,-1.092186646152088214e-01,8.350007531457241328e+01
-5.923330841035801875e+00,-1.629091536177409871e+00,-6.231101607623494409e+00,9.984358225271778853e-01,-0.000000000000000000e+00,-5.589193408566490995e-02,8.435532562772920073e+01
-6.028014618929852020e+00,-1.471907064923300590e+00,-6.093673874141001257e+00,9.360262369443479447e-01,-2.510647953300841340e-01,2.466157989569395803e-01,8.646411939583471451e+01
-6.093219274778308048e+00,-1.357864018182739274e+00,-5.993481089901876224e+00,9.973505985878612368e-01,-0.000000000000000000e+00,-7.273089780327682274e-02,8.799682483877838024e+01
-6.147820930421455721e+00,-1.244413491650007364e+00,-5.893462937093262966e+00,9.973505978851086029e-01,-0.000000000000000000e+00,-7.273089775202921936e-02,8.952953028172204597e+01
-6.193212382726078324e+00,-1.128805168720132146e+00,-5.791315150832833325e+00,9.948943568806407622e-01,-0.000000000000000000e+00,-1.009119347685325796e-01,9.110419438554150418e+01
-6.228092005147940924e+00,-1.014487475269777894e+00,-5.690210656352224561e+00,9.896813137073012800e-01,-1.121245962315962769e-01,-8.920186219344382328e-02,9.267885848936096238e+01
-6.252661330633938697e+00,-9.018063467777178710e-01,-5.590587482324600010e+00,9.718634394712225566e-01,-2.228211464572001921e-01,-7.635569206638341544e-02,9.425352259318042059e+01
-6.267124101552340676e+00,-7.911062394595554936e-01,-5.492883647195549557e+00,9.416676664799310537e-01,-3.306797922399626333e-01,-6.253703631150568654e-02,9.582818669699987879e+01
-6.271668971970440154e+00,-6.827469071089310448e-01,-5.397489909405924990e+00,8.994785747371971674e-01,-4.343268191026196101e-01,-4.792189267091550436e-02,9.740285080081933700e+01
-6.266452375834167476e+00,-5.771203487112047670e-01,-5.304702517939360540e+00,8.458334939929822438e-01,-5.324421524062479261e-01,-3.269640317855184580e-02,9.897751490463879520e+01
-6.251616065962701363e+00,-4.746342626223758465e-01,-5.214770457054270558e+00,7.814156603261841472e-01,-6.237761701060251518e-01,-1.705448342827165648e-02,1.005521790084582534e+02
-6.227304487746946116e+00,-3.756953286737275688e-01,-5.127942691341034198e+00,7.070455144365321853e-01,-7.071656182584830086e-01,-1.195352831486983219e-03,1.021268431122777116e+02
-6.192879684586222844e+00,-2.785034969177125341e-01,-5.042528050241636528e+00,6.236702524544306403e-01,-7.815484265762161487e-01,1.467900268223186824e-02,1.037381329339357450e+02
-6.149059673145094607e+00,-1.857826084674348843e-01,-4.960805237143168789e+00,5.323517623349350858e-01,-8.459772353291775682e-01,3.036640320703965987e-02,1.053494227555937783e+02
-6.096004237141425364e+00,-9.795517699266559353e-02,-4.883034892752249334e+00,4.342530994666337629e-01,-8.996314612989061432e-01,4.566704988094029416e-02,1.069607125772518117e+02
-6.033876032963480185e+00,-1.544256110661647828e-02,-4.809477629288302580e+00,3.306236737357577393e-01,-9.418277490949369390e-01,6.038606958746616654e-02,1.085720023989098451e+02
-5.962840586494856154e+00,6.133505173061327975e-02,-4.740394028609184573e+00,2.227833367028107803e-01,-9.720286747047724996e-01,7.433599692755873956e-02,1.101832922205678784e+02
-5.883066289904232526e+00,1.319586612947644122e-01,-4.676044640337084779e+00,1.121055715636407740e-01,-9.898495904085299335e-01,8.733916184858578347e-02,1.117945820422259118e+02
-5.794833217450521268e+00,1.960500799428128160e-01,-4.616568005774758454e+00,0.000000000000000000e+00,-9.950635238632341562e-01,9.922995251858043875e-02,1.134058718638839451e+02
-5.698641541068110605e+00,2.533126584209502985e-01,-4.561858682700018264e+00,1.400385702511321162e-01,-9.805969384956395585e-01,-1.371744985590476473e-01,1.150171616855419785e+02
-5.595102103766666168e+00,3.034933406179787241e-01,-4.511689220336421613e+00,2.694751965404681981e-01,-8.918920094415060396e-01,-3.631938352228064049e-01,1.166284515072000119e+02
-5.484827388840044726e+00,3.463436145131593702e-01,-4.465832135202310482e+00,3.785105759732517172e-01,-7.356643634469051118e-01,-5.617167330877304021e-01,1.182397413288580452e+02
-5.368431507110153156e+00,3.816195212860731267e-01,-4.424059912750148094e+00,4.588899395963775274e-01,-5.237415970596055459e-01,-7.177135660184505994e-01,1.198510311505160786e+02
-5.246530184151266596e+00,4.090816643701242761e-01,-4.386145009006031437e+00,5.045279976676835254e-01,-2.721678227379450421e-01,-8.193742587095846908e-01,1.214623209721741119e+02
-5.124502509692614893e+00,4.277759273830094022e-01,-4.353150867348178465e+00,5.119696326536157249e-01,1.099999210733006162e-05,-8.590023836520768175e-01,1.230130338369359322e+02
-4.998344860457298644e+00,4.385278957786807874e-01,-4.323439209540178574e+00,4.496437407758407390e-01,-7.769951519869774947e-02,-8.898209323896221212e-01,1.245637467016977524e+02
-4.868631853722823699e+00,4.411283259557005065e-01,-4.296799239208591636e+00,3.824287814691859078e-01,-1.545651631610850119e-01,-9.109642349955212604e-01,1.261144595664595727e+02
-4.735939501288831011e+00,4.353720722435073798e-01,-4.273020139489580593e+00,3.110555987873339090e-01,-2.297501704886311114e-01,-9.222024038266679602e-01,1.276651724312213929e+02
-4.600845198434353911e+00,4.210580944307136253e-01,-4.251891074435839357e+00,2.363002476269017160e-01,-3.024370390209061843e-01,-9.234132500674016031e-01,1.292158852959832132e+02
-4.463927712859726782e+00,3.979894652466538507e-01,-4.233201190423654836e+00,1.589755559426512532e-01,-3.718354338897658096e-01,-9.145836116600233323e-01,1.307665981607450192e+02
-4.325704233325023296e+00,3.661368476128453731e-01,-4.216693957114434177e+00,7.992228732995952656e-02,-4.371907761768574763e-01,-8.958094960504454640e-01,1.323173110255068252e+02
-4.186565826031919180e+00,3.258013564931149242e-01,-4.202021508720618748e+00,0.000000000000000000e+00,-4.977924468361116794e-01,-8.672950362322737750e-01,1.338680238902686312e+02
-4.046837977579767376e+00,2.774501629702045835e-01,-4.188790306771492666e+00,0.000000000000000000e+00,-9.950534475068916196e-01,-9.933094484752291731e-02,1.354187367550304373e+02
-3.906842732519360872e+00,2.215527010436734445e-01,-4.176606803183618766e+00,3.577368667098376198e-01,-7.242255832937540827e-01,5.895079632198098052e-01,1.369694496197922433e+02
-3.766898687359408804e+00,1.585806487454444191e-01,-4.165077442886434334e+00,4.737066590288039891e-01,3.605097405072632544e-02,8.799433666220720651e-01,1.385201624845540493e+02
-3.627320984612570687e+00,8.900790922991874687e-02,-4.153808666448312259e+00,0.000000000000000000e+00,9.999989999983950115e-07,9.999989999983950328e-01,1.400708753493158554e+02
-3.484721076981672105e+00,1.128697796860878878e-02,-4.142099761272499236e+00,7.714572065910366705e-01,-4.207696979903269852e-01,4.772888429992004911e-01,1.416629677535833309e+02
-3.343150377200092560e+00,-7.223165428842488744e-02,-4.129839044167503026e+00,7.364161080998153919e-01,-4.016585135368463400e-01,-5.443893406703790294e-01,1.432550601578508065e+02
-3.202929977598891309e+00,-1.610414170418139612e-01,-4.116611626700332316e+00,6.342538868548471820e-01,-5.371807005875148811e-01,-5.560187963778437936e-01,1.448471525621182820e+02
-3.064377206875804394e+00,-2.546334149215175868e-01,-4.102002627234745624e+00,5.137372051343598311e-01,-6.571575736329152706e-01,-5.515578006674967115e-01,1.464392449663857576e+02
-2.927805623705620697e+00,-3.524964488347018254e-01,-4.085597173848423580e+00,3.783536023995333064e-01,-7.581172033173414482e-01,-5.311354418456750714e-01,1.480313373706532332e+02
-2.793525010395070840e+00,-4.541170371414135487e-01,-4.066980407250043505e+00,5.856302470532174231e-01,-6.201509819237960297e-01,-5.219654905797154187e-01,1.496234297749207087e+02
-2.661666549313792096e+00,-5.588687434115354735e-01,-4.045872636765359687e+00,7.565495113756589562e-01,-4.436842279372155695e-01,-4.803906147268329763e-01,1.512155221791881843e+02
-2.532006891689571937e+00,-6.659032537896266701e-01,-4.022264495373376825e+00,8.805003132149959999e-01,-2.396723887492455407e-01,-4.089918636107389704e-01,1.528076145834556598e+02
-2.404141313368888699e+00,-7.742637235014462327e-01,-3.996281786704161565e+00,9.497874378629806991e-01,-2.078098770065593681e-02,-3.122018152216055609e-01,1.543997069877231354e+02
-2.277657985159515341e+00,-8.829963827619462524e-01,-3.968050331086153459e+00,9.515157124079846040e-01,-2.081942135143326558e-02,3.068915129734984260e-01,1.559917993919906110e+02
-2.152137981533022604e+00,-9.911505766564571163e-01,-3.937695964662466075e+00,5.885468359184590215e-01,-1.287818261832456880e-02,8.083593101728782093e-01,1.575838917962580865e+02
-2.027155289408975047e+00,-1.097778804976042855e+00,-3.905344538507387053e+00,0.000000000000000000e+00,-9.999989999994472381e-07,9.999989999994473022e-01,1.591759842005255621e+02
-1.898383322864413358e+00,-1.205186847710678411e+00,-3.870054711323188013e+00,-0.000000000000000000e+00,2.443750072174463630e-03,9.999960139685539762e-01,1.608177560236051704e+02
-1.769264133409553574e+00,-1.309109579777108179e+00,-3.833039720085023472e+00,-0.000000000000000000e+00,4.888485347683177093e-03,9.999870512053840033e-01,1.624595278466847788e+02
-1.639366319236210456e+00,-1.408759290779215689e+00,-3.794687312715411931e+00,-0.000000000000000000e+00,7.333191487407806144e-03,9.999721116960981204e-01,1.641012996697643871e+02
-1.509314689724316372e+00,-1.502739407170940122e+00,-3.755839959443375786e+00,-0.000000000000000000e+00,9.777854151386738968e-03,9.999511955267309515e-01,1.657303144908346439e+02
-1.377663634964054307e+00,-1.591129199788008153e+00,-3.716771344879536532e+00,-0.000000000000000000e+00,1.222245899987987015e-02,9.999243028163828928e-01,1.673593293119049008e+02
-1.243987091849644289e+00,-1.673259115230412375e+00,-3.678028440901889518e+00,-0.000000000000000000e+00,1.466699169343334101e-02,9.998914337172190026e-01,1.689883441329751577e+02
-1.043035215446759034e+00,-1.784722395396904249e+00,-3.622072726272251408e+00,2.991431289992257936e-01,2.814180767472521452e-02,9.537921298865913444e-01,1.713957818958127746e+02
-8.802405419654411034e-01,-1.864827663989100826e+00,-3.579346940272670530e+00,5.708267281263311732e-01,3.903338342606919864e-02,8.201409887546944333e-01,1.733093333169784671e+02
-7.139843977889994697e-01,-1.935807837500913564e+00,-3.539015352748957177e+00,7.901121582996315507e-01,4.634195063227858347e-02,6.112063488866059657e-01,1.752228847381441597e+02
-5.566627131289180186e-01,-1.992780254131422790e+00,-3.504334013754719646e+00,-4.595974337851296276e-01,-8.868719073915014572e-01,4.718494186909286126e-02,1.769943616397087567e+02
-3.958387496522709492e-01,-2.040916181782503003e+00,-3.472570189672067098e+00,-4.523646802500355668e-01,-8.527121001108469711e-01,-2.612398713574168863e-01,1.787658385412733537e+02
-2.315463827245505535e-01,-2.080320645606304808e+00,-3.443760436130327562e+00,-4.015486972675451072e-01,-7.363974448209950063e-01,-5.444955894981414746e-01,1.805373154428379507e+02
-6.398991056088267071e-02,-2.111143420701176332e+00,-3.417753165067560772e+00,-5.013219381832849653e-01,-8.428336881788668355e-01,-1.957183904642028904e-01,1.823087923444025478e+02
1.064005490222578870e-01,-2.133448671129786423e+00,-3.394238111408517611e+00,-5.294416305763051112e-01,-8.288043315543502931e-01,1.810329798898211717e-01,1.840802692459671448e+02
2.689785874946790112e-01,-2.146426338750279328e+00,-3.374085276604307460e+00,-4.818885140319649762e-01,-6.963144000263853384e-01,5.319095001580316229e-01,1.857479976157101191e+02
4.332366030757002773e-01,-2.151375510516171374e+00,-3.355567010430441144e+00,-3.654593722041263315e-01,-4.643007092146158032e-01,8.067603725333030162e-01,1.874157259854530935e+02
5.843178914794238121e-01,-2.148487598077452265e+00,-3.339778917932433089e+00,-1.967955077165959021e-01,-1.659250764415263479e-01,9.663014007805658112e-01,1.889390883555622622e+02
7.358429356750011419e-01,-2.137997420698298345e+00,-3.324650403808677712e+00,-3.999995304134292564e-06,1.561658166663590086e-01,9.877298404369673213e-01,1.904624507256714310e+02
8.871194838291623919e-01,-2.119606892726265901e+00,-3.309651385629961418e+00,-7.127413081393232375e-01,-4.228955894936559101e-01,-5.596044567898427191e-01,1.919858130957805997e+02
1.071197043373103286e+00,-2.086889930066089693e+00,-3.290711752817778279e+00,-7.699286552544601925e-01,-4.062538695813154854e-01,-4.921033014206744327e-01,1.938525587422797400e+02
1.252824128127911329e+00,-2.043328820560653902e+00,-3.270401860295784502e+00,-8.208766835489110791e-01,-3.863199653367946351e-01,-4.206142588985540276e-01,1.957193043887788804e+02
1.512018479581076713e+00,-1.962920202414868198e+00,-3.237405408113978922e+00,-8.651725233526164072e-01,-3.632554159760109647e-01,-3.457166579738431000e-01,1.984406693608128194e+02
1.650051214148644307e+00,-1.908493255462981653e+00,-3.216575936266082625e+00,-9.024572121909266720e-01,-3.372471304869204545e-01,-2.680174493269447678e-01,1.999363587990146698e+02
1.913137068669537033e+00,-1.777999731898816771e+00,-3.167865951260685708e+00,-9.324286036702491565e-01,-3.085058730234545021e-01,-1.881462871500033662e-01,2.029129500469389313e+02
2.129233138064015485e+00,-1.643464161013156843e+00,-3.116953891802344501e+00,-9.548438159886152299e-01,-2.772645549969704470e-01,-1.067504267499892745e-01,2.055053673847398272e+02
2.261505553870984286e+00,-1.539271544839222461e+00,-3.076158509508480243e+00,-9.695212002302272536e-01,-2.437763477003017654e-01,-2.448947950913191174e-02,2.072214651416229287e+02
2.381349304082483798e+00,-1.419078277173063896e+00,-3.027031248703782040e+00,-9.763418124907703444e-01,-2.083126307531096844e-01,5.796993230499548205e-02,2.089375628985060303e+02
2.487407794648433867e+00,-1.282413804947116320e+00,-2.968401383869792465e+00,-9.752503778976255866e-01,-1.711607929875109402e-01,1.399595775744187642e-01,2.106536606553891318e+02
2.580932012679441723e+00,-1.124617115313296889e+00,-2.897043561373001452e+00,-9.662557387036465606e-01,-1.326219035890043862e-01,2.208150314425499638e-01,2.124193393247330448e+02
2.657413163253049770e+00,-9.495128692563201689e-01,-2.814154638416071830e+00,-9.494307828117282133e-01,-9.300827235984505947e-02,2.998810596258304484e-01,2.141850179940769578e+02
2.708545979208504484e+00,-7.816224846045437546e-01,-2.732367959178757744e+00,-9.249118532963168660e-01,-5.264091887163727113e-02,3.765169282945721729e-01,2.157256422970113476e+02
2.744530663664334291e+00,-5.988952156142089978e-01,-2.641697143005898862e+00,-8.928976436932981597e-01,-1.184697101366364094e-02,4.501015964920742629e-01,2.172662665999457374e+02
2.766452988103086152e+00,-4.017562107408799710e-01,-2.542359041032458133e+00,-8.536475879973068892e-01,2.904298598275376064e-02,5.200387490095819132e-01,2.188068909028801272e+02
2.775373357466779378e+00,-1.907121006269005548e-01,-2.434579992193794062e+00,-8.062273285164915926e-01,2.889280104575224842e-02,5.908982152626819362e-01,2.203475152058145170e+02
2.770939745109010754e+00,1.889318721928187894e-01,-2.238214465330234937e+00,-7.529459778102280954e-01,2.853257178957275750e-02,6.574619736884406151e-01,2.229568572653024887e+02
2.757406688000354933e+00,4.379918740642789743e-01,-2.107723706305283162e+00,-6.941908805537377880e-01,2.796491705727198115e-02,7.192461225268549363e-01,2.245814899898486487e+02
2.733969142799891117e+00,6.985894819572501246e-01,-1.969372512539198761e+00,-6.303891737194622369e-01,2.719396361502931028e-02,7.758015068303059092e-01,2.262061227143948088e+02
2.701542272743134188e+00,9.696484709558569337e-01,-1.823506179027444940e+00,-5.620046813868292412e-01,2.622531614901230448e-02,8.267169835513208387e-01,2.278307554389409688e+02
2.649213488621314561e+00,1.332994906291338877e+00,-1.625253595905514548e+00,-4.895345428882862948e-01,2.506601651927608740e-02,8.716224102987835121e-01,2.299361849680944658e+02
2.588003429778343634e+00,1.706702168370402672e+00,-1.418399835670253850e+00,-4.135055988010128969e-01,2.372449256698856701e-02,9.101913360457294377e-01,2.320416144972479628e+02
2.526391421228215250e+00,2.048239304975528974e+00,-1.226466970659833677e+00,-3.344705610515999461e-01,2.221049684713878244e-02,9.421433742375264764e-01,2.339228117885992333e+02
2.458744512200169208e+00,2.395903291168572924e+00,-1.028006151554373249e+00,-2.530039949681825440e-01,2.053503573204277718e-02,9.672462410563450463e-01,2.358040090799505037e+02
2.385892249556566203e+00,2.748332149182484585e+00,-8.236561571875906651e-01,-1.696981424798726379e-01,1.871028940088629786e-02,9.853174440297740588e-01,2.376852063713017742e+02
2.316282653170293582e+00,3.068429974162438789e+00,-6.351529206682062778e-01,-8.515861681707012631e-02,1.674952329673382728e-02,9.962256087107046465e-01,2.393772263515389511e+02
2.243064514724990133e+00,3.390606379183592978e+00,-4.425424754146707329e-01,-0.000000000000000000e+00,1.466699169441148046e-02,9.998914337839015509e-01,2.410692463317761280e+02
2.166602216603710218e+00,3.714050487501211251e+00,-2.464699730460657989e-01,-2.729615977751174150e-01,1.952239750945083951e-02,9.618257857511506304e-01,2.427612663120133050e+02
2.076996515678766198e+00,4.079984500372089151e+00,-2.188943104033446579e-02,-5.251832835082224094e-01,2.289447593079632984e-02,8.506799408096835657e-01,2.446723705017103612e+02
1.984578773216896685e+00,4.445743555740661712e+00,2.049168726785110528e-01,-7.375011320501195788e-01,2.452701586874843701e-02,6.748988855510875684e-01,2.465834746914074174e+02
1.905353235053291128e+00,4.749907015221995543e+00,3.949953752712728750e-01,-8.937831490311932692e-01,2.429597686785830990e-02,4.478385736139610107e-01,2.481763902549058116e+02
1.824074732794325637e+00,5.052952578891157565e+00,5.852980986427850363e-01,-8.875683493731688634e-01,2.518998153463011813e-02,-4.599846628109104940e-01,2.497693058184042059e+02
1.741053435440326425e+00,5.354534145346114826e+00,7.750477650245697347e-01,-5.335776174011365169e-01,1.795098712834449980e-02,-8.455593936963387014e-01,2.513622213819026001e+02
1.649840966877554882e+00,5.678749412412704700e+00,9.788670931840040002e-01,-4.290418962340206144e-01,1.895634654346700990e-02,-9.030845520780148572e-01,2.530850393346039482e+02
1.557710216201637632e+00,6.000594570276843953e+00,1.180480108969672148e+00,-3.183975355736877733e-01,1.969180730564059137e-02,-9.477516774272064515e-01,2.548078572873052963e+02
1.474555935697198006e+00,6.286819033872498963e+00,1.358744736680002063e+00,-2.032198784526524915e-01,2.014689812426409196e-02,-9.789248099308833773e-01,2.563537788340681800e+02
1.391238131488090612e+00,6.569940554500544039e+00,1.533825015594142416e+00,-8.514881033143867350e-02,2.031513957137726437e-02,-9.961601152445208607e-01,2.578997003808310637e+02
1.308124733585742883e+00,6.849405540064271491e+00,1.705247808898020745e+00,3.413458904095247048e-02,2.019413632094479646e-02,-9.992122030329434468e-01,2.594456219275939475e+02
1.225579628825584466e+00,7.124657682658620317e+00,1.872540004514887668e+00,1.529319800560061948e-01,1.978561124316039269e-02,-9.880376202678674558e-01,2.609915434743568312e+02
1.114789067859572880e+00,7.493233016169350336e+00,2.094422248651939267e+00,2.695519432668532223e-01,1.909538086963894279e-02,-9.627954696150118341e-01,2.630983951370834575e+02
1.034104285931445100e+00,7.762826523765822273e+00,2.255495874053275784e+00,3.823340608274236052e-01,1.813327257942360868e-02,-9.238451441434323286e-01,2.646719166653975890e+02
9.561428666938160958e-01,8.025912603426990088e+00,2.412072332595482482e+00,4.896725565857655282e-01,1.691298468474890931e-02,-8.717412106103223923e-01,2.662454381937117205e+02
8.245328727427411186e-01,8.480722884481320278e+00,2.683012110930726113e+00,4.838606244995389272e-01,1.681634508519099999e-02,-8.749823464078338997e-01,2.690423153242666103e+02
7.306492702864717526e-01,8.817551411394388694e+00,2.885379879678535264e+00,4.780272641022016988e-01,1.671896069572938182e-02,-8.781847249053709170e-01,2.711813290364380578e+02
6.444415268190674118e-01,9.142117283841036723e+00,3.083778394233189335e+00,4.721727323223930406e-01,1.662083580582001535e-02,-8.813482050798151501e-01,2.733203427486095052e+02
5.741837478385333204e-01,9.424075933590138732e+00,3.260651001590495923e+00,4.662972870224132982e-01,1.652197473758049845e-02,-8.844726476241844271e-01,2.752575089428830779e+02
5.202183568023215354e-01,9.658790776923469323e+00,3.413062374192575188e+00,5.425788513437966865e-01,-9.759050112558487200e-02,-8.343154584244053540e-01,2.769460215713796742e+02
5.114008347712915015e-01,9.700797453720593211e+00,3.441515934194467885e+00,6.072729337032060082e-01,-2.096188141405131433e-01,-7.663403530749788306e-01,2.772638023249403432e+02
4.624030035341750722e-01,9.962375097683382918e+00,3.627354031660446676e+00,6.589979080968586533e-01,-3.171704631826980925e-01,-6.819990134959230677e-01,2.793519319047393878e+02
4.471446328559176564e-01,1.005647757639275852e+01,3.697837119336124800e+00,6.966491127443015241e-01,-4.179485455763965462e-01,-5.830926401214086008e-01,2.801474229694475184e+02
4.396137575160334876e-01,1.011150521212452169e+01,3.741513855246695996e+00,7.194224422990269652e-01,-5.098008083718150729e-01,-4.717334896953110923e-01,2.806420738369828314e+02
4.202156966421815021e-01,1.028980200228037845e+01,3.891899818274664469e+00,7.268315228414715667e-01,-5.907656121675500804e-01,-3.502997700312692197e-01,2.823526598806212746e+02
4.070937397098577937e-01,1.045625176939774192e+01,4.041247027113713308e+00,5.623752087482116746e-01,-6.127230732625684739e-01,-5.552499978176599349e-01,2.840632459242597179e+02
3.984488442855473322e-01,1.063157453794470797e+01,4.208503343553351428e+00,3.588155418934004803e-01,-5.920762440850431130e-01,-7.215920787297237515e-01,2.860001234538141830e+02
3.950198505876623134e-01,1.079418964676707837e+01,4.372988652831066858e+00,-3.571165318402440003e-01,-5.924852232850824629e-01,-7.220990533686163504e-01,2.879370009833686481e+02
3.951852125247878877e-01,1.083339442464340152e+01,4.414942063091065627e+00,-0.000000000000000000e+00,-8.566789209259167981e-02,-9.963227450303417942e-01,2.884420932743479966e+02
3.975148216924840883e-01,1.091352676737424687e+01,4.505596091501166356e+00,-1.955893130490981013e-01,-8.743090727453890765e-02,-9.767797382601304257e-01,2.895637433614400038e+02
4.050454867083761457e-01,1.104675887221952202e+01,4.664077738169879694e+00,-3.836210085774961476e-01,-8.581556629500348976e-02,-9.194936706474987620e-01,2.915982218871575924e+02
4.127581000696086688e-01,1.113824148923820800e+01,4.777040034095976218e+00,-5.568294759358650703e-01,-8.088428611596480688e-02,-8.266780915143876474e-01,2.931261772873576206e+02
4.221644137774880901e-01,1.122167338031934314e+01,4.882278382652311066e+00,-7.085218804473030207e-01,-7.282761322438888185e-02,-7.019194281973437644e-01,2.946541326875576488e+02
4.332274519798719470e-01,1.129751972109709079e+01,4.978237090447653834e+00,-8.328367804098951721e-01,-6.195686070587076710e-02,-5.500384028497293798e-01,2.961820880877576769e+02
4.460170693285893107e-01,1.136623191263076649e+01,5.063374161488145120e+00,-9.249706166797277973e-01,-4.869207867211523821e-02,-3.769037539682547067e-01,2.977100434879577051e+02
4.645158573956543746e-01,1.144471131579624945e+01,5.155273803145039579e+00,-9.813633225827078643e-01,-3.354582298666700102e-02,-1.892054620018994715e-01,2.996424975149617467e+02
4.854809787823018974e-01,1.151546616601658890e+01,5.229083588842049934e+00,-9.998358824535688028e-01,-1.710334961296361075e-02,5.803756731638611867e-03,3.015749515419657882e+02
5.090024615499603167e-01,1.157929013795147632e+01,5.282439310420334877e+00,-9.796745246597445833e-01,-0.000000000000000000e+00,2.005886979235721457e-01,3.035074055689698298e+02
5.324855326674134970e-01,1.163111173854844083e+01,5.309957337620261342e+00,-0.000000000000000000e+00,9.968731427319724725e-01,-7.900593205829645194e-02,3.052431107428334940e+02
5.583342074295103430e-01,1.167811207334412771e+01,5.315243508930890037e+00,9.968779763718003117e-01,0.000000000000000000e+00,-7.894491893667313076e-02,3.069788159166971582e+02
5.654574805702630158e-01,1.168895548257939154e+01,5.310702565567473776e+00,9.968779756678982640e-01,-0.000000000000000000e+00,-7.894491888092960985e-02,3.074191170015756143e+02
5.943840972365085351e-01,1.172614575329810727e+01,5.270692689109695905e+00,0.000000000000000000e+00,-0.000000000000000000e+00,-9.999989999999968626e-01,3.090826228308427517e+02
6.251887184994028290e-01,1.175979176712489860e+01,5.207011602069843370e+00,-0.000000000000000000e+00,-0.000000000000000000e+00,-9.999989992938940198e-01,3.107461286601098891e+02
6.597779875440160646e-01,1.179221111128715549e+01,5.113396498022163783e+00,-9.968817776734306690e-01,-0.000000000000000000e+00,-7.889690326056383873e-02,3.125187012298287641e+02
6.959289106441176598e-01,1.182154646623849281e+01,4.993692728546054838e+00,9.968779763664620264e-01,-0.000000000000000000e+00,-7.894491893625038559e-02,3.142912737995476391e+02
7.364080432234804130e-01,1.185030762482220190e+01,4.836204426357562980e+00,0.000000000000000000e+00,-9.968312352734686188e-01,-7.953293898571152376e-02,3.162045701443610142e+02
7.780656907677018230e-01,1.187668905281997667e+01,4.650561274159680458e+00,-0.000000000000000000e+00,9.968731427266619427e-01,-7.900593205787558027e-02,3.181178664891743892e+02
7.802042858597406649e-01,1.187792245656013179e+01,4.640086063981489595e+00,-0.000000000000000000e+00,2.192496970816735016e-02,-9.997586187200633301e-01,3.182140563109689992e+02
8.200689079833882733e-01,1.189911898332550422e+01,4.427355939821127073e+00,6.008035540474822023e-01,8.946493359374771415e-02,-7.943734103682975611e-01,3.199792790965235554e+02
8.602727231166941158e-01,1.191914823872262374e+01,4.190453288716685876e+00,7.211654393620858805e-01,8.149180109406728434e-02,-6.879516664887735944e-01,3.217445018820781115e+02
9.036817627356101834e-01,1.194008694089533407e+01,3.909276473646996486e+00,8.228662818459944184e-01,7.140997415156762063e-02,-5.637283900899984213e-01,3.236579681635880661e+02
9.462230764729311350e-01,1.196075564632229060e+01,3.605920075098131505e+00,9.032744692619685267e-01,5.948033366289461055e-02,-4.249180192554590230e-01,3.255714344450980207e+02
9.870968095419468957e-01,1.198164554259937020e+01,3.282851084366190886e+00,9.603093667846478443e-01,4.601157405260126315e-02,-2.751124408677928512e-01,3.274849007266079752e+02
1.020881295479353135e+00,1.200061431570201620e+01,2.983387526373836529e+00,9.924951509149847473e-01,3.135221522778656317e-02,-1.181880451318671338e-01,3.291690459113141287e+02
1.051780658209665598e+00,1.202051235077164471e+01,2.670971764001707882e+00,9.989989932038167986e-01,1.588158423867941024e-02,4.179457933107776774e-02,3.308531910960202822e+02
1.079131583365535940e+00,1.204167149584734453e+01,2.347689293378611985e+00,9.796526068683385491e-01,0.000000000000000000e+00,2.006957145972436130e-01,3.325373362807264357e+02
1.102273269202040051e+00,1.206442887178523193e+01,2.015625696086735807e+00,-9.796745246582524436e-01,-0.000000000000000000e+00,2.005886979232666678e-01,3.342214814654325892e+02
1.121670890854663538e+00,1.209065798770486566e+01,1.655938621141486156e+00,9.796526068669312304e-01,-0.000000000000000000e+00,2.006957145969553158e-01,3.360098362883581444e+02
1.135179085994588277e+00,1.211932343471131546e+01,1.291492610653041551e+00,-9.796745246582524436e-01,-0.000000000000000000e+00,2.005886979232666678e-01,3.377981911112836997e+02
1.142096005106639112e+00,1.215078998210691985e+01,9.246416674137685199e-01,-9.994247164191537580e-01,-0.000000000000000000e+00,3.388563428176515763e-02,3.395865459342092549e+02
1.141610703294578588e+00,1.219431636507940908e+01,4.639147272862775284e-01,-9.910110841342323340e-01,-0.000000000000000000e+00,-1.337723107491554375e-01,3.418331500898481181e+02
1.130978983229253387e+00,1.224242724312871466e+01,6.756553406005813382e-03,-9.546707119062373126e-01,-0.000000000000000000e+00,-2.976605983800955091e-01,3.440797542454869813e+02
1.112507757841003198e+00,1.228850840556004798e+01,-3.825376608398735612e-01,9.546769266717656244e-01,-0.000000000000000000e+00,-2.976406653672871716e-01,3.460221404963771192e+02
1.085053167128587681e+00,1.233944473604324976e+01,-7.634282365107581958e-01,-5.741094903288209705e-01,1.828998376289236397e-03,-8.187752731244372084e-01,3.479645267472672572e+02
1.050633925821475190e+00,1.239355029427968802e+01,-1.120831819506697746e+00,5.764363129605204472e-01,-1.163998612660266125e-03,-8.171400260720124153e-01,3.498381785749494952e+02
1.014923840103600705e+00,1.244449771392706872e+01,-1.417476211233296146e+00,5.752485911879960945e-01,-0.000000000000000000e+00,-8.179774186878632225e-01,3.514450610823338934e+02
9.735722892794823613e-01,1.250031974325451323e+01,-1.703207631793422605e+00,-5.759863546498810161e-01,0.000000000000000000e+00,-8.174580840986638286e-01,3.530519435897182916e+02
9.278721368149900339e-01,1.256037414993696011e+01,-1.972488524322907999e+00,-0.000000000000000000e+00,-5.697617808903238101e-01,-8.218086839622441575e-01,3.546314714484562955e+02
8.775494445197769000e-01,1.262606257152859079e+01,-2.229409438915993746e+00,-0.000000000000000000e+00,-9.950635238630910484e-01,9.922995251856617238e-02,3.562109993071942995e+02
8.229536210598248358e-01,1.269789209018633613e+01,-2.473237761345126628e+00,4.301035175189086845e-01,3.026596604827504894e-02,9.022709878513586190e-01,3.577905271659323034e+02
7.641753323757499716e-01,1.277669463016114371e+01,-2.704128702284494423e+00,0.000000000000000000e+00,9.997078536730037435e-01,-2.412897233222458665e-02,3.593760263130449175e+02
7.016715832085215210e-01,1.286271877361830285e+01,-2.920482654836042524e+00,-0.000000000000000000e+00,8.080491350128954364e-02,9.967289330380585399e-01,3.609615254601575316e+02
6.357400727307206401e-01,1.295619813462471370e+01,-3.121160193243523562e+00,-7.142513392296293562e-01,-6.601633892676381787e-01,-2.324377849664496787e-01,3.625427489596182227e+02
5.664591740110979101e-01,1.305796442942008184e+01,-3.306246098254394195e+00,-0.000000000000000000e+00,9.997078536726814457e-01,-2.412897233221680468e-02,3.641239724590789137e+02
4.417279475648627218e-01,1.325113631186180285e+01,-3.600327006668119889e+00,-0.000000000000000000e+00,9.993857527372194127e-01,3.501595629905780022e-02,3.668740225112421740e+02
4.207802997648098509e-01,1.328572508099453664e+01,-3.644014826786373007e+00,-5.024135394086214346e-01,7.294793312443546007e-01,4.641535744837311239e-01,3.673254196823474444e+02
3.428476722337920335e-01,1.342323188549499591e+01,-3.787031497862228147e+00,-9.994701503667592357e-01,0.000000000000000000e+00,3.251797235700312760e-02,3.689782095755043656e+02
2.644934562281999191e-01,1.357182166688411051e+01,-3.912678396590427710e+00,7.294162694261995261e-01,5.001404990658139260e-01,4.667005325588473585e-01,3.706309994686612868e+02
1.864935344259708028e-01,1.373153654950855440e+01,-4.020741316638861917e+00,5.179124917774815540e-01,7.186022948425190293e-01,4.640855445973440796e-01,3.722837893618182079e+02
6.147064240244026756e-02,1.401072973767431940e+01,-4.168368522393657294e+00,9.997494087566204390e-01,0.000000000000000000e+00,-2.234098678772858740e-02,3.749852023376957391e+02
4.116312816091779320e-02,1.406037423034741352e+01,-4.188248819779670562e+00,8.506807646955935054e-01,5.164672500191656024e-01,9.798885770682407015e-02,3.754370040723335933e+02
-7.434281651502439026e-02,1.437142338255539009e+01,-4.277798327329964678e+00,0.000000000000000000e+00,1.173078338873062565e-01,9.930945937374117127e-01,3.781144303587176410e+02
-1.691320176580414503e-01,1.465710804722633753e+01,-4.331821296390483411e+00,1.182598423654877134e-01,0.000000000000000000e+00,9.929816764046089927e-01,3.804547655798012897e+02
-2.699369106851512434e-01,1.500205954611504744e+01,-4.367887795848652388e+00,9.994709311547830266e-01,0.000000000000000000e+00,3.249396525059583540e-02,3.831657672742510385e+02
-3.266092698680659878e-01,1.522519263138648071e+01,-4.375098842938864863e+00,1.270998420255764396e-03,1.158168560493799126e-01,9.932687654503878916e-01,3.848621306390451764e+02
-3.739240251610371213e-01,1.544191173347191537e+01,-4.368503277085436842e+00,-9.359985444617109109e-04,-1.157798199548898399e-01,9.932734553955192558e-01,3.864687383325978089e+02
-4.145839211567204918e-01,1.566252026579997469e+01,-4.349506450548774161e+00,-5.517134353491486287e-01,-8.267481538649975592e-01,1.099898874309023500e-01,3.880753460261504415e+02
-4.470377131054243391e-01,1.587641545138363064e+01,-4.320340495221629773e+00,-0.000000000000000000e+00,-9.993865585865699952e-01,3.499294952973203837e-02,3.896170804303950490e+02
-4.728602555768561810e-01,1.609088807432023671e+01,-4.281156853269546758e+00,5.227064052945151751e-01,-8.494460335488333014e-01,-7.223191781865063998e-02,3.911588148346396565e+02
-4.920313967162067148e-01,1.630424706174648009e+01,-4.232816852062855517e+00,6.333451559713262347e-01,-7.690113172291273003e-01,8.656504711766910276e-02,3.927005492388842640e+02
-5.076511703942836462e-01,1.656889515736021679e+01,-4.161542267709580578e+00,7.161627991337571331e-01,-6.547960603418490066e-01,2.415594429928816789e-01,3.946400530238337865e+02
-5.146667972096722332e-01,1.682708770467550963e+01,-4.080943644113430580e+00,7.675213880850808579e-01,-5.118174250513458645e-01,3.859427965995904097e-01,3.965795568087833090e+02
-5.131207773582757703e-01,1.707597198389627380e+01,-3.992228756640726850e+00,7.851648842971102882e-01,-3.463560665007077155e-01,5.133727492438737716e-01,3.985190605937328314e+02
-5.039150394021943979e-01,1.729400341716111456e+01,-3.904156900896890825e+00,7.683182579195574347e-01,-1.656802417913587344e-01,6.182516575220362576e-01,4.003049848893569447e+02
-4.869864188428790763e-01,1.749841845296841925e+01,-3.810703736201155767e+00,7.177215325872932095e-01,2.227346286210801773e-02,6.959724811470466843e-01,4.020909091849810579e+02
-4.622521656171100779e-01,1.768679081477828774e+01,-3.712752071061885761e+00,6.355972790766489799e-01,2.092487626605334106e-01,7.431211571181745024e-01,4.038768334806051712e+02
-4.342448486880682301e-01,1.783281013581779817e+01,-3.625444929062171973e+00,7.342455860396148726e-01,2.131448798310290049e-01,6.445546366064833776e-01,4.054108889543014698e+02
-3.994399535677396473e-01,1.796118300399292167e+01,-3.535611841179197690e+00,4.043452661999404896e-01,1.284836454643818737e-01,9.055356749187665200e-01,4.069449444279977683e+02
-3.577240694999848092e-01,1.807016700769019124e+01,-3.443841859556849183e+00,0.000000000000000000e+00,2.016697227948333407e-02,9.997956257306789274e-01,4.084789999016940669e+02
-3.088978826489017782e-01,1.815812235403020836e+01,-3.350669572035867905e+00,-0.000000000000000000e+00,2.016697226525468109e-02,9.997956250252806321e-01,4.100130553753903655e+02
-2.527245048418161888e-01,1.822345934256534861e+01,-3.256602337139099745e+00,-0.000000000000000000e+00,2.016697226524963651e-02,9.997956250250304988e-01,4.115471108490866641e+02
-1.600297746898835805e-01,1.828286529688239170e+01,-3.119484916792497398e+00,-0.000000000000000000e+00,1.705397560833250836e-02,9.998535699465991300e-01,4.137753540583346989e+02
-5.571529987101789261e-02,1.830378679598569747e+01,-2.982659895838298603e+00,-0.000000000000000000e+00,-2.786296520810808627e-02,9.996107518073192866e-01,4.160035972675827338e+02
3.775224575302494473e-02,1.828770107775434184e+01,-2.873260843159921585e+00,-0.000000000000000000e+00,1.519999199338746380e-02,9.998834733102782701e-01,4.177925781126367610e+02
1.485804589258392372e-01,1.823382734397944560e+01,-2.756113655905618742e+00,8.370268619317425829e-01,-1.940497361591901893e-01,5.115943044079408475e-01,4.197100005893018988e+02
2.700728502906497019e-01,1.814234873181861829e+01,-2.638277148341344969e+00,6.991536932645218139e-01,-5.387427636406402209e-01,-4.700407937818407156e-01,4.216274230659670366e+02
4.021110792952564128e-01,1.801255959307371057e+01,-2.518808741652588168e+00,4.595995113947056177e-01,-5.348094314382125791e-01,-7.090452462062019068e-01,4.235448455426321743e+02
5.279821532104651549e-01,1.786360696530576320e+01,-2.410917002419254107e+00,-4.199765354728743905e-01,-5.494543922601671238e-01,-7.223002010790892102e-01,4.252399311707904985e+02
6.627784259282836210e-01,1.768023269183727209e+01,-2.299952365980498126e+00,-8.217572942078683607e-01,1.566598654477408675e-02,5.696205107634852993e-01,4.269350167989488227e+02
8.195132768561242953e-01,1.744205602081432005e+01,-2.174481707017142718e+00,-8.065491171719335606e-01,5.798978478651099777e-02,5.883142922321119572e-01,4.287874910091637730e+02
9.744688308760536266e-01,1.718468400227615689e+01,-2.052991390469722788e+00,-7.894277701745567866e-01,1.001760078031421891e-01,6.056125519944570712e-01,4.305164043920318591e+02
1.138400530975667735e+00,1.689268777999712867e+01,-1.927289788384727975e+00,-7.704338655931752822e-01,1.421245944137617956e-01,6.214742620620069546e-01,4.322453177748999451e+02
1.287352424841181842e+00,1.661265307483303033e+01,-1.816141343807443187e+00,-7.496124563138124586e-01,1.837360472674556267e-01,6.358618012346928250e-01,4.337302406261237024e+02
1.356064474227536731e+00,1.647818757879817397e+01,-1.766506032446902630e+00,-7.270129289238149717e-01,2.249116686475268190e-01,6.487410442383414466e-01,4.343771228829025404e+02
1.532341981640601425e+00,1.612172187165833748e+01,-1.643392006071258127e+00,-7.067461122418333686e-01,2.098427303479358519e-01,6.756285675950340908e-01,4.359482980328901931e+02
1.717757748599463063e+00,1.573580928917049881e+01,-1.518250299837190731e+00,-6.855175859159508001e-01,1.944882475492620832e-01,7.015967224585355488e-01,4.375194731828778458e+02
1.895391800426980522e+00,1.535754448868279987e+01,-1.402815061865468449e+00,-6.633562363584595278e-01,1.788691135995819081e-01,7.266101732592400442e-01,4.389529461146747735e+02
2.122574287114631364e+00,1.486415140045359706e+01,-1.260948015493893459e+00,-6.402922192190009243e-01,1.630065819396390447e-01,7.506348834495542022e-01,4.407046881510376579e+02
2.359289042177707962e+00,1.434057833961270845e+01,-1.119081587820892398e+00,-6.163569183618599068e-01,1.469222371899858715e-01,7.736381618081394906e-01,4.424564301874005423e+02
2.605046603125090066e+00,1.378795214922100421e+01,-9.780551847192922033e-01,-5.915829031719651576e-01,1.306379657874111311e-01,7.955887069138161127e-01,4.442081722237634267e+02
2.859281226702356626e+00,1.320747929295369971e+01,-8.386086276398779793e-01,-5.660038842488654964e-01,1.141759262109192236e-01,8.164566497299264869e-01,4.459599142601263111e+02
3.231712179289142117e+00,1.234258360795011278e+01,-6.430129582936050525e-01,-5.396546675488052003e-01,9.755851883767351074e-02,8.362135942413281287e-01,4.484558067237550745e+02
3.465781842023916148e+00,1.179027916957931943e+01,-5.252587457912637481e-01,-5.125711070371220535e-01,8.080835546981783579e-02,8.548326560888174219e-01,4.499873625635356689e+02
3.705161255741042936e+00,1.121818385384008288e+01,-4.099200658560304689e-01,-4.847900559152110711e-01,6.394822857353754664e-02,8.722884991484841644e-01,4.515189184033162633e+02
3.949076087978224958e+00,1.062773067685363770e+01,-2.970100862735310376e-01,-4.563493164882261310e-01,4.700108027211385986e-02,8.885573700062722180e-01,4.530504742430968577e+02
4.196762530195775831e+00,1.002035797214775847e+01,-1.865419590281678641e-01,-4.272875887415352736e-01,2.998997113506263190e-02,9.036171302808612138e-01,4.545820300828774521e+02
4.447467311683606539e+00,9.397509333546162580e+00,-7.852882021790719147e-02,-6.622491380479902379e-01,2.485410075984064576e-02,7.488700506970885629e-01,4.561135859226580465e+02
4.700447713346806999e+00,8.760633558001305943e+00,2.701621003048601533e-02,-8.447736924589402951e-01,1.775028097822136525e-02,5.348273890289575450e-01,4.576451417624386409e+02
4.954971581370690714e+00,8.111184588371497028e+00,1.300800276457754756e-01,-9.604089825077182230e-01,9.240992439394801750e-03,2.784370492197749680e-01,4.591766976022192353e+02
5.210317340765797667e+00,7.450621456141444554e+00,2.306495446964454410e-01,-9.999989999998939449e-01,0.000000000000000000e+00,0.000000000000000000e+00,4.607082534419998296e+02
5.465774008792234184e+00,6.780408224085994640e+00,3.287116894752696306e-01,-9.985545130013319115e-01,5.372973602965170487e-02,-5.412770352605277146e-06,4.622398092817804240e+02
