2.137013339528540390e-01,-5.552066334497075317e+00,-4.494980782859096635e+00,1.016999272028791187e-02,-9.999472842346563972e-01,-0.000000000000000000e+00,1.294687750341608279e+01
6.677476200752054114e-02,-5.369067554024573141e+00,-4.973397130370303287e+00,-7.605428366503323712e-02,-9.277429151719173150e-01,3.653858635532152843e-01,1.480903517212450460e+01
-9.334175037556202703e-02,-5.175718130078926116e+00,-5.431761598681324799e+00,-1.511628377859311756e-01,-7.199440445606705152e-01,6.773687099166829650e-01,1.667119284083292641e+01
-1.829495425105471529e-01,-5.070419950989337288e+00,-5.665245511235589504e+00,-2.041781407790953795e-01,-4.069216422624666318e-01,8.903505286609441072e-01,1.765361083562638811e+01
-3.294007724846845231e-01,-4.903445923190910882e+00,-6.014993690807780347e+00,-2.273517451228120601e-01,-3.442569124801849595e-02,9.732029879591294064e-01,1.918144668493096106e+01
-4.868082548974807522e-01,-4.732678303179701729e+00,-6.342126153894311891e+00,-2.172967494851933412e-01,3.431016044486063787e-01,9.138169464882645032e-01,2.070928253423553400e+01
-6.561787747341326638e-01,-4.559091696028018781e+00,-6.641496851793081468e+00,-1.126989750472892488e-01,3.468574415348106843e-01,9.311212897758316398e-01,2.223711838354010695e+01
-8.380634397271865543e-01,-4.383796855190330355e+00,-6.909680684261165773e+00,-6.832858693473279482e-03,3.467096536060352285e-01,9.379465486566634924e-01,2.376495423284467989e+01
-1.105346495911193605e+00,-4.148655572702027783e+00,-7.211717689348477123e+00,9.911018020876259660e-02,3.426599026683531668e-01,9.342159082784050605e-01,2.581462986590314657e+01
-1.401624041434943679e+00,-3.917197569174573069e+00,-7.444017876793300736e+00,2.039378542712327880e-01,3.347537607935365811e-01,9.199713426120417203e-01,2.786430549896161324e+01
-1.678081540584534403e+00,-3.722808770463560624e+00,-7.595446429907854125e+00,-9.999989999999785439e-01,0.000000000000000000e+00,0.000000000000000000e+00,2.963371091153083725e+01
-1.970654728963704860e+00,-3.535016033380768974e+00,-7.707371522493421168e+00,-9.983881034473690574e-01,-0.000000000000000000e+00,-5.673794904931526994e-02,3.140311632410006126e+01
-2.277660036604938654e+00,-3.355191442147051006e+00,-7.781418702433077428e+00,-8.843571025916551198e-01,-1.795087652956265378e-01,4.309142818226626703e-01,3.317252173666928883e+01
-2.654419865117589872e+00,-3.157215714936102646e+00,-7.817501953235557188e+00,-5.200251729180356275e-01,-3.082108168069305765e-01,7.966039868945670177e-01,3.524485360914150789e+01
-3.047879836749375571e+00,-2.975185147506300254e+00,-7.796847886165601871e+00,-8.509987894274907705e-03,-3.496795025699235837e-01,9.368296673303707633e-01,3.731718548161372695e+01
-3.547156778802339705e+00,-2.779643550232385518e+00,-7.688787985162835348e+00,-5.300915303213886709e-01,-8.479392486978079013e-01,0.000000000000000000e+00,3.984732668583496462e+01
-3.921004954997939329e+00,-2.655475174008416150e+00,-7.555939283026185116e+00,-6.799996278746909119e-05,-9.702994690100186226e-02,9.952804553393387321e-01,4.169401875091510590e+01
-4.298079746717418992e+00,-2.544445946968132422e+00,-7.387046825425982455e+00,2.187648692053144051e-01,-3.412217959910214260e-01,9.141704534376682290e-01,4.354071081599524717e+01
-4.695770559553069212e+00,-2.442682317952042936e+00,-7.170901179920464941e+00,-2.272997664904146623e-03,5.869383970264737682e-01,-8.096271682538559444e-01,4.548502801563778775e+01
-5.039402765104241233e+00,-2.367047743135388238e+00,-6.954399299985055016e+00,9.726792459832658833e-02,0.000000000000000000e+00,9.952572284809116931e-01,4.717159914931144726e+01
-5.380258370189889838e+00,-2.303092793102756719e+00,-6.715016663400462882e+00,6.075376243261026987e-01,7.797075178639968351e-01,1.514999063192830064e-01,4.885817028298509967e+01
-5.391463529171552693e+00,-2.301180403200007163e+00,-6.706745306738237211e+00,0.000000000000000000e+00,5.892782266480418585e-01,-8.079289396970746884e-01,4.891389638844230348e+01
-5.711263176444564493e+00,-2.252293817126881148e+00,-6.460880213750469281e+00,5.293393743996578360e-01,8.484089973068609236e-01,-0.000000000000000000e+00,5.051398453533273170e+01
-6.026758747945669015e+00,-2.215105636949359802e+00,-6.199252345815506438e+00,0.000000000000000000e+00,-9.983890695289635575e-01,-5.672094713764394558e-02,5.211407268222315992e+01
-6.503802619282658348e+00,-2.179745413131601417e+00,-5.754918692689070525e+00,-0.000000000000000000e+00,-9.924842934746124223e-01,-1.223639128921116953e-01,5.461353278951893486e+01
-7.023849067990107109e+00,-2.163241092742393956e+00,-5.172927594726069778e+00,-0.000000000000000000e+00,9.999989999994923427e-07,9.999989999994924883e-01,5.755889355606510804e+01
-7.424126244059872981e+00,-2.155269126635745991e+00,-4.630738987955703045e+00,9.360262369457816867e-01,-2.510647953304686597e-01,2.466157989573173337e-01,6.010633580849721369e+01
-7.797399293100603757e+00,-2.136636588110885526e+00,-3.993535611735754109e+00,9.984358225256168007e-01,-0.000000000000000000e+00,-5.589193408557752846e-02,6.299307464477005425e+01
-8.015973973563561117e+00,-2.109590442135151012e+00,-3.491858173408451282e+00,9.973505985314402578e-01,-0.000000000000000000e+00,-7.273089779916236397e-02,6.524293661838004255e+01
-8.162726249404641976e+00,-2.068141653762129550e+00,-2.997841741384146719e+00,0.000000000000000000e+00,9.950482571507357488e-01,-9.938292580607746562e-02,6.749279859199003795e+01
-8.218955720113024555e+00,-2.002865874294635251e+00,-2.493192818180133052e+00,9.973505985893444947e-01,0.000000000000000000e+00,-7.273089780338498622e-02,6.988417700898770590e+01
-8.198434193068665721e+00,-1.944568901300229191e+00,-2.161750060639835880e+00,9.948943568806407622e-01,-0.000000000000000000e+00,-1.009119347685325796e-01,7.152344036060237897e+01
-8.111677579042863684e+00,-1.852648902019554455e+00,-1.757876027458396218e+00,9.879659589638223327e-01,-5.233847516208994625e-03,-1.545764236946849390e-01,7.359432021803705481e+01
-7.878888673753193572e+00,-1.685500443954051519e+00,-1.254888216431334413e+00,9.781178483123764700e-01,-1.045222640696684066e-02,-2.077840844948606325e-01,7.629843917353215943e+01
-7.758148096134780403e+00,-1.607584389777151346e+00,-1.067794351802545227e+00,9.653791272696489179e-01,-1.563971620649662331e-02,-2.603776870286376721e-01,7.733463552839180011e+01
-7.690700337551263921e+00,-1.564491782860678804e+00,-9.676833754173568281e-01,9.497874378597080947e-01,-2.078098770058433784e-02,-3.122018152205298103e-01,7.789101077776658144e+01
-7.561293490040222665e+00,-1.482396922803452144e+00,-7.828485787082283265e-01,6.548889190326085963e-01,-7.004290273887329166e-01,-2.837563767032711404e-01,7.892104193766662945e+01
-7.353867825868934283e+00,-1.352247822833108737e+00,-5.106207579568596833e-01,0.000000000000000000e+00,-9.950534475071183271e-01,-9.933094484754553810e-02,8.044738639663522406e+01
-7.126198638655309558e+00,-1.210920858750127005e+00,-2.405489268988729168e-01,0.000000000000000000e+00,-9.999989987078847786e-01,-5.075070868636704361e-05,8.197373085560381867e+01
-6.879857115781661037e+00,-1.059270808769966488e+00,2.730829488375329656e-02,0.000000000000000000e+00,-9.950635238591930554e-01,9.922995251817745554e-02,8.350007531457241328e+01
-6.735295519727960922e+00,-9.707830533486977442e-01,1.764952360101302020e-01,7.364161080999085396e-01,-4.016585135368970771e-01,-5.443893406704479743e-01,8.435532562772920073e+01
-6.354866124574359176e+00,-7.394935478826505371e-01,5.386424666992287724e-01,5.760832163300317887e-01,-5.993410883361652841e-01,-5.558024718319491964e-01,8.646411939583471451e+01
-6.056502931373121790e+00,-5.597171401967820925e-01,7.952682134427516703e-01,3.783536023995333064e-01,-7.581172033173414482e-01,-5.311354418456750714e-01,8.799682483877838024e+01
-5.744481834341575777e+00,-3.735883084294754353e-01,1.045176280131310032e+00,5.119696326534558528e-01,1.099999210732662775e-05,-8.590023836518086986e-01,8.952953028172204597e+01
-5.410771348652881230e+00,-1.771175358235430042e-01,1.292692033107023963e+00,5.460266787396227395e-01,4.932378978604279492e-03,-8.377520741439622443e-01,9.110419438554150418e+01
-5.064814770470377425e+00,2.311614713731969389e-02,1.528364824276719380e+00,5.791905933514194249e-01,9.845689286197840950e-03,-8.151314734238198634e-01,9.267885848936096238e+01
-4.707874469022264030e+00,2.253734245556801574e-01,1.749692339732456192e+00,6.114071392963789098e-01,1.474289552990714659e-02,-7.911775761730079903e-01,9.425352259318042059e+01
-4.341222905103332863e+00,4.279273414558253386e-01,1.954172364180770005e+00,6.426236280030985792e-01,1.961598864485107965e-02,-7.659295566247343867e-01,9.582818669699987879e+01
-3.966142593847633790e+00,6.290633637607170314e-01,2.139302798144310902e+00,0.000000000000000000e+00,-4.977924468361993871e-01,-8.672950362324267637e-01,9.740285080081933700e+01
-3.584211067388068717e+00,8.271873163639932303e-01,2.302623424875164471e+00,-5.347768302128170365e-02,-4.586618774759383954e-01,-8.869991091141621320e-01,9.897751490463879520e+01
-3.197584973684583609e+00,1.020937006127060176e+00,2.441757676980436109e+00,-1.066997757609360609e-01,-4.173392168364356003e-01,-9.024639250093903220e-01,1.005521790084582534e+02
-2.808713729142184867e+00,1.209079924639143711e+00,2.554370903048393426e+00,-1.594119142823611224e-01,-3.740219583006124671e-01,-9.136155735834732283e-01,1.021268431122777116e+02
-2.411071962589086404e+00,1.394456580593891992e+00,2.639339614201025253e+00,-2.113621718861626586e-01,-3.289171277843839225e-01,-9.204007580103722441e-01,1.037381329339357450e+02
-2.016374173117814195e+00,1.571267501510322351e+00,2.690833488122566397e+00,-2.623022630473630379e-01,-2.822402943726849966e-01,-9.227870496669505762e-01,1.053494227555937783e+02
-1.627329631496976292e+00,1.738240507432311066e+00,2.706293655492414185e+00,-3.119887299550322401e-01,-2.342145401352824785e-01,-9.207630431172659780e-01,1.069607125772518117e+02
-1.246655520548604734e+00,1.894130146528091307e+00,2.683161506368190619e+00,-3.601841059877963214e-01,-1.850693940419006200e-01,-9.143384106461525107e-01,1.085720023989098451e+02
-8.770768533245449916e-01,2.037717743777796908e+00,2.618878708605599126e+00,-4.066580505685181701e-01,-1.350397350675568153e-01,-9.035438560804669450e-01,1.101832922205678784e+02
-5.212665533187906819e-01,2.167811315488313628e+00,2.511324982311414544e+00,-4.511884499776717683e-01,-8.436466972616332716e-02,-8.884309681166270289e-01,1.117945820422259118e+02
-1.817855357124284754e-01,2.283244691520462943e+00,2.359255871143286498e+00,-4.935624788669210616e-01,-3.328638939276320347e-02,-8.690719738523738913e-01,1.134058718638839451e+02
1.394360781924671999e-01,2.382874811246997737e+00,2.163242805897897192e+00,-5.335776174014186246e-01,1.795098712835399221e-02,-8.455593936967856772e-01,1.150171616855419785e+02
4.416177300985510423e-01,2.465572154386001191e+00,1.926613155026622115e+00,-7.229140924238013355e-01,2.219040564648339930e-01,-6.543330991500391214e-01,1.166284515072000119e+02
7.245499019817609465e-01,2.530211000546513933e+00,1.654072390021237071e+00,-8.298326254818765291e-01,4.005665508801439789e-01,-3.884871321785606790e-01,1.182397413288580452e+02
9.880155755643794668e-01,2.575667345436218003e+00,1.350326240879058615e+00,-8.421254615534590204e-01,5.335627762548379449e-01,-7.831647706949211585e-02,1.198510311505160786e+02
1.231790237110232056e+00,2.600818947851884833e+00,1.020080662229046586e+00,-7.583686088086122323e-01,6.057115094631224661e-01,2.408082644040571707e-01,1.214623209721741119e+02
1.447940012688095024e+00,2.605180170143051477e+00,6.819273903271456660e-01,-5.881052489280235163e-01,6.087709815002380065e-01,5.324735749258020512e-01,1.230130338369359322e+02
1.646127290283995626e+00,2.589452005766966991e+00,3.283847645231686707e-01,-3.507653980897972312e-01,5.423920573160105896e-01,7.633953703327245321e-01,1.245637467016977524e+02
1.826095291441623969e+00,2.553130232175515602e+00,-3.654520493312365254e-02,-7.343745130013765166e-02,4.141582747832320277e-01,9.072363881820773024e-01,1.261144595664595727e+02
1.987494171687444577e+00,2.496620563837510076e+00,-4.089317611578345835e-01,2.122422129285937709e-01,2.387079639721212121e-01,9.476126587014722658e-01,1.276651724312213929e+02
2.129931629301323071e+00,2.420785644349575882e+00,-7.848797621925815982e-01,4.737066590238725450e-01,3.605097405035101454e-02,8.799433666129115039e-01,1.292158852959832132e+02
2.253019938673776590e+00,2.326491435524431939e+00,-1.160494042326580155e+00,3.231130308860172273e-01,2.966096776122240097e-02,9.458943895920182143e-01,1.307665981607450192e+02
2.356375959565127243e+00,2.214607191162477839e+00,-1.531879438065580246e+00,1.637731169484087090e-01,2.246807354469908952e-02,9.862411225631508849e-01,1.323173110255068252e+02
2.439621146309285393e+00,2.086005430783392178e+00,-1.895140814100793047e+00,0.000000000000000000e+00,1.466699169439773104e-02,9.998914337829643006e-01,1.338680238902686312e+02
2.502381556962119724e+00,1.941561913317972232e+00,-2.246383089277673051e+00,-2.225208031689380472e-01,1.429925928353140661e-02,9.748220470122578307e-01,1.354187367550304373e+02
2.544287862394356559e+00,1.782155610760446152e+00,-2.581711262564428289e+00,-4.338834579922742352e-01,1.321450182347774262e-02,9.008709795650648999e-01,1.369694496197922433e+02
2.565366282110045582e+00,1.608667436978205689e+00,-2.897043969491631010e+00,-6.234893436670542188e-01,1.146711392637224554e-02,7.817464701757822487e-01,1.385201624845540493e+02
2.566429509634892803e+00,1.421973997005121504e+00,-3.189062454474817176e+00,-7.818308324573822743e-01,9.144717320985078918e-03,6.234219466499224538e-01,1.400708753493158554e+02
2.547725684539413837e+00,1.217304990500103656e+00,-3.462986381863013108e+00,-9.009680404981160740e-01,6.363766957469701481e-03,4.338364812598551334e-01,1.416629677535833309e+02
2.510035676678442407e+00,1.000230409984537383e+00,-3.710234703294995828e+00,-9.749269581914851157e-01,3.263711344714332468e-03,2.224966839768939553e-01,1.432550601578508065e+02
2.454712198928775457e+00,7.716855765063380668e-01,-3.930698014452878919e+00,-9.999989999999999712e-01,0.000000000000000000e+00,0.000000000000000000e+00,1.448471525621182820e+02
2.383331489622811272e+00,5.329261052853803138e-01,-4.124566117068426685e+00,-0.000000000000000000e+00,1.466699169441398713e-02,9.998914337840726363e-01,1.464392449663857576e+02
2.297914378879633013e+00,2.858588660336854881e-01,-4.292627035419281256e+00,-0.000000000000000000e+00,1.283359949792153495e-02,9.999166458213729625e-01,1.480313373706532332e+02
2.200711882198759017e+00,3.270379534536072691e-02,-4.435967992954815031e+00,-0.000000000000000000e+00,1.100016469879236403e-02,9.999384962304442848e-01,1.496234297749207087e+02
2.093988080387975792e+00,-2.243414554203969347e-01,-4.555676386819343726e+00,-0.000000000000000000e+00,9.166693345452095812e-03,9.999569848750071710e-01,1.512155221791881843e+02
1.980020051705837947e+00,-4.831015987080445329e-01,-4.652839780207424170e+00,-0.000000000000000000e+00,7.333191487407806144e-03,9.999721116960981204e-01,1.528076145834556598e+02
1.861097803829970587e+00,-7.414237890310161339e-01,-4.728545894718268805e+00,-0.000000000000000000e+00,5.499665174252019867e-03,9.999838766452151528e-01,1.543997069877231354e+02
1.739524205651618916e+00,-9.971777009328673946e-01,-4.783882602709336851e+00,-0.000000000000000000e+00,3.666120455647347686e-03,9.999922796843190298e-01,1.559917993919906110e+02
1.617614918896904896e+00,-1.248255606643489113e+00,-4.819937919649121660e+00,-0.000000000000000000e+00,1.832563381311126064e-03,9.999973207858320334e-01,1.575838917962580865e+02
1.497698329575237297e+00,-1.492572453429635182e+00,-4.837799996469192010e+00,-0.000000000000000000e+00,-9.999989999326389967e-07,9.999989999326391876e-01,1.591759842005255621e+02
1.378723370699231676e+00,-1.735082311263039134e+00,-4.838049223864663517e+00,-4.595974337851653768e-01,-8.868719073915704021e-01,4.718494186909653193e-02,1.608177560236051704e+02
1.267071583861432149e+00,-1.965776391780377441e+00,-4.820903721422046040e+00,-4.612535604140130530e-01,-8.700614615919086692e-01,1.738856119964489466e-01,1.624595278466847788e+02
1.165057530672392483e+00,-2.182824408879119549e+00,-4.787985696306108707e+00,-4.553735294789476584e-01,-8.390355797232131874e-01,2.977452679889671661e-01,1.641012996697643871e+02
1.075481095166086920e+00,-2.383126864876844664e+00,-4.741510169960346133e+00,-4.420534108297199394e-01,-7.943011747268758915e-01,4.167402378013100317e-01,1.657303144908346439e+02
9.993971429960414321e-01,-2.567114341573121905e+00,-4.683096711744673790e+00,-4.215108336596499194e-01,-7.365891353542363129e-01,5.289263302077095164e-01,1.673593293119049008e+02
9.383042058587351963e-01,-2.733888431532162322e+00,-4.614620475926518139e+00,-3.940814308750894002e-01,-6.668423847545676963e-01,6.324705998982150801e-01,1.689883441329751577e+02
8.866423708712903862e-01,-2.938881116423764261e+00,-4.495495241921184437e+00,-3.602133554560815187e-01,-5.862004747177074204e-01,7.256812950552808950e-01,1.713957818958127746e+02
8.811362392317644288e-01,-3.065088093200148744e+00,-4.387983792489774437e+00,-3.204599583913859129e-01,-4.959809672590523300e-01,8.070354980952547663e-01,1.733093333169784671e+02
9.037735045603617623e-01,-3.163716175586738899e+00,-4.273917813261396859e+00,-2.754707478115899777e-01,-3.976579077323691980e-01,8.752040079429020958e-01,1.752228847381441597e+02
9.488728025563298862e-01,-3.232630899502000776e+00,-4.164582751637061264e+00,-2.259807770311738628e-01,-2.928377411851815215e-01,9.290730572733379988e-01,1.769943616397087567e+02
1.015951178469072014e+00,-3.282473915136095322e+00,-4.053420108730118265e+00,-1.727986348845736153e-01,-1.832330654544356285e-01,9.677625098687611116e-01,1.787658385412733537e+02
1.104489883140573614e+00,-3.315026160854595005e+00,-3.941641172535488291e+00,-1.167932345822824958e-01,-7.063464985268261276e-02,9.906402407520576991e-01,1.805373154428379507e+02
1.213114105748558602e+00,-3.332343801703511854e+00,-3.829578556504646514e+00,-5.887961694698498616e-02,4.311782336168062946e-02,9.973324641352270259e-01,1.823087923444025478e+02
1.339451565529138355e+00,-3.336180272796915425e+00,-3.716768189798588917e+00,-3.999995304135556337e-06,1.561658166664083303e-01,9.877298404372794050e-01,1.840802692459671448e+02
1.471778498598042662e+00,-3.329061837461285034e+00,-3.609304122182964036e+00,-5.642119644473542195e-01,1.245043916046409266e-01,8.161871817461057166e-01,1.857479976157101191e+02
1.614413016929243883e+00,-3.313036177180362252e+00,-3.500077633453592352e+00,-9.316450307558165056e-01,4.942071888287689896e-02,3.599904571153251243e-01,1.874157259854530935e+02
1.751473590544194270e+00,-3.291570426963351448e+00,-3.398278055662498964e+00,-9.741568796143648123e-01,-4.289895066157300985e-02,-2.217567449557902581e-01,1.889390883555622622e+02
1.892579680427477706e+00,-3.263971685242585963e+00,-3.293853845407701098e+00,-9.955242502251903103e-01,-2.667385807920092528e-02,-9.065303364766350014e-02,1.904624507256714310e+02
2.035458084103032750e+00,-3.229732200684225951e+00,-3.185923075844676600e+00,-9.990637368470621782e-01,-9.971092811338575293e-03,4.207406595869406241e-02,1.919858130957805997e+02
2.208719143964801290e+00,-3.175506610896123849e+00,-3.046627736659239805e+00,-9.847119642355641744e-01,6.910232711821360195e-03,1.740476836279798156e-01,1.938525587422797400e+02
2.374688964856011442e+00,-3.103796607513865879e+00,-2.897043199242590905e+00,-9.527259479615685089e-01,2.366780883293338050e-02,3.029044451751040645e-01,1.957193043887788804e+02
2.580927599491540381e+00,-2.948038346679311861e+00,-2.656996511455303356e+00,-9.036784912779521894e-01,4.000154208201782413e-02,4.263367929625916375e-01,1.984406693608128194e+02
2.673129492405070362e+00,-2.834381779599270512e+00,-2.516178939535471670e+00,-8.384479280486415442e-01,5.561892889148582070e-02,5.421343068840803747e-01,1.999363587990146698e+02
2.804140568924377241e+00,-2.520399276191434002e+00,-2.222164567988352157e+00,-9.727213347637564400e-01,-1.400661778102426924e-01,1.849126029521438175e-01,2.029129500469389313e+02
2.858307954031739317e+00,-2.124827450576839638e+00,-1.948721780566532669e+00,-9.280823581543984346e-01,-3.099889712158148680e-01,-2.063200770849886456e-01,2.055053673847398272e+02
2.872055784737965300e+00,-1.805118194781160756e+00,-1.760254353734965305e+00,-7.127413081394902150e-01,-4.228955894937548865e-01,-5.596044567899737254e-01,2.072214651416229287e+02
2.873942190092917404e+00,-1.445891686196947301e+00,-1.566986820321755403e+00,-9.695212002302272536e-01,-2.437763477003017654e-01,-2.448947950913191174e-02,2.089375628985060303e+02
2.864919752299506239e+00,-1.044801997094300328e+00,-1.368688933344853087e+00,-8.536475879973068892e-01,2.904298598275376064e-02,5.200387490095819132e-01,2.106536606553891318e+02
2.844996638239750464e+00,-5.863822795811054478e-01,-1.159107827093392551e+00,-4.015486972678312116e-01,-7.363974448215194757e-01,-5.444955894985293865e-01,2.124193393247330448e+02
2.815016398063857395e+00,-8.004982190022780220e-02,-9.435956526248626686e-01,-4.933771398463758229e-01,-6.647129393277855236e-01,-5.610113244555862133e-01,2.141850179940769578e+02
2.781794815434748713e+00,3.987004211586043789e-01,-7.508578488730695000e-01,-5.783752938972727131e-01,-5.838262067658938070e-01,-5.697604581777231392e-01,2.157256422970113476e+02
2.742879693268999386e+00,9.084550897961156668e-01,-5.539746953915594130e-01,-6.553664573600833654e-01,-4.948570365055502962e-01,-5.706218712848323271e-01,2.172662665999457374e+02
2.698413222561940827e+00,1.447788528166028987e+00,-3.528899484028406586e-01,-7.232847758249012493e-01,-3.990371081971366696e-01,-5.635836400588407624e-01,2.188068909028801272e+02
2.648485411711106963e+00,2.014941705951793338e+00,-1.476275008762030772e-01,-7.811899972886898746e-01,-2.976929410476416016e-01,-5.487432013126496422e-01,2.203475152058145170e+02
2.543728747715920946e+00,3.053995699158799315e+00,2.126729391618101261e-01,-8.282804882722780704e-01,-1.922275303858213547e-01,-5.263060034898702222e-01,2.229568572653024887e+02
2.465473608128744942e+00,3.746627506451553735e+00,4.445909013121873699e-01,-8.639043311875370668e-01,-8.410092563694859802e-02,-4.965826626681347777e-01,2.245814899898486487e+02
2.380267146162475367e+00,4.458680881198189283e+00,6.798987094346861104e-01,-8.875683493731684193e-01,2.518998153463010772e-02,-4.599846628109103275e-01,2.262061227143948088e+02
2.287630285766702798e+00,5.185032771127406015e+00,9.177012633293739619e-01,-8.528136793249785352e-01,-6.172975785960676393e-02,-5.185520854754590570e-01,2.278307554389409688e+02
2.152475683240737236e+00,6.139223944360129082e+00,1.227731595095326478e+00,-8.076605842958838322e-01,-1.478967970649248953e-01,-5.707967396483546452e-01,2.299361849680944658e+02
1.995949779614428321e+00,7.095994851934819714e+00,1.537096841411680792e+00,-7.526596267913790994e-01,-2.322604968173776208e-01,-6.160816080821295282e-01,2.320416144972479628e+02
1.837205948726448046e+00,7.940686417638980643e+00,1.810036094035712084e+00,-6.884814425948697636e-01,-3.137922082021483150e-01,-6.538545352560858337e-01,2.339228117885992333e+02
1.659743281170499740e+00,8.764225799352644231e+00,2.076505903246918638e+00,-6.159085632527704357e-01,-3.914978143964186197e-01,-6.836549590515076380e-01,2.358040090799505037e+02
1.461066882011169632e+00,9.555126570231768923e+00,2.332786641790585147e+00,-5.358258745398311040e-01,-4.644298512097265741e-01,-7.051195256692295299e-01,2.376852063713017742e+02
1.262932121027528609e+00,1.023132086700569943e+01,2.551787216322874752e+00,-4.492098272507912826e-01,-5.316990587248318079e-01,-7.179865194093288938e-01,2.393772263515389511e+02
1.045129595024697267e+00,1.086793669032051390e+01,2.757237056867706926e+00,-3.571165318403164424e-01,-5.924852232852025891e-01,-7.220990533687627888e-01,2.410692463317761280e+02
8.053913168347589524e-01,1.145731096319737574e+01,2.945912531415932900e+00,-2.634564478978078106e-01,-6.312863094887297688e-01,-7.294287460161351655e-01,2.427612663120133050e+02
5.030763172980468045e-01,1.205096730274100381e+01,3.132275076129235281e+00,-1.670744680560803663e-01,-6.635652735947786818e-01,-7.292223596437114042e-01,2.446723705017103612e+02
1.618541440588519009e-01,1.255176748813932441e+01,3.282886838915520578e+00,-6.896635763840437694e-02,-6.889886266727258679e-01,-7.214820259931258306e-01,2.465834746914074174e+02
-1.521650368209128135e-01,1.289524000008071880e+01,3.379133976246764259e+00,2.985428440869982575e-02,-7.072937074396852264e-01,-7.062877127063779126e-01,2.481763902549058116e+02
-4.921251527818876204e-01,1.316984489703677497e+01,3.447443134850431967e+00,1.283664970748894796e-01,-7.182913959434832352e-01,-6.837963972876067720e-01,2.497693058184042059e+02
-8.571702056363303956e-01,1.337229444522315980e+01,3.483628802984429118e+00,2.255525049570100415e-01,-7.218680675530935176e-01,-6.542404455212731396e-01,2.513622213819026001e+02
-1.274045798625011994e+00,1.351474531223085762e+01,3.478188535544810556e+00,3.204082331038995424e-01,-7.179867670599495710e-01,-6.179252110789651420e-01,2.530850393346039482e+02
-1.703564827574656215e+00,1.359052641857009291e+01,3.416580739158781910e+00,4.119536804284944509e-01,-7.066875907424828851e-01,-5.752258810874115724e-01,2.548078572873052963e+02
-2.089984565497726710e+00,1.361734135986982430e+01,3.309335403801658693e+00,4.992430445314695597e-01,-6.880872724223997539e-01,-5.265836002173591712e-01,2.563537788340681800e+02
-2.468311291718680689e+00,1.361827308790477709e+01,3.149710202255381120e+00,5.813744933368881762e-01,-6.623779777606501051e-01,-4.725009133064755895e-01,2.578997003808310637e+02
-2.830106160946565641e+00,1.360257332561031873e+01,2.932193936836859915e+00,6.574994825767608297e-01,-6.298253192192414529e-01,-4.135365735723852132e-01,2.594456219275939475e+02
-3.167887400729032077e+00,1.357815734972070665e+01,2.654948520185060890e+00,7.268315228416425411e-01,-5.907656121676890804e-01,-3.502997700313516538e-01,2.609915434743568312e+02
-3.568960673513350557e+00,1.353980976664466951e+01,2.176728354958856304e+00,9.796526068681459254e-01,-0.000000000000000000e+00,2.006957145972041445e-01,2.630983951370834575e+02
-3.818727168595652088e+00,1.351171605096101480e+01,1.755527978979087633e+00,9.796526061767043547e-01,-0.000000000000000000e+00,2.006957144555525374e-01,2.646719166653975890e+02
-4.027561234928633382e+00,1.348827760405010778e+01,1.301652108995474011e+00,9.994220091165006981e-01,-0.000000000000000000e+00,3.396538964094672486e-02,2.662454381937117205e+02
-4.221431399793680761e+00,1.347757094126715671e+01,4.364732327469555972e-01,9.910178181062265779e-01,-0.000000000000000000e+00,-1.337224147093227788e-01,2.690423153242666103e+02
-4.193730609238627061e+00,1.350295655100632075e+01,-2.439862533057218785e-01,9.546769266714698610e-01,-0.000000000000000000e+00,-2.976406653671949121e-01,2.711813290364380578e+02
-4.026845603790672357e+00,1.355640005935371661e+01,-8.903380077365220524e-01,8.079948478052705330e-01,-0.000000000000000000e+00,-5.891878528280551919e-01,2.733203427486095052e+02
-3.763880873196064680e+00,1.362617277898208457e+01,-1.418041905997643459e+00,5.752485914330829342e-01,-0.000000000000000000e+00,-8.179774190363656716e-01,2.752575089428830779e+02
-3.461361727058252846e+00,1.369923358733556462e+01,-1.818454481990001037e+00,5.764363127145946120e-01,-1.163998612163667920e-03,-8.171400257233949471e-01,2.769460215713796742e+02
-3.398435645010251971e+00,1.371384384761200614e+01,-1.887846948820732784e+00,4.301035175188462900e-01,3.026596604827065662e-02,9.022709878512278348e-01,2.772638023249403432e+02
-2.928982198288202721e+00,1.381480203192083067e+01,-2.264267496595997908e+00,9.997494087566847210e-01,0.000000000000000000e+00,-2.234098678773002375e-02,2.793519319047393878e+02
-2.726505044946845313e+00,1.385502945414711640e+01,-2.372999459655630972e+00,7.342455860438331650e-01,2.131448798322535254e-01,6.445546366101863045e-01,2.801474229694475184e+02
-2.598229480049096374e+00,1.387990214981969750e+01,-2.436334969265559369e+00,9.994709311542702146e-01,0.000000000000000000e+00,3.249396525057916124e-02,2.806420738369828314e+02
-2.132924708489653209e+00,1.395918068575726600e+01,-2.603660709250998906e+00,8.506807646955678592e-01,5.164672500191499482e-01,9.798885770682111418e-02,2.823526598806212746e+02
-1.637296215854082027e+00,1.401837864644421039e+01,-2.678950620187618092e+00,5.227064052949741413e-01,-8.494460335495790382e-01,-7.223191781871404760e-02,2.840632459242597179e+02
-1.062628180657198440e+00,1.404833311117216077e+01,-2.651691027068766804e+00,4.799950299227830897e-01,-7.359499830664044673e-01,4.774729245465858529e-01,2.860001234538141830e+02
-5.011474875915056248e-01,1.404169558244362115e+01,-2.500420006114844718e+00,2.851819965347557884e-01,-3.892448189786237300e-01,8.758753905389506933e-01,2.879370009833686481e+02
-3.589365505445482052e-01,1.403580786839806827e+01,-2.443741843122371638e+00,0.000000000000000000e+00,8.080491350128886363e-02,9.967289330380502133e-01,2.884420932743479966e+02
-4.996106377672817483e-02,1.402031120875041381e+01,-2.303704942080589291e+00,-0.000000000000000000e+00,-5.697617808899569924e-01,-8.218086839617149142e-01,2.895637433614400038e+02
4.524960703142448804e-01,1.398291656504985170e+01,-1.962675627959133973e+00,-0.000000000000000000e+00,-5.323283068782587168e-01,-8.465368117776891355e-01,2.915982218871575924e+02
7.683646100999522721e-01,1.394970976543697638e+01,-1.631328260126003515e+00,-0.000000000000000000e+00,-4.938233987352205201e-01,-8.695610679305032509e-01,2.931261772873576206e+02
1.027321152191262632e+00,1.391678732822822795e+01,-1.249986273011964855e+00,-0.000000000000000000e+00,-4.543245574844805845e-01,-8.908351118279945746e-01,2.946541326875576488e+02
1.221427881606041543e+00,1.388688734363699062e+01,-8.233408954620117237e-01,-0.000000000000000000e+00,-4.139112844814658576e-01,-9.103161256278926583e-01,2.961820880877576769e+02
1.346979997978143384e+00,1.386134418827389148e+01,-3.586124003452761944e-01,-0.000000000000000000e+00,-3.726649213982414222e-01,-9.279649003915567684e-01,2.977100434879577051e+02
1.389966727611746000e+00,1.383747920568944956e+01,2.750533943881383614e-01,-0.000000000000000000e+00,-3.306684865078692304e-01,-9.437459149740694553e-01,2.996424975149617467e+02
1.292292192579395760e+00,1.382412278154674290e+01,9.476394698849853748e-01,-0.000000000000000000e+00,-2.880065075978723854e-01,-9.576274074926462987e-01,3.015749515419657882e+02
1.067250714807911338e+00,1.381843235371175815e+01,1.640073373490500641e+00,-0.000000000000000000e+00,-2.447648518489481118e-01,-9.695814392299983986e-01,3.035074055689698298e+02
7.779335948885740537e-01,1.381578874647684074e+01,2.264910819648601858e+00,-0.000000000000000000e+00,-2.010305530211205227e-01,-9.795839508444886823e-01,3.052431107428334940e+02
4.269995545823725980e-01,1.381118000088017617e+01,2.880580691099834834e+00,-0.000000000000000000e+00,-1.568916362948812315e-01,-9.876148107743683013e-01,3.069788159166971582e+02
3.307303213120059149e-01,1.380948147216426136e+01,3.034770853276220759e+00,-0.000000000000000000e+00,-1.124369411195331320e-01,-9.936578557390562949e-01,3.074191170015756143e+02
-5.044936571626219834e-02,1.379826880312023363e+01,3.605621784245466532e+00,-0.000000000000000000e+00,-6.775594242491365937e-02,-9.977009232562761287e-01,3.090826228308427517e+02
-4.577734206145888662e-01,1.377480024830143179e+01,4.151190422667089486e+00,-0.000000000000000000e+00,-2.293857055592632768e-02,-9.997358761098849023e-01,3.107461286601098891e+02
-9.072626398874182874e-01,1.372857821391607303e+01,4.696646001553322236e+00,-0.000000000000000000e+00,2.192496970815207419e-02,-9.997586187193668872e-01,3.125187012298287641e+02
-1.358413903993323846e+00,1.365166394558895391e+01,5.197288725836845202e+00,6.008035540474822023e-01,8.946493359374771415e-02,-7.943734103682975611e-01,3.142912737995476391e+02
-1.827879660195545597e+00,1.352156164751983880e+01,5.677501572466430169e+00,9.968779763714677999e-01,0.000000000000000000e+00,-7.894491893664680460e-02,3.162045701443610142e+02
-2.258207778806713861e+00,1.332874898716262280e+01,6.085616589573956681e+00,9.192066462779747704e-01,-3.800321240750956231e-01,-1.031151109699763313e-01,3.181178664891743892e+02
-2.278586854234147641e+00,1.331731505108375835e+01,6.104223587856005828e+00,7.026966977436853723e-01,-7.026635675997120467e-01,-1.117106160978652146e-01,3.182140563109689992e+02
-2.624649544355130537e+00,1.307656541854550092e+01,6.413694302420064552e+00,3.800501119163345320e-01,-9.191634765561695897e-01,-1.034331465158661312e-01,3.199792790965235554e+02
-2.910173556914042337e+00,1.277711079104442682e+01,6.658791842324086829e+00,0.000000000000000000e+00,-9.968312352734686188e-01,-7.953293898571152376e-02,3.217445018820781115e+02
-3.139329331278443824e+00,1.239815888099120045e+01,6.848357292816998232e+00,4.966409168682166531e-01,-8.612042423340221520e-01,-1.080419024214673562e-01,3.236579681635880661e+02
-3.275191977690953937e+00,1.198239269115946826e+01,6.956852387710907415e+00,8.612447361517847622e-01,-4.966174374190045482e-01,-1.078268301637040766e-01,3.255714344450980207e+02
-3.310696050122563960e+00,1.155286324488718819e+01,6.986111455632300959e+00,9.968779763718004228e-01,-0.000000000000000000e+00,-7.894491893667315852e-02,3.274849007266079752e+02
-3.258488909402283529e+00,1.118031313096002854e+01,6.951501003522504440e+00,0.000000000000000000e+00,-0.000000000000000000e+00,-9.999989999999968626e-01,3.291690459113141287e+02
-3.131943160016108507e+00,1.082695139688749997e+01,6.866036361708252045e+00,9.968779763717972031e-01,-0.000000000000000000e+00,-7.894491893667289484e-02,3.308531910960202822e+02
-2.936379507104570852e+00,1.050435482432496137e+01,6.732310161738366716e+00,0.000000000000000000e+00,-0.000000000000000000e+00,-9.999989999999968626e-01,3.325373362807264357e+02
-2.681397928695643973e+00,1.022191686483174422e+01,6.553574913647281619e+00,-9.968817776734306690e-01,-0.000000000000000000e+00,-7.889690326056383873e-02,3.342214814654325892e+02
-2.357681578687471635e+00,9.974933291792826395e+00,6.317288163143516044e+00,-0.000000000000000000e+00,9.968731427319725835e-01,-7.900593205829646581e-02,3.360098362883581444e+02
-1.993608803028973586e+00,9.790341901990810669e+00,6.036199098958192621e+00,-0.000000000000000000e+00,9.968731420280737554e-01,-7.900593200250984049e-02,3.377981911112836997e+02
-1.605256752510068052e+00,9.675104584262971485e+00,5.714531750717964265e+00,4.662972870394387348e-01,1.652197473818374854e-02,-8.844726476564782613e-01,3.395865459342092549e+02
-1.108517936042082708e+00,9.657025033354099008e+00,5.252430981417156808e+00,-9.796745246594773526e-01,0.000000000000000000e+00,2.005886979235174394e-01,3.418331500898481181e+02
-6.336799396838045384e-01,9.810920028575390361e+00,4.726778843570937028e+00,4.896725565856746565e-01,1.691298468474576946e-02,-8.717412106101605218e-01,3.440797542454869813e+02
-2.613065253906858287e-01,1.007324489295741010e+01,4.230420931271980933e+00,3.588155418935203844e-01,-5.920762440852410657e-01,-7.215920787299647809e-01,3.460221404963771192e+02
6.793130430487513693e-02,1.041293460674889992e+01,3.705337575516281401e+00,0.000000000000000000e+00,-8.566789209259183246e-02,-9.963227450303434596e-01,3.479645267472672572e+02
3.414150635955199298e-01,1.077041079080810171e+01,3.177345326027586125e+00,-4.285861146135955257e-01,-8.488832254786085607e-02,-8.995031489977057815e-01,3.498381785749494952e+02
5.418731775106216952e-01,1.107133950289656177e+01,2.711389538122945364e+00,-7.744289291514477869e-01,-6.772012124676549116e-02,-6.290244978322703240e-01,3.514450610823338934e+02
7.115297384552208282e-01,1.134434117456916624e+01,2.236068520996083109e+00,-9.707596311978972103e-01,-3.747780706756668329e-02,-2.371057831763591361e-01,3.530519435897182916e+02
8.482020650445366572e-01,1.157302896536026715e+01,1.762167132592246332e+00,-9.796745246597445833e-01,-0.000000000000000000e+00,2.005886979235721457e-01,3.546314714484562955e+02
9.567035286737983757e-01,1.176261992725249250e+01,1.285203840108663398e+00,-9.796745239680101358e-01,-0.000000000000000000e+00,2.005886977819393013e-01,3.562109993071942995e+02
1.039021731142313998e+00,1.191925037830544909e+01,8.088942438387838330e-01,-9.987421919058823150e-01,-0.000000000000000000e+00,-5.012019659993331017e-02,3.577905271659323034e+02
1.097223840565476172e+00,1.204959911125598815e+01,3.350400217442159878e-01,-9.546707119062373126e-01,-0.000000000000000000e+00,-2.976605983800955091e-01,3.593760263130449175e+02
1.133032855606421974e+00,1.215919216736150865e+01,-1.311037214914835269e-01,-8.075785913881418088e-01,9.661686516775521956e-04,-5.897574800289399066e-01,3.609615254601575316e+02
1.148886437869863997e+00,1.225379815482592427e+01,-5.852270291823831183e-01,-5.741094903284836848e-01,1.828998376288161953e-03,-8.187752731239562598e-01,3.625427489596182227e+02
1.147394163372414733e+00,1.233942667227196033e+01,-1.025878460483111043e+00,-5.759863544736036900e-01,0.000000000000000000e+00,-8.174580838484853951e-01,3.641239724590789137e+02
1.095229970517577645e+00,1.248332853879088411e+01,-1.734209083735715806e+00,-0.000000000000000000e+00,-9.950635238632309365e-01,9.922995251858010568e-02,3.668740225112421740e+02
1.080716608796538525e+00,1.250708146323240655e+01,-1.842833385512866462e+00,-0.000000000000000000e+00,6.173201710508705031e-02,9.980917581504956670e-01,3.673254196823474444e+02
1.021311083276085885e+00,1.259812824178144552e+01,-2.228519906333344291e+00,-0.000000000000000000e+00,9.997078536607103549e-01,-2.412897233192787261e-02,3.689782095755043656e+02
9.513260876243557762e-01,1.269867955312354013e+01,-2.590934122615065505e+00,-0.000000000000000000e+00,9.997078529671034053e-01,-2.412897231518696187e-02,3.706309994686612868e+02
8.728130625167817014e-01,1.281199277869699493e+01,-2.928525640858189671e+00,-7.142513392294299601e-01,-6.601633892674538817e-01,-2.324377849663847861e-01,3.722837893618182079e+02
7.275272759428671465e-01,1.304669851999597086e+01,-3.400187180265961118e+00,-0.000000000000000000e+00,9.993857527527760798e-01,3.501595629960285727e-02,3.749852023376957391e+02
7.014231673356485786e-01,1.309249508809921991e+01,-3.468882104724426263e+00,-9.994701503669276565e-01,0.000000000000000000e+00,3.251797235700860933e-02,3.754370040723335933e+02
5.441959144109537183e-01,1.340778789063961085e+01,-3.815443111175905955e+00,-5.024135394087879680e-01,7.294793312445962963e-01,4.641535744838849453e-01,3.781144303587176410e+02
4.069841212046713674e-01,1.375064871837585656e+01,-4.029088062476351872e+00,5.179124917786145366e-01,7.186022948440912161e-01,4.640855445983594896e-01,3.804547655798012897e+02
2.593253037653672766e-01,1.422982787648721548e+01,-4.178335593586951724e+00,0.000000000000000000e+00,1.173078338872851206e-01,9.930945937372328558e-01,3.831657672742510385e+02
1.755685874637375188e-01,1.457056450949377790e+01,-4.225608960804615677e+00,1.270998419732385096e-03,1.158168560016881454e-01,9.932687650413736247e-01,3.848621306390451764e+02
1.024076581000660929e-01,1.491279947761897340e+01,-4.249614125509909357e+00,-5.517134353491606191e-01,-8.267481538650153228e-01,1.099898874309047370e-01,3.864687383325978089e+02
3.562579450996622432e-02,1.527164266461639741e+01,-4.255942274895488708e+00,-9.359985444648231132e-04,-1.157798199552748097e-01,9.932734553988218362e-01,3.880753460261504415e+02
-2.234999190373174530e-02,1.562930441078287558e+01,-4.247426918239987081e+00,1.182598423654860065e-01,0.000000000000000000e+00,9.929816764045947819e-01,3.896170804303950490e+02
-7.448470244640627291e-02,1.599742949404624781e+01,-4.226543331502293555e+00,0.000000000000000000e+00,-9.993865585873622503e-01,3.499294952975978007e-02,3.911588148346396565e+02
-1.209658134205005148e-01,1.637349440667815514e+01,-4.194770220770975833e+00,7.294162694264078040e-01,5.001404990659567007e-01,4.667005325589805298e-01,3.927005492388842640e+02
-1.709944803069977648e-01,1.685406937051913800e+01,-4.139700782921578615e+00,5.445922046336708622e-01,3.814497650058400469e-01,7.469360129425166583e-01,3.946400530238337865e+02
-2.114547705726348703e-01,1.733768366992948984e+01,-4.068847983768222321e+00,2.907250732393206194e-01,2.143990587184186059e-01,9.324751875584579297e-01,3.965795568087833090e+02
-2.428466224468809609e-01,1.781711851311336758e+01,-3.985228676799113856e+00,0.000000000000000000e+00,2.016697227948689372e-02,9.997956257308551198e-01,3.985190605937328314e+02
-2.640742082072253805e-01,1.824922907274380179e+01,-3.899486906473820014e+00,6.355972790763313451e-01,2.092487626604288553e-01,7.431211571178032438e-01,4.003049848893569447e+02
-2.781447616956126967e-01,1.866718341061205066e+01,-3.807590599034103462e+00,0.000000000000000000e+00,2.016697227947948992e-02,9.997956257304881911e-01,4.020909091849810579e+02
-2.850663086206168262e-01,1.906574675761150672e+01,-3.711297157405415881e+00,-0.000000000000000000e+00,1.912932683544731755e-02,9.998160172122678713e-01,4.038768334806051712e+02
-2.856210205026575299e-01,1.939013136955406580e+01,-3.626474701321579897e+00,-0.000000000000000000e+00,1.809166106151513173e-02,9.998353320519590692e-01,4.054108889543014698e+02
-2.815435719222852406e-01,1.969605794337967097e+01,-3.540934321272394492e+00,-0.000000000000000000e+00,1.705397560833250836e-02,9.998535699465991300e-01,4.069449444279977683e+02
-2.727942888582980951e-01,1.998077047386096083e+01,-3.455577565494021730e+00,-0.000000000000000000e+00,1.674498241124985215e-02,9.998587923853283765e-01,4.084789999016940669e+02
-2.591537454059333334e-01,2.024170134181373015e+01,-3.371195386883866885e+00,-0.000000000000000000e+00,1.643598759290813144e-02,9.998639194700005284e-01,4.100130553753903655e+02
-2.403194450136217630e-01,2.047637483594924035e+01,-3.288523434891490904e+00,-0.000000000000000000e+00,1.612699114615828364e-02,9.998689510642841949e-01,4.115471108490866641e+02
-2.007299451088721265e-01,2.075053518332222779e+01,-3.174520705308212065e+00,-0.000000000000000000e+00,1.581799306617678522e-02,9.998738871681877027e-01,4.137753540583346989e+02
-1.436823242172075576e-01,2.092650498704784567e+01,-3.070397509151566506e+00,-0.000000000000000000e+00,1.550899334813960438e-02,9.998787277816858499e-01,4.160035972675827338e+02
-8.544726142449791950e-02,2.099833082399633710e+01,-2.993369858946105744e+00,-0.000000000000000000e+00,1.519999198722226698e-02,9.998834729047203496e-01,4.177925781126367610e+02
-1.100711268097071330e-02,2.100926755663818923e+01,-2.915109953332048587e+00,8.370268619317425829e-01,-1.940497361591901893e-01,5.115943044079408475e-01,4.197100005893018988e+02
7.649802177438339013e-02,2.094757648943448203e+01,-2.839052558866094422e+00,0.000000000000000000e+00,-2.786296520869569956e-02,9.996107518284006455e-01,4.216274230659670366e+02
1.766507870100347544e-01,2.081234220553993808e+01,-2.761841454397680806e+00,4.595995113954453037e-01,-5.348094314390733350e-01,-7.090452462073431050e-01,4.235448455426321743e+02
2.743799480231320920e-01,2.063503964714813677e+01,-2.689889907130884161e+00,-4.199765354728743905e-01,-5.494543922601671238e-01,-7.223002010790892102e-01,4.252399311707904985e+02
3.793728016535243830e-01,2.040751185591560457e+01,-2.612127612886308903e+00,6.991536932645603386e-01,-5.387427636406700859e-01,-4.700407937818666393e-01,4.269350167989488227e+02
5.020990922586693328e-01,2.009956485393299275e+01,-2.517419858565430602e+00,-8.217572942071289521e-01,1.566598654475999386e-02,5.696205107629729314e-01,4.287874910091637730e+02
6.239185064427780203e-01,1.975726221628461943e+01,-2.418167103351569036e+00,-8.124784207468892516e-01,4.212909528074874205e-02,5.814653516300491987e-01,4.305164043920318591e+02
7.529482785881328466e-01,1.936587900869157863e+01,-2.308502916663849103e+00,-8.024466305158267643e-01,6.855315426832334080e-02,5.927713473243773068e-01,4.322453177748999451e+02
8.696851977551598445e-01,1.899446664992090206e+01,-2.206936054741025721e+00,-7.916712200141434730e-01,9.491367808447349896e-02,6.035280218093767024e-01,4.337302406261237024e+02
9.218399912902198734e-01,1.882509269335880830e+01,-2.161143431878117749e+00,-7.801621746499253218e-01,1.211862402296333824e-01,6.137254079961460551e-01,4.343771228829025404e+02
1.052431004893570332e+00,1.839441135163310648e+01,-2.046224377113484927e+00,-7.679301594871857928e-01,1.473464957438258838e-01,6.233540569673506893e-01,4.359482980328901931e+02
1.190298500313660135e+00,1.793156044204380350e+01,-1.925493338770153384e+00,-7.549865093677484706e-01,1.733702037470828128e-01,6.324050467233119921e-01,4.375194731828778458e+02
1.322453906960658454e+00,1.748324976754155813e+01,-1.811323660641790179e+00,-7.413432184142337844e-01,1.992332498833895016e-01,6.408699904409976833e-01,4.389529461146747735e+02
1.493225776903273294e+00,1.690068523932531974e+01,-1.668097362879222612e+00,-7.270129289238149717e-01,2.249116686475268190e-01,6.487410442383414466e-01,4.407046881510376579e+02
1.675170828378785615e+00,1.627776176579539325e+01,-1.522438628994337240e+00,-7.025764379820407246e-01,2.067940141770287232e-01,6.808968971087824285e-01,4.424564301874005423e+02
1.867969163663799170e+00,1.561580758514853962e+01,-1.376649561568817237e+00,-6.767633241621396900e-01,1.882711696722312866e-01,7.117186029173624418e-01,4.442081722237634267e+02
2.071113860838018628e+00,1.491634343618225955e+01,-1.232751003802549983e+00,-6.496241646396586633e-01,1.693794279915363243e-01,7.411457711468507625e-01,4.459599142601263111e+02
2.381542571142926779e+00,1.384469815772347978e+01,-1.035746543922952734e+00,-6.212121346191110671e-01,1.501558047453326883e-01,7.691207435133813330e-01,4.484558067237550745e+02
2.582741353627274083e+00,1.314662123823074324e+01,-9.202524894808928879e-01,-5.915829031719651576e-01,1.306379657874111311e-01,7.955887069138161127e-01,4.499873625635356689e+02
2.787979345489159488e+00,1.242867103904814563e+01,-8.081089140966212225e-01,-5.607945241905507583e-01,1.108641534327547973e-01,8.204978008018358748e-01,4.515189184033162633e+02
2.996367583401426060e+00,1.169288113918912586e+01,-6.993076592695010030e-01,-5.289073226722945664e-01,9.087311154631713683e-02,8.437992187839890024e-01,4.530504742430968577e+02
3.207029113285944089e+00,1.094129308490529517e+01,-5.938405447508696700e-01,-4.959837765564663048e-01,7.070400964919425213e-02,8.654473042369869029e-01,4.545820300828774521e+02
3.419099013027951273e+00,1.017595631934284484e+01,-4.916993685983968576e-01,-4.620883943442949948e-01,5.039636619052139527e-02,8.853996397591454848e-01,4.561135859226580465e+02
3.631724415038826592e+00,9.398928112101852861e+00,-3.928759072305473832e-01,-4.272875887415352736e-01,2.998997113506263190e-02,9.036171302808612138e-01,4.576451417624386409e+02
3.844064528667164637e+00,8.612273488699084822e+00,-2.973619154811505405e-01,-5.708664863664913991e-01,2.976085084989709556e-02,8.205021307103780304e-01,4.591766976022192353e+02
4.055290662458015838e+00,7.818065159934967312e+00,-2.051491266540735325e-01,-6.987333367983128429e-01,2.871261969176033477e-02,7.148043854910538508e-01,4.607082534419998296e+02
4.264586246260150482e+00,7.018383451165342457e+00,-1.162292525780006386e-01,-8.073688812365682477e-01,2.687412825794483970e-02,5.894330079332001926e-01,4.622398092817804240e+02
4.471146853181219072e+00,6.215316231478648312e+00,-3.059398366131701325e-02,-8.937831490307434068e-01,2.429597686784608357e-02,4.478385736137356354e-01,4.637713651215610184e+02
4.674180221390671797e+00,5.410958842779163724e+00,5.176501105290259863e-02,-9.200031557894672307e-01,9.442273463808094347e-02,3.803636950611596901e-01,4.653029209613416128e+02
4.872906275770300333e+00,4.607414028776942949e+00,1.308560838318013342e-01,-9.368776473181100739e-01,1.635903161935075845e-01,3.090250514170266305e-01,4.668344768011222072e+02
5.066557149412274974e+00,3.806791863885097271e+00,2.066876081975433377e-01,-9.442352179885739050e-01,2.310961158699232909e-01,2.345473051218564531e-01,4.683660326409028016e+02
5.264787618548050219e+00,2.966245574520249395e+00,2.832085242092692856e-01,-9.420011327136011969e-01,2.962544089637016986e-01,1.576870037000270841e-01,4.699849865328579313e+02
