-3.608662098370716276e+00,-2.979086501110522978e+00,-7.356274925824947353e+00,-5.300915303213886709e-01,-8.479392486978079013e-01,0.000000000000000000e+00,3.317252173666928883e+01
-3.973176497595616308e+00,-2.786509720984851501e+00,-7.290729966587941924e+00,-0.000000000000000000e+00,5.892782266479874576e-01,-8.079289396970000814e-01,3.524485360914150789e+01
-4.343651431005980612e+00,-2.618032323182115650e+00,-7.192441330868967420e+00,-2.272997664333986385e-03,5.869383968792458717e-01,-8.096271680507687307e-01,3.731718548161372695e+01
-4.800674293033956985e+00,-2.452501433674985964e+00,-7.020871351677006267e+00,-6.799996278740284643e-05,-9.702994690090732677e-02,9.952804553383689523e-01,3.984732668583496462e+01
-5.135142721190943504e+00,-2.359920224469178152e+00,-6.860297148467621398e+00,9.726792459778155209e-02,0.000000000000000000e+00,9.952572284753349319e-01,4.169401875091510590e+01
-5.467764576340412574e+00,-2.288007993189810296e+00,-6.674529535212706755e+00,2.187648692053716926e-01,-3.412217959911107434e-01,9.141704534379075930e-01,4.354071081599524717e+01
-5.813667528850363198e+00,-2.236549689756762493e+00,-6.450881550189721203e+00,0.000000000000000000e+00,-9.924842934886567436e-01,-1.223639128938432269e-01,4.548502801563778775e+01
-6.108604558656473671e+00,-2.210831123701162859e+00,-6.234798904615924897e+00,5.293393743992877987e-01,8.484089973062677315e-01,-0.000000000000000000e+00,4.717159914931144726e+01
-6.397315834052641037e+00,-2.197815701424929102e+00,-6.000358113403530425e+00,0.000000000000000000e+00,-9.983890695289635575e-01,-5.672094713764394558e-02,4.885817028298509967e+01
-6.406737736689025020e+00,-2.197555662247050456e+00,-5.992313167900797488e+00,6.075376243257392117e-01,7.797075178635303194e-01,1.514999063191923567e-01,4.891389638844230348e+01
-6.673495347429510005e+00,-2.192758137213684400e+00,-5.754028679776864053e+00,9.360262369457210685e-01,-2.510647953304525060e-01,2.466157989573014020e-01,5.051398453533273170e+01
-6.932036349879144410e+00,-2.192095268495767080e+00,-5.501784838564644176e+00,9.743114453539587494e-01,-1.699034503605470758e-01,1.478107743232188465e-01,5.211407268222315992e+01
-7.308480630060576466e+00,-2.194596868108919629e+00,-5.074980605169033154e+00,9.952389101880196876e-01,-8.571524839178279453e-02,4.637249011337572085e-02,5.461353278951893486e+01
-7.685827678266090146e+00,-2.194082409591525895e+00,-4.516781490960536161e+00,9.984358225256168007e-01,-0.000000000000000000e+00,-5.589193408557752846e-02,5.755889355606510804e+01
-7.941665767176385060e+00,-2.183259218063057894e+00,-3.995975713746017455e+00,9.973505985314402578e-01,-0.000000000000000000e+00,-7.273089779916236397e-02,6.010633580849721369e+01
-8.131256783806041000e+00,-2.154078509798579066e+00,-3.381937112185466443e+00,9.973505978851086029e-01,-0.000000000000000000e+00,-7.273089775202921936e-02,6.299307464477005425e+01
-8.195607026506415593e+00,-2.118750015106501738e+00,-2.897040803621079963e+00,9.948943568806407622e-01,-0.000000000000000000e+00,-1.009119347685325796e-01,6.524293661838004255e+01
-8.183604144527272695e+00,-2.073771408813223083e+00,-2.420555588099274846e+00,9.631577175006658109e-01,-2.591581029783029955e-01,-7.184907013915113605e-02,6.749279859199003795e+01
-8.077059980405900674e+00,-2.014764898545182259e+00,-1.936012960895016954e+00,8.649488145747017409e-01,-5.004304396777807806e-01,-3.782754565024882415e-02,6.988417700898770590e+01
-7.954741647186790665e+00,-1.968026298938641894e+00,-1.617448600209954179e+00,7.070455144365321853e-01,-7.071656182584830086e-01,-1.195352831486983219e-03,7.152344036060237897e+01
-7.753437661659207336e+00,-1.901217511382937042e+00,-1.227789842749521076e+00,5.003454896569753396e-01,-8.650958140257205553e-01,3.551934029692922073e-02,7.359432021803705481e+01
-7.396924349817817657e+00,-1.794662894853399582e+00,-7.437467720465497090e-01,2.591141258208565223e-01,-9.633214669831091648e-01,6.978267012358892185e-02,7.629843917353215943e+01
-7.235387622585399470e+00,-1.748377155745610256e+00,-5.647215182387715915e-01,0.000000000000000000e+00,-9.950635238632341562e-01,9.922995251858043875e-02,7.733463552839180011e+01
-7.146567669996741756e+00,-1.723132894323089026e+00,-4.691149698199323370e-01,0.000000000000000000e+00,-9.999989987078847786e-01,-5.075070868636704361e-05,7.789101077776658144e+01
-6.978492362944590965e+00,-1.675755861828131632e+00,-2.929563920029153445e-01,0.000000000000000000e+00,-9.950534475030786696e-01,-9.933094484714226347e-02,7.892104193766662945e+01
-6.716759916420137699e+00,-1.603286457320194369e+00,-3.474299174522667982e-02,6.948034257162448435e-02,-9.810329699477390308e-01,-1.809552261521296945e-01,8.044738639663522406e+01
-6.438552766432524166e+00,-1.528415364986992264e+00,2.198185303348619835e-01,1.381486926050618236e-01,-9.555475151540471224e-01,-2.604647481226042283e-01,8.197373085560381867e+01
-6.145060806816799115e+00,-1.452284065693116411e+00,4.707650295475661606e-01,2.052025479855640044e-01,-9.188949228617401266e-01,-3.369303118440006850e-01,8.350007531457241328e+01
-5.975263892319274461e+00,-1.409525343714935097e+00,6.099774892483729172e-01,2.698582747042801433e-01,-8.715035390455727615e-01,-4.094582921432046163e-01,8.435532562772920073e+01
-5.536887484118544478e+00,-1.305606722363139127e+00,9.454663272981952415e-01,3.313602648912797322e-01,-8.139272099540664218e-01,-4.772010810420899696e-01,8.646411939583471451e+01
-5.200381654820318111e+00,-1.232419674449491298e+00,1.180706883416337671e+00,3.889897673091923247e-01,-7.468388094780382680e-01,-5.393669934157491186e-01,8.799682483877838024e+01
-4.852912372225848259e+00,-1.162671228009757973e+00,1.407740066119751221e+00,4.420732871109869788e-01,-6.710223754994630863e-01,-5.952295190950536163e-01,8.952953028172204597e+01
-4.485583732310813865e+00,-1.096059644397511024e+00,1.630056951745432858e+00,4.899904566998682931e-01,-5.873639471221356878e-01,-6.441358132912248236e-01,9.110419438554150418e+01
-4.108887341201887367e+00,-1.036112445567343832e+00,1.838631661659606342e+00,5.321812857105974182e-01,-4.968412098663477772e-01,-6.855143261217436779e-01,9.267885848936096238e+01
-3.724115499347386837e+00,-9.843742222147807697e-01,2.030788756473268730e+00,5.681527053874925182e-01,-4.005120698390762790e-01,-7.188814820777338355e-01,9.425352259318042059e+01
-3.332568309596242173e+00,-9.423731707951089609e-01,2.203852909656818237e+00,5.974843308801230934e-01,-2.995022904063984193e-01,-7.438473313753537486e-01,9.582818669699987879e+01
-2.935553625353022333e+00,-9.116210447349701873e-01,2.355148925932289750e+00,6.198333741169669286e-01,-1.949923358498718284e-01,-7.601201071480493399e-01,9.740285080081933700e+01
-2.534550892994727356e+00,-8.934673383693763071e-01,2.482038217206192776e+00,6.349386498433002846e-01,-8.820357575556500573e-02,-7.675096352224282104e-01,9.897751490463879520e+01
-2.131373979420195575e+00,-8.889506668355542374e-01,2.581955278250924746e+00,6.426236280064442363e-01,1.961598864495321323e-02,-7.659295566287220858e-01,1.005521790084582534e+02
-1.728017281358379398e+00,-8.989402303726736765e-01,2.652426468307051532e+00,4.686784693028615001e-01,2.180541446201484865e-02,-8.830985314857430213e-01,1.021268431122777116e+02
-1.317322487386317409e+00,-9.252352912241716965e-01,2.692327668312815003e+00,2.741160011115594264e-01,2.303561195735754144e-02,-9.614196682597555554e-01,1.037381329339357450e+02
-9.111474741198912763e-01,-9.688335095807006914e-01,2.700208791982492418e+00,6.749509590010974169e-02,2.325246471837045040e-02,-9.974476101101177328e-01,1.053494227555937783e+02
-5.120449898552809076e-01,-1.030596156761760529e+00,2.678130128913345676e+00,-1.420949294410683295e-01,2.244643358810863645e-02,-9.895974881974851645e-01,1.069607125772518117e+02
-1.225724828896098684e-01,-1.111351550783566511e+00,2.628152184353576892e+00,-3.454341508004457051e-01,2.065297618999719156e-02,-9.382146353770527414e-01,1.085720023989098451e+02
2.547080049298194315e-01,-1.211895025526403158e+00,2.552335664368533319e+00,-5.335776174016323425e-01,1.795098712836118091e-02,-8.455593936971244062e-01,1.101832922205678784e+02
6.172299447278349893e-01,-1.332988900389806330e+00,2.452741461005950363e+00,-5.129943166084139916e-01,-3.941274583926731023e-01,-7.625604091930031636e-01,1.117945820422259118e+02
9.624224271945072129e-01,-1.475362450435895756e+00,2.331430637460201627e+00,-4.015486972676975963e-01,-7.363974448212745605e-01,-5.444955894983483091e-01,1.134058718638839451e+02
1.287695497072209871e+00,-1.639119139864032793e+00,2.190352378609968564e+00,-6.241309484088056747e-01,-5.233925240625396658e-01,-5.801024262956379074e-01,1.150171616855419785e+02
1.590429705221561907e+00,-1.823143598992236880e+00,2.031231942361628739e+00,-7.866830235428328155e-01,-2.600467040472677627e-01,-5.599138613964989020e-01,1.166284515072000119e+02
1.867997314945565979e+00,-2.025693979320983829e+00,1.855682681856309024e+00,-8.735703862519852425e-01,2.831098010943581406e-02,-4.858716586391084169e-01,1.182397413288580452e+02
2.117779291908705286e+00,-2.244994606378012847e+00,1.665318068482798841e+00,-8.256940786178681435e-01,2.648126466408932608e-02,-5.634944819202956090e-01,1.198510311505160786e+02
2.337165413301453221e+00,-2.479236034472481087e+00,1.461751680264159470e+00,-7.709473596274637464e-01,2.443120483381098704e-02,-6.364285387313038944e-01,1.214623209721741119e+02
2.517770332515285592e+00,-2.716872472216659062e+00,1.255055121826553322e+00,-7.097857609788685851e-01,2.217785853152897529e-02,-7.040669826803575004e-01,1.230130338369359322e+02
2.666706325083266549e+00,-2.964601801312994223e+00,1.039413138055710562e+00,-6.427181838537846525e-01,1.973997493348369700e-02,-7.658470275004367611e-01,1.245637467016977524e+02
2.781756873533909324e+00,-3.220786590338730271e+00,8.162102425639519154e-01,-8.536475879973397518e-01,2.904298598275488127e-02,5.200387490096018972e-01,1.261144595664595727e+02
2.860713088417431216e+00,-3.483761706318128315e+00,5.868309993685061343e-01,-7.127413081394822214e-01,-4.228955894937501125e-01,-5.596044567899673972e-01,1.276651724312213929e+02
2.901373794567162712e+00,-3.751834360174926442e+00,3.526600136616612757e-01,-6.814910863535388330e-01,5.479192654276660024e-02,-7.297710216266585226e-01,1.292158852959832132e+02
2.901545617264962740e+00,-4.023284152564998273e+00,1.150819225807137719e-01,-8.889031280119193967e-01,6.738335118556172676e-02,-4.531100451274108210e-01,1.307665981607450192e+02
2.859043068310073377e+00,-4.296363120088804166e+00,-1.245186140222444560e-01,-9.898958324377841178e-01,7.190765217550430799e-02,-1.222028251827725065e-01,1.323173110255068252e+02
2.771784705260289972e+00,-4.568870859893430669e+00,-3.651480880571716381e-01,-9.723783794602397501e-01,6.782318140252918681e-02,2.233345097032075621e-01,1.338680238902686312e+02
2.637892199608534494e+00,-4.837731274841228668e+00,-6.065953150646847813e-01,-8.384479280489542941e-01,5.561892889150656799e-02,5.421343068842825463e-01,1.354187367550304373e+02
2.455598706267482445e+00,-5.099419994213929996e+00,-8.490402703750509206e-01,2.499997267779052761e-05,-7.954151306990970838e-01,-6.060633376396975525e-01,1.369694496197922433e+02
2.223154316967308031e+00,-5.350390201326336026e+00,-1.092662922658900637e+00,3.099996898508438324e-05,-9.999989995188509617e-01,-0.000000000000000000e+00,1.385201624845540493e+02
1.938826130472490750e+00,-5.587072736060055611e+00,-1.337643232724494702e+00,0.000000000000000000e+00,-6.060633378289832507e-01,7.954151309475212539e-01,1.400708753493158554e+02
1.593041511064686278e+00,-5.811171268935644285e+00,-1.588234539234117282e+00,1.016999272028649634e-02,-9.999472842345172863e-01,0.000000000000000000e+00,1.416629677535833309e+02
1.198080245414252509e+00,-6.012207121567590740e+00,-1.830431006386874060e+00,-9.741568796143900144e-01,-4.289895066157412007e-02,-2.217567449557959758e-01,1.432550601578508065e+02
7.627657444117782459e-01,-6.186879388010527947e+00,-2.054066241692487527e+00,-3.999995304135467398e-06,1.561658166664048331e-01,9.877298404372573115e-01,1.448471525621182820e+02
2.959368275517992308e-01,-6.332177976637066941e+00,-2.248920243541515429e+00,-6.696665005624153899e-01,1.278249046681271817e-01,7.315774543891973014e-01,1.464392449663857576e+02
-1.935529524540535729e-01,-6.445206617231874269e+00,-2.404773212592357101e+00,-3.885786901395176796e-01,5.722647164041622103e-01,7.221618211518225916e-01,1.480313373706532332e+02
-6.968356739828704960e-01,-6.523182952251231903e+00,-2.511405623600255321e+00,0.000000000000000000e+00,8.584009604377047520e-01,5.129773787612482705e-01,1.496234297749207087e+02
-1.205029411007779716e+00,-6.563438626432767542e+00,-2.558598297244865094e+00,3.143997210390424204e-03,3.833196598876772304e-02,9.992591133761880018e-01,1.512155221791881843e+02
-1.709238597804314308e+00,-6.563419374754455582e+00,-2.536132471956062950e+00,0.000000000000000000e+00,4.167097441780489436e-02,9.991303866246508125e-01,1.528076145834556598e+02
-2.200557384700279062e+00,-6.520591101635164755e+00,-2.433984913168371289e+00,2.258150804914211274e-01,4.654253236125433651e-02,9.730567003542145432e-01,1.543997069877231354e+02
-2.670683539947798835e+00,-6.432372053982645888e+00,-2.246143923377388329e+00,4.399563102318686525e-01,4.900802129877303986e-02,8.966797973279352352e-01,1.559917993919906110e+02
-3.113885244403778785e+00,-6.296281384771460488e+00,-1.979345964816851877e+00,6.313534783370627901e-01,4.893998800937828658e-02,7.739481009512290122e-01,1.575838917962580865e+02
-3.527746443016304578e+00,-6.110006675743136384e+00,-1.654570388183622454e+00,7.901121582996307735e-01,4.634195063227853489e-02,6.112063488866054106e-01,1.591759842005255621e+02
-3.922155960132232000e+00,-5.862104428912543241e+00,-1.286603733492309942e+00,0.000000000000000000e+00,9.950482571507357488e-01,-9.938292580607746562e-02,1.608177560236051704e+02
-4.282019406501293979e+00,-5.554225589210309622e+00,-9.136192949222846638e-01,5.805297106654012940e-02,-9.983125024434718053e-01,-0.000000000000000000e+00,1.624595278466847788e+02
-4.606118322361012041e+00,-5.186588666120282021e+00,-5.647313440331401813e-01,8.622806498191084579e-01,4.096493585606538618e-02,-5.047692096195808276e-01,1.641012996697643871e+02
-4.891333144752787021e+00,-4.768533524396592505e+00,-2.623054241454816360e-01,6.818411546847187310e-01,5.506893172807303394e-02,-7.294230956948182243e-01,1.657303144908346439e+02
-5.139371302369863947e+00,-4.305851148189795197e+00,-8.007865264324169619e-03,9.497874378621539160e-01,-2.078098770063785058e-02,-3.122018152213338338e-01,1.673593293119049008e+02
-5.349191864221004344e+00,-3.806841007622432826e+00,2.007346195960131585e-01,9.029923056844566531e-01,-1.531611957808503011e-01,-4.014281305295855362e-01,1.689883441329751577e+02
-5.567245689381157270e+00,-3.011358335365699634e+00,4.096655130427866998e-01,8.312062869498643147e-01,-2.813024827597228050e-01,-4.795445982674532148e-01,1.713957818958127746e+02
-5.658200000867570800e+00,-2.344346830256199166e+00,4.914994545604566278e-01,7.364161080991563635e-01,-4.016585135364868497e-01,-5.443893406698918636e-01,1.733093333169784671e+02
-5.686897500838769659e+00,-1.671384961992055995e+00,5.131504586871964424e-01,6.342538868548471820e-01,-5.371807005875148811e-01,-5.560187963778437936e-01,1.752228847381441597e+02
-5.662455242860087168e+00,-1.058370979816777524e+00,4.849147411082804227e-01,5.137372051343598311e-01,-6.571575736329152706e-01,-5.515578006674967115e-01,1.769943616397087567e+02
-5.593302534069782617e+00,-4.696980153383396583e-01,4.156446278523966975e-01,3.783536023995333064e-01,-7.581172033173414482e-01,-5.311354418456750714e-01,1.787658385412733537e+02
-5.481990059096033541e+00,8.003880565633848809e-02,3.087819823521434359e-01,5.119696326534558528e-01,1.099999210732662775e-05,-8.590023836518086986e-01,1.805373154428379507e+02
-5.331546731096531211e+00,5.789160868952681893e-01,1.678104492113571267e-01,3.996517389686284893e-01,-1.354739068109789557e-01,-9.065998610813139624e-01,1.823087923444025478e+02
-5.145293003371714136e+00,1.020320260921203648e+00,-3.708148983554365643e-03,2.740506525458014098e-01,-2.664560070425104343e-01,-9.240646276913966339e-01,1.840802692459671448e+02
-4.940974671365050419e+00,1.381476201667930948e+00,-1.892484362282307042e-01,1.393409662666698634e-01,-3.885818767076947289e-01,-9.108162384447009430e-01,1.857479976157101191e+02
-4.712171956074695522e+00,1.688292560680991095e+00,-3.944448640250154958e-01,0.000000000000000000e+00,-4.977924468361116794e-01,-8.672950362322737750e-01,1.874157259854530935e+02
-4.484724231172509512e+00,1.920634748746388176e+00,-5.960924507663314387e-01,0.000000000000000000e+00,-8.650035307694583508e-01,-5.017637808298417434e-01,1.889390883555622622e+02
-4.242435165353615645e+00,2.109170488716382685e+00,-8.078372717856846519e-01,0.000000000000000000e+00,-9.999978318927560395e-01,-1.528464237969025122e-03,1.904624507256714310e+02
-3.987144449421279546e+00,2.257905131526508402e+00,-1.025736444216288179e+00,0.000000000000000000e+00,-8.665328585921238114e-01,4.991180270968764709e-01,1.919858130957805997e+02
-3.657680423418364857e+00,2.390119948313132792e+00,-1.294040588317454832e+00,0.000000000000000000e+00,-5.004388505242175489e-01,8.657707299752283037e-01,1.938525587422797400e+02
-3.311738643132903004e+00,2.474204757804740584e+00,-1.555109814044616012e+00,0.000000000000000000e+00,9.999989999984911497e-07,9.999989999984910671e-01,1.957193043887788804e+02
-2.781198265550169690e+00,2.529217792255297859e+00,-1.889169061203756828e+00,2.442991422435318583e-01,1.859265891397807180e-02,9.695206249134471488e-01,1.984406693608128194e+02
-2.479411919918621532e+00,2.536075724073201698e+00,-2.043084613772635727e+00,4.737066590282842382e-01,3.605097405068676680e-02,8.799433666211066152e-01,1.999363587990146698e+02
-1.872834077936445407e+00,2.551769358009693622e+00,-2.253149201139055258e+00,2.442991469283681272e-01,1.859162783485925063e-02,9.695206435055933047e-01,2.029129500469389313e+02
-1.349391437582260878e+00,2.597757731854362540e+00,-2.316990501955175308e+00,0.000000000000000000e+00,-9.999989999983950115e-07,9.999989999983950328e-01,2.055053673847398272e+02
-1.011611576186233430e+00,2.657139914595659569e+00,-2.310834032455980847e+00,-4.595974337851653768e-01,-8.868719073915704021e-01,4.718494186909653193e-02,2.072214651416229287e+02
-6.831344828978060946e-01,2.743583311509452560e+00,-2.275321224942168818e+00,-0.000000000000000000e+00,1.466699169441398019e-02,9.998914337840719702e-01,2.089375628985060303e+02
-3.665845970557862210e-01,2.862712574723146108e+00,-2.210419691631286376e+00,-0.000000000000000000e+00,1.466699168406079140e-02,9.998914330782650017e-01,2.106536606553891318e+02
-5.612247257172733178e-02,3.024225634930511220e+00,-2.112380442776534473e+00,-0.000000000000000000e+00,1.466699168406078967e-02,9.998914330782650017e-01,2.124193393247330448e+02
2.361194572192146512e-01,3.229530278874030103e+00,-1.982025818739770129e+00,-0.000000000000000000e+00,1.466699168405752839e-02,9.998914330780426241e-01,2.141850179940769578e+02
4.753548721931661891e-01,3.444429909790633904e+00,-1.843327780796921278e+00,-0.000000000000000000e+00,3.847562801285162593e-01,9.230171205898846098e-01,2.157256422970113476e+02
6.993504189657462344e-01,3.691072438341903794e+00,-1.682976531008592458e+00,-0.000000000000000000e+00,6.998730157412103026e-01,7.142658901544736150e-01,2.172662665999457374e+02
9.069069788592993842e-01,3.969498500428346510e+00,-1.501477265051275101e+00,-0.000000000000000000e+00,9.149946751465929395e-01,4.034634363293613801e-01,2.188068909028801272e+02
1.097378439821484086e+00,4.279112549953213218e+00,-1.300351389726834173e+00,-0.000000000000000000e+00,9.993857527531184726e-01,3.501595629961485462e-02,2.203475152058145170e+02
1.360886190909243787e+00,4.898713906380043781e+00,-9.056705758367457060e-01,-4.368874894963064581e-01,8.644286318422497173e-01,2.487779370730602568e-01,2.229568572653024887e+02
1.486604188499635715e+00,5.342479636619573036e+00,-6.286509672365576673e-01,-7.624653633251146090e-01,5.092333260471726408e-01,3.991565975573023173e-01,2.245814899898486487e+02
1.590579917646385510e+00,5.814047187590930754e+00,-3.381834211235592580e-01,-8.937831490312986293e-01,2.429597686786117219e-02,4.478385736140138018e-01,2.262061227143948088e+02
1.672222576253386439e+00,6.309493142212823535e+00,-3.728552970667636107e-02,-0.000000000000000000e+00,9.997078536730038545e-01,-2.412897233222459012e-02,2.278307554389409688e+02
1.737308054794794776e+00,6.983710313434804640e+00,3.639417629919388109e-01,-0.000000000000000000e+00,9.997078529671034053e-01,-2.412897231518696187e-02,2.299361849680944658e+02
1.749268423361998392e+00,7.687510600263991023e+00,7.715735285244434971e-01,-4.272875887421053731e-01,2.998997113510264850e-02,9.036171302820669160e-01,2.320416144972479628e+02
1.715771878766103598e+00,8.330281941710529381e+00,1.133804438422828964e+00,-3.393376719556737697e-01,3.055071841566067009e-02,9.401673244677228869e-01,2.339228117885992333e+02
1.641466348338953996e+00,8.975595450759714211e+00,1.487040761510495912e+00,-2.483094700007922873e-01,3.083432678208864602e-02,9.681888511032252786e-01,2.358040090799505037e+02
1.524481568960857958e+00,9.614107849111874771e+00,1.824100858565824268e+00,-1.550287408068471984e-01,3.083822345757982614e-02,9.874275130350381735e-01,2.376852063713017742e+02
1.383008368328848769e+00,1.017584386993544854e+01,2.108321909655074933e+00,-6.034167638576740100e-02,3.056237307247662571e-02,9.977087868931818759e-01,2.393772263515389511e+02
1.208311260456419900e+00,1.071950086946432279e+01,2.370960141864850268e+00,3.489277353948357085e-02,3.000927798684682735e-02,9.989394063656584777e-01,2.410692463317761280e+02
1.001105291530306474e+00,1.123822310955693915e+01,2.609634125833213858e+00,1.298106936565866509e-01,2.918395559027412572e-02,9.911082082947737515e-01,2.427612663120133050e+02
7.272027747165127343e-01,1.178167580053941066e+01,2.845871311956767347e+00,2.235510402321990997e-01,2.809389278480383528e-02,9.742862339169754415e-01,2.446723705017103612e+02
4.105923574292859035e-01,1.226642161412403809e+01,3.041761332052163702e+00,3.152634522146331442e-01,2.674897806412387252e-02,9.486260843299262335e-01,2.465834746914074174e+02
1.180990578789567480e-01,1.262131989628023909e+01,3.174400862860174310e+00,4.041159653963548593e-01,2.516141180543757933e-02,9.143605360407349725e-01,2.481763902549058116e+02
-1.963135776225273799e-01,1.292845679878978160e+01,3.279707942203455406e+00,4.893025596438406177e-01,2.334559558824397807e-02,8.718004291658023597e-01,2.497693058184042059e+02
-5.313641057721771865e-01,1.318054811275494664e+01,3.355581334089637213e+00,5.700504707204524513e-01,2.131800154457854507e-02,8.213318474543006564e-01,2.513622213819026001e+02
-9.150427134436386334e-01,1.338265503241840193e+01,3.399796843871357943e+00,6.456272003681188254e-01,1.909702292645023072e-02,7.634126157337400853e-01,2.530850393346039482e+02
-1.315807738023364371e+00,1.351249235238034885e+01,3.398146304896296321e+00,7.153471610559087868e-01,1.670280724659201771e-02,6.985681465688914349e-01,2.548078572873052963e+02
-1.682984695522429242e+00,1.357960521811931365e+01,3.354579174663452790e+00,7.785778951228040645e-01,1.415707350667707969e-02,6.273866738282938282e-01,2.563537788340681800e+02
-2.050480287527285395e+00,1.361234316801646216e+01,3.268607039500690536e+00,8.347458119075781280e-01,1.148291517141145079e-02,5.505139164121785056e-01,2.578997003808310637e+02
-2.412297240974790924e+00,1.361901725174880973e+01,3.135791683772394478e+00,8.833413908352081290e-01,8.704590676095198820e-03,4.686472205616001863e-01,2.594456219275939475e+02
-2.762393959000192467e+00,1.360758565455783220e+01,2.951739257116012816e+00,9.239238032766791120e-01,5.847303368186494189e-03,3.825292338943209747e-01,2.609915434743568312e+02
-3.203072049552041722e+00,1.357231608913276411e+01,2.600765919558307271e+00,9.561249112731634581e-01,2.936972879093200945e-03,2.929411685559818457e-01,2.630983951370834575e+02
-3.498796846091777102e+00,1.353717304559882884e+01,2.269431464190722281e+00,9.796526068684147104e-01,0.000000000000000000e+00,2.006957145972592393e-01,2.646719166653975890e+02
-3.764889575961436474e+00,1.350126536929699661e+01,1.899354188662528919e+00,9.796526061767043547e-01,-0.000000000000000000e+00,2.006957144555525374e-01,2.662454381937117205e+02
-4.101696923909925019e+00,1.345406987581911373e+01,1.150579204371083852e+00,9.994220091165006981e-01,-0.000000000000000000e+00,3.396538964094672486e-02,2.690423153242666103e+02
-4.218921549366844381e+00,1.344266794548742361e+01,5.232282380232033958e-01,9.910178181062265779e-01,-0.000000000000000000e+00,-1.337224147093227788e-01,2.711813290364380578e+02
-4.211625557868742042e+00,1.346152866141576965e+01,-1.044625605919204253e-01,9.546769266714698610e-01,-0.000000000000000000e+00,-2.976406653671949121e-01,2.733203427486095052e+02
-4.094030855219060072e+00,1.350765325384907101e+01,-6.489714556120521616e-01,8.676731957413923446e-01,-4.138256803707170031e-04,-4.971328334968662666e-01,2.752575089428830779e+02
-3.916500097791985713e+00,1.356663736242668783e+01,-1.092369238271460263e+00,7.395703896007014277e-01,-8.080495702109967210e-04,-6.730772510508760131e-01,2.769460215713796742e+02
-3.877073402063053287e+00,1.357911512631406836e+01,-1.172536446276851052e+00,5.764363129601857150e-01,-1.163998612659590233e-03,-8.171400260715380170e-01,2.772638023249403432e+02
-3.564455869464712379e+00,1.367046689937212278e+01,-1.652846776917503702e+00,5.752485911879960945e-01,-0.000000000000000000e+00,-8.179774186878632225e-01,2.793519319047393878e+02
-3.422774744521975610e+00,1.370896127431018208e+01,-1.815417497626757637e+00,8.822777245832987836e-01,-0.000000000000000000e+00,-4.707271149023668499e-01,2.801474229694475184e+02
-3.332382242974003539e+00,1.373305519605562708e+01,-1.913828945984792806e+00,9.997494087565386156e-01,-0.000000000000000000e+00,-2.234098678772675900e-02,2.806420738369828314e+02
-2.993815370990934976e+00,1.381675272061057491e+01,-2.214754352113788904e+00,4.301035175188680504e-01,3.026596604827218664e-02,9.022709878512734649e-01,2.823526598806212746e+02
-2.611907942438556063e+00,1.389701252283404109e+01,-2.440204946679548570e+00,7.342455860431746917e-01,2.131448798320623728e-01,6.445546366096083224e-01,2.840632459242597179e+02
-2.138308392115392476e+00,1.397019920765901979e+01,-2.598508206375824248e+00,9.994709311542702146e-01,0.000000000000000000e+00,3.249396525057916124e-02,2.860001234538141830e+02
-1.636431778975800944e+00,1.400799438833609756e+01,-2.654110738636343836e+00,7.294162694261490110e-01,5.001404990657793981e-01,4.667005325588149955e-01,2.879370009833686481e+02
-1.503101110228544535e+00,1.401162067197927463e+01,-2.654802268364385043e+00,1.182598423660585485e-01,0.000000000000000000e+00,9.929816764094021586e-01,2.884420932743479966e+02
-1.207136927859055575e+00,1.401400605642072605e+01,-2.644855675179857091e+00,5.227064052949741413e-01,-8.494460335495790382e-01,-7.223191781871404760e-02,2.895637433614400038e+02
-6.814857283953448253e-01,1.398985392071174161e+01,-2.549738187812347956e+00,8.506807646963494562e-01,5.164672500196245686e-01,9.798885770691115327e-02,2.915982218871575924e+02
-3.037650460386336349e-01,1.395055130972629698e+01,-2.406885440303836887e+00,5.179124917781990911e-01,7.186022948435146773e-01,4.640855445979871208e-01,2.931261772873576206e+02
5.271347472537563777e-02,1.390137046073874494e+01,-2.211667945747402442e+00,6.355972790761647007e-01,2.092487626603739825e-01,7.431211571176083996e-01,2.946541326875576488e+02
3.818986631320906433e-01,1.384603198743810637e+01,-1.967448791479688763e+00,1.270998420255068989e-03,1.158168560493165467e-01,9.932687654498445484e-01,2.961820880877576769e+02
6.782898249568801718e-01,1.378780351464184406e+01,-1.679255997806384793e+00,-5.517134353491606191e-01,-8.267481538650153228e-01,1.099898874309047370e-01,2.977100434879577051e+02
9.885420035479922651e-01,1.371603161159754514e+01,-1.252151501860853333e+00,-0.000000000000000000e+00,-5.697617808904769099e-01,-8.218086839624648698e-01,2.996424975149617467e+02
1.208987196803128716e+00,1.365319510049954488e+01,-7.599154098023631621e-01,-0.000000000000000000e+00,8.080491350120935778e-02,9.967289330370694422e-01,3.015749515419657882e+02
1.329989008787444416e+00,1.360569168357053726e+01,-2.190508180599433086e-01,-0.000000000000000000e+00,1.173078338842290375e-01,9.930945937113608846e-01,3.035074055689698298e+02
1.353255651770514101e+00,1.357928840114035474e+01,2.923871079667431649e-01,-9.994701503669272125e-01,0.000000000000000000e+00,3.251797235700859545e-02,3.052431107428334940e+02
1.300889736959136567e+00,1.356913691233433106e+01,8.134480305290860969e-01,-0.000000000000000000e+00,-9.993865585873626944e-01,3.499294952975979395e-02,3.069788159166971582e+02
1.277737198668805085e+00,1.356877182720939601e+01,9.460670111874278643e-01,-7.142513392294328467e-01,-6.601633892674564352e-01,-2.324377849663856743e-01,3.074191170015756143e+02
1.160358790239444549e+00,1.357385585843252329e+01,1.443571006946031687e+00,-5.024135394088586892e-01,7.294793312446989919e-01,4.641535744839501709e-01,3.090826228308427517e+02
9.908319411293391443e-01,1.358955383138303574e+01,1.930932361814559961e+00,-0.000000000000000000e+00,-9.950635238628724455e-01,9.922995251854437038e-02,3.107461286601098891e+02
7.590481240641158145e-01,1.361480097632124853e+01,2.431516990937185874e+00,-9.359985444648214869e-04,-1.157798199552745877e-01,9.932734553988199488e-01,3.125187012298287641e+02
4.812805656725553938e-01,1.364496904021895318e+01,2.905692558781385326e+00,-5.639921173302935367e-03,-5.841841835192539412e-01,8.116002901289082194e-01,3.142912737995476391e+02
1.386555100906259053e-01,1.367739137954235673e+01,3.379366089572641396e+00,-8.920365960609927952e-03,-9.051428200080974262e-01,4.250116495715625109e-01,3.162045701443610142e+02
-2.387505861636761428e-01,1.370324746998847942e+01,3.805516532562678300e+00,-9.948606625506124790e-03,-9.975710201248689790e-01,-6.892811321197368779e-02,3.181178664891743892e+02
-2.584506224674185670e-01,1.370429830213034528e+01,3.825663195617726497e+00,-8.464610377169076369e-03,-8.380910886529455706e-01,-5.454628101907301740e-01,3.182140563109689992e+02
-6.266176241486552945e-01,1.371681626753668048e+01,4.173857719828685475e+00,-4.843505277377375094e-03,-4.670144924049126622e-01,-8.842352652203656627e-01,3.199792790965235554e+02
-1.003767653466351994e+00,1.371277434388176530e+01,4.478664576060592317e+00,-0.000000000000000000e+00,2.192496970795611982e-02,-9.997586187104313682e-01,3.217445018820781115e+02
-1.412510961555199618e+00,1.368102994302811659e+01,4.757396202339782221e+00,6.008035540474822023e-01,8.946493359374771415e-02,-7.943734103682975611e-01,3.236579681635880661e+02
-1.810182639887805145e+00,1.361107432325871081e+01,4.980790610228001292e+00,9.968779763714677999e-01,0.000000000000000000e+00,-7.894491893664680460e-02,3.255714344450980207e+02
-2.185253399274142083e+00,1.349327028541937601e+01,5.150264441729201614e+00,-9.968817776680953813e-01,-0.000000000000000000e+00,-7.889690326014157928e-02,3.274849007266079752e+02
-2.489732297282779783e+00,1.334589441819868050e+01,5.258830641633163161e+00,-0.000000000000000000e+00,-9.968312352734685078e-01,-7.953293898571150988e-02,3.291690459113141287e+02
-2.764898001153278440e+00,1.315742139656147636e+01,5.333925434425136558e+00,-0.000000000000000000e+00,-6.784043507465453704e-01,-7.346873735739525291e-01,3.308531910960202822e+02
-3.005094217781682175e+00,1.292886099189022886e+01,5.377894128734582502e+00,-0.000000000000000000e+00,-0.000000000000000000e+00,-9.999989999999967516e-01,3.325373362807264357e+02
-3.205526549253550961e+00,1.266387878026604774e+01,5.393327740990047303e+00,-0.000000000000000000e+00,-0.000000000000000000e+00,-9.999989992938940198e-01,3.342214814654325892e+02
-3.369196718098931509e+00,1.234869014191439085e+01,5.380741867126710432e+00,9.968779763717972031e-01,-0.000000000000000000e+00,-7.894491893667289484e-02,3.360098362883581444e+02
-3.477063968447124953e+00,1.200663345193542320e+01,5.340890871079493785e+00,9.968779756678982640e-01,-0.000000000000000000e+00,-7.894491888092960985e-02,3.377981911112836997e+02
-3.526556960861699341e+00,1.164763313415660484e+01,5.277346518327090230e+00,9.192184333439427091e-01,3.800576179213281947e-01,-1.029158824559268659e-01,3.395865459342092549e+02
-3.495810345835055788e+00,1.119112361517744070e+01,5.166319102432160193e+00,7.027111920888708951e-01,7.027076675327708077e-01,-1.113414321112484451e-01,3.418331500898481181e+02
-3.359261256605852619e+00,1.075325379991955543e+01,5.025909495857540321e+00,3.800595688760714519e-01,9.192139309927869206e-01,-1.029488862265934002e-01,3.440797542454869813e+02
-3.170089108005726075e+00,1.040891330734305598e+01,4.889952726179029874e+00,0.000000000000000000e+00,9.968731427319725835e-01,-7.900593205829646581e-02,3.460221404963771192e+02
-2.928743977981737689e+00,1.011237930675481778e+01,4.748012676382854735e+00,-0.000000000000000000e+00,9.968731420280737554e-01,-7.900593200250984049e-02,3.479645267472672572e+02
-2.654140379911068770e+00,9.884849211325253293e+00,4.608882245067814409e+00,7.268315228415382911e-01,-5.907656121676043703e-01,-3.502997700313013607e-01,3.498381785749494952e+02
-2.393426247501479143e+00,9.739149961171351677e+00,4.489137765929111623e+00,3.588155418934004803e-01,-5.920762440850431130e-01,-7.215920787297237515e-01,3.514450610823338934e+02
-2.115788387052563113e+00,9.641285994851916286e+00,4.369418149968065990e+00,4.662972870391366986e-01,1.652197473817304876e-02,-8.844726476559054973e-01,3.530519435897182916e+02
-1.830256687770860147e+00,9.594977937335187335e+00,4.251362036056938187e+00,4.896725565679519998e-01,1.691298468413364106e-02,-8.717412105786098708e-01,3.546314714484562955e+02
-1.536212046010465571e+00,9.597880894034014787e+00,4.131888647521942737e+00,-5.895369523500124664e-01,2.034852536636665848e-02,-8.074838198553233592e-01,3.562109993071942995e+02
-1.237546698431349235e+00,9.647405577325852022e+00,4.009272836221744463e+00,-9.796745246594487089e-01,0.000000000000000000e+00,2.005886979235116108e-01,3.577905271659323034e+02
-9.369050552557159905e-01,9.739200158924777639e+00,3.880713189403552921e+00,-0.000000000000000000e+00,-8.566789209263858673e-02,-9.963227450308872468e-01,3.593760263130449175e+02
-6.392332055763007004e-01,9.867199962821171511e+00,3.743867117544389167e+00,-7.720558983033835865e-02,-1.986752441925719870e-01,-9.770186509195452063e-01,3.609615254601575316e+02
-3.492462853019793756e-01,1.002505893571921014e+01,3.595774922169712173e+00,-1.529362229924076388e-01,-3.078870697671455825e-01,-9.390495535209300026e-01,3.625427489596182227e+02
-7.016001980801168936e-02,1.020735379196271175e+01,3.432100769353554792e+00,-2.257451494547983162e-01,-4.112169984228210007e-01,-8.831408198620530614e-01,3.641239724590789137e+02
3.539572378794827445e-01,1.058004000835132885e+01,3.064750159822869691e+00,-2.942414351449701981e-01,-5.066910261853334596e-01,-8.103605258326835870e-01,3.668740225112421740e+02
4.151409038342525060e-01,1.064735348449942265e+01,2.993058669867647570e+00,-3.571165318402182987e-01,-5.924852232850398304e-01,-7.220990533685643920e-01,3.673254196823474444e+02
6.255296689000966470e-01,1.089853425122928776e+01,2.713408626242781896e+00,-6.463403735424584351e-01,-5.168413016604888055e-01,-5.613529998393678166e-01,3.689782095755043656e+02
8.109164227935531377e-01,1.115862496014964300e+01,2.405412848231412770e+00,-8.610980435139656830e-01,-3.816511123333345967e-01,-3.359324156926402627e-01,3.706309994686612868e+02
9.729681288166421860e-01,1.142822404772137901e+01,2.076842289100345074e+00,-9.766469516045874766e-01,-2.024901932016721917e-01,-7.180845062134155743e-02,3.722837893618182079e+02
1.176778396882457889e+00,1.190220907751003310e+01,1.514234370430688648e+00,-9.796745246597435841e-01,-0.000000000000000000e+00,2.005886979235719514e-01,3.749852023376957391e+02
1.203557192015730193e+00,1.198580300436458934e+01,1.418086340769721510e+00,-9.796745239680101358e-01,-0.000000000000000000e+00,2.005886977819393013e-01,3.754370040723335933e+02
1.328432190144897440e+00,1.250785639213230027e+01,8.607006998160882105e-01,-9.546707119062373126e-01,-0.000000000000000000e+00,-2.976605983800955091e-01,3.781144303587176410e+02
1.391245951264334701e+00,1.300444639800228686e+01,4.009937732558745416e-01,-5.741094903284836848e-01,1.828998376288161953e-03,-8.187752731239562598e-01,3.804547655798012897e+02
1.422149686675058033e+00,1.362675040445710728e+01,-7.758988396607746640e-02,-5.759863544736036900e-01,0.000000000000000000e+00,-8.174580838484853951e-01,3.831657672742510385e+02
1.424180546065417774e+00,1.403906419487483959e+01,-3.458501992270505143e-01,-7.619800937893803638e-01,8.751966350382844179e-03,-6.475397592058866891e-01,3.848621306390451764e+02
1.419770085346627964e+00,1.443990482249690643e+01,-5.824466397637046988e-01,-8.995557433714268525e-01,1.694781894233952924e-02,-4.364747827744642206e-01,3.864687383325978089e+02
1.410413481981056316e+00,1.484897321300740813e+01,-8.022033538046161594e-01,-9.799711777964007497e-01,2.406676769264385479e-02,-1.976746857275735736e-01,3.880753460261504415e+02
1.397598528518329664e+00,1.524748828019844815e+01,-9.975402310475105505e-01,-9.981163548444048628e-01,2.965644769243346718e-02,5.368647220696361883e-02,3.896170804303950490e+02
1.381644114543974400e+00,1.564989306939173197e+01,-1.178100714653738779e+00,-9.528381432164448883e-01,3.336166759709167928e-02,3.016363240104378285e-01,3.911588148346396565e+02
1.362922365864701391e+00,1.605420562956090080e+01,-1.344109035268912455e+00,-8.470136703055962668e-01,3.494698357671496142e-02,5.304192216072148858e-01,3.927005492388842640e+02
1.335149160434512261e+00,1.656172614448809099e+01,-1.529826686854664164e+00,-6.873674886046801102e-01,3.431166216797476576e-02,7.254975158094234544e-01,3.946400530238337865e+02
1.302549689151465628e+00,1.706312407844299983e+01,-1.687847200561314542e+00,-4.840441855709102237e-01,3.149608009857653157e-02,8.744753989402659355e-01,3.965795568087833090e+02
1.265884981803788722e+00,1.755275995441220616e+01,-1.818965292311820692e+00,-2.499636456374969562e-01,2.667915500286055855e-02,9.678865628509508712e-01,3.985190605937328314e+02
1.229577322134898010e+00,1.798902891676945970e+01,-1.917731061935350922e+00,-0.000000000000000000e+00,2.016697227947483739e-02,9.997956257302573757e-01,4.003049848893569447e+02
1.192153483179959617e+00,1.840735530315861723e+01,-1.997816124989293396e+00,-0.000000000000000000e+00,2.016697226525468109e-02,9.997956250252806321e-01,4.020909091849810579e+02
1.154821873344187289e+00,1.880336197719356761e+01,-2.060935874282043834e+00,-0.000000000000000000e+00,2.016697226524963651e-02,9.997956250250304988e-01,4.038768334806051712e+02
1.123696722839404583e+00,1.912393463164579543e+01,-2.103636346788713585e+00,-0.000000000000000000e+00,1.912932683544731755e-02,9.998160172122678713e-01,4.054108889543014698e+02
1.094180247237562131e+00,1.942518937551540148e+01,-2.137604764976849481e+00,-0.000000000000000000e+00,1.809166106151513173e-02,9.998353320519590692e-01,4.069449444279977683e+02
1.066921624460577700e+00,1.970479941648407163e+01,-2.163757620196294695e+00,-0.000000000000000000e+00,1.705397560833250836e-02,9.998535699465991300e-01,4.084789999016940669e+02
1.042620002821014413e+00,1.996059791487751411e+01,-2.182976333905980226e+00,2.002601114991937603e-01,-3.181231389952043215e-02,9.792251347000914263e-01,4.100130553753903655e+02
1.021994517347792009e+00,2.019049287308786234e+01,-2.196124812356454736e+00,3.919255055197626847e-01,-7.931328753785039931e-02,9.165706740589201207e-01,4.115471108490866641e+02
1.002109936494872899e+00,2.045956277575359650e+01,-2.204116271178551578e+00,5.667703804084698316e-01,-1.234103215599538506e-01,8.145791725951998519e-01,4.137753540583346989e+02
9.980356714466322998e-01,2.063403799336263233e+01,-2.199198096298630389e+00,7.172908256221005585e-01,-1.622108801710974713e-01,6.776278490691710621e-01,4.160035972675827338e+02
1.006916774596275044e+00,2.070771535751212511e+01,-2.187272031409074557e+00,8.370268619317428049e-01,-1.940497361591902448e-01,5.115943044079409585e-01,4.177925781126367610e+02
1.028997387072476455e+00,2.072385034180039654e+01,-2.166337575144923200e+00,0.000000000000000000e+00,1.519999199372266442e-02,9.998834733323284096e-01,4.197100005893018988e+02
1.065529217270022810e+00,2.067101198890515334e+01,-2.134980431206728646e+00,-4.199765354727909017e-01,-5.494543922600578778e-01,-7.223002010789456584e-01,4.216274230659670366e+02
1.117303798544891036e+00,2.054830384586816194e+01,-2.091077296463420332e+00,-0.000000000000000000e+00,-2.786296520868886128e-02,9.996107518281552862e-01,4.235448455426321743e+02
1.175533559177629472e+00,2.038482063366384267e+01,-2.041154380661560186e+00,-8.217572942076931675e-01,1.566598654477074914e-02,5.696205107633640630e-01,4.252399311707904985e+02
1.245174650071251055e+00,2.017331256177859444e+01,-1.980702652343646397e+00,4.595995113953340039e-01,-5.348094314389438830e-01,-7.090452462071714645e-01,4.269350167989488227e+02
1.335600274327934489e+00,1.988517656937054312e+01,-1.901245672395602604e+00,6.991536932632081980e-01,-5.387427636396280306e-01,-4.700407937809575332e-01,4.287874910091637730e+02
1.433999626631191404e+00,1.956318802490445208e+01,-1.813883905457740031e+00,5.870270471254134259e-01,-7.725913291578494491e-01,-2.418674927410048026e-01,4.305164043920318591e+02
1.545721937802878809e+00,1.919343676514710850e+01,-1.713927783296872231e+00,4.048547453289437215e-01,-9.142541206510540475e-01,1.516700509103250695e-02,4.322453177748999451e+02
1.651760816925138542e+00,1.884136125128700456e+01,-1.618747556909275964e+00,1.743732381781622209e-01,-9.468261125451050697e-01,2.703928371700814459e-01,4.337302406261237024e+02
1.700126308918669116e+00,1.868054491369058212e+01,-1.575298027851655069e+00,-7.691544477604125851e-02,-8.664196320714214750e-01,4.933548778508023425e-01,4.343771228829025404e+02
1.823724922991880604e+00,1.827082474325927208e+01,-1.465246789469970334e+00,-3.190258656918208979e-01,-6.826293597479048403e-01,6.574478338365459251e-01,4.359482980328901931e+02
1.958235043075448711e+00,1.782906054732696433e+01,-1.348283291826803953e+00,-5.230683284343813355e-01,-4.173870363397735872e-01,7.430919093061789660e-01,4.375194731828778458e+02
2.090159423949336404e+00,1.739992364787971368e+01,-1.236873717918550719e+00,-6.646967124340984467e-01,-1.023429699036610963e-01,7.400690487969061593e-01,4.389529461146747735e+02
2.264172163818081618e+00,1.684054040706965694e+01,-1.096101129860502343e+00,-7.270129289247888593e-01,2.249116686478281335e-01,6.487410442392106402e-01,4.407046881510376579e+02
2.453275923565518823e+00,1.624038483507042940e+01,-9.517329158156482283e-01,-7.688436670264571227e-01,2.094549538862649496e-01,6.041572957160281643e-01,4.424564301874005423e+02
2.656879737892507531e+00,1.560066740376541183e+01,-8.060199596157067159e-01,-8.076171433271085442e-01,1.931653549625312327e-01,5.571711545364518292e-01,4.442081722237634267e+02
2.874279274126982031e+00,1.492275619749016968e+01,-6.609493168462765578e-01,-8.431791787849164388e-01,1.761076461164483020e-01,5.079694571960451377e-01,4.459599142601263111e+02
3.212336353181871385e+00,1.387969525391868331e+01,-4.595950791941812996e-01,-8.753883641370483470e-01,1.583496558372611829e-01,4.567478499465413289e-01,4.484558067237550745e+02
3.434673193460269225e+00,1.319767387582945517e+01,-3.399415219563698409e-01,-9.041166221553197380e-01,1.399619971712698363e-01,4.037100108881870875e-01,4.499873625635356689e+02
3.663451957692364758e+00,1.249458357043145007e+01,-2.228734790553636158e-01,-9.292497169014287683e-01,1.210177869593032640e-01,3.490668401310393354e-01,4.515189184033162633e+02
3.897882516968793620e+00,1.177213638631889658e+01,-1.084335818005991575e-01,-9.506877079590660973e-01,1.015923551198205793e-01,2.930356212436092123e-01,4.530504742430968577e+02
4.137183614638476392e+00,1.103205358042579753e+01,3.335555595110914137e-03,-9.683453478374457468e-01,8.176294513263417107e-02,2.358391573203535707e-01,4.545820300828774521e+02
4.380582894129914528e+00,1.027606556265978099e+01,1.123913362915435893e-01,-9.821524209661660620e-01,6.160840691321414764e-02,1.777048851003608931e-01,4.561135859226580465e+02
4.627316926650858697e+00,9.505911840415164349e+00,2.186911810969460745e-01,-9.920540229329677384e-01,4.120888329779780895e-02,1.188639706568788978e-01,4.576451417624386409e+02
4.876631238766186094e+00,8.723340962965730583e+00,3.221925287438307528e-01,-9.980107788529817281e-01,2.064549138498054243e-02,5.955039025074272685e-02,4.591766976022192353e+02
5.127780339853813096e+00,7.930110465737803871e+00,4.228528361646828881e-01,-9.999989999995435586e-01,0.000000000000000000e+00,0.000000000000000000e+00,4.607082534419998296e+02
5.380027749438462514e+00,7.127986814464037479e+00,5.206295787675789821e-01,-9.928448621721777112e-01,6.529043273179730572e-03,-1.192243735614759159e-01,4.622398092817804240e+02
5.632646024403137552e+00,6.318745349218524154e+00,6.154802507117157484e-01,-9.714848150682426908e-01,1.296466645275962462e-02,-2.367428383593742081e-01,4.637713651215610184e+02
5.884916786078108863e+00,5.504170228333690851e+00,7.073623651828460090e-01,-9.362244785658057067e-01,1.921478830922167258e-02,-3.508739341174009763e-01,4.653029209613416128e+02
6.136130747207261926e+00,4.686054372199514262e+00,7.962334546686239412e-01,-8.875683493723395268e-01,2.518998153460658487e-02,-4.599846628104806712e-01,4.668344768011222072e+02
6.385587738791632439e+00,3.866199406945574513e+00,8.820510712338547332e-01,-9.337900412271272765e-01,1.644756568056000290e-01,-3.177765208807269981e-01,4.683660326409028016e+02
6.646599943857457227e+00,2.999754420689741075e+00,9.692992954153611951e-01,-9.410164957702131794e-01,2.968927379407667599e-01,-1.622980494224084136e-01,4.699849865328579313e+02
6.904054641698059491e+00,2.135721340621204334e+00,1.052838076052493577e+00,-9.089459700185786861e-01,4.169115275724389891e-01,-4.199995240732441536e-05,4.716039404248130609e+02
7.157108312671446093e+00,1.276388955084945875e+00,1.132730517590048169e+00,-9.439344440998473917e-01,3.183618598128822863e-01,-8.735840806385501700e-02,4.732228943167681905e+02
7.404920230044180762e+00,4.240713089380611089e-01,1.209271763899364416e+00,-9.614030968487304873e-01,2.139032509533519144e-01,-1.730534154595326779e-01,4.748418482087233201e+02
7.646657289330348384e+00,-4.188992474557836632e-01,1.282872989662467544e+00,-9.610276973569803483e-01,1.054744947431623808e-01,-2.555364863816051990e-01,4.764608021006784497e+02
7.881498787767243996e+00,-1.250179092859262431e+00,1.353945390912963065e+00,-9.428152073845162962e-01,-4.911925645780512543e-03,-3.332766984229095786e-01,4.780797559926335794e+02
8.108636461323104783e+00,-2.067413415877759952e+00,1.422900182046565876e+00,-9.071036531064059494e-01,-1.152071899589890147e-01,-4.048311572784402679e-01,4.796987098845887090e+02
8.327274521519445472e+00,-2.868236295845862038e+00,1.490148592831527896e+00,-8.545558521075705682e-01,-2.233641679601139629e-01,-4.688717778889486820e-01,4.813176637765438386e+02
8.536629692067762676e+00,-3.650270783883139636e+00,1.556101865418982877e+00,-7.861471119059895152e-01,-3.273754154740285971e-01,-5.242099348405889758e-01,4.829366176684989682e+02
8.735931245320331939e+00,-4.411128984118392715e+00,1.621171251353223930e+00,-7.031471282090642205e-01,-4.253104340795372806e-01,-5.698185244048201703e-01,4.845555715604540978e+02
8.924421038534859463e+00,-5.148412135081527730e+00,1.685768008581928656e+00,-6.070964188158706198e-01,-5.153515027863436737e-01,-6.048510286320648577e-01,4.861745254524092275e+02
9.101353549952731825e+00,-5.859710691262236537e+00,1.750303398466351190e+00,-4.997777305618800181e-01,-5.958274165139535450e-01,-6.286572275614259464e-01,4.877934793443643571e+02
9.262234147726559286e+00,-6.526586942136058056e+00,1.813582783315330849e+00,-3.831829500683736622e-01,-6.652445050408939409e-01,-6.407952678432834448e-01,4.893727520113143896e+02
