5.632780332362641307e-01,-1.875230627668740047e+00,2.297617075642864215e+00,-4.852757261767782770e-01,-5.193389467661061465e-01,-7.034149045589248583e-01,1.134058718638839451e+02
8.821814746811575958e-01,-2.050394283932063022e+00,2.146254805162906010e+00,-4.015486972676975963e-01,-7.363974448212745605e-01,-5.444955894983483091e-01,1.150171616855419785e+02
1.177687908926594140e+00,-2.244025456319522771e+00,1.974535474403958712e+00,-7.140439909530260643e-01,-3.965158317820717815e-01,-5.769873257970132840e-01,1.166284515072000119e+02
1.447074385255278095e+00,-2.454397688422019996e+00,1.784372528767881327e+00,-8.735703862519852425e-01,2.831098010943581406e-02,-4.858716586391084169e-01,1.182397413288580452e+02
1.687626839877370832e+00,-2.679751981377768821e+00,1.577679546409760158e+00,-8.081871976257191115e-01,2.582158815030537527e-02,-5.883576286383036535e-01,1.198510311505160786e+02
1.896640199563365492e+00,-2.918296849205475496e+00,1.356370224464188423e+00,-7.308553647830172695e-01,2.295043714023469253e-02,-6.821449356265469888e-01,1.214623209721741119e+02
2.066117087419199194e+00,-3.158469201390637693e+00,1.131556963708544528e+00,-6.427181838537846525e-01,1.973997493348369700e-02,-7.658470275004367611e-01,1.230130338369359322e+02
2.202739813755792753e+00,-3.407207586365803120e+00,8.970623469257291704e-01,-8.536475879973397518e-01,2.904298598275488127e-02,5.200387490096018972e-01,1.245637467016977524e+02
2.304210912049485138e+00,-3.662893218795105099e+00,6.545283834019057778e-01,-7.127413081394822214e-01,-4.228955894937501125e-01,-5.596044567899673972e-01,1.261144595664595727e+02
2.368240673703593924e+00,-3.923880673594962953e+00,4.055971360199524534e-01,-6.814910863535388330e-01,5.479192654276660024e-02,-7.297710216266585226e-01,1.276651724312213929e+02
2.392547229910490625e+00,-4.188497931741829383e+00,1.519107103128181369e-01,-9.352719058531352436e-01,6.983556446419210417e-02,-3.469689554694463940e-01,1.292158852959832132e+02
2.374856633416964513e+00,-4.455046426439540852e+00,-1.048887564833361208e-01,-9.915524247263935997e-01,7.013210604551252392e-02,1.091021389456723611e-01,1.307665981607450192e+02
2.312902940192341550e+00,-4.721801089645864202e+00,-3.631591063761542282e-01,-8.384479280489542941e-01,5.561892889150656799e-02,5.421343068842825463e-01,1.323173110255068252e+02
2.204534208317891153e+00,-4.986609597775938596e+00,-6.215830383785719837e-01,2.499997267779052761e-05,-7.954151306990970838e-01,-6.060633376396975525e-01,1.338680238902686312e+02
2.047821333348747164e+00,-5.246493271808504666e+00,-8.794929841041280172e-01,3.099996898508438324e-05,-9.999989995188509617e-01,-0.000000000000000000e+00,1.354187367550304373e+02
1.840956460622909407e+00,-5.498050427473846646e+00,-1.136546245401095723e+00,1.016999271930584155e-02,-9.999472841380963040e-01,-0.000000000000000000e+00,1.369694496197922433e+02
1.584172228403389671e+00,-5.737865989539447042e+00,-1.390792134176450201e+00,-9.741568796143900144e-01,-4.289895066157412007e-02,-2.217567449557959758e-01,1.385201624845540493e+02
1.281765441747999112e+00,-5.962551052988641409e+00,-1.637063989756045279e+00,-3.999995304135467398e-06,1.561658166664048331e-01,9.877298404372573115e-01,1.400708753493158554e+02
9.300093120609987940e-01,-6.173721979270626825e+00,-1.874212958362097670e+00,6.270119289929088763e-04,1.327217021845039091e-01,9.911521359569005485e-01,1.416629677535833309e+02
5.428198728961702857e-01,-6.361347049287225275e+00,-2.087874067496294117e+00,1.257671558402838211e-03,1.092030358256696615e-01,9.940176634322906990e-01,1.432550601578508065e+02
1.272751488975954193e-01,-6.521901254365206846e+00,-2.270520486330855015e+00,1.887624728290959080e-03,8.562302516841178990e-02,9.963248137131092141e-01,1.448471525621182820e+02
-3.095286234091874644e-01,-6.651943912062547426e+00,-2.414625602003624305e+00,2.516517670304863064e-03,6.199491221683408465e-02,9.980722909610980631e-01,1.464392449663857576e+02
-7.604772617529961254e-01,-6.748118778901601722e+00,-2.512663072517758334e+00,3.143997210367584835e-03,3.833196598848926523e-02,9.992591133689290306e-01,1.480313373706532332e+02
-1.218438904503112319e+00,-6.807154161900855094e+00,-2.557106879640003605e+00,0.000000000000000000e+00,4.167097441780489436e-02,9.991303866246508125e-01,1.496234297749207087e+02
-1.676264277303903150e+00,-6.825863028904165297e+00,-2.540431381797322974e+00,0.000000000000000000e+00,8.584009604376600100e-01,5.129773787612214031e-01,1.512155221791881843e+02
-2.126790553286833863e+00,-6.801047774319595618e+00,-2.455276201177744699e+00,2.023483194263305252e-01,7.675970210851998932e-01,6.081512729969971165e-01,1.528076145834556598e+02
-2.563279120314619242e+00,-6.729431587926495872e+00,-2.298036727024112214e+00,3.929101631599516420e-01,6.320818065393516427e-01,6.679013351753347871e-01,1.543997069877231354e+02
-2.980765672395672361e+00,-6.607797021103095858e+00,-2.075117251071286084e+00,5.605856318966019325e-01,4.597488483543197280e-01,6.887472292135300433e-01,1.559917993919906110e+02
-3.376542027510514021e+00,-6.433053081694194653e+00,-1.802332797927643337e+00,6.956079098722852683e-01,2.606362404032631086e-01,6.694747089418371377e-01,1.575838917962580865e+02
-3.748802354721585406e+00,-6.202159615841070561e+00,-1.498491069612747362e+00,7.901121582997858717e-01,4.634195063228763178e-02,6.112063488867253147e-01,1.591759842005255621e+02
-4.105692552336498657e+00,-5.901058848433330617e+00,-1.172604709391011024e+00,0.000000000000000000e+00,9.950482571507357488e-01,-9.938292580607746562e-02,1.608177560236051704e+02
-4.432746845079411635e+00,-5.531728461130806629e+00,-8.545539700294619845e-01,5.805297106654012940e-02,-9.983125024434718053e-01,-0.000000000000000000e+00,1.624595278466847788e+02
-4.727884293954552675e+00,-5.094552747802407744e+00,-5.647315134683542626e-01,8.622806498191084579e-01,4.096493585606538618e-02,-5.047692096195808276e-01,1.641012996697643871e+02
-4.987307499415605250e+00,-4.601696604652584455e+00,-3.183053697692041495e-01,6.818411546847187310e-01,5.506893172807303394e-02,-7.294230956948182243e-01,1.657303144908346439e+02
-5.211650414956428001e+00,-4.061615201024502575e+00,-1.152853726250413907e-01,9.497874378621539160e-01,-2.078098770063785058e-02,-3.122018152213338338e-01,1.673593293119049008e+02
-5.399070283763941269e+00,-3.485758595367442592e+00,4.664709689924322056e-02,8.701146418629081003e-01,-2.179872727862667003e-01,-4.420181658236289057e-01,1.689883441329751577e+02
-5.584732723169468116e+00,-2.588013782769219784e+00,1.962124773362977082e-01,7.364161080991563635e-01,-4.016585135364868497e-01,-5.443893406698918636e-01,1.713957818958127746e+02
-5.649152361745994000e+00,-1.855756903642643119e+00,2.392201117582583303e-01,0.000000000000000000e+00,-9.950534475069982010e-01,-9.933094484753354769e-02,1.733093333169784671e+02
-5.648907491812869885e+00,-1.137172176106191701e+00,2.281248056188948103e-01,1.990163025847746514e-01,-9.221781961738331201e-01,-3.316291389590572125e-01,1.752228847381441597e+02
-5.594421781594048682e+00,-5.037017677814161765e-01,1.745550402969091308e-01,3.783536023996662001e-01,-7.581172033176075686e-01,-5.311354418458615889e-01,1.769943616397087567e+02
-5.491717177495844204e+00,8.059516444108690003e-02,8.430992222212935205e-02,5.119696326534558528e-01,1.099999210732662775e-05,-8.590023836518086986e-01,1.787658385412733537e+02
-5.343929594408256989e+00,6.014674312276594437e-01,-3.938117185193686781e-02,3.996517389686284893e-01,-1.354739068109789557e-01,-9.065998610813139624e-01,1.805373154428379507e+02
-5.154876481270092903e+00,1.054296653802255568e+00,-1.932237201227872403e-01,2.740506525458014098e-01,-2.664560070425104343e-01,-9.240646276913966339e-01,1.823087923444025478e+02
-4.928442256297879354e+00,1.439273506881162179e+00,-3.738288006779637573e-01,1.393409662666698634e-01,-3.885818767076947289e-01,-9.108162384447009430e-01,1.840802692459671448e+02
-4.685365983832029180e+00,1.741611829960144409e+00,-5.647060254989358929e-01,0.000000000000000000e+00,-4.977924468361116794e-01,-8.672950362322737750e-01,1.857479976157101191e+02
-4.417360530898738702e+00,1.987671088586499879e+00,-7.720897356736812212e-01,0.000000000000000000e+00,-8.650035307694583508e-01,-5.017637808298417434e-01,1.874157259854530935e+02
-4.154043940082660313e+00,2.166814840163768352e+00,-9.721998538254970068e-01,0.000000000000000000e+00,-9.999978318927560395e-01,-1.528464237969025122e-03,1.889390883555622622e+02
-3.876115461282498842e+00,2.308907418464596795e+00,-1.177894569924915480e+00,0.000000000000000000e+00,-8.665328585921238114e-01,4.991180270968764709e-01,1.904624507256714310e+02
-3.585656793250767471e+00,2.419706922333902277e+00,-1.384838214629646513e+00,0.000000000000000000e+00,-5.004388505242175489e-01,8.657707299752283037e-01,1.919858130957805997e+02
-3.214230744480842006e+00,2.518054561018649107e+00,-1.632583244545983803e+00,0.000000000000000000e+00,9.999989999984911497e-07,9.999989999984910671e-01,1.938525587422797400e+02
-2.828147644784170911e+00,2.582947213440483392e+00,-1.864918001960812921e+00,2.442991422435318583e-01,1.859265891397807180e-02,9.695206249134471488e-01,1.957193043887788804e+02
-2.245075415203281910e+00,2.641734263963999130e+00,-2.139513914496649072e+00,4.737066590282842382e-01,3.605097405068676680e-02,8.799433666211066152e-01,1.984406693608128194e+02
-1.917992697935657631e+00,2.665717287141999403e+00,-2.253287456027270874e+00,0.000000000000000000e+00,-9.999989999983950115e-07,9.999989999983950328e-01,1.999363587990146698e+02
-1.276211590314392463e+00,2.747847593079821849e+00,-2.378425659614423093e+00,-4.595974337851653768e-01,-8.868719073915704021e-01,4.718494186909653193e-02,2.029129500469389313e+02
-7.433584575373637371e-01,2.889082767342881830e+00,-2.360894759330529613e+00,-0.000000000000000000e+00,1.466699169441398019e-02,9.998914337840719702e-01,2.055053673847398272e+02
-4.092820975440869535e-01,3.025055366836235660e+00,-2.295850653270889552e+00,-0.000000000000000000e+00,1.466699168406079140e-02,9.998914330782650017e-01,2.072214651416229287e+02
-9.136209324606039961e-02,3.194702246174787597e+00,-2.197278337338544496e+00,-0.000000000000000000e+00,1.466699168406078967e-02,9.998914330782650017e-01,2.089375628985060303e+02
2.070970940703353025e-01,3.402535865397056103e+00,-2.064362814040726413e+00,-0.000000000000000000e+00,1.466699168405752839e-02,9.998914330780426241e-01,2.106536606553891318e+02
4.901784059557184881e-01,3.660038334449752906e+00,-1.890273847989973666e+00,-0.000000000000000000e+00,4.983568420638816998e-01,8.669708518564142041e-01,2.124193393247330448e+02
7.459197951202597432e-01,3.964745275165099336e+00,-1.678134108889833831e+00,-0.000000000000000000e+00,8.566478719205765646e-01,5.158996254458149133e-01,2.141850179940769578e+02
9.471704966877598775e-01,4.267520622704123134e+00,-1.465778674600168197e+00,-0.000000000000000000e+00,9.993857527531184726e-01,3.501595629961485462e-02,2.157256422970113476e+02
1.129144643671978310e+00,4.601459993813273641e+00,-1.232641777958112250e+00,-0.000000000000000000e+00,9.997942891154746325e-01,2.023312684888299920e-02,2.172662665999457374e+02
1.291432880603193611e+00,4.965390413020454474e+00,-9.812287186457022692e-01,-0.000000000000000000e+00,9.999841710804819872e-01,5.445875370944270287e-03,2.188068909028801272e+02
1.433616916723323920e+00,5.357790337407084991e+00,-7.140997879879612542e-01,-0.000000000000000000e+00,9.999553572012952474e-01,-9.342567865892730319e-03,2.203475152058145170e+02
1.604897190416948671e+00,6.104600193056431756e+00,-2.233841839414563435e-01,-0.000000000000000000e+00,9.997078536570985774e-01,-2.412897233184069928e-02,2.229568572653024887e+02
1.666376717766365978e+00,6.618010906380880520e+00,1.024004645667337399e-01,-0.000000000000000000e+00,9.997078529671034053e-01,-2.412897231518696187e-02,2.245814899898486487e+02
1.702248222296280700e+00,7.152478620784836316e+00,4.343666099768370148e-01,-4.272875887421053731e-01,2.998997113510264850e-02,9.036171302820669160e-01,2.262061227143948088e+02
1.711884870986224216e+00,7.702988095686888137e+00,7.687148523351385876e-01,-8.937831490307434068e-01,2.429597686784608357e-02,4.478385736137356354e-01,2.278307554389409688e+02
1.677088267914071062e+00,8.432350041262331786e+00,1.197663743839273209e+00,-8.866237299589043719e-01,-1.161668459661853864e-01,4.476624011138933268e-01,2.299361849680944658e+02
1.581293823654872366e+00,9.168013118553238527e+00,1.611594842075299905e+00,-8.619258742439935839e-01,-2.543318190180925420e-01,4.386309532422134616e-01,2.320416144972479628e+02
1.445537987244914113e+00,9.817895999096704074e+00,1.960604691909803465e+00,-8.201781035070565551e-01,-3.874658928795192137e-01,4.209228674953371385e-01,2.339228117885992333e+02
1.264719292913019322e+00,1.044850972913764053e+01,2.283140381218448756e+00,-7.622062023065483416e-01,-5.129355189101143520e-01,3.948884128497360813e-01,2.358040090799505037e+02
1.040046739129164788e+00,1.104790071031688647e+01,2.573889580008262623e+00,-6.891568896547615175e-01,-6.282587430520899519e-01,3.610425642724255368e-01,2.376852063713017742e+02
8.044676822189603671e-01,1.155319438228107209e+01,2.807031180256843061e+00,-6.024751418177404227e-01,-7.311543040003943839e-01,3.200548191000244791e-01,2.393772263515389511e+02
5.413073344868906123e-01,1.202062631762455069e+01,3.012899008972648396e+00,-5.038756138744190372e-01,-8.195867641390552905e-01,2.727359561662877074e-01,2.410692463317761280e+02
2.526382014131192677e-01,1.244293315699303726e+01,3.189540627344655377e+00,-3.953087244815094992e-01,-8.918067796542260561e-01,2.200219991417404763e-01,2.427612663120133050e+02
-1.033702102997656885e-01,1.285104826758556307e+01,3.348153176671160303e+00,-2.789220742487550364e-01,-9.463857120591084859e-01,1.629557010407142459e-01,2.446723705017103612e+02
-4.900212385129502635e-01,1.317021832744568322e+01,3.457113481809511946e+00,-1.570179609101715890e-01,-9.822438951773970750e-01,1.026659161203272441e-01,2.465834746914074174e+02
-8.316077793688249065e-01,1.336587112730936688e+01,3.510096055190943254e+00,-3.200783216222972960e-02,-9.986719972399165091e-01,4.034526742688794576e-02,2.481763902549058116e+02
-1.185565288419515584e+00,1.350175882022936769e+01,3.528586118058910426e+00,9.363542199064152360e-02,-9.953450546505373531e-01,-2.277344783593411581e-02,2.497693058184042059e+02
-1.546838664164106536e+00,1.358474776732417588e+01,3.508152932051315176e+00,2.174263925643543371e-01,-9.723288994089522852e-01,-8.544164784294532022e-02,2.513622213819026001e+02
-1.938588890142804555e+00,1.362512051550966419e+01,3.434146591830712136e+00,3.369163216834565877e-01,-9.300788531804100590e-01,-1.464196675519525981e-01,2.530850393346039482e+02
-2.323424654481499374e+00,1.362488108214416371e+01,3.297682629024808687e+00,4.497415457891195678e-01,-8.694307144941566534e-01,-2.045012828375840086e-01,2.548078572873052963e+02
-2.656681883810136036e+00,1.360144565242783266e+01,3.119531667087251048e+00,5.536702530348327489e-01,-7.915842184061553377e-01,-2.585375718772893183e-01,2.563537788340681800e+02
-2.972907505801117178e+00,1.356552672215111421e+01,2.886945630247383487e+00,6.466466297320508927e-01,-6.980792970832494504e-01,-3.074596416412408995e-01,2.578997003808310637e+02
-3.266774433625131202e+00,1.352346959887191602e+01,2.598875867000079332e+00,7.268315228411438289e-01,-5.907656121672837379e-01,-3.502997700311112905e-01,2.594456219275939475e+02
-3.534027444591490763e+00,1.347996521228498601e+01,2.260899739644005368e+00,9.796526068681459254e-01,-0.000000000000000000e+00,2.006957145972041445e-01,2.609915434743568312e+02
-3.837099641206063172e+00,1.342599401145788640e+01,1.725287387795918281e+00,9.796526061767043547e-01,-0.000000000000000000e+00,2.006957144555525374e-01,2.630983951370834575e+02
-4.012490337002749818e+00,1.339336873006156026e+01,1.279765537930911190e+00,9.994220091165006981e-01,-0.000000000000000000e+00,3.396538964094672486e-02,2.646719166653975890e+02
-4.146227136263321178e+00,1.336992855864227536e+01,8.140241977592528322e-01,9.910178181062265779e-01,-0.000000000000000000e+00,-1.337224147093227788e-01,2.662454381937117205e+02
-4.205114082733931724e+00,1.337496341486016149e+01,-2.999983011228669894e-02,9.546769266714698610e-01,-0.000000000000000000e+00,-2.976406653671949121e-01,2.690423153242666103e+02
-4.079053366649794121e+00,1.342419100413036759e+01,-6.594687153951206415e-01,8.084226177786713041e-01,-6.145873609065115881e-04,-5.886004530636448351e-01,2.711813290364380578e+02
-3.832095687114020155e+00,1.350355758290801056e+01,-1.237624402464414963e+00,5.764363129601857150e-01,-1.163998612659590233e-03,-8.171400260715380170e-01,2.733203427486095052e+02
-3.519703999587829646e+00,1.359436831259850997e+01,-1.695334922438020753e+00,5.752485911879960945e-01,-0.000000000000000000e+00,-8.179774186878632225e-01,2.752575089428830779e+02
-3.193202303480749293e+00,1.368226524494709118e+01,-2.032532026882361897e+00,7.342455860441522431e-01,2.131448798323461735e-01,6.445546366104665248e-01,2.769460215713796742e+02
-3.127521198008531123e+00,1.369929749385884676e+01,-2.090007423506565321e+00,4.301035175183344217e-01,3.026596604823463682e-02,9.022709878501539160e-01,2.772638023249403432e+02
-2.660634298473193660e+00,1.381139154358527499e+01,-2.391323885242443215e+00,9.997494087566847210e-01,0.000000000000000000e+00,-2.234098678773002375e-02,2.793519319047393878e+02
-2.468057038376080481e+00,1.385378626159604565e+01,-2.473102411702465808e+00,9.994709311375664651e-01,-0.000000000000000000e+00,3.249396525003610259e-02,2.801474229694475184e+02
-2.346967029093841361e+00,1.387974130457134514e+01,-2.520112589491920296e+00,8.506807646955678592e-01,5.164672500191499482e-01,9.798885770682111418e-02,2.806420738369828314e+02
-1.917229207557783699e+00,1.395997041441785136e+01,-2.638573163788033415e+00,6.355972790763696478e-01,2.092487626604414563e-01,7.431211571178479858e-01,2.823526598806212746e+02
-1.473870703934574200e+00,1.401693434667715188e+01,-2.679858836806427114e+00,7.294162694254322510e-01,5.001404990652879023e-01,4.667005325583564179e-01,2.840632459242597179e+02
-9.710919434798014338e-01,1.404387497376003147e+01,-2.635426763209827161e+00,5.179124917774815540e-01,7.186022948425190293e-01,4.640855445973440796e-01,2.860001234538141830e+02
-4.846960879559896740e-01,1.403346065673238741e+01,-2.493528504344185048e+00,5.227064052949333961e-01,-8.494460335495127579e-01,-7.223191781870842709e-02,2.879370009833686481e+02
-3.615381706916336868e-01,1.402629454104292783e+01,-2.443227057025091131e+00,0.000000000000000000e+00,1.173078338873059928e-01,9.930945937374094923e-01,2.884420932743479966e+02
-9.312526852005635625e-02,1.400753463393773224e+01,-2.320790779916254376e+00,1.270998419732385096e-03,1.158168560016881454e-01,9.932687650413736247e-01,2.895637433614400038e+02
3.519864115493041568e-01,1.396118233811568210e+01,-2.031852734383054582e+00,0.000000000000000000e+00,-9.993865585873593638e-01,3.499294952975968293e-02,2.915982218871575924e+02
6.426544590177799554e-01,1.391847152528921683e+01,-1.756314196966798802e+00,-0.000000000000000000e+00,8.080491350128959915e-02,9.967289330380592061e-01,2.931261772873576206e+02
8.936965706864483661e-01,1.387405876441053287e+01,-1.440813104603320127e+00,-9.359985444609960964e-04,-1.157798199548014106e-01,9.932734553947605294e-01,2.946541326875576488e+02
1.098622875109825481e+00,1.383131349260636256e+01,-1.087100750310572295e+00,1.182598423654860065e-01,0.000000000000000000e+00,9.929816764045947819e-01,2.961820880877576769e+02
1.252691455763981443e+00,1.379287281322559089e+01,-6.981759130567949390e-01,-5.024135394088263817e-01,7.294793312446522515e-01,4.641535744839204725e-01,2.977100434879577051e+02
1.361864843602061059e+00,1.375375863209170291e+01,-1.600421076692824240e-01,-9.994701503667592357e-01,0.000000000000000000e+00,3.251797235700312760e-02,2.996424975149617467e+02
1.366293681059211895e+00,1.372775977818768212e+01,4.201603369356314843e-01,-5.517134353490490417e-01,-8.267481538648483452e-01,1.099898874308825047e-01,3.015749515419657882e+02
1.269919782317575851e+00,1.371525988066335522e+01,1.025920885683846429e+00,-0.000000000000000000e+00,-5.697617808904769099e-01,-8.218086839624648698e-01,3.035074055689698298e+02
1.109132173773280661e+00,1.371375000091307506e+01,1.579127756171655461e+00,-0.000000000000000000e+00,-5.035458697832680963e-01,-8.639673356227053347e-01,3.052431107428334940e+02
8.915574598915253501e-01,1.371875692366681321e+01,2.130147379476847291e+00,-0.000000000000000000e+00,-4.342271823286532606e-01,-9.008022835928478633e-01,3.069788159166971582e+02
8.293272083247871240e-01,1.372077281022781214e+01,2.268973450076319232e+00,-0.000000000000000000e+00,-3.622328545400700373e-01,-9.320865620162476217e-01,3.074191170015756143e+02
5.742209455009794628e-01,1.372929821274278339e+01,2.786048941904093912e+00,-0.000000000000000000e+00,-2.880065075978723854e-01,-9.576274074926462987e-01,3.090826228308427517e+02
2.855152561842949077e-01,1.373756197263338308e+01,3.286355615382730022e+00,-0.000000000000000000e+00,-2.120055144241198841e-01,-9.772674464310221465e-01,3.107461286601098891e+02
-5.206527719862200781e-02,1.374168472806803720e+01,3.794421259115652312e+00,-0.000000000000000000e+00,-1.346981816195186588e-01,-9.908856643773864548e-01,3.125187012298287641e+02
-4.129661017495754871e-01,1.373585716424653214e+01,4.270375503008744467e+00,-0.000000000000000000e+00,-5.656086411390088414e-02,-9.983981513659836438e-01,3.142912737995476391e+02
-8.186266258077982139e-01,1.371100065737372375e+01,4.740298612998558703e+00,-0.000000000000000000e+00,2.192496970815207419e-02,-9.997586187193668872e-01,3.162045701443610142e+02
-1.230062816401976677e+00,1.365866887913509764e+01,5.157308399958714595e+00,6.008035540474822023e-01,8.946493359374771415e-02,-7.943734103682975611e-01,3.181178664891743892e+02
-1.250739747833828464e+00,1.365524728717869429e+01,5.176867275173537841e+00,8.764086303077026630e-01,4.907600450807739906e-02,-4.790589300954523622e-01,3.182140563109689992e+02
-1.625190170050169636e+00,1.357681790714711667e+01,5.512235388901336464e+00,9.968779763714677999e-01,0.000000000000000000e+00,-7.894491893664680460e-02,3.199792790965235554e+02
-1.985190229962843667e+00,1.346376027611248283e+01,5.799856476898849422e+00,8.612447361517848732e-01,-4.966174374190044372e-01,-1.078268301637040766e-01,3.217445018820781115e+02
-2.347303874483338770e+00,1.329449924475053635e+01,6.054192768358662491e+00,4.966409168682168196e-01,-8.612042423340221520e-01,-1.080419024214673701e-01,3.236579681635880661e+02
-2.668003221153612881e+00,1.307430036562106324e+01,6.246607087788485835e+00,0.000000000000000000e+00,-9.968312352734686188e-01,-7.953293898571152376e-02,3.255714344450980207e+02
-2.936051709573729518e+00,1.280636763854544036e+01,6.378265084062425316e+00,-9.968817776734339997e-01,-0.000000000000000000e+00,-7.889690326056408853e-02,3.274849007266079752e+02
-3.123032587566396678e+00,1.253594138280672965e+01,6.447804232019165305e+00,-6.786388523889902435e-01,-0.000000000000000000e+00,-7.344707673076221743e-01,3.291690459113141287e+02
-3.261103839409852156e+00,1.223953133740033294e+01,6.478214238015593374e+00,-0.000000000000000000e+00,-0.000000000000000000e+00,-9.999989999999968626e-01,3.308531910960202822e+02
-3.346818312271246931e+00,1.192457170796928878e+01,6.471343993112674831e+00,9.968779763717972031e-01,-0.000000000000000000e+00,-7.894491893667289484e-02,3.325373362807264357e+02
-3.377655392388652533e+00,1.160012184817161973e+01,6.429387182443657700e+00,0.000000000000000000e+00,-0.000000000000000000e+00,-9.999989999999968626e-01,3.342214814654325892e+02
-3.347976435500648940e+00,1.125477365482644387e+01,6.348410967825655504e+00,9.968779763717972031e-01,-0.000000000000000000e+00,-7.894491893667289484e-02,3.360098362883581444e+02
-3.256727715033837178e+00,1.091743761140278401e+01,6.233049146079091329e+00,7.027111920888708951e-01,7.027076675327708077e-01,-1.113414321112484451e-01,3.377981911112836997e+02
-3.110986846047154142e+00,1.059686967919509470e+01,6.087860042427653440e+00,0.000000000000000000e+00,9.968731427319725835e-01,-7.900593205829646581e-02,3.395865459342092549e+02
-2.853574792550648720e+00,1.023710701764085940e+01,5.865807149731163683e+00,-0.000000000000000000e+00,9.968731420280737554e-01,-7.900593200250984049e-02,3.418331500898481181e+02
-2.521538972551736091e+00,9.945395058541228295e+00,5.604151307534666060e+00,-4.943747774871897760e-01,8.686444092110157111e-01,3.238008233409369468e-02,3.440797542454869813e+02
-2.191409632189020851e+00,9.756833621777051491e+00,5.354219631051958750e+00,-8.536583387930554156e-01,5.030532556442118830e-01,1.349179847037371149e-01,3.460221404963771192e+02
-1.836211709612445286e+00,9.634669551667958132e+00,5.088391844787003571e+00,-9.796745246597646783e-01,0.000000000000000000e+00,2.005886979235763090e-01,3.479645267472672572e+02
-1.479178430686181933e+00,9.589199611717084792e+00,4.818868281544289367e+00,4.662972870393036207e-01,1.652197473817896070e-02,-8.844726476562219109e-01,3.498381785749494952e+02
-1.167992942053433625e+00,9.606229768519094492e+00,4.578598300900188711e+00,4.896725565679519998e-01,1.691298468413364106e-02,-8.717412105786098708e-01,3.514450610823338934e+02
-8.567543276791967921e-01,9.667334321198307379e+00,4.330880623101812432e+00,3.588155418935203844e-01,-5.920762440852410657e-01,-7.215920787299647809e-01,3.530519435897182916e+02
-5.540452994509038609e-01,9.763818656399756435e+00,4.080211272706739223e+00,0.000000000000000000e+00,-8.566789209259183246e-02,-9.963227450303434596e-01,3.546314714484562955e+02
-2.578092795384516189e-01,9.890397525939803813e+00,3.822047671115474721e+00,-9.633373587822338657e-02,-2.264170819153912273e-01,-9.692538967419187523e-01,3.562109993071942995e+02
2.861919450315748847e-02,1.004184869803627045e+01,3.555547676142543967e+00,-1.897944589642378832e-01,-3.604137342227722862e-01,-9.132787107619113609e-01,3.577905271659323034e+02
3.028258503918536126e-01,1.021387790212329882e+01,3.278589224401888824e+00,-2.775948844134388804e-01,-4.836616597546672391e-01,-8.300665509654241436e-01,3.593760263130449175e+02
5.601511634607294621e-01,1.040101899044819156e+01,2.990850775927766048e+00,-3.571165318402182987e-01,-5.924852232850398304e-01,-7.220990533685643920e-01,3.609615254601575316e+02
7.963185818666155269e-01,1.059788616345448098e+01,2.691403450099092876e+00,-6.463403735424584351e-01,-5.168413016604888055e-01,-5.613529998393678166e-01,3.625427489596182227e+02
1.008328876907140348e+00,1.080029511656944763e+01,2.377375682435901805e+00,-8.610980435139656830e-01,-3.816511123333345967e-01,-3.359324156926402627e-01,3.641239724590789137e+02
1.285562525187393890e+00,1.116349505859357905e+01,1.784950664986689528e+00,-9.766469516045874766e-01,-2.024901932016721917e-01,-7.180845062134155743e-02,3.668740225112421740e+02
1.319518779654540008e+00,1.122455040207486121e+01,1.682272937882478558e+00,-9.796745246597435841e-01,-0.000000000000000000e+00,2.005886979235719514e-01,3.673254196823474444e+02
1.430356910503492340e+00,1.145183314911091088e+01,1.303699656891593284e+00,-9.796745239680101358e-01,-0.000000000000000000e+00,2.005886977819393013e-01,3.689782095755043656e+02
1.517346864903006409e+00,1.168709474303740414e+01,9.231586457290184011e-01,-9.987421919058823150e-01,-0.000000000000000000e+00,-5.012019659993331017e-02,3.706309994686612868e+02
1.583069070060759698e+00,1.193186690907316283e+01,5.458252958167059132e-01,-9.546707119062373126e-01,-0.000000000000000000e+00,-2.976605983800955091e-01,3.722837893618182079e+02
1.637006037673187864e+00,1.236574915860819779e+01,-4.091773661126760914e-02,-5.741094903284836848e-01,1.828998376288161953e-03,-8.187752731239562598e-01,3.749852023376957391e+02
1.639708338845121238e+00,1.244271353475089725e+01,-1.346577685953567749e-01,-5.759863544736036900e-01,0.000000000000000000e+00,-8.174580838484853951e-01,3.754370040723335933e+02
1.628600179526723535e+00,1.292632946481674061e+01,-6.521415774787429065e-01,-0.000000000000000000e+00,-9.950635238632309365e-01,9.922995251858010568e-02,3.781144303587176410e+02
1.583017842759303351e+00,1.339054193763198874e+01,-1.043789138420933238e+00,-3.951220526691329171e-01,-9.156671384825293414e-01,-7.369026392918727464e-02,3.804547655798012897e+02
1.501800126103612909e+00,1.397659632976207611e+01,-1.418717662146564695e+00,-7.142513392294510544e-01,-6.601633892674733106e-01,-2.324377849663916418e-01,3.831657672742510385e+02
1.440674606313019801e+00,1.436674915539650144e+01,-1.613288487943918437e+00,-7.352183577740560860e-01,-6.757790067788592703e-01,-5.267542491219209810e-02,3.848621306390451764e+02
1.380162776725372575e+00,1.474684027236641448e+01,-1.777703976254578766e+00,-7.319246137268563546e-01,-6.690952433349758310e-01,1.288251340691788649e-01,3.864687383325978089e+02
1.318337763938861817e+00,1.513533673479296304e+01,-1.924129272427003157e+00,-7.044787914856716071e-01,-6.403326477947767215e-01,3.060747172108249647e-01,3.880753460261504415e+02
1.258623979771656742e+00,1.551423370148906322e+01,-2.048887455828529269e+00,-6.537865531868064517e-01,-5.904403331472997118e-01,4.732244244180384141e-01,3.896170804303950490e+02
1.199179749697941277e+00,1.589710059754241378e+01,-2.159423049041631515e+00,-5.815206522890976615e-01,-5.210646563160700184e-01,6.247586373155548101e-01,3.911588148346396565e+02
1.140477791946378883e+00,1.628191450738803425e+01,-2.256622912382593604e+00,-4.900657329484101044e-01,-4.344948887553378158e-01,7.556770269343358049e-01,3.927005492388842640e+02
1.068328622508692316e+00,1.676485816330881562e+01,-2.358926074925572713e+00,-3.824396375927898717e-01,-3.335876714449442226e-01,8.616595551951597987e-01,3.946400530238337865e+02
9.988161522666841874e-01,1.724151436043100816e+01,-2.438586880541026236e+00,-2.621938205306659775e-01,-2.216727481673809175e-01,9.392090252957093766e-01,3.965795568087833090e+02
9.328931713571588791e-01,1.770615196038767181e+01,-2.497704534351062655e+00,-1.332961547926386492e-01,-1.024430886296354010e-01,9.857664777781400822e-01,3.985190605937328314e+02
8.761511439112151800e-01,1.811917145107067384e+01,-2.536237962601188833e+00,-0.000000000000000000e+00,2.016697227948903090e-02,9.997956257309612571e-01,4.003049848893569447e+02
8.239492933245321504e-01,1.851416974598522813e+01,-2.561628314765580949e+00,-0.000000000000000000e+00,2.016697226524963651e-02,9.997956250250304988e-01,4.020909091849810579e+02
7.770387152507230999e-01,1.888697667008315051e+01,-2.575239438958319749e+00,-0.000000000000000000e+00,1.938874012711227016e-02,9.998110202311153438e-01,4.038768334806051712e+02
7.412556905841488630e-01,1.918786098693781739e+01,-2.579049364505551001e+00,-0.000000000000000000e+00,1.861049644941947454e-02,9.998258092494709537e-01,4.054108889543014698e+02
7.098279930404222116e-01,1.946976798857149404e+01,-2.576999579921808614e+00,-0.000000000000000000e+00,1.783224151750433320e-02,9.998399924897070079e-01,4.069449444279977683e+02
6.831628907190059330e-01,1.973048592692405379e+01,-2.569807347061750402e+00,-0.000000000000000000e+00,1.705397560833250836e-02,9.998535699465991300e-01,4.084789999016940669e+02
6.617301032374081071e-01,1.996794827762630575e+01,-2.558139227710684249e+00,2.002601114991937603e-01,-3.181231389952043215e-02,9.792251347000914263e-01,4.100130553753903655e+02
6.460256561581340096e-01,2.018015764105342669e+01,-2.542636446034599818e+00,3.919255055197626847e-01,-7.931328753785039931e-02,9.165706740589201207e-01,4.115471108490866641e+02
6.372842005170752389e-01,2.042531846548406449e+01,-2.513391025683320290e+00,5.667703804084698316e-01,-1.234103215599538506e-01,8.145791725951998519e-01,4.137753540583346989e+02
6.490551518060732050e-01,2.057859996601031227e+01,-2.476505688569102581e+00,7.172908256221005585e-01,-1.622108801710974713e-01,6.776278490691710621e-01,4.160035972675827338e+02
6.732447785141917329e-01,2.063719928560506744e+01,-2.442019776285908161e+00,8.370268619317428049e-01,-1.940497361591902448e-01,5.115943044079409585e-01,4.177925781126367610e+02
7.135643153042049436e-01,2.063898509156108929e+01,-2.399493355382180670e+00,0.000000000000000000e+00,1.519999199372266442e-02,9.998834733323284096e-01,4.197100005893018988e+02
7.698800869714935713e-01,2.057374672912160563e+01,-2.349223049837795507e+00,6.991536932645082691e-01,-5.387427636406298959e-01,-4.700407937818316673e-01,4.216274230659670366e+02
8.424218756605457159e-01,2.044055369888512530e+01,-2.288674283162109635e+00,4.595995113947056177e-01,-5.348094314382125791e-01,-7.090452462062019068e-01,4.235448455426321743e+02
9.192757627678721510e-01,2.026925455712758151e+01,-2.225188756785201782e+00,-4.199765354728743905e-01,-5.494543922601671238e-01,-7.223002010790892102e-01,4.252399311707904985e+02
1.007377134956290110e+00,2.005113447655830683e+01,-2.151698934986826739e+00,-8.217572942078683607e-01,1.566598654477408675e-02,5.696205107634852993e-01,4.269350167989488227e+02
1.117452371166598679e+00,1.975711449626708571e+01,-2.058301614215357400e+00,-0.000000000000000000e+00,-2.786296520869436383e-02,9.996107518283526838e-01,4.287874910091637730e+02
1.233527780123763185e+00,1.943077400959130330e+01,-1.958132785285260136e+00,-1.033429460625454321e-01,6.817133795004385634e-03,9.946214165133556717e-01,4.305164043920318591e+02
1.362438174666213975e+00,1.905752298036687264e+01,-1.846055029366370892e+00,-2.054553275057832418e-01,4.141605179654046093e-02,9.777887394802390331e-01,4.322453177748999451e+02
1.483072674617008202e+00,1.870292597507013355e+01,-1.741486164495962718e+00,-3.051212574568524238e-01,7.552180752811753217e-02,9.493131595195811734e-01,4.337302406261237024e+02
1.537782717201851224e+00,1.854109273405823544e+01,-1.694225099871064399e+00,-4.011539811758904062e-01,1.087282924905545456e-01,9.095337496763522545e-01,4.343771228829025404e+02
1.676742683252559596e+00,1.812906762443455833e+01,-1.575591114790391378e+00,-4.924100063907403957e-01,1.406401063809481211e-01,8.589241794739324032e-01,4.359482980328901931e+02
1.826512133622018252e+00,1.768526313051438947e+01,-1.451105089454691299e+00,-5.778027184443715880e-01,1.708772649906395991e-01,7.980870747413080224e-01,4.375194731828778458e+02
1.972246224031987794e+00,1.725445257090716211e+01,-1.333590488964560894e+00,-6.563153182273007147e-01,1.990797245458521547e-01,7.277468422029741424e-01,4.389529461146747735e+02
2.162938713857667228e+00,1.669326801573298980e+01,-1.186171079841381815e+00,-7.270129289258814298e-01,2.249116686481661131e-01,6.487410442401854160e-01,4.407046881510376579e+02
2.368448938607624843e+00,1.609161633210996101e+01,-1.035874483666709978e+00,-7.688436670264571227e-01,2.094549538862649496e-01,6.041572957160281643e-01,4.424564301874005423e+02
2.588141397604967420e+00,1.545072305069465379e+01,-8.846522264766464305e-01,-8.076171433271085442e-01,1.931653549625312327e-01,5.571711545364518292e-01,4.442081722237634267e+02
2.821267353398759781e+00,1.477196606374479337e+01,-7.342295007001023999e-01,-8.431791787849164388e-01,1.761076461164483020e-01,5.079694571960451377e-01,4.459599142601263111e+02
3.180824310142867262e+00,1.372843546491104938e+01,-5.250849054723607523e-01,-8.753883641370483470e-01,1.583496558372611829e-01,4.567478499465413289e-01,4.484558067237550745e+02
3.415802545721331018e+00,1.304652648508520763e+01,-4.004510993288714626e-01,-9.041166221553197380e-01,1.399619971712698363e-01,4.037100108881870875e-01,4.499873625635356689e+02
3.656882386930112805e+00,1.234371642839759176e+01,-2.782484195037228658e-01,-9.292497169014287683e-01,1.210177869593032640e-01,3.490668401310393354e-01,4.515189184033162633e+02
3.903246788582756643e+00,1.162167669267534542e+01,-1.585271736443701618e-01,-9.506877079590660973e-01,1.015923551198205793e-01,2.930356212436092123e-01,4.530504742430968577e+02
4.154087651565262718e+00,1.088208753280280661e+01,-4.133765325531676971e-02,-9.683453478374457468e-01,8.176294513263417107e-02,2.358391573203535707e-01,4.545820300828774521e+02
4.408605849218127481e+00,1.012663800574346595e+01,7.326986662773077308e-02,-9.821524209661660620e-01,6.160840691321414764e-02,1.777048851003608931e-01,4.561135859226580465e+02
4.666011253598150610e+00,9.357025915447806597e+00,1.852451277636277815e-01,-9.920540229329677384e-01,4.120888329779780895e-02,1.188639706568788978e-01,4.576451417624386409e+02
4.925522761619842704e+00,8.574957757647492684e+00,2.945378890314740983e-01,-9.980107788529817281e-01,2.064549138498054243e-02,5.955039025074272685e-02,4.591766976022192353e+02
5.186368321076276544e+00,7.782148664536452820e+00,4.010979267562139738e-01,-9.999989999995435586e-01,0.000000000000000000e+00,0.000000000000000000e+00,4.607082534419998296e+02
5.447784956539211798e+00,6.980322349339355803e+00,5.048750350341500992e-01,-9.928448621721777112e-01,6.529043273179730572e-03,-1.192243735614759159e-01,4.622398092817804240e+02
5.709018795138343094e+00,6.171211050767972495e+00,6.058190260583719011e-01,-9.714848150682426908e-01,1.296466645275962462e-02,-2.367428383593742081e-01,4.637713651215610184e+02
5.969325092219506246e+00,5.356555477365956719e+00,7.038797304440944647e-01,-9.362244785658057067e-01,1.921478830922167258e-02,-3.508739341174009763e-01,4.653029209613416128e+02
6.227968256881688092e+00,4.538104751742536358e+00,7.990069975539082492e-01,-8.875683493723395268e-01,2.518998153460658487e-02,-4.599846628104806712e-01,4.668344768011222072e+02
6.484221877392672972e+00,3.717616354695648884e+00,8.911506958229373776e-01,-9.337900412271272765e-01,1.644756568056000290e-01,-3.177765208807269981e-01,4.683660326409028016e+02
6.751680169824255451e+00,2.850116436816819032e+00,9.851552678687459652e-01,-9.410164957702131794e-01,2.968927379407667599e-01,-1.622980494224084136e-01,4.699849865328579313e+02
7.014770376027708920e+00,1.984568701322662276e+00,1.075514305526639403e+00,-9.089459700185786861e-01,4.169115275724389891e-01,-4.199995240732441536e-05,4.716039404248130609e+02
7.272614360782947429e+00,1.123210906528699482e+00,1.162262753088876499e+00,-9.439344440998473917e-01,3.183618598128822863e-01,-8.735840806385501700e-02,4.732228943167681905e+02
7.524332742036879296e+00,2.683165034286204564e-01,1.245630460381195848e+00,-9.614030968487304873e-01,2.139032509533519144e-01,-1.730534154595326779e-01,4.748418482087233201e+02
7.769051858219838458e+00,-5.778177059321123465e-01,1.325944741437886432e+00,-9.610276973569803483e-01,1.054744947431623808e-01,-2.555364863816051990e-01,4.764608021006784497e+02
8.005910643981140495e+00,-1.412884021706269255e+00,1.403532932468550376e+00,-9.428152073845162962e-01,-4.911925645780512543e-03,-3.332766984229095786e-01,4.780797559926335794e+02
8.234060665472625828e+00,-2.234563927075320589e+00,1.478722389478020816e+00,-9.071036531064059494e-01,-1.152071899589890147e-01,-4.048311572784402679e-01,4.796987098845887090e+02
8.452666155447237983e+00,-3.040528169241537793e+00,1.551840485886171406e+00,-8.545558521075705682e-01,-2.233641679601139629e-01,-4.688717778889486820e-01,4.813176637765438386e+02
8.660904048172442415e+00,-3.828436840580907052e+00,1.623214610147632797e+00,-7.861471119059895152e-01,-3.273754154740285971e-01,-5.242099348405889758e-01,4.829366176684989682e+02
8.857964014158199006e+00,-4.595939459956022155e+00,1.693172163371424732e+00,-7.031471282090642205e-01,-4.253104340795372806e-01,-5.698185244048201703e-01,4.845555715604540978e+02
9.043048494699281292e+00,-5.340675054188137594e+00,1.762040556940521974e+00,-6.070964188158706198e-01,-5.153515027863436737e-01,-6.048510286320648577e-01,4.861745254524092275e+02
9.215372736231669748e+00,-6.060272239687550133e+00,1.830147210131360724e+00,-4.997777305618800181e-01,-5.958274165139535450e-01,-6.286572275614259464e-01,4.877934793443643571e+02
9.370576063063733585e+00,-6.736084895789579363e+00,1.896165318773327613e+00,-3.831829500683736622e-01,-6.652445050408939409e-01,-6.407952678432834448e-01,4.893727520113143896e+02
9.512502477805323764e+00,-7.384447979591644007e+00,1.962042622426621863e+00,-2.594761325628791027e-01,-7.223143565899214913e-01,-6.410398637330836369e-01,4.909520246782644222e+02
9.574154432340526100e+00,-7.676231475890766376e+00,1.992493294051057573e+00,-1.309533351209470065e-01,-7.659777314179481156e-01,-6.293864782415045100e-01,4.916820883707489998e+02
9.725057424364468517e+00,-8.433981167475268492e+00,2.075107329320544647e+00,-0.000000000000000000e+00,-7.954242215457090204e-01,-6.060514068783605657e-01,4.936592775981091563e+02
9.847523389880532108e+00,-9.134548706235287696e+00,2.158050650934000725e+00,-2.680070284205894882e-01,-7.758747284911933217e-01,-5.711292659335507338e-01,4.956364668254693129e+02
9.930439870643516187e+00,-9.695837652508737747e+00,2.229812347383846483e+00,-5.163343074808737221e-01,-6.993530620120250729e-01,-4.942693370749057791e-01,4.973401002483557249e+02
9.992830509470358891e+00,-1.022211238330895711e+01,2.301693341052402086e+00,-2.327097549698321222e-01,-7.626911969294452032e-01,-6.034453646062709620e-01,4.990437336712421370e+02
1.003515595347649736e+01,-1.075461813376091591e+01,2.379464654800582668e+00,-8.239442018313869465e-01,-5.504506426402910879e-01,-1.346032773978914909e-01,5.008965341539060887e+02
1.004857397159280907e+01,-1.124594668872357239e+01,2.456053170945878161e+00,-9.089321683888758052e-01,-2.999997255206519727e-06,4.169416185267721953e-01,5.027493346365700404e+02
1.003168934573982263e+01,-1.169813229420155132e+01,2.530898433641874057e+00,-0.000000000000000000e+00,-2.291096583325515426e-02,-9.997365091094602141e-01,5.046021351192339921e+02
9.983365324790433704e+00,-1.211277847283116849e+01,2.603698532312293867e+00,-6.457998176120151035e-01,2.799346649903147188e-01,-7.103359620001391539e-01,5.064549356018979438e+02
9.885074499840683870e+00,-1.254062239021219760e+01,2.683849911215254735e+00,-9.089459700192470404e-01,4.169115275727455772e-01,-4.199995240735530157e-05,5.085831919509165573e+02
9.739056394054266264e+00,-1.291624429368997795e+01,2.759144678962226038e+00,-2.327328258594906496e-01,7.626824293288614331e-01,6.034475484751106178e-01,5.107114482999352276e+02
9.619620641485784773e+00,-1.314373761116793915e+01,2.806774844064671814e+00,-1.754001408742473789e-01,7.885248546421694815e-01,5.894585177837536882e-01,5.121325121927999362e+02
9.320819360672803811e+00,-1.353870738440064159e+01,2.891325178302393883e+00,-1.173394576086368990e-01,8.110944488078755121e-01,5.730229025058458658e-01,5.149820309329513748e+02
9.083748157310798987e+00,-1.375265291286715907e+01,2.937182815525867685e+00,-5.879174674164443920e-02,8.302975415810412985e-01,5.542089163433298049e-01,5.168399083536106673e+02
8.823267400120345272e+00,-1.394257885791651219e+01,2.975872632969199127e+00,-0.000000000000000000e+00,8.460544322730512157e-01,5.330946422781052130e-01,5.186977857742699598e+02
8.435952275762126362e+00,-1.415198483311380073e+01,3.011190955346071618e+00,-0.000000000000000000e+00,2.371197228180343605e-02,-9.997178313761914126e-01,5.211701687080599186e+02
8.157805701648396024e+00,-1.426271438382345380e+01,3.023543045785567873e+00,-0.000000000000000000e+00,5.332983833114575134e-01,8.459260217992370379e-01,5.227942044743847418e+02
7.865991052601120082e+00,-1.435588593703369398e+01,3.028249321881795630e+00,1.477613314084231799e-01,6.939002795759781073e-01,7.047460471304616281e-01,5.244182402407095651e+02
7.328432461316570112e+00,-1.446104733087558358e+01,3.008061006561787210e+00,2.855401712427096950e-01,8.076234609036384571e-01,5.159546065360383071e-01,5.271845382986685991e+02
7.010471762423991393e+00,-1.449258206961025230e+01,2.981376805638723759e+00,4.040284236797373474e-01,8.667849701538511420e-01,2.923060867909050842e-01,5.287163247841320981e+02
6.684646377551721308e+00,-1.451388384932243447e+01,2.947428299093465931e+00,4.952212076728925716e-01,8.673879117539979866e-01,4.890977422230455979e-02,5.302481112695955972e+02
6.276687270643570571e+00,-1.452706781600559793e+01,2.895461855245665905e+00,5.529576574120615984e-01,8.093914985370741499e-01,-1.977908774575810325e-01,5.321191770996987316e+02
5.859069642215047224e+00,-1.452764484996975369e+01,2.831916064134609279e+00,6.082845806614872730e-01,7.258401166320607167e-01,-3.211603867496438669e-01,5.339902429298018660e+02
5.516757362705509316e+00,-1.452124606938184392e+01,2.773655101276915058e+00,6.482450273912611083e-01,6.239525654964515056e-01,-4.364167509079139862e-01,5.355018928250600538e+02
5.171903324772811672e+00,-1.451070054079516858e+01,2.710767102198579526e+00,6.718295145716773886e-01,5.063027298479463312e-01,-5.406483599337325030e-01,5.370135427203182417e+02
4.825636796146008045e+00,-1.449719079616282791e+01,2.644038832871960842e+00,6.784422508586801515e-01,3.758626835497232976e-01,-6.312221125442220027e-01,5.385251926155764295e+02
4.479080855716549792e+00,-1.448191215445528179e+01,2.574257083575434812e+00,6.679161876126490371e-01,2.359276075946613316e-01,-7.058499346886041304e-01,5.400368425108346173e+02
4.133352355217073004e+00,-1.446607268430390647e+01,2.502208663908700892e+00,6.405172384028192667e-01,9.003254550083218677e-02,-7.626465813598283239e-01,5.415484924060928051e+02
3.661671013397785668e+00,-1.444669650816539708e+01,2.400473663044496053e+00,5.969375605102195115e-01,-5.813690054869389418e-02,-8.001772613909889920e-01,5.436302904821046695e+02
3.198853139814796354e+00,-1.443381368475119331e+01,2.297734569885066858e+00,5.382780683742509620e-01,-2.048376764522911453e-01,-8.174938821872087535e-01,5.457120885581165339e+02
2.845442252843048525e+00,-1.442922914874775309e+01,2.218510300376177469e+00,4.660206210173625796e-01,-3.463638335014408431e-01,-8.141589989857557219e-01,5.473354630452903393e+02
2.499208289473044076e+00,-1.442941742066585498e+01,2.141285346705502857e+00,3.819905863401977242e-01,-4.791401474675980876e-01,-7.902568639581669663e-01,5.489588375324641447e+02
2.161200066292442656e+00,-1.443463412490085673e+01,2.067189591902044210e+00,2.883107282158150486e-01,-5.998124345700049931e-01,-7.463912963933344580e-01,5.505822120196379501e+02
1.782186978529544996e+00,-1.444773204967831326e+01,1.987323296092969427e+00,2.389526100457246838e-01,-4.904836065133682532e-01,-8.380486154717775582e-01,5.524631527302445875e+02
1.418959447919167394e+00,-1.446869400689267593e+01,1.916101270902607956e+00,1.841487405459336368e-01,-3.699766144734643603e-01,-9.106066912220525111e-01,5.543440934408512248e+02
1.072539770613553323e+00,-1.449629003205109967e+01,1.855378335413838231e+00,1.251481002627992112e-01,-2.410378133891598051e-01,-9.624119313045763624e-01,5.562250341514578622e+02
5.937764929290895166e-01,-1.454825480786337444e+01,1.794912146200576597e+00,6.329531216324567333e-02,-1.066057151051655744e-01,-9.922836917762490883e-01,5.590551264604648622e+02
3.578286737254085526e-01,-1.457932317956509394e+01,1.778258268796637509e+00,0.000000000000000000e+00,3.025597526115820363e-02,-9.995411827237108415e-01,5.605690565880156555e+02
1.304522905967089863e-01,-1.460981818652309627e+01,1.769251270949886434e+00,9.303518499622632776e-01,-2.382997054300973853e-03,3.666575467628561680e-01,5.620829867155664488e+02
-9.761741516406188812e-02,-1.463972116424644199e+01,1.768423982811744510e+00,9.311514950500131560e-01,-0.000000000000000000e+00,3.646298022665325211e-01,5.636601389276372629e+02
-3.171459941127890425e-01,-1.466638015233056258e+01,1.776670626380418838e+00,6.584233858696859620e-01,7.071062360062438934e-01,2.578321468349566992e-01,5.652372911397080770e+02
-5.288364689019543485e-01,-1.468843670536989876e+01,1.794088399016183333e+00,0.000000000000000000e+00,9.999989999999999712e-01,0.000000000000000000e+00,5.668144433517788912e+02
-7.334765514100106687e-01,-1.470501040247084035e+01,1.820624690621508224e+00,-0.000000000000000000e+00,8.188661085974975329e-01,-5.739828361470650231e-01,5.683915955638497053e+02
-7.962854364472933266e-01,-1.470919434252099833e+01,1.830467333991984580e+00,-0.000000000000000000e+00,3.410856895400330435e-01,-9.400311443732558558e-01,5.688843774080692128e+02
-9.442850962660024328e-01,-1.471776073928194251e+01,1.856007973751512052e+00,-4.264455698729431865e-01,8.714758998411258339e-01,-2.422228972068569408e-01,5.700565923803452506e+02
-1.068433122066337893e+00,-1.472334600474683519e+01,1.880321010573328122e+00,-4.477217380017308179e-01,5.738696641823569644e-01,6.857235987275560607e-01,5.710532801478718739e+02
