-4.245080696631856831e+00,-2.799261255655654423e+00,-7.331249264415892419e+00,-6.799996278733307802e-05,-9.702994690080778140e-02,9.952804553373478802e-01,4.885817028298509967e+01
-4.255376816269516027e+00,-2.795874197410133544e+00,-7.326707314299140350e+00,9.726792459778155209e-02,0.000000000000000000e+00,9.952572284753349319e-01,4.891389638844230348e+01
-4.544607154947755134e+00,-2.697433776396421123e+00,-7.181966890413391980e+00,-2.272997664907018458e-03,5.869383970272153972e-01,-8.096271682548787929e-01,5.051398453533273170e+01
-4.822740520696151556e+00,-2.597061962752695408e+00,-7.009736014080141686e+00,5.293393743996591683e-01,8.484089973068630330e-01,-0.000000000000000000e+00,5.211407268222315992e+01
-5.243789692392750723e+00,-2.441546865647681308e+00,-6.675804722268273927e+00,0.000000000000000000e+00,-9.924842934878358447e-01,-1.223639128937420162e-01,5.461353278951893486e+01
-5.745533355364071504e+00,-2.280354254743776732e+00,-6.172762773296203598e+00,-0.000000000000000000e+00,-9.983890695156890649e-01,-5.672094713688979190e-02,5.755889355606510804e+01
-6.204297992582753274e+00,-2.171981155315565459e+00,-5.661139028108975957e+00,-0.000000000000000000e+00,5.892782266479663633e-01,-8.079289396969711046e-01,6.010633580849721369e+01
-6.748240533847445377e+00,-2.077624954801080115e+00,-5.024940861433973005e+00,6.075376243260788289e-01,7.797075178639661930e-01,1.514999063192770667e-01,6.299307464477005425e+01
-7.171852729592472109e+00,-2.015409589748409225e+00,-4.503474622158099017e+00,9.360262369457210685e-01,-2.510647953304525060e-01,2.466157989573014020e-01,6.524293661838004255e+01
-7.569034023658572252e+00,-1.954133412917258950e+00,-3.977703195901358235e+00,9.984358225256168007e-01,-0.000000000000000000e+00,-5.589193408557752846e-02,6.749279859199003795e+01
-7.927545935538679700e+00,-1.882521068728021163e+00,-3.429220360665017786e+00,9.973505985314402578e-01,-0.000000000000000000e+00,-7.273089779916236397e-02,6.988417700898770590e+01
-8.122625828235179313e+00,-1.826508003918848821e+00,-3.064287484514957693e+00,9.973505978851086029e-01,-0.000000000000000000e+00,-7.273089775202921936e-02,7.152344036060237897e+01
-8.281284600306843657e+00,-1.742619002325139332e+00,-2.621260751556932167e+00,9.948943568806407622e-01,-0.000000000000000000e+00,-1.009119347685325796e-01,7.359432021803705481e+01
-8.263837826905993111e+00,-1.595415708738481708e+00,-2.077564582993219666e+00,9.813278063693247066e-01,-1.738898675028891783e-01,-8.219519710102479726e-02,7.629843917353215943e+01
-8.194488196318880924e+00,-1.527568717584752545e+00,-1.876901105340593512e+00,9.375637222541209903e-01,-3.424287797284362167e-01,-6.094913885313669316e-02,7.733463552839180011e+01
-8.152420445254950465e+00,-1.490043379994038686e+00,-1.769333574329618131e+00,8.649488145747017409e-01,-5.004304396777807806e-01,-3.782754565024882415e-02,7.789101077776658144e+01
-8.066494972941466557e+00,-1.418561188296224351e+00,-1.569990579175961409e+00,7.657175932354370884e-01,-6.430328015601444180e-01,-1.354191742648029953e-02,7.892104193766662945e+01
-7.912114237335051925e+00,-1.305527265483837018e+00,-1.272754372322705052e+00,6.429236088106371483e-01,-7.658476859863760922e-01,1.116042576720451505e-02,8.044738639663522406e+01
-7.723990992667804534e+00,-1.183559995520834018e+00,-9.716239450800994160e-01,5.003454896569753396e-01,-8.650958140257205553e-01,3.551934029692922073e-02,8.197373085560381867e+01
-7.506159130160673598e+00,-1.053931857455753240e+00,-6.654278486555552652e-01,3.423706664379516651e-01,-9.377231047184338975e-01,5.878525019120844908e-02,8.350007531457241328e+01
-7.374008949345771669e+00,-9.788668608488646505e-01,-4.918846640268274562e-01,1.738603618463881728e-01,-9.814946570327749420e-01,8.024221329650443879e-02,8.435532562772920073e+01
-7.011227616523036943e+00,-7.861948961868023833e-01,-5.804557965110591911e-02,0.000000000000000000e+00,-9.950635238632341562e-01,9.922995251858043875e-02,8.646411939583471451e+01
-6.713265824440720841e+00,-6.401854143009007014e-01,2.609345596699112479e-01,2.694751965404681981e-01,-8.918920094415060396e-01,-3.631938352228064049e-01,8.799682483877838024e+01
-6.392456214996551367e+00,-4.924621651304306180e-01,5.783926337692180120e-01,4.588899395963775274e-01,-5.237415970596055459e-01,-7.177135660184505994e-01,8.952953028172204597e+01
-6.038926281145130304e+00,-3.410019850160210253e-01,8.986851277436896934e-01,5.119696326536157249e-01,1.099999210733006162e-05,-8.590023836520768175e-01,9.110419438554150418e+01
-5.660537489249610310e+00,-1.921948231661828599e-01,1.208169434500748762e+00,4.375209151265926355e-01,1.713134706291955965e-03,-8.992054904172573915e-01,9.267885848936096238e+01
-5.256792647782258854e+00,-4.853885678607817306e-02,1.501713002411317666e+00,3.599387607545804224e-01,3.403000140485444233e-03,-9.329686533302424811e-01,9.425352259318042059e+01
-4.827228652714186552e+00,8.746530990455458898e-02,1.774183389434376812e+00,2.797787981103003196e-01,5.068493818512088273e-03,-9.600500687457781401e-01,9.582818669699987879e+01
-4.371416493103411405e+00,2.133148048305877620e-01,2.020448298402167442e+00,1.976151170871041363e-01,6.697687816106294434e-03,-9.802557862502118136e-01,9.740285080081933700e+01
-3.890614778588506351e+00,3.266762719592275488e-01,2.235511272729386434e+00,1.140361574430915764e-01,8.278914184149686883e-03,-9.934410975875874739e-01,9.897751490463879520e+01
-3.389420041581803655e+00,4.255687038341184336e-01,2.414647391188709857e+00,2.964049459984050006e-02,9.800848509791112995e-03,-9.995115729439383312e-01,1.005521790084582534e+02
-2.874108350931212641e+00,5.082085301691816603e-01,2.553267639970223879e+00,-5.496744712917236986e-02,1.125259101716673954e-02,-9.984237371737526567e-01,1.021268431122777116e+02
-2.338742300361732696e+00,5.739056176106940299e-01,2.647788703628248808e+00,-1.391817231868425764e-01,1.262374462706206991e-02,-9.901853811296226215e-01,1.037381329339357450e+02
-1.801941882809618978e+00,6.184736387750962017e-01,2.688953879018716187e+00,-2.223992083046327228e-01,1.390448941662981996e-02,-9.748555058674017726e-01,1.053494227555937783e+02
-1.270668445258836154e+00,6.400622741962622708e-01,2.671733119579736471e+00,-3.040239158482226367e-01,1.508565294604186091e-02,-9.525439001263455996e-01,1.069607125772518117e+02
-7.511770434829531107e-01,6.368557965745375027e-01,2.593741733451788711e+00,-3.834712660504153714e-01,1.615877594852681634e-02,-9.234103541080107558e-01,1.085720023989098451e+02
-2.479801740534147148e-01,6.070666077357957935e-01,2.458240909078080350e+00,-4.601722725703351613e-01,1.711617291341647334e-02,-8.876635151804559420e-01,1.101832922205678784e+02
2.357217882078667393e-01,5.489263609557915036e-01,2.271848331347215311e+00,-5.335776174015941509e-01,1.795098712835989721e-02,-8.455593936970636770e-01,1.117945820422259118e+02
6.970044426034552876e-01,4.606820499348937559e-01,2.041537625520714272e+00,-6.153266050159427181e-01,2.047669785328527781e-02,-7.880049961790439594e-01,1.134058718638839451e+02
1.132789835283907198e+00,3.414491923266050888e-01,1.773987991221400273e+00,-6.909212001616467091e-01,2.279760415751042740e-02,-7.225691416124607747e-01,1.150171616855419785e+02
1.539736360659873293e+00,1.920663953643700628e-01,1.475289412567950320e+00,-7.596053347615805418e-01,2.489049323535139080e-02,-6.499062999748064229e-01,1.166284515072000119e+02
1.914390390989235025e+00,1.424304693721479935e-02,1.151237356119128696e+00,-8.206920540945418230e-01,2.673443274103668235e-02,-5.707432193645706198e-01,1.182397413288580452e+02
2.253321325638420802e+00,-1.902939442673888537e-01,8.076274709387135653e-01,-8.735703862512503859e-01,2.831098010941199977e-02,-4.858716586386996883e-01,1.198510311505160786e+02
2.553121632297148391e+00,-4.198002587438927069e-01,4.502555468758064339e-01,-9.558486701187393075e-01,3.130908297830151815e-02,-2.921832663852163559e-01,1.214623209721741119e+02
2.802315278449780234e+00,-6.622528829500223813e-01,9.878383404140182733e-02,-9.957886045323572910e-01,3.292038168116044605e-02,-8.555292837607406109e-02,1.230130338369359322e+02
3.010695691189255729e+00,-9.239041304836190793e-01,-2.548166521579848243e-01,-9.916210973836402376e-01,3.307350563539709909e-02,1.248668989316172595e-01,1.245637467016977524e+02
3.175398006803385798e+00,-1.203214035653586977e+00,-6.055735741475302136e-01,-9.435307302473816549e-01,3.176167194036799007e-02,3.297559055943272699e-01,1.261144595664595727e+02
3.293576539471304798e+00,-1.498628615381234930e+00,-9.485146133105701871e-01,-8.536475879972215131e-01,2.904298598275086019e-02,5.200387490095298437e-01,1.276651724312213929e+02
3.362404813117068514e+00,-1.808579957253690917e+00,-1.278667503140316075e+00,-7.127413081394822214e-01,-4.228955894937501125e-01,-5.596044567899673972e-01,1.292158852959832132e+02
3.379075593087009999e+00,-2.131486307705228622e+00,-1.591060062391312036e+00,-8.608620123120168666e-01,-3.634435067614086301e-01,-3.561227501187634314e-01,1.307665981607450192e+02
3.340800917650665447e+00,-2.465752160325804798e+00,-1.880720228230467361e+00,-9.514089133330803083e-01,-2.796846221408630373e-01,-1.288238788795877665e-01,1.323173110255068252e+02
3.245847370748454086e+00,-2.809170751540674527e+00,-2.143655984472597087e+00,-9.783263459661829531e-01,-1.772206743382840066e-01,1.070905849129476090e-01,1.338680238902686312e+02
3.094582550236927965e+00,-3.158333389439443195e+00,-2.377835283281221734e+00,-9.398141263731931705e-01,-6.290436771020066486e-02,3.358428924272430782e-01,1.354187367550304373e+02
2.888456631863224988e+00,-3.509237449003641984e+00,-2.582206163630316631e+00,-8.384479280489354203e-01,5.561892889150532593e-02,5.421343068842704449e-01,1.369694496197922433e+02
2.628972714690583690e+00,-3.857887606573258132e+00,-2.755716863231124414e+00,-9.527259479615685089e-01,2.366780883293338397e-02,3.029044451751040645e-01,1.385201624845540493e+02
2.318846900027292879e+00,-4.200297992371716305e+00,-2.897043017259494313e+00,-9.990637368470621782e-01,-9.971092811338571824e-03,4.207406595869409016e-02,1.400708753493158554e+02
1.952562234174845202e+00,-4.541018341845947326e+00,-3.006806756239647882e+00,-9.741568796140113173e-01,-4.289895066155743897e-02,-2.217567449557097947e-01,1.416629677535833309e+02
1.544017603051757392e+00,-4.866353498520719967e+00,-3.079816217436411652e+00,-3.999995304135467398e-06,1.561658166664048331e-01,9.877298404372573115e-01,1.432550601578508065e+02
1.100276069611785923e+00,-5.171964633746539697e+00,-3.116170932110720937e+00,5.218581712737516273e-04,1.366345879257805374e-01,9.906203697850228806e-01,1.448471525621182820e+02
6.284607801891987089e-01,-5.453548783883952034e+00,-3.115970689118970238e+00,1.047512694075092548e-03,1.170500603173185994e-01,9.931244564925146845e-01,1.464392449663857576e+02
1.357548798361612186e-01,-5.706839133811929976e+00,-3.079315534211165328e+00,1.572758572918582856e-03,9.741987162914601817e-02,9.952411240643529444e-01,1.480313373706532332e+02
-3.705985729250498850e-01,-5.927605300084934470e+00,-3.006305769327736854e+00,2.097390966882086739e-03,7.775167744171046502e-02,9.969695469735401216e-01,1.496234297749207087e+02
-8.832966919344990009e-01,-6.111653613736296897e+00,-2.897041951895039436e+00,2.621205273916417042e-03,5.805314815121710020e-02,9.983090509751358921e-01,1.512155221791881843e+02
-1.395175291236067316e+00,-6.254700681789861605e+00,-2.752741770096074791e+00,3.143997210367584835e-03,3.833196598848926523e-02,9.992591133689290306e-01,1.528076145834556598e+02
-1.899407585859759218e+00,-6.352787711722466923e+00,-2.576573522051690546e+00,0.000000000000000000e+00,8.584009604376621194e-01,5.129773787612226243e-01,1.543997069877231354e+02
-2.389315200026413510e+00,-6.402947588619521291e+00,-2.372255829338870470e+00,2.515442625825332623e-01,7.376430274329121017e-01,6.265829937389252313e-01,1.559917993919906110e+02
-2.858201704520872966e+00,-6.402789127039383743e+00,-2.143253469595642446e+00,4.802574972005798637e-01,5.499341094846451616e-01,6.833177969359242043e-01,1.575838917962580865e+02
-3.300680386297142999e+00,-6.349957922354418471e+00,-1.894047530069151275e+00,6.653809424011178919e-01,3.123112780726252646e-01,6.780323495817016655e-01,1.591759842005255621e+02
-3.725869377105103908e+00,-6.236936508881015584e+00,-1.622590986786698108e+00,7.901121582997858717e-01,4.634195063228763178e-02,6.112063488867253147e-01,1.608177560236051704e+02
-4.117325644027441278e+00,-6.061050275851183500e+00,-1.344374615487674118e+00,0.000000000000000000e+00,9.950482571507357488e-01,-9.938292580607746562e-02,1.624595278466847788e+02
-4.473505006096054615e+00,-5.819714238607521573e+00,-1.068292247538463968e+00,5.805297106654012940e-02,-9.983125024434718053e-01,-0.000000000000000000e+00,1.641012996697643871e+02
-4.791055917112342577e+00,-5.513320955611711760e+00,-8.062258057815020473e-01,8.622806498191084579e-01,4.096493585606538618e-02,-5.047692096195808276e-01,1.657303144908346439e+02
-5.072091283400125050e+00,-5.140864007378153744e+00,-5.647348407678494109e-01,8.963553676142287374e-01,2.045651705012748942e-02,-4.428618134973142939e-01,1.673593293119049008e+02
-5.315725857920615027e+00,-4.708433767991398788e+00,-3.488919243104932622e-01,9.255770334535439181e-01,-1.626667145772789987e-04,-3.785566386645656811e-01,1.689883441329751577e+02
-5.586353210666869629e+00,-3.957676690568033617e+00,-9.647725553326075287e-02,9.497874378597731537e-01,-2.078098770058576031e-02,-3.122018152205512376e-01,1.713957818958127746e+02
-5.719911744018040700e+00,-3.279551710492318861e+00,4.210742946008466658e-02,9.029923056844566531e-01,-1.531611957808503011e-01,-4.014281305295855362e-01,1.733093333169784671e+02
-5.786199665632860700e+00,-2.560553338891438546e+00,1.289761260495445594e-01,8.312062869498643147e-01,-2.813024827597228050e-01,-4.795445982674532148e-01,1.752228847381441597e+02
-5.785830537896416992e+00,-1.875875071946159878e+00,1.626474374483656837e-01,7.364161080991563635e-01,-4.016585135364868497e-01,-5.443893406698918636e-01,1.769943616397087567e+02
-5.723653589923335616e+00,-1.189987933610820336e+00,1.517117620515434917e-01,0.000000000000000000e+00,-9.950534475069982010e-01,-9.933094484753354769e-02,1.787658385412733537e+02
-5.594792116172589758e+00,-5.188827147206694912e-01,9.517782987201119094e-02,3.783536023996662001e-01,-7.581172033176075686e-01,-5.311354418458615889e-01,1.805373154428379507e+02
-5.397684485365788376e+00,1.215068424111708650e-01,-7.813040367576479933e-03,2.908668268235348742e-01,-7.139959818481893539e-01,-6.368706516695932240e-01,1.823087923444025478e+02
-5.137146153973296769e+00,7.154123375979296595e-01,-1.578547418335721486e-01,1.973356906743366224e-01,-6.550375167448917457e-01,-7.293712887430657821e-01,1.840802692459671448e+02
-4.842381260210443905e+00,1.219938756481690367e+00,-3.412777029513848759e-01,9.970380687510610462e-02,-5.824669923587598719e-01,-8.067151626857025359e-01,1.857479976157101191e+02
-4.507918906459550179e+00,1.660296880089414007e+00,-5.647063619639623999e-01,0.000000000000000000e+00,-4.977924468359455346e-01,-8.672950362319844508e-01,1.874157259854530935e+02
-4.174345821869659190e+00,1.999171484367976204e+00,-8.022829441231400516e-01,0.000000000000000000e+00,-9.845103834902328988e-01,-1.753205772118504036e-01,1.889390883555622622e+02
-3.820199884070864194e+00,2.274681386463077271e+00,-1.067888405950569997e+00,0.000000000000000000e+00,-7.665880506428351948e-01,6.421376492663057878e-01,1.904624507256714310e+02
-3.450153756013782047e+00,2.488484755667100590e+00,-1.355295067000065412e+00,0.000000000000000000e+00,9.999989999984911497e-07,9.999989999984910671e-01,1.919858130957805997e+02
-2.980665476324868557e+00,2.665122403511352989e+00,-1.726630121748076396e+00,2.442991422435318583e-01,1.859265891397807180e-02,9.695206249134471488e-01,1.938525587422797400e+02
-2.501703028261496708e+00,2.749326399543933874e+00,-2.106218710942781680e+00,4.737066590282842382e-01,3.605097405068676680e-02,8.799433666211066152e-01,1.957193043887788804e+02
-1.818908289794747724e+00,2.696170398952811187e+00,-2.632293373702125905e+00,3.997836988754264187e-01,3.042496722840042078e-02,9.161033323163983999e-01,1.984406693608128194e+02
-1.459865438345646860e+00,2.589998624704359820e+00,-2.897043150399103872e+00,3.231407086488636837e-01,2.459195640354734647e-02,9.460302944900784716e-01,1.999363587990146698e+02
-8.229791674489284059e-01,2.277508061575155729e+00,-3.321664041564250436e+00,2.442991469283681272e-01,1.859162783485925063e-02,9.695206435055933047e-01,2.029129500469389313e+02
-3.768602294063217450e-01,1.928284090705823628e+00,-3.572152747406592166e+00,1.637954291108203175e-01,1.246480603874724688e-02,9.864145609285380756e-01,2.055053673847398272e+02
-1.317462873248059496e-01,1.689102651647119702e+00,-3.695573523723035603e+00,8.217727841063557359e-02,6.253176077954018287e-03,9.965971065084012759e-01,2.072214651416229287e+02
8.147586876433389469e-02,1.458354412031986680e+00,-3.796923459400063816e+00,0.000000000000000000e+00,-9.999989999983950115e-07,9.999989999983950328e-01,2.089375628985060303e+02
2.640213793835277101e-01,1.244636630215551154e+00,-3.878189953124265177e+00,-0.000000000000000000e+00,1.466699169343334101e-02,9.998914337172190026e-01,2.106536606553891318e+02
4.216822270476515699e-01,1.051465873024801878e+00,-3.942325373386396770e+00,-1.723465148740036257e-01,-3.191620485972292420e-01,9.318960594113284701e-01,2.124193393247330448e+02
5.512287037950550639e-01,8.935516516958196265e-01,-3.987936072472592741e+00,-3.195702363537982760e-01,-6.064671246811365046e-01,7.280594005427046822e-01,2.141850179940769578e+02
6.452915600237650873e-01,7.870085319553289382e-01,-4.014170073888879919e+00,-4.202105830658532937e-01,-8.053682028028326112e-01,4.180946349749951052e-01,2.157256422970113476e+02
7.257150594024223134e-01,7.105664975458527710e-01,-4.029081982279555163e+00,-4.595974337851655989e-01,-8.868719073915708462e-01,4.718494186909655275e-02,2.172662665999457374e+02
7.948280810433281385e-01,6.663397911354683734e-01,-4.032834447977768022e+00,-4.015486972675451072e-01,-7.363974448209950063e-01,-5.444955894981414746e-01,2.188068909028801272e+02
8.545182240468633950e-01,6.550604835446323104e-01,-4.025186757577626118e+00,-4.461250637986500789e-01,-8.147059278451717068e-01,-3.704384950088685513e-01,2.203475152058145170e+02
9.332451009960800459e-01,7.410260195829830865e-01,-3.972187364186470671e+00,-4.735634432026619156e-01,-8.617173122984586042e-01,-1.821508686410639177e-01,2.229568572653024887e+02
9.708622455285669250e-01,8.596267195136506611e-01,-3.912421315570012492e+00,-4.828097683218668390e-01,-8.756256167149680802e-01,1.313419067656715518e-02,2.245814899898486487e+02
1.005401701295649319e+00,1.010669491656693397e+00,-3.836097103896876526e+00,-4.735088217448764070e-01,-8.558965183656812581e-01,2.079147555567220917e-01,2.262061227143948088e+02
1.038766907987233257e+00,1.190895331196128115e+00,-3.741858060368591588e+00,-4.460178874505276170e-01,-8.032878900557481883e-01,3.947082590505031630e-01,2.278307554389409688e+02
1.082599035776518726e+00,1.468085708464078154e+00,-3.585363931038281660e+00,-4.013930304675752403e-01,-7.198206948769702018e-01,5.663389464954095009e-01,2.299361849680944658e+02
1.129597815698558883e+00,1.792088479813932045e+00,-3.382015955081657754e+00,-3.413485299979871490e-01,-6.087013540927496136e-01,7.162135453847150446e-01,2.320416144972479628e+02
1.176372412158544156e+00,2.112136408809460075e+00,-3.159320284838031512e+00,-2.681910236715255302e-01,-4.741985691646511403e-01,8.385745594895260835e-01,2.339228117885992333e+02
1.228906483415891815e+00,2.452959094905747595e+00,-2.897043777226603112e+00,-1.847308932235773860e-01,-3.214793306664701644e-01,9.287214528814058401e-01,2.358040090799505037e+02
1.287432326967338891e+00,2.809328724187898807e+00,-2.594561655044742121e+00,-9.417429716696386344e-02,-1.564104164784054507e-01,9.831912242130544932e-01,2.376852063713017742e+02
1.344772093947542713e+00,3.138781282376390980e+00,-2.292662050231499382e+00,-0.000000000000000000e+00,1.466699169441102249e-02,9.998914337838703537e-01,2.393772263515389511e+02
1.405141326058348294e+00,3.473172375126212685e+00,-1.968610658661232637e+00,-2.530855292194963968e-01,2.329366080097720546e-02,9.671624063546661043e-01,2.410692463317761280e+02
1.465351348215774951e+00,3.810701571844700375e+00,-1.626677094672943635e+00,-4.896704463323093837e-01,3.040163103190961572e-02,8.713762647780997073e-01,2.427612663120133050e+02
1.527152442804619703e+00,4.194145843181416922e+00,-1.223565047613799361e+00,-6.943298364287044944e-01,3.552747465535063820e-02,7.187780441754474392e-01,2.446723705017103612e+02
1.575817952739752448e+00,4.578799175875101213e+00,-8.081931513715876481e-01,-8.537202571732008805e-01,3.833699497183008786e-02,5.193168563679121386e-01,2.465834746914074174e+02
1.603260085028184401e+00,4.900079050904115441e+00,-4.581512771949570184e-01,-9.574497361913757443e-01,3.864701632054196728e-02,2.859972216577437720e-01,2.481763902549058116e+02
1.616986365741378107e+00,5.222224937921378540e+00,-1.095226332078194642e-01,-9.987553255944133790e-01,3.643732705405329508e-02,3.403117384972974280e-02,2.497693058184042059e+02
1.615078556243547681e+00,5.545710109426988943e+00,2.336400662592474087e-01,-9.749440280230194933e-01,3.185199666321888307e-02,-2.201535657916153799e-01,2.513622213819026001e+02
1.592674244742130041e+00,5.897844309904429316e+00,5.932751289116650062e-01,-8.875683493732667850e-01,2.518998153463290063e-02,-4.599846628109612867e-01,2.530850393346039482e+02
1.546759488970341323e+00,6.253003018379224898e+00,9.355006771627192297e-01,-7.597787949678806996e-01,2.856543748780321704e-02,-6.495523062069372688e-01,2.548078572873052963e+02
1.486069416755130046e+00,6.574161791253173348e+00,1.225236469924947613e+00,-5.922698624999988004e-01,3.044756205157407580e-02,-8.051629375100725072e-01,2.563537788340681800e+02
1.408012704695970729e+00,6.896903240788198275e+00,1.497316929326169666e+00,-3.937985186057808562e-01,3.073796245104583325e-02,-9.186816120989989010e-01,2.578997003808310637e+02
1.313591183462803791e+00,7.220344386329416331e+00,1.750324027081079148e+00,-1.747403682034724126e-01,2.942145755021353254e-02,-9.841738573831245729e-01,2.594456219275939475e+02
1.206473252002585594e+00,7.543500791333740629e+00,1.983475727903208696e+00,5.345276159967278506e-02,2.656687135588815460e-02,-9.982159103242385090e-01,2.609915434743568312e+02
1.048322362133236041e+00,7.980203618712588209e+00,2.262851881660033815e+00,2.788514973763285831e-01,2.232343490115354379e-02,-9.600736985596330930e-01,2.630983951370834575e+02
9.267629568593024336e-01,8.301802128229567757e+00,2.443269640305107515e+00,4.896725565858324192e-01,1.691298468475121997e-02,-8.717412106104414082e-01,2.646719166653975890e+02
8.079014161306403707e-01,8.618148292191554205e+00,2.604771070441343817e+00,4.819185392894427267e-01,1.678396616534519672e-02,-8.760541192743348526e-01,2.662454381937117205e+02
6.165514334096795501e-01,9.151467280116673209e+00,2.833112707284469067e+00,4.741265793927953998e-01,1.665362611414406696e-02,-8.802980423581512337e-01,2.690423153242666103e+02
4.918507853828398835e-01,9.528113479399429764e+00,2.961322878220104204e+00,4.662972870224132982e-01,1.652197473758049845e-02,-8.844726476241844271e-01,2.711813290364380578e+02
3.882193071737572443e-01,9.876252617061426875e+00,3.066397234473275724e+00,6.762380989116526520e-01,1.475295616739448999e-02,-7.365340344252634397e-01,2.733203427486095052e+02
3.179110162543371532e-01,1.016497062975962962e+01,3.152150507123140155e+00,8.415713698873248383e-01,1.201077027869910073e-02,-5.400105284023533070e-01,2.752575089428830779e+02
2.798578651378553772e-01,1.039635373114140471e+01,3.230292255383682587e+00,9.513910343218369148e-01,8.476303112493813879e-03,-3.078656396865658285e-01,2.769460215713796742e+02
2.750448227559504355e-01,1.043810459587864337e+01,3.245861339494709785e+00,9.984529207576333665e-01,4.382702718492148194e-03,-5.541260641185809244e-02,2.772638023249403432e+02
2.689447035586319812e-01,1.069339636336059129e+01,3.367925483408890308e+00,9.796526068684030530e-01,0.000000000000000000e+00,2.006957145972567969e-01,2.793519319047393878e+02
2.774391269622357714e-01,1.078247372000997117e+01,3.423266161570056809e+00,9.796526061767043547e-01,-0.000000000000000000e+00,2.006957144555525374e-01,2.801474229694475184e+02
2.838824614484549147e-01,1.083694527255308593e+01,3.458941125357998470e+00,7.268315228414687912e-01,-5.907656121675477490e-01,-3.502997700312678320e-01,2.806420738369828314e+02
3.164031429342427648e-01,1.101394740491334545e+01,3.600093515822078594e+00,3.588155418934004803e-01,-5.920762440850431130e-01,-7.215920787297237515e-01,2.823526598806212746e+02
3.621757881615665919e-01,1.117014460051563951e+01,3.775617861719215096e+00,9.097864328732320439e-04,-6.343139177655054972e-01,-7.730737519917776357e-01,2.840632459242597179e+02
4.163691810771412150e-01,1.132108100515252858e+01,4.021724741131239789e+00,-3.571165318402440003e-01,-5.924852232850824629e-01,-7.220990533686163504e-01,2.860001234538141830e+02
4.568393565784664156e-01,1.144475667365765581e+01,4.322380464546197842e+00,-2.491229895782997028e-01,-4.440080589700343694e-01,-8.606930809725792386e-01,2.879370009833686481e+02
4.641390762127126091e-01,1.147339534844551423e+01,4.408421704060757840e+00,-1.279467548388880660e-01,-2.720355783993678167e-01,-9.537422461084128500e-01,2.884420932743479966e+02
4.766969389485073982e-01,1.153420157417509273e+01,4.605588718563165429e+00,-0.000000000000000000e+00,-8.566789209259167981e-02,-9.963227450303417942e-01,2.895637433614400038e+02
4.768685879654372961e-01,1.162770066449868089e+01,4.997247718262753047e+00,-1.063749475822654555e-01,-8.446321746337133451e-02,-9.907312125012180948e-01,2.915982218871575924e+02
4.579980385587726355e-01,1.168364696246445256e+01,5.317707345812808128e+00,-2.115427115825522508e-01,-8.230002314221623871e-02,-9.738964972565785638e-01,2.931261772873576206e+02
4.279468731015059757e-01,1.173041815224777373e+01,5.650528361250006348e+00,-3.143098098361390424e-01,-7.920285788497480328e-02,-9.460096462220527469e-01,2.946541326875576488e+02
3.890238479285180184e-01,1.176890006482985740e+01,5.990059889121360115e+00,-4.135100039062747923e-01,-7.520686947925474264e-02,-9.073871298702224086e-01,2.961820880877576769e+02
3.435493828350331680e-01,1.179996723244154566e+01,6.330651010472458040e+00,-5.080175339293813153e-01,-7.035740587324988693e-02,-8.584672507793502660e-01,2.977100434879577051e+02
2.798385347943948553e-01,1.182872690418793837e+01,6.752036739014410038e+00,-5.967598940918308337e-01,-6.470950055103004417e-02,-7.998051696153887224e-01,2.996424975149617467e+02
2.133648945733272184e-01,1.184645048249376487e+01,7.149690294965895809e+00,-6.787300037637942207e-01,-5.832724799443537306e-02,-7.320666049846477064e-01,3.015749515419657882e+02
1.496103554844434025e-01,1.185563125783250626e+01,7.509168822537481525e+00,-7.529976361735675194e-01,-5.128307631883990275e-02,-6.560202786513837925e-01,3.035074055689698298e+02
9.855434629492185183e-02,1.185888976084402202e+01,7.790249161512294407e+00,-8.187199749305350549e-01,-4.365692533681360399e-02,-5.725291918508708111e-01,3.052431107428334940e+02
5.610464805533225963e-02,1.185948425162209752e+01,8.024251694591614026e+00,-8.751511786009155136e-01,-3.553533937684429100e-02,-4.825408316923218144e-01,3.069788159166971582e+02
4.663818373722377481e-02,1.185939342779720107e+01,8.076644122993766217e+00,-9.216508447956056616e-01,-2.701048515161401375e-02,-3.870764187869380479e-01,3.074191170015756143e+02
1.555478810213495322e-02,1.185875961229515241e+01,8.246668740222554916e+00,-9.576912777161646906e-01,-1.817910582088519411e-02,-2.872193181166883824e-01,3.090826228308427517e+02
-6.850027580431465764e-03,1.185763327283589419e+01,8.362159246295115977e+00,-9.828634766818212798e-01,-9.141423118189013347e-03,-1.841027446556980640e-01,3.107461286601098891e+02
-2.113568820045848631e-02,1.185576968318415503e+01,8.418508957743712884e+00,-9.968817776734308911e-01,-0.000000000000000000e+00,-7.889690326056385261e-02,3.125187012298287641e+02
-2.511109657567055231e-02,1.185282956446682157e+01,8.399981792321012719e+00,9.968779763664620264e-01,-0.000000000000000000e+00,-7.894491893625038559e-02,3.142912737995476391e+02
-1.610454425162079553e-02,1.184810148877500069e+01,8.289035733016270058e+00,9.968779756678982640e-01,-0.000000000000000000e+00,-7.894491888092960985e-02,3.162045701443610142e+02
8.803035409814970874e-03,1.184184982256305041e+01,8.078182195587420011e+00,0.000000000000000000e+00,9.968731427319725835e-01,-7.900593205829646581e-02,3.181178664891743892e+02
1.047518933657172989e-02,1.184150166663358128e+01,8.065042935947547065e+00,-0.000000000000000000e+00,0.000000000000000000e+00,-9.999989999999968626e-01,3.182140563109689992e+02
4.806958184157093805e-02,1.183468947231386537e+01,7.785285398386668554e+00,-0.000000000000000000e+00,9.968731427319694749e-01,-7.900593205829621601e-02,3.199792790965235554e+02
9.959396127940106647e-02,1.182706987888863637e+01,7.431133893019244319e+00,-0.000000000000000000e+00,-9.968312352681582000e-01,-7.953293898528782102e-02,3.217445018820781115e+02
1.713023444609663715e-01,1.181793219621557967e+01,6.966954268691418761e+00,-0.000000000000000000e+00,-0.000000000000000000e+00,-9.999989999999967516e-01,3.236579681635880661e+02
2.576461746912778183e-01,1.180785034905860265e+01,6.425238153940501462e+00,9.968779763717972031e-01,-0.000000000000000000e+00,-7.894491893667289484e-02,3.255714344450980207e+02
3.548471266373269262e-01,1.179662955116325485e+01,5.816636379662962320e+00,-9.796745246527556183e-01,-0.000000000000000000e+00,2.005886979221412070e-01,3.274849007266079752e+02
4.459777185640700914e-01,1.178548884315177325e+01,5.236512475523904975e+00,-0.000000000000000000e+00,2.192496970816700669e-02,-9.997586187200476759e-01,3.291690459113141287e+02
5.391626688310264814e-01,1.177278431653340007e+01,4.624915857588391965e+00,6.008035540474822023e-01,8.946493359374771415e-02,-7.943734103682975611e-01,3.308531910960202822e+02
6.318421582750881615e-01,1.175813461050971931e+01,3.988512379825837062e+00,4.081932604183504537e-02,1.308872045267022721e-01,-9.905555624547079940e-01,3.325373362807264357e+02
7.214506294699832845e-01,1.174117209706296983e+01,3.333968091238175724e+00,-5.336068622114340521e-01,1.260033413072118025e-01,-8.362923379880708996e-01,3.342214814654325892e+02
8.100976584433051686e-01,1.172014138151538809e+01,2.626310383285404892e+00,-9.192495091526575735e-01,7.654119767195470547e-02,-3.861603099503875258e-01,3.360098362883581444e+02
8.890098172093100493e-01,1.169548400441668967e+01,1.913247791898430084e+00,-9.796745246592685197e-01,0.000000000000000000e+00,2.005886979234746959e-01,3.377981911112836997e+02
9.557820027250748529e-01,1.166670535561555688e+01,1.202829269389013467e+00,-9.796745239680101358e-01,-0.000000000000000000e+00,2.005886977819393013e-01,3.395865459342092549e+02
1.015939425541070307e+00,1.162294744132380053e+01,3.298984822553540641e-01,-9.546707119062373126e-01,-0.000000000000000000e+00,-2.976605983800955091e-01,3.418331500898481181e+02
1.045134385098657415e+00,1.156930276632421872e+01,-5.034316708868054047e-01,9.546769266717656244e-01,-0.000000000000000000e+00,-2.976406653672871716e-01,3.440797542454869813e+02
1.048395648624231402e+00,1.151544512216234928e+01,-1.182610457417827776e+00,5.764363129601857150e-01,-1.163998612659590233e-03,-8.171400260715380170e-01,3.460221404963771192e+02
1.036790194012125133e+00,1.145547691137561408e+01,-1.817643348107019108e+00,0.000000000000000000e+00,-9.950635238632309365e-01,9.922995251858013344e-02,3.479645267472672572e+02
1.016641312763869376e+00,1.139261383239919212e+01,-2.384475720783022279e+00,5.752485914334493078e-01,-0.000000000000000000e+00,-8.179774190368864772e-01,3.498381785749494952e+02
9.967397487687947866e-01,1.133607119938485219e+01,-2.836258475701373793e+00,0.000000000000000000e+00,8.080491350123092387e-02,9.967289330373355627e-01,3.514450610823338934e+02
9.777800681101054270e-01,1.127869685688336432e+01,-3.258326888360716822e+00,-4.272875887415377716e-01,2.998997113506280537e-02,9.036171302808664318e-01,3.530519435897182916e+02
9.616632859470145567e-01,1.122342037356920841e+01,-3.644514505564526718e+00,4.301035175187842285e-01,3.026596604826629205e-02,9.022709878510976056e-01,3.546314714484562955e+02
9.482453107998612962e-01,1.117185705436250664e+01,-4.002779016498350551e+00,9.997494087566847210e-01,0.000000000000000000e+00,-2.234098678773002375e-02,3.562109993071942995e+02
9.372084750662897923e-01,1.112681299444013128e+01,-4.333400822961390730e+00,-5.741094903287331519e-01,1.828998376288956456e-03,-8.187752731243119753e-01,3.577905271659323034e+02
9.282491114745996530e-01,1.109100421094627720e+01,-4.637703774228921993e+00,-0.000000000000000000e+00,9.997078536730037435e-01,-2.412897233222458665e-02,3.593760263130449175e+02
9.214517053504578392e-01,1.106746579526048180e+01,-4.914707957028506158e+00,-0.000000000000000000e+00,9.997078529671034053e-01,-2.412897231518696187e-02,3.609615254601575316e+02
9.177537586508900391e-01,1.105896838119763359e+01,-5.164365509592869330e+00,-0.000000000000000000e+00,9.999841710804819872e-01,5.445875370944270287e-03,3.625427489596182227e+02
9.183380685125348553e-01,1.106802867495894205e+01,-5.388280066350872310e+00,-0.000000000000000000e+00,9.993857527372194127e-01,3.501595629905780022e-02,3.641239724590789137e+02
9.321227866477106438e-01,1.115609893478568182e+01,-5.693933656969034196e+00,8.506807646962044611e-01,5.164672500195364169e-01,9.798885770689444441e-02,3.668740225112421740e+02
9.358570659534389824e-01,1.117999974559274889e+01,-5.733701775440499304e+00,7.294162694253270018e-01,5.001404990652157379e-01,4.667005325582890829e-01,3.673254196823474444e+02
9.495215196277704273e-01,1.128144435387795852e+01,-5.865553163295886385e+00,-5.024135394088605766e-01,7.294793312447017675e-01,4.641535744839520583e-01,3.689782095755043656e+02
9.609335409037265130e-01,1.140877358054820867e+01,-5.971495540949663727e+00,5.179124917786145366e-01,7.186022948440912161e-01,4.640855445983594896e-01,3.706309994686612868e+02
9.662032409968512869e-01,1.156172883825855280e+01,-6.051027099178858393e+00,0.000000000000000000e+00,1.173078338872851206e-01,9.930945937372328558e-01,3.722837893618182079e+02
9.431957871394632820e-01,1.188588411158290548e+01,-6.100405898356273227e+00,-9.999989999999999712e-01,0.000000000000000000e+00,0.000000000000000000e+00,3.749852023376957391e+02
9.350635128958918463e-01,1.194927858766509488e+01,-6.098543626681169449e+00,-9.994701503372201978e-01,-0.000000000000000000e+00,3.251797235604206998e-02,3.754370040723335933e+02
8.497491034049685643e-01,1.237323658168360474e+01,-6.030918320094317941e+00,-9.359985444648430625e-04,-1.157798199552772800e-01,9.932734553988429305e-01,3.781144303587176410e+02
7.250102398616032895e-01,1.281473174890897404e+01,-5.891168045758377048e+00,1.270998420251511071e-03,1.158168560489923615e-01,9.932687654470641059e-01,3.804547655798012897e+02
5.621408639527530893e-01,1.340843919438045440e+01,-5.650692521182167027e+00,1.182598423654793174e-01,0.000000000000000000e+00,9.929816764045386046e-01,3.831657672742510385e+02
4.682711384158896317e-01,1.382115659158978005e+01,-5.467221622991086605e+00,9.994709311547830266e-01,0.000000000000000000e+00,3.249396525059583540e-02,3.848621306390451764e+02
3.922977044203159736e-01,1.423176329906766746e+01,-5.281823879612880468e+00,-5.517134353490528165e-01,-8.267481538648538963e-01,1.099898874308832403e-01,3.864687383325978089e+02
3.312526604184901635e-01,1.465907010944647304e+01,-5.089020319073444654e+00,-2.883779608520256610e-01,-9.545120556963128111e-01,7.578183968180839114e-02,3.880753460261504415e+02
2.872301244075755600e-01,1.508238593555556761e+01,-4.900137854858714448e+00,-0.000000000000000000e+00,-9.993865585865699952e-01,3.499294952973203837e-02,3.896170804303950490e+02
2.564156234403166534e-01,1.551596320703335152e+01,-4.710158664465061484e+00,5.227064052945151751e-01,-8.494460335488333014e-01,-7.223191781865063998e-02,3.911588148346396565e+02
2.371077556664904773e-01,1.595710422670807205e+01,-4.521225795153426930e+00,6.982881594509620093e-01,-6.862659254954096566e-01,2.035453902102576651e-01,3.927005492388842640e+02
2.272015627311370356e-01,1.651859746332547374e+01,-4.288405189871606460e+00,7.806413966762656420e-01,-4.314624048668976308e-01,4.521473244233080169e-01,3.946400530238337865e+02
2.299531086248862155e-01,1.708159181992187214e+01,-4.064574724092778091e+00,7.587711395517350299e-01,-1.190543038769926593e-01,6.403830342170618861e-01,3.965795568087833090e+02
2.396797023063305943e-01,1.763845048341648081e+01,-3.853315235403577343e+00,6.355972790766489799e-01,2.092487626605334106e-01,7.431211571181745024e-01,3.985190605937328314e+02
2.500042914015297435e-01,1.813990737461845981e+01,-3.672344617891020402e+00,0.000000000000000000e+00,2.016697227947948992e-02,9.997956257304881911e-01,4.003049848893569447e+02
2.579233602321957530e-01,1.862508452638069656e+01,-3.506206382390604670e+00,-0.000000000000000000e+00,2.016697226524963651e-02,9.997956250250304988e-01,4.020909091849810579e+02
2.614442459003221697e-01,1.908823142081568491e+01,-3.356421267529648755e+00,-0.000000000000000000e+00,1.861049644941947454e-02,9.998258092494709537e-01,4.038768334806051712e+02
2.604211368887961453e-01,1.946571163767833212e+01,-3.240746010806610844e+00,-0.000000000000000000e+00,1.705397560833250836e-02,9.998535699465991300e-01,4.054108889543014698e+02
2.552355893634541406e-01,1.982233973778143010e+01,-3.136811225312392093e+00,-1.600586586235816233e-01,1.799272833724246956e-02,9.869424945396100268e-01,4.069449444279977683e+02
2.455914658665795114e-01,2.015505502287575013e+01,-3.045121090314888423e+00,-3.159899826292064118e-01,1.846751332271740972e-02,9.485817212191386405e-01,4.084789999016940669e+02
2.321542515256633243e-01,2.046103196917277600e+01,-2.965914959681168472e+00,-4.637730791952814902e-01,1.846608752366221337e-02,8.857604273315181631e-01,4.100130553753903655e+02
2.160524213455132791e-01,2.073755823347253724e+01,-2.899299733048701366e+00,-5.995971614116577530e-01,1.798848745961548201e-02,8.000985303991957620e-01,4.115471108490866641e+02
1.894798915631942249e-01,2.106449294113582482e+01,-2.831302329390457118e+00,-7.199598113780193431e-01,1.704702833029550502e-02,6.938049213044441554e-01,4.137753540583346989e+02
1.628711362181740341e-01,2.128166474277033871e+01,-2.800138139496507250e+00,-8.217572942076923903e-01,1.566598654477073527e-02,5.696205107633635079e-01,4.160035972675827338e+02
1.449518329120903504e-01,2.137870643594757780e+01,-2.794567128592658545e+00,-4.638975464711880825e-01,-6.885431446130224793e-03,8.858609694601352613e-01,4.177925781126367610e+02
1.309710289553560891e-01,2.140963789118167071e+01,-2.796216941122553479e+00,-0.000000000000000000e+00,-2.786296520869436383e-02,9.996107518283526838e-01,4.197100005893018988e+02
1.247093308071308415e-01,2.136053179728462936e+01,-2.797426261845698203e+00,-4.199765354728122735e-01,-5.494543922600859664e-01,-7.223002010789824068e-01,4.216274230659670366e+02
1.304584502661687573e-01,2.123063197604582797e+01,-2.792547604354937096e+00,8.370268619316537650e-01,-1.940497361591696224e-01,5.115943044078865576e-01,4.235448455426321743e+02
1.477599058985011315e-01,2.105253024118050931e+01,-2.780584773564149792e+00,0.000000000000000000e+00,1.519999199372266442e-02,9.998834733323284096e-01,4.252399311707904985e+02
1.776113825320810580e-01,2.081958280192194621e+01,-2.759211546830958373e+00,4.595995113954241540e-01,-5.348094314390486881e-01,-7.090452462073104645e-01,4.269350167989488227e+02
2.274239250991697270e-01,2.050043935036023868e+01,-2.721516320235780828e+00,6.991536932632081980e-01,-5.387427636396280306e-01,-4.700407937809575332e-01,4.287874910091637730e+02
2.917717645050397213e-01,2.014306034828963021e+01,-2.670302403871626318e+00,8.239389245265947848e-01,-4.712188719448637819e-01,-3.147624872390147877e-01,4.305164043920318591e+02
3.740043545630181154e-01,1.973287809899170142e+01,-2.601908015505871585e+00,9.122712225582182421e-01,-3.828471931952885376e-01,-1.455583840065940993e-01,4.322453177748999451e+02
4.585636632329264106e-01,1.934295003559794424e+01,-2.529023338142269317e+00,9.602425731684427479e-01,-2.775374946547616295e-01,3.008554030856371367e-02,4.337302406261237024e+02
4.984423200156670730e-01,1.916505456704454602e+01,-2.493968649965911055e+00,9.657306234127803757e-01,-1.599489174414005233e-01,2.043984021762187409e-01,4.343771228829025404e+02
6.034990311508813265e-01,1.871264095353499712e+01,-2.399319260725394809e+00,9.284925761354944074e-01,-3.528384490704517679e-02,3.696682111704829299e-01,4.359482980328901931e+02
7.225857189567006511e-01,1.822636819845725498e+01,-2.287947722494426461e+00,8.501759293117928662e-01,9.094226203450817003e-02,5.185830639299910949e-01,4.375194731828778458e+02
8.419242852211380468e-01,1.775537899970710853e+01,-2.171818546352485946e+00,7.342455860441530202e-01,2.131448798323463956e-01,6.445546366104670799e-01,4.389529461146747735e+02
1.001360656902867685e+00,1.714325500916700307e+01,-2.011124907154619113e+00,5.296261371049649364e-03,3.208053605389800667e-01,9.471292785390514890e-01,4.407046881510376579e+02
1.179031339392956124e+00,1.648829653294569653e+01,-1.833096738597937314e+00,-7.270129289261012540e-01,2.249116686482341143e-01,6.487410442403815924e-01,4.424564301874005423e+02
1.378626371798501005e+00,1.579143302889139910e+01,-1.645341004705251464e+00,-8.833083786843737295e-01,-4.189862841558845696e-01,-2.102731600406161361e-01,4.442081722237634267e+02
1.602800215918137594e+00,1.505380769598426305e+01,-1.454586110247721775e+00,-0.000000000000000000e+00,-5.697617808903334691e-01,-8.218086839622579243e-01,4.459599142601263111e+02
1.977562536355526035e+00,1.391997453742990842e+01,-1.189815173207657173e+00,-7.142513392295073427e-01,-6.601633892675252691e-01,-2.324377849664099327e-01,4.484558067237550745e+02
2.237922258734111214e+00,1.317909107277711911e+01,-1.034354712840925838e+00,-7.209475586374540779e-01,-3.688802028929029087e-01,-5.866515265549925306e-01,4.499873625635356689e+02
2.512567724642395195e+00,1.241571544904482494e+01,-8.843684159567397618e-01,-5.759863546497717701e-01,0.000000000000000000e+00,-8.174580840985088415e-01,4.515189184033162633e+02
2.799817194617196137e+00,1.163195182105150671e+01,-7.401159638340154556e-01,-7.289672730830139002e-01,4.955164916828241548e-03,-6.845291528604272591e-01,4.530504742430968577e+02
3.098018870219849674e+00,1.082991238171632808e+01,-6.018570004476302415e-01,-8.519891671875662320e-01,9.706682898774948026e-03,-5.234675150411816080e-01,4.545820300828774521e+02
3.405550911820491411e+00,1.001171722582753354e+01,-4.698511307811439885e-01,-9.399960999448581100e-01,1.405927671557772110e-02,-3.408924593297741890e-01,4.561135859226580465e+02
3.720821456110889436e+00,9.179494213740698072e+00,-3.443579191397111994e-01,-9.893711700370690920e-01,1.783406399268457412e-02,-1.443074289914695330e-01,4.576451417624386409e+02
4.042268633345727835e+00,8.335378835007897891e+00,-2.256368874631900223e-01,-9.980851588975174771e-01,2.087590884729169718e-02,5.820835008288306744e-02,4.591766976022192353e+02
4.368360584312247497e+00,7.481514071938866195e+00,-1.139475136394581395e-01,-9.657799295650439930e-01,2.305979764793704770e-02,2.583319054680194293e-01,4.607082534419998296e+02
4.697595477028152722e+00,6.620050263095214937e+00,-9.549229817944064266e-03,-8.937831490312893035e-01,2.429597686786091892e-02,4.478385736140091389e-01,4.622398092817804240e+02
5.028501523167694387e+00,5.753144966718787501e+00,8.729857927661840988e-02,-9.241325611954082087e-01,1.083556543586387533e-01,3.663823979214446136e-01,4.637713651215610184e+02
5.359636994215834171e+00,4.882962824095223198e+00,1.763365780302039998e-01,-9.409690694337842221e-01,1.908309044523144038e-01,2.795689114955250965e-01,4.653029209613416128e+02
5.689590237350413027e+00,4.011675422853792305e+00,2.573054816252702270e-01,-9.440464974518757435e-01,2.705157665155980551e-01,1.886675136725022295e-01,4.668344768011222072e+02
6.016979691052213752e+00,3.141461160204584324e+00,3.299460577262843808e-01,-9.333198499414820937e-01,3.462450816379840091e-01,9.500737417002060037e-02,4.683660326409028016e+02
6.358704223787674081e+00,2.225376452446451658e+00,3.971091593528739971e-01,-9.089459700185579250e-01,4.169115275724294412e-01,-4.199995240732345313e-05,4.699849865328579313e+02
6.694411494607972024e+00,1.315956025285335285e+00,4.542072175438957582e-01,-9.439344440998473917e-01,3.183618598128822863e-01,-8.735840806385501700e-02,4.716039404248130609e+02
7.022669759672142575e+00,4.159586316673665185e-01,5.021213464995545328e-01,-9.614030968487304873e-01,2.139032509533519144e-01,-1.730534154595326779e-01,4.732228943167681905e+02
7.342146310546649346e+00,-4.718447752257790562e-01,5.421342442669598860e-01,-9.610276973569803483e-01,1.054744947431623808e-01,-2.555364863816051990e-01,4.748418482087233201e+02
7.651548544577147837e+00,-1.344676408631195974e+00,5.755286663113401424e-01,-9.428152073845162962e-01,-4.911925645780512543e-03,-3.332766984229095786e-01,4.764608021006784497e+02
7.949623981381060744e+00,-2.199751840906813527e+00,6.035874161926747528e-01,-9.071036531064059494e-01,-1.152071899589890147e-01,-4.048311572784402679e-01,4.780797559926335794e+02
8.235160278935078182e+00,-3.034280196302071797e+00,6.275933362420642592e-01,-8.545558521075705682e-01,-2.233641679601139629e-01,-4.688717778889486820e-01,4.796987098845887090e+02
8.506985249257454029e+00,-3.845464343795513606e+00,6.488292982378902618e-01,-7.861471119059895152e-01,-3.273754154740285971e-01,-5.242099348405889758e-01,4.813176637765438386e+02
8.763966873685035353e+00,-4.630501089997610897e+00,6.685781940818130709e-01,-7.031471282090642205e-01,-4.253104340795372806e-01,-5.698185244048201703e-01,4.829366176684989682e+02
9.005013317744898771e+00,-5.386581372117126065e+00,6.881229264746612229e-01,-6.070964188158706198e-01,-5.153515027863436737e-01,-6.048510286320648577e-01,4.845555715604540978e+02
9.229072945620519164e+00,-6.110890450989328926e+00,7.087463995922617110e-01,-4.997777305618800181e-01,-5.958274165139535450e-01,-6.286572275614259464e-01,4.861745254524092275e+02
9.435134334212369467e+00,-6.800608104164367340e+00,7.317315097612628882e-01,-3.831829500683736622e-01,-6.652445050408939409e-01,-6.407952678432834448e-01,4.877934793443643571e+02
9.618077238971563858e+00,-7.437862111684856004e+00,7.575998855035713797e-01,-2.594761325628791027e-01,-7.223143565899214913e-01,-6.410398637330836369e-01,4.893727520113143896e+02
9.782841343632826536e+00,-8.038247529178219608e+00,7.880013608312403939e-01,-1.309533351209470065e-01,-7.659777314179481156e-01,-6.293864782415045100e-01,4.909520246782644222e+02
9.853781091864775021e+00,-8.305220152898076691e+00,8.035285403212851785e-01,-0.000000000000000000e+00,-7.954242215457090204e-01,-6.060514068783605657e-01,4.916820883707489998e+02
1.002549771417250746e+01,-8.986354519661196250e+00,8.532810172471737564e-01,-1.171666146432118888e-01,-7.844926909373787227e-01,-6.089673244713829092e-01,4.936592775981091563e+02
1.016065775389928483e+01,-9.595306539174128346e+00,9.185296486123255555e-01,-2.327097549695938683e-01,-7.626911969286643833e-01,-6.034453646056531229e-01,4.956364668254693129e+02
1.024846444338536777e+01,-1.006852886898361632e+01,9.887314529450204059e-01,-5.163343074801883814e-01,-6.993530620110968155e-01,-4.942693370742496928e-01,4.973401002483557249e+02
1.031245543733890280e+01,-1.050130183313156351e+01,1.072752153378093265e+00,-8.966834181788682079e-01,-4.399887075885508536e-01,-4.864961211571119937e-02,4.990437336712421370e+02
1.035582759921362772e+01,-1.092871507151138566e+01,1.181748791183127034e+00,-9.089321683888433867e-01,-2.999997255206412577e-06,4.169416185267573183e-01,5.008965341539060887e+02
1.037292845767436589e+01,-1.131472023549859607e+01,1.310254677337006735e+00,-7.742447476626014291e-01,3.056282090361985282e-01,5.541971387141507721e-01,5.027493346365700404e+02
