2.872650011793250080e+00,-2.904015616732867233e+00,-2.202782165319142393e+00,-8.423607697599142519e-01,4.898090103079120322e-02,5.366816606278687063e-01,1.307665981607450192e+02
2.763899005775022566e+00,-3.224250786169335470e+00,-2.469130306981270007e+00,-8.384479280276111446e-01,5.561892889009075608e-02,5.421343068704822521e-01,1.323173110255068252e+02
2.602754574723538106e+00,-3.549089558577105397e+00,-2.701845331100848124e+00,-9.527259479615685089e-01,2.366780883293338397e-02,3.029044451751040645e-01,1.338680238902686312e+02
2.390383217466040211e+00,-3.874894201784378378e+00,-2.897043084505623867e+00,-9.990637368470621782e-01,-9.971092811338571824e-03,4.207406595869409016e-02,1.354187367550304373e+02
2.130687376640738151e+00,-4.197430481258380475e+00,-3.052278316596147345e+00,-9.741568796140113173e-01,-4.289895066155743897e-02,-2.217567449557097947e-01,1.369694496197922433e+02
1.828565861062422027e+00,-4.512488739163701190e+00,-3.167594945901984094e+00,-3.999995304135467398e-06,1.561658166664048331e-01,9.877298404372573115e-01,1.385201624845540493e+02
1.488962900366476827e+00,-4.815885822963510421e+00,-3.244351012172658866e+00,-0.000000000000000000e+00,-6.060633378289068673e-01,7.954151309474208897e-01,1.400708753493158554e+02
1.106157610224591581e+00,-5.110631915210021248e+00,-3.283956292033295199e+00,-7.687103832271094950e-01,-1.440366550989121974e-01,6.231659399452028625e-01,1.416629677535833309e+02
6.938146806968191749e-01,-5.383709321543688198e+00,-3.284810766728384568e+00,-8.962736280310127368e-01,4.381243293420963858e-01,-6.883789462653631952e-02,1.432550601578508065e+02
2.575805215697927197e-01,-5.630561335866575590e+00,-3.248424177254603862e+00,-6.696665005625734857e-01,1.278249046681574075e-01,7.315774543893701631e-01,1.448471525621182820e+02
-1.968469428282260403e-01,-5.846662497456110330e+00,-3.176306526322484558e+00,-4.705408786228820750e-01,1.049172557226782099e-01,8.761173728423921059e-01,1.464392449663857576e+02
-6.637183508463075921e-01,-6.027518846091237670e+00,-3.069968067743584772e+00,-2.426804387265793506e-01,7.560255615398192575e-02,9.671548263655566080e-01,1.480313373706532332e+02
-1.137232981265465348e+00,-6.168668176852760254e+00,-2.930919295816345027e+00,-0.000000000000000000e+00,4.167097442642284794e-02,9.991303868312805259e-01,1.496234297749207087e+02
-1.611538831588436471e+00,-6.265680294595645350e+00,-2.760670934710726332e+00,-0.000000000000000000e+00,2.709199828102211161e-01,9.626008325958989031e-01,1.512155221791881843e+02
-2.079525056578622966e+00,-6.314837840187874640e+00,-2.560968346429747022e+00,-0.000000000000000000e+00,4.855692152484245572e-01,8.741970814428819958e-01,1.528076145834556598e+02
-2.531279858519009718e+00,-6.314221945050141116e+00,-2.333731187670332385e+00,-0.000000000000000000e+00,6.740513001808823290e-01,7.386831829172290087e-01,1.543997069877231354e+02
-2.954975065165474479e+00,-6.263443664708402636e+00,-2.080524228303284318e+00,-0.000000000000000000e+00,8.262090091832731131e-01,5.633619379623741041e-01,1.559917993919906110e+02
-3.341625672505870170e+00,-6.162586571708724925e+00,-1.804071518384060768e+00,-0.000000000000000000e+00,9.338426272384587890e-01,3.576813491821559943e-01,1.575838917962580865e+02
-3.688630600808036952e+00,-6.011799298236436329e+00,-1.510004965593727766e+00,-0.000000000000000000e+00,9.911518301049283552e-01,1.327254673380504069e-01,1.591759842005255621e+02
-4.004940329473406280e+00,-5.803388508596959205e+00,-1.195738347314819539e+00,-0.000000000000000000e+00,9.950482571507340834e-01,-9.938292580607731297e-02,1.608177560236051704e+02
-4.279113016956237026e+00,-5.540635844277502109e+00,-8.779399471289101031e-01,3.612155752344184401e-01,9.084671222474940411e-01,-2.102588785375763825e-01,1.624595278466847788e+02
-4.511946819564014888e+00,-5.224400205346618975e+00,-5.647309028813118914e-01,6.681524755923031744e-01,6.853735529300876150e-01,-2.895399148722221372e-01,1.641012996697643871e+02
-4.703311278349295854e+00,-4.860120982400898626e+00,-2.661780110551586476e-01,8.746882683037046080e-01,3.592910619328108512e-01,-3.253127204818406226e-01,1.657303144908346439e+02
-4.856515148301215667e+00,-4.448539802132589926e+00,1.338669829160796243e-02,9.497874378631601111e-01,-2.078098770065986770e-02,-3.122018152216645137e-01,1.673593293119049008e+02
-4.972807154184780032e+00,-3.992586490311464065e+00,2.675053965445661208e-01,6.426236280058713612e-01,1.961598864493572722e-02,-7.659295566280392986e-01,1.689883441329751577e+02
-5.063106037657844283e+00,-3.224831595332426026e+00,5.619743702231504434e-01,7.107460807244767587e-01,-1.969017345519250839e-01,-6.753278579062527154e-01,1.713957818958127746e+02
-5.064605183729518956e+00,-2.541512617866483303e+00,7.111050247831929294e-01,7.364161080991286079e-01,-4.016585135364716952e-01,-5.443893406698714355e-01,1.733093333169784671e+02
-5.013388451510318866e+00,-1.822234458758639208e+00,7.790310094431004417e-01,0.000000000000000000e+00,-9.950534475069982010e-01,-9.933094484753354769e-02,1.752228847381441597e+02
-4.921473921274153618e+00,-1.144281442447095287e+00,7.616691853807965318e-01,1.990163025847746514e-01,-9.221781961738331201e-01,-3.316291389590572125e-01,1.769943616397087567e+02
-4.788920520334996489e+00,-4.742928445815313698e-01,6.604591899816603107e-01,3.783536023996662001e-01,-7.581172033176075686e-01,-5.311354418458615889e-01,1.787658385412733537e+02
-4.616195004440196037e+00,1.691654786232825169e-01,4.701772957333517633e-01,2.602676021442179022e-01,-6.959373656239794537e-01,-6.692756968561864861e-01,1.805373154428379507e+02
-4.404408202574782827e+00,7.675425192128330076e-01,1.933944729573840171e-01,1.325794670373588446e-01,-6.080820293299779022e-01,-7.827240449391774657e-01,1.823087923444025478e+02
-4.155694826016893551e+00,1.302309122490348248e+00,-1.633741679364253685e-01,0.000000000000000000e+00,-4.977924468359455346e-01,-8.672950362319844508e-01,1.840802692459671448e+02
-3.891048978183595075e+00,1.733531365443405248e+00,-5.647108394965297817e-01,0.000000000000000000e+00,-9.231455782620088257e-01,-3.844479696014450054e-01,1.857479976157101191e+02
-3.600135548872773317e+00,2.081648339471242615e+00,-1.018817894566801163e+00,0.000000000000000000e+00,-9.662535585532791016e-01,2.575889372152513901e-01,1.874157259854530935e+02
-3.314898026462550717e+00,2.322300643164031175e+00,-1.465178648516463733e+00,0.000000000000000000e+00,-6.092642978931015474e-01,7.929659610019628158e-01,1.889390883555622622e+02
-3.015550614674569196e+00,2.493219290648385211e+00,-1.923621985445491456e+00,0.000000000000000000e+00,9.999989999984911497e-07,9.999989999984910671e-01,1.904624507256714310e+02
-2.706139837259132541e+00,2.599175089101973146e+00,-2.377622306285196885e+00,4.737066590282842382e-01,3.605097405068676680e-02,8.799433666211066152e-01,1.919858130957805997e+02
-2.318643758149219192e+00,2.640484046710974031e+00,-2.897042951226057816e+00,4.105226014821573566e-01,3.124226546607127702e-02,9.113139494814078700e-01,1.938525587422797400e+02
-1.928577362393509187e+00,2.591382912802153271e+00,-3.350413149749925434e+00,3.452861653527262709e-01,2.627736339469998600e-02,9.381284369359021991e-01,1.957193043887788804e+02
-1.378233775362194269e+00,2.374037672367380392e+00,-3.858709233598545563e+00,2.783234949039318784e-01,2.118108946122673406e-02,9.602527759046692868e-01,1.984406693608128194e+02
-1.090247876221214662e+00,2.197281280477719534e+00,-4.069642502192966305e+00,2.099693635646488477e-01,1.597892199690072526e-02,9.775763604011110663e-01,1.999363587990146698e+02
-5.771315165290774596e-01,1.792449612720198315e+00,-4.366475669765844891e+00,1.405655005320472495e-01,1.069686868371877084e-02,9.900125842935295628e-01,2.029129500469389313e+02
-2.133040367971746898e-01,1.414601171937767354e+00,-4.492240940993650788e+00,7.045888263757359160e-02,5.361336554979195812e-03,9.974992741484828285e-01,2.055053673847398272e+02
-1.094301288469834432e-02,1.174158851677942206e+00,-4.530429157850879740e+00,0.000000000000000000e+00,-9.999989999983950115e-07,9.999989999983950328e-01,2.072214651416229287e+02
1.666228356729123061e-01,9.508772453615377263e-01,-4.546844092822773575e+00,-1.155851413211745893e-01,-2.230422683391869443e-01,9.679308971413864704e-01,2.089375628985060303e+02
3.199250402706579899e-01,7.520013998149100987e-01,-4.545199558982897514e+00,-2.237571261383854149e-01,-4.317785211446008575e-01,8.737837588223003049e-01,2.106536606553891318e+02
4.532181595665605855e-01,5.805354632414317928e-01,-4.528194377135682736e+00,-3.175782561597086384e-01,-6.128222889424789210e-01,7.235958080248489077e-01,2.124193393247330448e+02
5.630218069926699043e-01,4.496555471838818985e-01,-4.499136949410834418e+00,-3.910312438274415325e-01,-7.545621957973608351e-01,5.269994867413162476e-01,2.141850179940769578e+02
6.423322486992055769e-01,3.700242505117148362e-01,-4.466926226190134130e+00,-4.394051328457682648e-01,-8.479076583610972717e-01,2.966036616814489713e-01,2.157256422970113476e+02
7.090335376581680116e-01,3.227322986159587570e-01,-4.430890839170660733e+00,-4.595974337851653768e-01,-8.868719073915704021e-01,4.718494186909653193e-02,2.172662665999457374e+02
7.645070269278032571e-01,3.093823082059127261e-01,-4.392826053677474363e+00,-4.333099765136937398e-01,-8.317062777525823236e-01,3.471384908102151945e-01,2.188068909028801272e+02
8.098762481365745503e-01,3.299677360416870542e-01,-4.354281956147345589e+00,-3.664184972304437848e-01,-6.986042462739455727e-01,6.145629275968618188e-01,2.203475152058145170e+02
8.586468802696232139e-01,4.689806331554164931e-01,-4.294078012737392314e+00,-2.651911296776270910e-01,-5.000382759907636698e-01,8.243988035442044726e-01,2.229568572653024887e+02
8.728285211475301786e-01,6.194007902669693699e-01,-4.261822659304499439e+00,-1.391135229428012154e-01,-2.546152651541109813e-01,9.569830168217356992e-01,2.245814899898486487e+02
8.799600561862197523e-01,8.014648791692779994e-01,-4.234641099649307350e+00,-0.000000000000000000e+00,1.466699169441398019e-02,9.998914337840719702e-01,2.262061227143948088e+02
8.811450974546530812e-01,1.011895691149332865e+00,-4.213884644228831355e+00,-0.000000000000000000e+00,1.466699168405897862e-02,9.998914330781415449e-01,2.278307554389409688e+02
8.737023855186959453e-01,1.326822938963586163e+00,-4.200753829079634905e+00,-0.000000000000000000e+00,1.466699168406006802e-02,9.998914330782155968e-01,2.299361849680944658e+02
8.562130143888503353e-01,1.686867181169313223e+00,-4.207667497297912895e+00,-0.000000000000000000e+00,1.466699168406079140e-02,9.998914330782650017e-01,2.320416144972479628e+02
8.337176865212980736e-01,2.037857617544475808e+00,-4.232423772604161805e+00,-0.000000000000000000e+00,1.466699168406115222e-02,9.998914330782896487e-01,2.339228117885992333e+02
8.059268944899331544e-01,2.408597674954569445e+00,-4.275905433044060011e+00,-0.000000000000000000e+00,1.466699168406115222e-02,9.998914330782896487e-01,2.358040090799505037e+02
7.729205842691920791e-01,2.793920986999238298e+00,-4.339965677416658174e+00,-0.000000000000000000e+00,1.466699168406078967e-02,9.998914330782650017e-01,2.376852063713017742e+02
7.388938234122073290e-01,3.148691557123473483e+00,-4.415647991444238585e+00,-0.000000000000000000e+00,1.466699168406006802e-02,9.998914330782155968e-01,2.393772263515389511e+02
7.002946989172287307e-01,3.507782842434259418e+00,-4.508640361796282470e+00,-0.000000000000000000e+00,1.466699168405897862e-02,9.998914330781415449e-01,2.410692463317761280e+02
6.552071216454952163e-01,3.869345035532437471e+00,-4.619813867885344649e+00,-0.000000000000000000e+00,1.466699168405752839e-02,9.998914330780426241e-01,2.427612663120133050e+02
5.922942933580161995e-01,4.278922095117761337e+00,-4.769846210919738816e+00,-8.937831490311932692e-01,2.429597686785830990e-02,4.478385736139610107e-01,2.446723705017103612e+02
5.124658805273685225e-01,4.688360099013904048e+00,-4.948283031455153136e+00,-8.607527672798646057e-01,2.799942235684086400e-01,4.250951756834189244e-01,2.465834746914074174e+02
4.326093274211545436e-01,5.029286533105598700e+00,-5.117366516350726258e+00,-7.700605680259955399e-01,5.169356460122845887e-01,3.738746574112196130e-01,2.481763902549058116e+02
3.417800357640276565e-01,5.370287743029794392e+00,-5.302907487348484494e+00,-6.277820351702255719e-01,7.192475395895281398e-01,2.976082880449597012e-01,2.497693058184042059e+02
2.407293370020336387e-01,5.711685223174807646e+00,-5.504166749068317266e+00,-4.434484185697012970e-01,8.733770450846440880e-01,2.014051568070023557e-01,2.513622213819026001e+02
1.213830614378340333e-01,6.081568873317529267e+00,-5.738505197262238511e+00,-2.294082272332812755e-01,9.689990492849389625e-01,9.170991093573747921e-02,2.530850393346039482e+02
-6.282580373092387128e-03,6.452234118597288237e+00,-5.988564635249979951e+00,-0.000000000000000000e+00,9.997078536730038545e-01,-2.412897233222459012e-02,2.548078572873052963e+02
-1.252659567252628614e-01,6.785330368325669603e+00,-6.223512571262357795e+00,-0.000000000000000000e+00,9.997078529671034053e-01,-2.412897231518696187e-02,2.563537788340681800e+02
-2.455689775830818822e-01,7.118209924281900136e+00,-6.465010720413633116e+00,4.301035175189094062e-01,3.026596604827510098e-02,9.022709878513602844e-01,2.578997003808310637e+02
-3.646084850357898532e-01,7.449966577234209630e+00,-6.709975944243210755e+00,0.000000000000000000e+00,9.993857527531178064e-01,3.501595629961483380e-02,2.594456219275939475e+02
-4.800421322020133608e-01,7.779601117604944882e+00,-6.954910837560410286e+00,1.739358995582800382e-01,9.745721164812700676e-01,1.412568321298535157e-01,2.609915434743568312e+02
-6.262485294518961298e-01,8.221642269594040542e+00,-7.277772340164958109e+00,3.405392379638905176e-01,9.086738181581198726e-01,2.415427904165544370e-01,2.630983951370834575e+02
-7.252607808715095805e-01,8.544750356446776607e+00,-7.504295847761383698e+00,4.927866025320003507e-01,8.044688999388616146e-01,3.316461267636149346e-01,2.646719166653975890e+02
-8.153189565699343611e-01,8.861123129752227712e+00,-7.712450785362563899e+00,6.242597698505972792e-01,6.663502651355920348e-01,4.077683949262915220e-01,2.662454381937117205e+02
-9.384013058549875996e-01,9.390640621159278112e+00,-7.969570596250292738e+00,7.294162694263894853e-01,5.001404990659442662e-01,4.667005325589688725e-01,2.690423153242666103e+02
-9.944538939222763441e-01,9.761729410050763889e+00,-8.051510492050047318e+00,5.179124917774815540e-01,7.186022948425190293e-01,4.640855445973440796e-01,2.711813290364380578e+02
-1.013985790034476420e+00,1.010350629896733565e+01,-8.064134140440909704e+00,0.000000000000000000e+00,1.173078338872851206e-01,9.930945937372328558e-01,2.733203427486095052e+02
-9.955574806987279590e-01,1.038634939861904805e+01,-8.043618480850968311e+00,8.506807646963385761e-01,5.164672500196179072e-01,9.798885770690989039e-02,2.752575089428830779e+02
-9.513941304925969122e-01,1.061290330134199245e+01,-8.018199814908344436e+00,1.270998420255749000e-03,1.158168560493785110e-01,9.932687654503759012e-01,2.769460215713796742e+02
-9.406030010841625044e-01,1.065378787023002083e+01,-8.013377450219659082e+00,5.996891349662169385e-02,5.810559314686762622e-02,9.965066329187015626e-01,2.772638023249403432e+02
-8.458840455851178719e-01,1.090428532069267575e+01,-7.989072839095745060e+00,1.182598423654793174e-01,0.000000000000000000e+00,9.929816764045386046e-01,2.793519319047393878e+02
-7.997401553059474422e-01,1.099192407504243185e+01,-7.983172067877139177e+00,9.994709311547830266e-01,0.000000000000000000e+00,3.249396525059583540e-02,2.801474229694475184e+02
-7.699785770008018559e-01,1.104553006909176283e+01,-7.980013889031600804e+00,9.946412681342279294e-01,-9.227049790397603979e-02,4.661440701661691277e-02,2.806420738369828314e+02
-6.565061628382259373e-01,1.122015614328060806e+01,-7.975930580828473282e+00,9.811218449637933992e-01,-1.837348795905496823e-01,6.032760029352444292e-02,2.823526598806212746e+02
-5.268811802305642944e-01,1.137516364377998102e+01,-7.984615559092475223e+00,9.590307714810690776e-01,-2.735940598435644966e-01,7.351373865533183949e-02,2.840632459242597179e+02
-3.675100762196893411e-01,1.152583200059023127e+01,-8.011598442021918842e+00,9.285610443605193387e-01,-3.610629763726374009e-01,8.605762016945525672e-02,2.860001234538141830e+02
-2.028012385851231669e-01,1.164950578014151361e+01,-8.058154011918968962e+00,8.899788612791226239e-01,-4.453774485893564061e-01,9.784965387983707297e-02,2.879370009833686481e+02
-1.598224466826115575e-01,1.167808221908675215e+01,-8.072990842710616732e+00,8.436212955393778135e-01,-5.258008540295329158e-01,1.087868172812861689e-01,2.884420932743479966e+02
-6.517571891414412899e-02,1.173860952308727335e+01,-8.107816224642299119e+00,7.898933514433885694e-01,-6.016305640849040071e-01,1.187735564181026521e-01,2.895637433614400038e+02
9.903843337478915321e-02,1.183107725677412780e+01,-8.178795246059195279e+00,7.292644261250235127e-01,-6.722040828047642913e-01,1.277226207405387226e-01,2.915982218871575924e+02
2.147303533277670207e-01,1.188571372507449908e+01,-8.235506521959782944e+00,6.622642087371475306e-01,-7.369048351174681821e-01,1.355558254220605441e-01,2.931261772873576206e+02
3.242836601689518261e-01,1.193059881726119897e+01,-8.288870844827261664e+00,5.894780528121171814e-01,-7.951675538813245403e-01,1.422047344737930874e-01,2.946541326875576488e+02
4.274418530003719630e-01,1.196652341063521341e+01,-8.333752524346085266e+00,5.115418622226955980e-01,-8.464832186776239942e-01,1.476112586844431640e-01,2.961820880877576769e+02
5.238890288449494781e-01,1.199431551182916245e+01,-8.364489934994926656e+00,4.291365354265133103e-01,-8.904035031749404361e-01,1.517281631583653478e-01,2.977100434879577051e+02
6.339299593644812658e-01,1.201795004014960178e+01,-8.366741273106297783e+00,3.429820165424879996e-01,-9.265446921891730137e-01,1.545194800147373371e-01,2.996424975149617467e+02
7.281847494077873240e-01,1.202950357128758085e+01,-8.308286675448087522e+00,2.538310052479708090e-01,-9.545910342003931515e-01,1.559608226401047737e-01,3.015749515419657882e+02
8.054085474168849457e-01,1.203138969232705513e+01,-8.170604592927686483e+00,1.624623804703193841e-01,-9.742975000246302253e-01,1.560395987475347024e-01,3.035074055689698298e+02
8.600406071549883125e-01,1.202704351703189367e+01,-7.968771458075400105e+00,6.967439534970865100e-02,-9.854919235327702642e-01,1.547551203806960263e-01,3.052431107428334940e+02
9.001989095728191170e-01,1.201897580004533239e+01,-7.693864605212473506e+00,-2.372229705078962581e-02,-9.880765057138912733e-01,1.521186099025462479e-01,3.069788159166971582e+02
9.083075426331592706e-01,1.201653542034497413e+01,-7.614908308896287892e+00,-1.169117263340572338e-01,-9.820286689489335918e-01,1.481531019180010178e-01,3.074191170015756143e+02
9.323776818144816625e-01,1.200656591874765233e+01,-7.297834186723981986e+00,-2.090797337593979233e-01,-9.674012540434212548e-01,1.428932419899667794e-01,3.090826228308427517e+02
9.457837949857048621e-01,1.199546557138830849e+01,-6.955212336154147579e+00,-2.994210853361216063e-01,-9.443220583149199987e-01,1.363849839104169237e-01,3.107461286601098891e+02
9.511702590335673335e-01,1.198258807147687044e+01,-6.580748642633317935e+00,-3.871465068660400188e-01,-9.129927187914506082e-01,1.286851881748552473e-01,3.125187012298287641e+02
9.503332769643401123e-01,1.196854438187098424e+01,-6.214379742554792863e+00,-4.714895794687574138e-01,-8.736869503005388893e-01,1.198611251717592169e-01,3.142912737995476391e+02
9.467467714159391035e-01,1.195181387073150425e+01,-5.849000612238031138e+00,-5.517134353490528165e-01,-8.267481538648538963e-01,1.099898874308832403e-01,3.162045701443610142e+02
9.448125670497782291e-01,1.193333176801178475e+01,-5.534518794431446231e+00,-1.523479128387171533e-01,-9.810993833092364058e-01,1.192984221353050323e-01,3.181178664891743892e+02
9.448127381454624052e-01,1.193236024986113542e+01,-5.520221368593825062e+00,2.749591536680427439e-01,-9.555128395944946229e-01,1.067271155024800133e-01,3.182140563109689992e+02
9.474599676309702900e-01,1.191408110107831142e+01,-5.286255778551981699e+00,6.518377140198845510e-01,-7.546808501379501655e-01,7.458155948502577515e-02,3.199792790965235554e+02
9.560022263104059892e-01,1.189502814762104421e+01,-5.110951943065819236e+00,9.091662324938489803e-01,-4.154368471798507989e-01,2.875739378417595249e-02,3.217445018820781115e+02
9.736008906840099009e-01,1.187374476614587770e+01,-4.993511503256458539e+00,9.997494087565798049e-01,-0.000000000000000000e+00,-2.234098678772767840e-02,3.236579681635880661e+02
1.000502977302440977e+00,1.185198531986929815e+01,-4.955208266306343923e+00,5.752485914333117512e-01,-0.000000000000000000e+00,-8.179774190366910780e-01,3.255714344450980207e+02
1.034758165115086781e+00,1.182971261114583861e+01,-4.993020191839693034e+00,-5.759863546498810161e-01,0.000000000000000000e+00,-8.174580840986638286e-01,3.274849007266079752e+02
1.068114295920788104e+00,1.180942697913017270e+01,-5.081186238109443920e+00,-0.000000000000000000e+00,-5.697617808903238101e-01,-8.218086839622441575e-01,3.291690459113141287e+02
1.101673725032194628e+00,1.178817763862431711e+01,-5.212272527346139661e+00,-5.741094903286485529e-01,1.828998376288687141e-03,-8.187752731241914050e-01,3.308531910960202822e+02
1.133080348012722949e+00,1.176565289959330229e+01,-5.381745065593607436e+00,-7.142513392294824737e-01,-6.601633892675022874e-01,-2.324377849664018281e-01,3.325373362807264357e+02
1.160079661688717012e+00,1.174153174834019353e+01,-5.584706500556234410e+00,-4.272875887421042629e-01,2.998997113510256871e-02,9.036171302820644735e-01,3.342214814654325892e+02
1.181359014714802314e+00,1.171369813276023741e+01,-5.831390602144998603e+00,5.764363129578226053e-01,-1.163998612654818660e-03,-8.171400260681881411e-01,3.360098362883581444e+02
1.192439439854133143e+00,1.168307143764103806e+01,-6.103828621681296696e+00,0.000000000000000000e+00,-9.950635238632309365e-01,9.922995251858013344e-02,3.377981911112836997e+02
1.191036761323309490e+00,1.164940061224447554e+01,-6.394171693991009597e+00,-0.000000000000000000e+00,8.080491350128965466e-02,9.967289330380600942e-01,3.395865459342092549e+02
1.165503695535168749e+00,1.160252901758055444e+01,-6.771795842291592038e+00,-9.994701503669271014e-01,0.000000000000000000e+00,3.251797235700858851e-02,3.418331500898481181e+02
1.107318546910685653e+00,1.155084459535724228e+01,-7.147114517018870572e+00,-5.024135394087879680e-01,7.294793312445962963e-01,4.641535744838849453e-01,3.440797542454869813e+02
1.030061436735984159e+00,1.150321131016229792e+01,-7.455269334962457251e+00,-7.085840379530248256e-01,5.953310289501813068e-01,3.787976070781138294e-01,3.460221404963771192e+02
9.289438323878270731e-01,1.145373900581845206e+01,-7.735746537541447587e+00,-8.667211427031324966e-01,4.208265758832658854e-01,2.677638023009834556e-01,3.479645267472672572e+02
8.110177700085494656e-01,1.140515684512774364e+01,-7.969127749097411950e+00,-9.661051338352851792e-01,2.177952299679743464e-01,1.385788879346317171e-01,3.498381785749494952e+02
6.987002421120450668e-01,1.136406118370179108e+01,-8.137223086006274642e+00,-9.999989999998434298e-01,0.000000000000000000e+00,0.000000000000000000e+00,3.514450610823338934e+02
5.809995329513077955e-01,1.132523322952079070e+01,-8.278412155031372066e+00,-9.951894584741552974e-01,-1.134167754639386384e-02,9.730009297714946326e-02,3.530519435897182916e+02
4.631216961118304609e-01,1.129121636267272777e+01,-8.393821481169416288e+00,-9.808070977325695772e-01,-2.257425820645532141e-02,1.936642452929427105e-01,3.546314714484562955e+02
3.454275202573884873e-01,1.126362688865349249e+01,-8.488457715522761404e+00,-9.569902642196166376e-01,-3.358969453986972165e-02,2.881655194687260391e-01,3.562109993071942995e+02
2.298945437255571489e-01,1.124498064896668836e+01,-8.564292550340107724e+00,-9.239680561046382801e-01,-4.428202789427884700e-02,3.798948977084973255e-01,3.577905271659323034e+02
1.181300048665941543e-01,1.123780525070766423e+01,-8.623462578817921553e+00,-8.820581193878064274e-01,-5.454840765315253914e-02,4.679700260121358868e-01,3.593760263130449175e+02
1.211018045715816019e-02,1.124476742056427803e+01,-8.667487967365270052e+00,-8.316635922075020781e-01,-6.429008058017647576e-02,5.515437017470615766e-01,3.609615254601575316e+02
-8.742766709096017053e-02,1.126836437806009883e+01,-8.697945197283376118e+00,-7.732692267619203363e-01,-7.341334074220588757e-02,6.298120230239641071e-01,3.625427489596182227e+02
-1.811338831474874345e-01,1.131107714718436519e+01,-8.716395687315264595e+00,-7.074367261707845689e-01,-8.183043087275654326e-02,7.020221214815793864e-01,3.641239724590789137e+02
-3.299138436697120480e-01,1.146211108666974354e+01,-8.711926395970065684e+00,-6.347993411552543819e-01,-8.946038650587814778e-02,7.674794040993792033e-01,3.668740225112421740e+02
-3.527306178331555131e-01,1.149688365601057782e+01,-8.706699164876127384e+00,-5.560557785326564195e-01,-9.622981476151866442e-02,8.255542343863141452e-01,3.673254196823474444e+02
-4.353170918683650914e-01,1.163882587804261703e+01,-8.681350887978490860e+00,-4.719634801391881518e-01,-1.020736002927684211e-01,8.756879886923437661e-01,3.689782095755043656e+02
-5.171190111501485775e-01,1.180773316903674441e+01,-8.643775800735488346e+00,-3.833313368448694747e-01,-1.069355316065608852e-01,9.173984294049642996e-01,3.706309994686612868e+02
-5.994930533221324298e-01,1.200307001529598061e+01,-8.592616755071192713e+00,-2.910119077529628728e-01,-1.107688417357085980e-01,9.502843433670404849e-01,3.722837893618182079e+02
-7.391303391844626924e-01,1.239726736919279837e+01,-8.461381094252097057e+00,-1.958932194291300166e-01,-1.135366580641658241e-01,9.740294009214400806e-01,3.749852023376957391e+02
-7.631451937938117380e-01,1.247241448422103183e+01,-8.433239065322430505e+00,-9.889022403861040533e-02,-1.152123569811956683e-01,9.884051984841694116e-01,3.754370040723335933e+02
-9.099264250546910127e-01,1.296454997771587792e+01,-8.223441063933879747e+00,-9.359985444648436046e-04,-1.157798199552773355e-01,9.932734553988434856e-01,3.781144303587176410e+02
-1.044436797167347608e+00,1.345953727917921050e+01,-7.971481912604844844e+00,-8.586075742501612582e-04,-3.894100039199294705e-01,9.210630334793880047e-01,3.804547655798012897e+02
-1.206383116835579195e+00,1.409195072223972289e+01,-7.595970261407519963e+00,-7.124524542527465578e-04,-6.318531189063215647e-01,7.750865297126412479e-01,3.831657672742510385e+02
-1.310328943495900234e+00,1.451242200825840811e+01,-7.322645462001737826e+00,-5.092384443334494479e-04,-8.236923965682865223e-01,5.670348988500323317e-01,3.848621306390451764e+02
-1.409662791520470471e+00,1.492127903924708754e+01,-7.048677165689881896e+00,-2.652405286781681125e-04,-9.495638124745356956e-01,3.135705593455064832e-01,3.864687383325978089e+02
-1.510295744145066621e+00,1.533932669660005921e+01,-6.763074528657754492e+00,-0.000000000000000000e+00,-9.993865585873512591e-01,3.499294952975939843e-02,3.880753460261504415e+02
-1.609048744893436966e+00,1.574772670945864839e+01,-6.480365925374538705e+00,1.826718535413781874e-01,-9.831721743442636274e-01,-1.212237298339349876e-03,3.896170804303950490e+02
-1.711465458560537556e+00,1.616142376968670646e+01,-6.191164832866796530e+00,3.589606418547809930e-01,-9.326030034784134060e-01,-3.737506524904212618e-02,3.911588148346396565e+02
-1.819281801137383914e+00,1.657845227143723577e+01,-5.896923052582418556e+00,5.227064052945151751e-01,-8.494460335488333014e-01,-7.223191781865063998e-02,3.927005492388842640e+02
-1.966833372101272293e+00,1.710394916707517510e+01,-5.520738839849844481e+00,3.538609818301569759e-02,-8.829056326060529258e-01,4.682130583049912143e-01,3.946400530238337865e+02
-2.132165175703707227e+00,1.762531256522454015e+01,-5.139256269213515083e+00,-4.707131791856241643e-01,-4.478224244592622916e-01,7.601856214717530591e-01,3.965795568087833090e+02
-2.318818762862355332e+00,1.813649292422972792e+01,-4.754936510595827670e+00,-7.270129289259051886e-01,2.249116686481734684e-01,6.487410442402066213e-01,3.985190605937328314e+02
-2.510551148599411864e+00,1.859363700104662698e+01,-4.400381880279284452e+00,-0.000000000000000000e+00,2.016697227948319876e-02,9.997956257306721550e-01,4.003049848893569447e+02
-2.719850445088981772e+00,1.903344584692589692e+01,-4.046412292608149386e+00,-0.000000000000000000e+00,2.016697226524963651e-02,9.997956250250304988e-01,4.020909091849810579e+02
-2.945019359634105438e+00,1.945117256853972876e+01,-3.693908006723827686e+00,6.355972790763313451e-01,2.092487626604288553e-01,7.431211571178032438e-01,4.038768334806051712e+02
-3.149099008163803504e+00,1.979038209678100202e+01,-3.392798023561672149e+00,7.342455860396148726e-01,2.131448798310290049e-01,6.445546366064833776e-01,4.054108889543014698e+02
-3.360415964979066139e+00,2.011019989187854051e+01,-3.093585863582553497e+00,0.000000000000000000e+00,1.705397561329714817e-02,9.998535702376697420e-01,4.069449444279977683e+02
-3.575885557779998614e+00,2.040835644212121380e+01,-2.796551786618503677e+00,-0.000000000000000000e+00,1.519999198722226698e-02,9.998834729047203496e-01,4.084789999016940669e+02
-3.791696899205135196e+00,2.068267642627791858e+01,-2.501909686276915679e+00,-8.217572942076925013e-01,1.566598654477073874e-02,5.696205107633635079e-01,4.100130553753903655e+02
-4.004063572156485229e+00,2.093096410046698352e+01,-2.209873440526467725e+00,-0.000000000000000000e+00,-2.786296520869436383e-02,9.996107518283526838e-01,4.115471108490866641e+02
-4.293809906964689560e+00,2.122577761792130246e+01,-1.792217237925165962e+00,4.805735144729278430e-01,-1.274097286079209357e-01,8.676484646703453985e-01,4.137753540583346989e+02
-4.544042248379312809e+00,2.142419440241799222e+01,-1.383505260463801845e+00,8.370268619317369208e-01,-1.940497361591888847e-01,5.115943044079372948e-01,4.160035972675827338e+02
-4.709130338280123951e+00,2.151593853383722532e+01,-1.060800118809354986e+00,8.890937439377137874e-01,-2.833161389444164291e-01,3.595028232237731936e-01,4.177925781126367610e+02
-4.848634886573557345e+00,2.155063300704928864e+01,-7.189978290929276428e-01,9.110991785508086860e-01,-3.630032546216727107e-01,1.952560472285501947e-01,4.197100005893018988e+02
-4.946593949998720596e+00,2.151574317585002660e+01,-3.805485890805440086e-01,9.022991163601591369e-01,-4.304167581542486798e-01,2.440735373883442041e-02,4.216274230659670366e+02
-4.999955419412129842e+00,2.141095184552303365e+01,-4.389732728254357175e-02,8.629910688421130738e-01,-4.832773003403119660e-01,-1.472666495680128584e-01,4.235448455426321743e+02
-5.010246110012166021e+00,2.126388994084059192e+01,2.533491040430834729e-01,7.945040583215173813e-01,-5.197975768035996147e-01,-3.139614314844678122e-01,4.252399311707904985e+02
-4.989633210066881652e+00,2.106991257630515335e+01,5.508872384739802452e-01,6.991536932645218139e-01,-5.387427636406402209e-01,-4.700407937818407156e-01,4.269350167989488227e+02
-4.933154726860838224e+00,2.080298516462789493e+01,8.766586072007965802e-01,4.595995113947056177e-01,-5.348094314382125791e-01,-7.090452462062019068e-01,4.287874910091637730e+02
-4.848289674283400963e+00,2.050348396618587898e+01,1.180826287420428500e+00,2.206062339442155240e-02,-6.036787175315465603e-01,-7.969211597742492659e-01,4.305164043920318591e+02
-4.730853874121980773e+00,2.015957235870826381e+01,1.483938258786290376e+00,-4.199765354728743905e-01,-5.494543922601671238e-01,-7.223002010790892102e-01,4.322453177748999451e+02
-4.604128248437009852e+00,1.983264125467302819e+01,1.742535173784990565e+00,-2.946961269696644070e-01,-5.022252097514561253e-01,-8.129711135337792660e-01,4.337302406261237024e+02
-4.543239853665316907e+00,1.968347002447877614e+01,1.854643154299385532e+00,-1.617102874176669092e-01,-4.418643236681308872e-01,-8.823852346984015771e-01,4.343771228829025404e+02
-4.379353072079237741e+00,1.930380323274889065e+01,2.124167135319322330e+00,-2.449619658663892974e-02,-3.699499892179012317e-01,-9.287275929095422100e-01,4.359482980328901931e+02
-4.185957993527003040e+00,1.889486603341343240e+01,2.387368828561348799e+00,1.133584090357092899e-01,-2.883625485814392819e-01,-9.507864700749025788e-01,4.375194731828778458e+02
-3.982247174952477931e+00,1.849756251030004961e+01,2.620005561957887252e+00,2.482490428140501637e-01,-1.992352670435234563e-01,-9.479850848556911069e-01,4.389529461146747735e+02
-3.690310090125885178e+00,1.797864266584184634e+01,2.889496259207454898e+00,3.766487130960547436e-01,-1.048985559855726418e-01,-9.203966752851313604e-01,4.407046881510376579e+02
-3.341030870740654635e+00,1.741939717467856852e+01,3.136102428860279900e+00,4.952001430450047592e-01,-7.819040769418117084e-03,-8.687425861152408002e-01,4.424564301874005423e+02
-2.932001429450290964e+00,1.681912930698659991e+01,3.355097739205118668e+00,6.008035540478506853e-01,8.946493359380257304e-02,-7.943734103687848380e-01,4.442081722237634267e+02
-2.469541005374524367e+00,1.617703875520597734e+01,3.545155893493683319e+00,0.000000000000000000e+00,2.192496970815314972e-02,-9.997586187194160701e-01,4.459599142601263111e+02
-1.725892311650137678e+00,1.517104174219589829e+01,3.757339678828015561e+00,4.103816170449662848e-01,1.718906414320321013e-02,-9.117507688327778359e-01,4.484558067237550745e+02
-1.231639784243096170e+00,1.450175553710105092e+01,3.855990353422747319e+00,7.484617191940651226e-01,9.424767250317867689e-03,-6.631095148351009438e-01,4.499873625635356689e+02
-7.264469404127796848e-01,1.380378101684125980e+01,3.939093792030192720e+00,9.546769266724456360e-01,0.000000000000000000e+00,-2.976406653674991687e-01,4.515189184033162633e+02
-2.163143438488126513e-01,1.307759743802086305e+01,4.007922901440025498e+00,9.796526068673956367e-01,-0.000000000000000000e+00,2.006957145970504341e-01,4.530504742430968577e+02
2.935574761366566698e-01,1.232422516745856811e+01,4.063686576054935884e+00,9.968779763692036111e-01,-0.000000000000000000e+00,-7.894491893646750358e-02,4.545820300828774521e+02
7.999078907204085764e-01,1.154579875042102444e+01,4.107447862028267060e+00,7.268315228413133600e-01,-5.907656121674214056e-01,-3.502997700311930029e-01,4.561135859226580465e+02
1.300972358584534527e+00,1.074511605707806616e+01,4.140170332730320091e+00,9.796526068681459254e-01,-0.000000000000000000e+00,2.006957145972041445e-01,4.576451417624386409e+02
1.795355616908410612e+00,9.925052971753610009e+00,4.162799910479129117e+00,9.968779763692036111e-01,-0.000000000000000000e+00,-7.894491893646750358e-02,4.591766976022192353e+02
2.281694272512282851e+00,9.088492615298868316e+00,4.176282583196226916e+00,0.000000000000000000e+00,-9.968312352734686188e-01,-7.953293898571152376e-02,4.607082534419998296e+02
2.758656818620705220e+00,8.238325193030764382e+00,4.181564398253400761e+00,-9.796745246597646783e-01,-0.000000000000000000e+00,2.005886979235762813e-01,4.622398092817804240e+02
3.224943651318425086e+00,7.377447842603209516e+00,4.179591456319172948e+00,3.588155418936982977e-01,-5.920762440855346087e-01,-7.215920787303226058e-01,4.637713651215610184e+02
3.679287085698609516e+00,6.508764481812475466e+00,4.171309905205008661e+00,-9.796745246596161305e-01,-0.000000000000000000e+00,2.005886979235458889e-01,4.653029209613416128e+02
4.120451371703325094e+00,5.635185656337877269e+00,4.157665933711306216e+00,9.968779763646680170e-01,-0.000000000000000000e+00,-7.894491893610830480e-02,4.668344768011222072e+02
4.547232709656180205e+00,4.759628387419013507e+00,4.139605765473177712e+00,0.000000000000000000e+00,-0.000000000000000000e+00,-9.999989999999968626e-01,4.683660326409028016e+02
4.981005032762407581e+00,3.835352350709221092e+00,4.116677482891812012e+00,-0.000000000000000000e+00,-0.000000000000000000e+00,-9.999989992938940198e-01,4.699849865328579313e+02
5.395182226065497133e+00,2.915946060959753616e+00,4.090833004867256761e+00,-9.796745246597445833e-01,-0.000000000000000000e+00,2.005886979235721734e-01,4.716039404248130609e+02
5.788384582672823520e+00,2.005074555437373451e+00,4.063253821773822771e+00,-0.000000000000000000e+00,9.968731427319724725e-01,-7.900593205829645194e-02,4.732228943167681905e+02
6.159399270674580151e+00,1.106430524884626676e+00,4.035134372387660484e+00,-9.546707119072586067e-01,0.000000000000000000e+00,-2.976605983804139210e-01,4.748418482087233201e+02
6.507305295890843055e+00,2.237530995645980736e-01,4.007694971054485578e+00,-3.571165318403486943e-01,-5.924852232852562128e-01,-7.220990533688280699e-01,4.764608021006784497e+02
6.831349364066001684e+00,-6.391937055223838593e-01,3.982168862972590428e+00,-0.000000000000000000e+00,-8.566789209259167981e-02,-9.963227450303417942e-01,4.780797559926335794e+02
7.130821423501636502e+00,-1.478641611404446721e+00,3.959789279381872529e+00,4.896725565853393691e-01,1.691298468473418845e-02,-8.717412106095637769e-01,4.796987098845887090e+02
7.405054676049592111e+00,-2.290818293039905917e+00,3.941789428601264689e+00,0.000000000000000000e+00,9.968731427319689198e-01,-7.900593205829617438e-02,4.813176637765438386e+02
7.653425587639811845e+00,-3.071947597265187291e+00,3.929402487066294469e+00,-9.968817776734337777e-01,0.000000000000000000e+00,-7.889690326056407466e-02,4.829366176684989682e+02
7.875353898342879688e+00,-3.818249760786970093e+00,3.923861590366811480e+00,-8.875683493719863648e-01,2.518998153459656164e-02,-4.599846628102977064e-01,4.845555715604540978e+02
8.070302631967196660e+00,-4.525941628216592072e+00,3.926399824284940721e+00,-5.335776174011365169e-01,1.795098712834449980e-02,-8.455593936963387014e-01,4.861745254524092275e+02
8.237778105190727729e+00,-5.191236870144738447e+00,3.938250215833308587e+00,-9.089459700191115932e-01,4.169115275726834047e-01,-4.199995240734904031e-05,4.877934793443643571e+02
8.374549750963927508e+00,-5.796334842238523244e+00,3.959826022304741677e+00,4.662972870393937708e-01,1.652197473818215606e-02,-8.844726476563929962e-01,4.893727520113143896e+02
8.485371432377872836e+00,-6.355631345781368680e+00,3.992174236718400326e+00,4.111484124433544274e-01,-1.433911939591918927e-01,-9.002188336410306135e-01,4.909520246782644222e+02
8.529326850959137118e+00,-6.600975455758994137e+00,4.010284984782086504e+00,3.441331274112473526e-01,-2.991658630262022944e-01,-8.899832453589342496e-01,4.916820883707489998e+02
8.621862699712492528e+00,-7.212684492210430953e+00,4.072304053283165359e+00,2.671855924220948864e-01,-4.463061379082625679e-01,-8.540612919861020336e-01,4.936592775981091563e+02
8.670186104248042369e+00,-7.733139708872697859e+00,4.157103729569317174e+00,1.825266271537352991e-01,-5.805653185371590919e-01,-7.934897234955071710e-01,4.956364668254693129e+02
8.680454992436395401e+00,-8.115921392307757998e+00,4.247007298233127059e+00,9.259961774631560172e-02,-6.980684624566370067e-01,-7.100167128438604758e-01,4.973401002483557249e+02
8.665606618634484448e+00,-8.446598067192866210e+00,4.350515325975348624e+00,0.000000000000000000e+00,-7.954242215456189813e-01,-6.060514068782920649e-01,4.990437336712421370e+02
8.621970991756272795e+00,-8.750088530161864497e+00,4.477511114699585626e+00,-9.089321683888461623e-01,-2.999997255206421471e-06,4.169416185267585950e-01,5.008965341539060887e+02
8.551738939940932482e+00,-8.999631200487083760e+00,4.617516217012992641e+00,-2.327097549703580348e-01,-7.626911969311689354e-01,-6.034453646076348710e-01,5.027493346365700404e+02
8.459479258068292040e+00,-9.203252177696104042e+00,4.766898221053298634e+00,-2.327328258592508969e-01,7.626824293280757283e-01,6.034475484744888929e-01,5.046021351192339921e+02
8.349536104182639917e+00,-9.369414492673266537e+00,4.921063281063064565e+00,-0.000000000000000000e+00,8.460544322730512157e-01,5.330946422781052130e-01,5.064549356018979438e+02
8.203492589113841049e+00,-9.523185549694185070e+00,5.096082236183207215e+00,-5.163343074808758315e-01,-6.993530620120279595e-01,-4.942693370749077220e-01,5.085831919509165573e+02
8.037681267129437757e+00,-9.648447872678097781e+00,5.259040341032595656e+00,-9.089459700192324965e-01,4.169115275727388603e-01,-4.199995240735462395e-05,5.107114482999352276e+02
7.918027457233123734e+00,-9.723721056125983253e+00,5.357975553825107262e+00,-6.457998176120151035e-01,2.799346649903147188e-01,-7.103359620001391539e-01,5.121325121927999362e+02
7.643602116160868931e+00,-9.868979532436584989e+00,5.503702252774249182e+00,-0.000000000000000000e+00,-2.291096583325744757e-02,-9.997365091095602452e-01,5.149820309329513748e+02
7.435783112163892206e+00,-9.961556632612674989e+00,5.556258303383071251e+00,-0.000000000000000000e+00,4.006083325167599462e-04,-9.999989197365338756e-01,5.168399083536106673e+02
7.205342781524448625e+00,-1.005420801647207085e+01,5.583238540943407102e+00,-0.000000000000000000e+00,2.371197228132256377e-02,-9.997178313559172969e-01,5.186977857742699598e+02
6.843743180428853101e+00,-1.017907658840131901e+01,5.576413641117984987e+00,-0.000000000000000000e+00,9.639322753934952415e-01,-2.661438867406862863e-01,5.211701687080599186e+02
6.568252869964176455e+00,-1.026196470616949341e+01,5.547250835209709408e+00,-0.000000000000000000e+00,5.332983833114575134e-01,8.459260217992370379e-01,5.227942044743847418e+02
6.266021365071884119e+00,-1.034491218524153133e+01,5.503706356440154046e+00,2.413187014928050433e-01,7.754706035922456220e-01,5.834454792653926969e-01,5.244182402407095651e+02
5.656612596568433737e+00,-1.048572619646437332e+01,5.383495238589200760e+00,4.378056255131925201e-01,8.735770586236120128e-01,2.125731801431479662e-01,5.271845382986685991e+02
5.268136824299777032e+00,-1.056265393855406209e+01,5.292837675961061805e+00,5.529576574120615984e-01,8.093914985370741499e-01,-1.977908774575810325e-01,5.287163247841320981e+02
4.856718225798974053e+00,-1.063779149130290591e+01,5.191925254405679091e+00,6.413251544944603699e-01,3.318386754849835807e-01,-6.917970364666967686e-01,5.302481112695955972e+02
4.322334728014696204e+00,-1.072634870039967403e+01,5.054713879549805888e+00,4.219152017232039587e-01,-3.049664022858056267e-01,-8.538038744533305024e-01,5.321191770996987316e+02
3.754864651575568146e+00,-1.081096331523026599e+01,4.902873642453694281e+00,2.499997267778811865e-05,-7.954151306990204784e-01,-6.060633376396391547e-01,5.339902429298018660e+02
3.278288884665177427e+00,-1.087664289143292429e+01,4.771885074541288851e+00,2.955221501515262230e-05,-9.474735656008080875e-01,-3.198309578739903514e-01,5.355018928250600538e+02
2.791473319929206998e+00,-1.094048476311447260e+01,4.635632947808809412e+00,3.099996898508438324e-05,-9.999989995188509617e-01,-0.000000000000000000e+00,5.370135427203182417e+02
2.298208267557101170e+00,-1.100310149537372517e+01,4.495245555865685638e+00,-6.814910863542432695e-01,5.479192654282324243e-02,-7.297710216274128081e-01,5.385251926155764295e+02
1.802276884721507821e+00,-1.106512556566553052e+01,4.351851218477229111e+00,-6.427181838454625318e-01,1.973997493322810284e-02,-7.658470274905204711e-01,5.400368425108346173e+02
1.307455128719818616e+00,-1.112720932996242418e+01,4.206578274416641783e+00,1.016999272028910883e-02,-9.999472842347740809e-01,-0.000000000000000000e+00,5.415484924060928051e+02
6.380712308433369451e-01,-1.121483883471985621e+01,4.005468010546796798e+00,2.883107282157467699e-01,-5.998124345698628845e-01,-7.463912963931577105e-01,5.436302904821046695e+02
-4.192003215274421254e-03,-1.130679856967887353e+01,3.805749211733712833e+00,0.000000000000000000e+00,8.052988517099525165e-03,-9.999665741297627530e-01,5.457120885581165339e+02
-4.805980153039546843e-01,-1.138167722922066716e+01,3.652633129413139557e+00,-0.000000000000000000e+00,3.025597525984255465e-02,-9.995411826802467203e-01,5.473354630452903393e+02
-9.324241023943437012e-01,-1.145914601730658156e+01,3.502952938841319863e+00,-0.000000000000000000e+00,8.052988516749608888e-03,-9.999665740863123986e-01,5.489588375324641447e+02
-1.355046911498334339e+00,-1.153929970679606498e+01,3.357821289181457836e+00,9.311514953131249106e-01,0.000000000000000000e+00,3.646298023695645485e-01,5.505822120196379501e+02
-1.798353130944762013e+00,-1.163594074838064785e+01,3.197463586886354125e+00,7.525789214885288958e-01,9.257286733497778475e-02,-6.519610656827238282e-01,5.524631527302445875e+02
-2.182297247714976240e+00,-1.173661490178593425e+01,3.047582148795381585e+00,7.590762284761034540e-01,2.112597852758832384e-02,-6.506573386728942143e-01,5.543440934408512248e+02
-2.502046570562851624e+00,-1.183999372184808152e+01,2.909743960129455687e+00,6.827382631563890802e-01,2.016997823160002548e-02,-7.303832117356942044e-01,5.562250341514578622e+02
-2.825215760270329390e+00,-1.199640799009068992e+01,2.738183131217767130e+00,9.303518499622631666e-01,-2.382997054300972986e-03,3.666575467628561125e-01,5.590551264604648622e+02
-2.925342326651480640e+00,-1.207913568491543010e+01,2.665004321968633683e+00,-4.525265025555633147e-01,-5.793823631079469960e-01,-6.778892548232278159e-01,5.605690565880156555e+02
-2.997390173139159231e+00,-1.215994583703630738e+01,2.601286400697534251e+00,-3.856653539607871051e-01,-8.287637059344360457e-01,-4.054762069991648121e-01,5.620829867155664488e+02
-3.045981319855250558e+00,-1.224135044220778568e+01,2.545615748541958379e+00,-2.644698576007453727e-01,-9.613991150764885640e-01,-7.593046730518644705e-02,5.636601389276372629e+02
-3.071604776646240431e+00,-1.231922775437278439e+01,2.501370506571588326e+00,-1.060072025117254763e-01,-9.585879530598552245e-01,2.643286006717429082e-01,5.652372911397080770e+02
-3.079166106052784624e+00,-1.239305834983927923e+01,2.468697355301478158e+00,6.739710474656589179e-02,-8.207099907034843822e-01,5.673541586010354409e-01,5.668144433517788912e+02
-3.073924796884553334e+00,-1.246284567334761739e+01,2.447866097914132233e+00,2.313048393292384819e-01,-5.671906595263741524e-01,7.904371112987728099e-01,5.683915955638497053e+02
-3.070617113785852226e+00,-1.248399900523376793e+01,2.443445576101595851e+00,3.626171074338019329e-01,-2.337639912309446288e-01,9.021425772655126130e-01,5.688843774080692128e+02
-3.061437233527782631e+00,-1.253355384652092219e+01,2.436081810963597771e+00,4.428361018716768238e-01,1.325808285759908500e-01,8.867448960868520302e-01,5.700565923803452506e+02
-3.052164915966340430e+00,-1.257475408277621653e+01,2.433738181046066096e+00,4.606684729552892321e-01,4.802354505689687691e-01,7.464291460202804318e-01,5.710532801478718739e+02
-3.033405526103346794e+00,-1.263978123810706578e+01,2.439368559529989433e+00,2.463149771822679690e-01,7.380930812200718893e-01,6.281285978771595779e-01,5.726903381209793906e+02
-3.008890419261644134e+00,-1.270030471679851303e+01,2.457869029057325960e+00,8.189993087924184439e-04,9.026312382099124232e-01,4.304116367472068938e-01,5.743273960940869074e+02
-2.977495405166211029e+00,-1.275544821301415155e+01,2.487618010048263884e+00,-4.477217380014633652e-01,5.738696641820142386e-01,6.857235987271464994e-01,5.759644540671944242e+02
-2.933100157012647369e+00,-1.280899125125202609e+01,2.532031073590946146e+00,-3.920461397593459352e-01,6.969616563766165562e-01,6.004517248210670122e-01,5.777778685337267461e+02
-2.878446982955735312e+00,-1.285341020532042933e+01,2.586825539491496073e+00,-3.263644646181651510e-01,8.022652396836671418e-01,4.998547003181140758e-01,5.795912830002590681e+02
-2.815956751511645706e+00,-1.288783121054820135e+01,2.650188328833527507e+00,-2.523530927130596124e-01,8.870927987195247333e-01,3.865000427666499538e-01,5.814046974667913901e+02
-2.756263948844690503e+00,-1.291011256435709420e+01,2.713812716050034268e+00,-1.719009949528207959e-01,9.492793220172088819e-01,2.632808704129528943e-01,5.830492477035696766e+02
-2.697525333605041986e+00,-1.292403352531828986e+01,2.782276745561457876e+00,-8.706152216682228051e-02,9.872376540309106829e-01,1.333420632140525641e-01,5.846937979403479630e+02
-2.641896768315672883e+00,-1.293001949302932552e+01,2.855474773481016637e+00,-0.000000000000000000e+00,9.999989999997789258e-01,0.000000000000000000e+00,5.863544063645799724e+02
-2.591990381427121015e+00,-1.292891075469896300e+01,2.931835445499329840e+00,-0.000000000000000000e+00,9.180839240797108447e-01,-3.963835369278636001e-01,5.880150147888119818e+02
