1.658798741687051770e+00,-2.202452390078153854e+00,-5.388518878739332330e+00,-9.743574132639670760e-01,-2.102660017338989218e-01,8.008645161447588978e-02,1.292158852959832132e+02
1.742609938856971796e+00,-2.516789134343955681e+00,-5.438570181302946338e+00,-9.682162658000067479e-01,-1.598489513586172917e-01,1.923631341749653390e-01,1.307665981607450192e+02
1.778402315332681782e+00,-2.841163805815857479e+00,-5.464571400753424513e+00,-9.473720990448725177e-01,-1.070044859155097755e-01,3.017186536246215245e-01,1.323173110255068252e+02
1.764538824664512839e+00,-3.173408276214803259e+00,-5.464733898471374474e+00,-9.121414470765096816e-01,-5.253508663878267426e-02,4.064923679441750926e-01,1.338680238902686312e+02
1.702535129261602442e+00,-3.510210258356059931e+00,-5.438842847833635474e+00,-8.630593147248876162e-01,2.732089475651657429e-03,5.050932141235230377e-01,1.354187367550304373e+02
1.595521203543808664e+00,-3.847697525766088589e+00,-5.387470415764074261e+00,-8.008710525935104352e-01,5.795777105924036776e-02,5.960238702364676344e-01,1.369694496197922433e+02
1.446689903449626557e+00,-4.182012542377710140e+00,-5.311188939036975754e+00,-7.265210375768977880e-01,1.123033176715543258e-01,6.779034937204185818e-01,1.385201624845540493e+02
1.259296933582014555e+00,-4.509312741015089721e+00,-5.210570920461256250e+00,-6.411383308821084759e-01,1.649434554108893114e-01,7.494886905025224255e-01,1.400708753493158554e+02
1.029828663531453969e+00,-4.833845215399684037e+00,-5.082222592782263959e+00,-5.460195314814353384e-01,2.150788093947448854e-01,8.096923965251690003e-01,1.416629677535833309e+02
7.660112338033896462e-01,-5.142430668769591762e+00,-4.928793753392064048e+00,-4.426090855148320791e-01,2.619480427752510776e-01,8.576003849734716855e-01,1.432550601578508065e+02
4.716740448380866146e-01,-5.430852266171854126e+00,-4.750921025726118962e+00,-3.324773507774061998e-01,3.048394179528285952e-01,8.924851486064518946e-01,1.448471525621182820e+02
1.507180321875742635e-01,-5.694911534195578717e+00,-4.549241204966580909e+00,-2.172967494851736903e-01,3.431016044485753480e-01,9.138169464881819026e-01,1.464392449663857576e+02
-1.928843752366150299e-01,-5.930428686318254705e+00,-4.324391253568681037e+00,-1.753916490682866924e-01,2.854691513533150204e-01,9.422012168644142704e-01,1.480313373706532332e+02
-5.550892975784964545e-01,-6.133242948080474655e+00,-4.077008296786233998e+00,-1.324546824701850756e-01,2.261572226664216034e-01,9.650423139559881625e-01,1.496234297749207087e+02
-9.317814471152293665e-01,-6.299212882086399290e+00,-3.807729618196289412e+00,-8.873845017296570770e-02,1.655147536040628142e-01,9.822058612114165088e-01,1.512155221791881843e+02
-1.318998640443254322e+00,-6.424088357972666863e+00,-3.517709440110757146e+00,-4.450013708421210468e-02,1.038985068557409241e-01,9.935908806294643236e-01,1.528076145834556598e+02
-1.713153317971071399e+00,-6.503381099393834575e+00,-3.209135700354919685e+00,-0.000000000000000000e+00,4.167097442637308913e-02,9.991303868300874802e-01,1.543997069877231354e+02
-2.110803626634905950e+00,-6.532491246302104315e+00,-2.884713252004982742e+00,3.143997209739320901e-03,3.833196598082939943e-02,9.992591131692473150e-01,1.559917993919906110e+02
-2.506957328241460115e+00,-6.507807610872318627e+00,-2.547140236602934316e+00,0.000000000000000000e+00,8.584009604376621194e-01,5.129773787612226243e-01,1.575838917962580865e+02
-2.893624352486191764e+00,-6.427689608415634304e+00,-2.199101242306363613e+00,3.314058155943963024e-01,6.817833458853606032e-01,6.521806917296801842e-01,1.591759842005255621e+02
-3.271946283652648280e+00,-6.285435961156280449e+00,-1.831983191548498535e+00,6.096536453255908539e-01,3.958066777044870754e-01,6.867732570703821704e-01,1.608177560236051704e+02
-3.620748361213204092e+00,-6.081097284540109449e+00,-1.460422763725409689e+00,7.901121582997858717e-01,4.634195063228763178e-02,6.112063488867253147e-01,1.624595278466847788e+02
-3.935911483669856992e+00,-5.814073716756069210e+00,-1.091346812983504444e+00,5.998620630918785057e-01,-6.732777405173500096e-01,4.322737435787308291e-01,1.641012996697643871e+02
-4.214611526753006210e+00,-5.486862092316565409e+00,-7.367590448643076551e-01,5.805297106698704968e-02,-9.983125024511574352e-01,0.000000000000000000e+00,1.657303144908346439e+02
-4.459269828884521836e+00,-5.099410537110053099e+00,-4.021443793389498644e-01,8.622806498191084579e-01,4.096493585606538618e-02,-5.047692096195808276e-01,1.673593293119049008e+02
-4.669812912846119879e+00,-4.657490814123706357e+00,-9.335961507501967793e-02,6.818411546847187310e-01,5.506893172807303394e-02,-7.294230956948182243e-01,1.689883441329751577e+02
-4.903015146423654436e+00,-3.902170019054057803e+00,2.864253307274322591e-01,9.497874378621539160e-01,-2.078098770063785058e-02,-3.122018152213338338e-01,1.713957818958127746e+02
-5.019685187925168712e+00,-3.226720751693873623e+00,5.102530993732141695e-01,6.426236280058713612e-01,1.961598864493572722e-02,-7.659295566280392986e-01,1.733093333169784671e+02
-5.082585521451655097e+00,-2.513366163535753373e+00,6.612460944191924650e-01,7.364161080991286079e-01,-4.016585135364716952e-01,-5.443893406698714355e-01,1.752228847381441597e+02
-5.093465770496204748e+00,-1.836186787450669211e+00,7.310095446017477183e-01,6.849204976862619532e-01,-2.759262258723888528e-01,-6.743490414650217257e-01,1.769943616397087567e+02
-5.058830104906289371e+00,-1.160087332877856481e+00,7.316673278666078195e-01,6.092129358170330633e-01,-1.404399276737233193e-01,-7.804705154889688412e-01,1.787658385412733537e+02
-4.976853467002319675e+00,-5.011834439743273473e-01,6.603422570569040806e-01,5.119696326531730790e-01,1.099999210732055283e-05,-8.590023836513341893e-01,1.805373154428379507e+02
-4.846556919143310438e+00,1.244713977503190544e-01,5.159477351240274734e-01,0.000000000000000000e+00,-9.950635238632306034e-01,9.922995251858007792e-02,1.823087923444025478e+02
-4.668341827480812611e+00,7.009623393338562103e-01,3.009777283293988970e-01,0.000000000000000000e+00,-8.892115660138627531e-01,-4.574940336964649079e-01,1.840802692459671448e+02
-4.459009204248749469e+00,1.186565358461546760e+00,3.957010352451365703e-02,0.000000000000000000e+00,-4.977924468363123522e-01,-8.672950362326234952e-01,1.857479976157101191e+02
-4.211819259853137432e+00,1.605447972107732824e+00,-2.737840543314289388e-01,3.032566099331343579e-01,-6.821402158969659402e-01,-6.653706894556894458e-01,1.874157259854530935e+02
-3.955390242459317474e+00,1.922419858895172862e+00,-6.007792085163803364e-01,5.559538578516824980e-01,-7.527599114535294955e-01,-3.525135793773969128e-01,1.889390883555622622e+02
-3.672264507462292826e+00,2.174123067159731804e+00,-9.595512239464546456e-01,7.159609931182473463e-01,-6.978770862250416318e-01,1.911619342960860224e-02,1.904624507256714310e+02
-3.363633230082061054e+00,2.363037720500795302e+00,-1.339974005832129889e+00,7.566006451068759686e-01,-5.266416921108485472e-01,3.875590173776391478e-01,1.919858130957805997e+02
-2.952400490831602387e+00,2.509528579185897001e+00,-1.818315205032664528e+00,6.710972395287733150e-01,-2.676029390031045008e-01,6.913864058045594563e-01,1.938525587422797400e+02
-2.514561227186884906e+00,2.566212726905874764e+00,-2.291074503732124512e+00,4.737066590285227141e-01,3.605097405070491201e-02,8.799433666215495942e-01,1.957193043887788804e+02
-1.865965147656702960e+00,2.493745506565367087e+00,-2.897043037750918870e+00,4.185242220736978269e-01,3.376032036438197242e-02,9.075768376864237208e-01,1.984406693608128194e+02
-1.515522241520201652e+00,2.391148741355006102e+00,-3.175320764700455101e+00,3.617455563874195645e-01,3.134090634630536110e-02,9.317488395602357976e-01,1.999363587990146698e+02
-8.841859560320128875e-01,2.122536416764593703e+00,-3.590408802918105380e+00,3.035872109297504950e-01,2.880195945374101202e-02,9.523671836482331399e-01,2.029129500469389313e+02
-4.333655632836307392e-01,1.850121933369661464e+00,-3.799045901774152689e+00,2.442709962289007497e-01,2.615316300315888992e-02,9.693532341024131416e-01,2.055053673847398272e+02
-1.833308720544019887e-01,1.674303025196094863e+00,-3.883187097274614974e+00,1.840231385680196619e-01,2.340461924526931331e-02,9.826422076564933494e-01,2.072214651416229287e+02
3.503993979029076944e-02,1.512587569370600127e+00,-3.939425155976843396e+00,1.230734173425587219e-01,2.056681084333342527e-02,9.921834206605641970e-01,2.089375628985060303e+02
2.226711956008603777e-01,1.372261237541734680e+00,-3.970447001399347808e+00,6.165428887181820944e-02,1.765056090136933598e-02,9.979404823744408848e-01,2.106536606553891318e+02
3.853625166117569667e-01,1.257852649976435533e+00,-3.978116596034204644e+00,0.000000000000000000e+00,1.466699169439773104e-02,9.998914337829643006e-01,2.124193393247330448e+02
5.196866163783679937e-01,1.180723308207584754e+00,-3.962974535549358190e+00,-1.696981424798724991e-01,1.871028940088629439e-02,9.853174440297740588e-01,2.141850179940769578e+02
6.178279220852228582e-01,1.145366664396980427e+00,-3.933269870932015078e+00,-3.344705610515998351e-01,2.221049684713877898e-02,9.421433742375264764e-01,2.157256422970113476e+02
7.024122144957052338e-01,1.139968295392805198e+00,-3.890007178990246839e+00,-4.895345428882862948e-01,2.506601651927608740e-02,8.716224102987835121e-01,2.172662665999457374e+02
7.758537638101155043e-01,1.166002410844610981e+00,-3.833596258886264430e+00,-6.303891737194621259e-01,2.719396361502931028e-02,7.758015068303060202e-01,2.188068909028801272e+02
8.401232492023990028e-01,1.223236748580376121e+00,-3.763945030280979598e+00,-7.529459778102279843e-01,2.853257178957275750e-02,6.574619736884407262e-01,2.203475152058145170e+02
9.277636400382639481e-01,1.413736169358914330e+00,-3.600406736793333007e+00,-8.536475879972036385e-01,2.904298598275024609e-02,5.200387490095188525e-01,2.229568572653024887e+02
9.717402193947700662e-01,1.588789298227505142e+00,-3.468567740917544828e+00,-7.529459778102280954e-01,2.853257178957275750e-02,6.574619736884406151e-01,2.245814899898486487e+02
1.013152638384464455e+00,1.790444130539224910e+00,-3.318837626411654806e+00,-6.303891737194622369e-01,2.719396361502931028e-02,7.758015068303059092e-01,2.262061227143948088e+02
1.053823047143143121e+00,2.014656981327263452e+00,-3.150287328382414653e+00,-4.895345428882862948e-01,2.506601651927608740e-02,8.716224102987835121e-01,2.278307554389409688e+02
1.107390913266383503e+00,2.335462919828674710e+00,-2.897043729888697072e+00,-3.344705610515999461e-01,2.221049684713878244e-02,9.421433742375264764e-01,2.299361849680944658e+02
1.163771193840429152e+00,2.684113257817226206e+00,-2.600625065447234707e+00,-1.696981424798726379e-01,1.871028940088629786e-02,9.853174440297740588e-01,2.320416144972479628e+02
1.218006248838359840e+00,3.010058841651533701e+00,-2.304461984463203716e+00,-0.000000000000000000e+00,1.466699169441148046e-02,9.998914337839015509e-01,2.339228117885992333e+02
1.276458860091812308e+00,3.343805295058141613e+00,-1.984484967870268513e+00,-1.573271808898325796e-01,1.760393644385371825e-02,9.873886061602373809e-01,2.358040090799505037e+02
1.338486843353926758e+00,3.682296713743484329e+00,-1.643891558012270160e+00,-3.107342328540090293e-01,2.010224626363981207e-02,9.502831873858014200e-01,2.376852063713017742e+02
1.396284026843057191e+00,3.988417482062042385e+00,-1.323305033256486185e+00,-4.563987454768773100e-01,2.209967154249654203e-02,8.894997412283839333e-01,2.393772263515389511e+02
1.453837378757487198e+00,4.294335311942051980e+00,-9.925470571260112118e-01,-5.906912334801120990e-01,2.354644316068473658e-02,8.065528077595885970e-01,2.410692463317761280e+02
1.506768869818108536e+00,4.599272637235441330e+00,-6.543720975689003572e-01,-7.102655690117569698e-01,2.440651249080471805e-02,7.035091638530140967e-01,2.427612663120133050e+02
1.552690288398991036e+00,4.941906484338115746e+00,-2.670213736742105270e-01,-8.121423530034105331e-01,2.465844953948126070e-02,5.829363252750027202e-01,2.446723705017103612e+02
1.574893860825811176e+00,5.282495569289078041e+00,1.214526229933047818e-01,-8.937831490311932692e-01,2.429597686785830990e-02,4.478385736139610107e-01,2.465834746914074174e+02
1.571896576789884259e+00,5.565484331266688400e+00,4.420046755603977973e-01,-9.992381889608760170e-01,2.879460558340731641e-02,-2.630422803150167868e-02,2.481763902549058116e+02
1.548138702768814712e+00,5.848655819762018204e+00,7.556728045747095335e-01,-8.689200736150791693e-01,2.649906360709308045e-02,-4.942405338469705867e-01,2.497693058184042059e+02
1.501828138276184443e+00,6.132780980141858684e+00,1.058874704868397965e+00,-5.335776174016564344e-01,1.795098712836199276e-02,-8.455593936971625979e-01,2.513622213819026001e+02
1.424244610098778674e+00,6.441882960532239188e+00,1.370666536807275238e+00,-3.979851018696269338e-01,1.919455031296418007e-02,-9.171899628367370383e-01,2.530850393346039482e+02
1.318103776403377392e+00,6.753486016852977336e+00,1.661599909189227731e+00,-2.530328538769867630e-01,1.998669860941480053e-02,-9.672501779467786998e-01,2.548078572873052963e+02
1.202934806880328056e+00,7.035278138206263243e+00,1.903657207029264775e+00,-1.021298378620866254e-01,2.030880263677199704e-02,-9.945627424925765903e-01,2.563537788340681800e+02
1.074366291388076489e+00,7.318587247844302368e+00,2.127581199064122242e+00,5.117503778723775376e-02,2.015328738340082387e-02,-9.984853331500733731e-01,2.578997003808310637e+02
9.369343401120265868e-01,7.602683941428184156e+00,2.332761551224559859e+00,2.032763815531455354e-01,1.952381031563241512e-02,-9.789257037866158084e-01,2.594456219275939475e+02
7.961275976378153763e-01,7.886788398163447233e+00,2.518897103045475205e+00,3.505971072416806944e-01,1.843517534557068474e-02,-9.363438538829581548e-01,2.609915434743568312e+02
6.098244994343732239e-01,8.271438677126402794e+00,2.735852737502040721e+00,4.896725565857655282e-01,1.691298468474890931e-02,-8.717412106103223923e-01,2.630983951370834575e+02
4.797643600199197889e-01,8.555343640175978592e+00,2.870756980719564755e+00,4.819185392894427267e-01,1.678396616534519672e-02,-8.760541192743348526e-01,2.646719166653975890e+02
3.603167163458850242e-01,8.835174919042218633e+00,2.987350057550528071e+00,4.741265793927953998e-01,1.665362611414406696e-02,-8.802980423581512337e-01,2.662454381937117205e+02
1.929426760267183294e-01,9.309095125567976581e+00,3.137050074238316721e+00,4.662972870224132982e-01,1.652197473758049845e-02,-8.844726476241844271e-01,2.690423153242666103e+02
1.075124640619627842e-01,9.645822387209285864e+00,3.205591096849751409e+00,5.764668524388277815e-01,-1.540163585026420034e-01,-8.024730084895137505e-01,2.711813290364380578e+02
5.622674158640031394e-02,9.958660046566274460e+00,3.250478264659324878e+00,6.589979080968586533e-01,-3.171704631826980925e-01,-6.819990134959230677e-01,2.733203427486095052e+02
4.191697426275548671e-02,1.021951836649455281e+01,3.280791246034612030e+00,7.099335127013618463e-01,-4.651179875029376465e-01,-5.288266873419998904e-01,2.752575089428830779e+02
5.570266419330981850e-02,1.042963185214825117e+01,3.310377138436916056e+00,7.268315228414715667e-01,-5.907656121675500804e-01,-3.502997700312692197e-01,2.769460215713796742e+02
6.072231863488149889e-02,1.046763713441407972e+01,3.316857427545018666e+00,9.796526068681459254e-01,-0.000000000000000000e+00,2.006957145972041445e-01,2.772638023249403432e+02
1.168469320359971919e-01,1.070095199634243066e+01,3.382484271138489706e+00,3.588155418937448160e-01,-5.920762440856113251e-01,-7.215920787304161976e-01,2.793519319047393878e+02
1.478804768058404606e-01,1.078277738066109492e+01,3.417831107137153435e+00,9.796526068684218158e-01,-0.000000000000000000e+00,2.006957145972606549e-01,2.801474229694475184e+02
1.680925359704227573e-01,1.083284860564890018e+01,3.441315253867838209e+00,9.223591168391570561e-01,-3.400020964645964483e-01,-1.834400010473672127e-01,2.806420738369828314e+02
2.433353251951970997e-01,1.099611055773170953e+01,3.544015068700233417e+00,6.193076395105077125e-01,-5.894125266498579929e-01,-5.186992587931910093e-01,2.823526598806212746e+02
3.204852688859582410e-01,1.114131079828455384e+01,3.688599880693692601e+00,1.512446366488261473e-01,-6.817768990048281852e-01,-7.157536726199821286e-01,2.840632459242597179e+02
3.940438544500645679e-01,1.128312026640281474e+01,3.910617179158756063e+00,-3.571165318403673461e-01,-5.924852232852870770e-01,-7.220990533688657065e-01,2.860001234538141830e+02
4.423494481388432487e-01,1.140084163835369147e+01,4.199884516532672585e+00,-2.775948844134388804e-01,-4.836616597546672391e-01,-8.300665509654241436e-01,2.879370009833686481e+02
4.509043757081881987e-01,1.142830916326613355e+01,4.284726042966140014e+00,-1.897944589642378832e-01,-3.604137342227722862e-01,-9.132787107619113609e-01,2.884420932743479966e+02
4.660284586288950259e-01,1.148677196350428886e+01,4.480676203689339054e+00,-9.633373587822338657e-02,-2.264170819153912273e-01,-9.692538967419187523e-01,2.895637433614400038e+02
4.688692385606681445e-01,1.157755591566619557e+01,4.878814163460802433e+00,-0.000000000000000000e+00,-8.566789209259167981e-02,-9.963227450303417942e-01,2.915982218871575924e+02
4.501857482137332500e-01,1.163275040586142417e+01,5.211414788557816813e+00,-0.000000000000000000e+00,3.556399578396049477e-02,-9.993664003784523686e-01,2.931261772873576206e+02
4.192328493464937411e-01,1.167956386441644945e+01,5.560785658900061712e+00,-0.000000000000000000e+00,1.562728659337373205e-01,-9.877129093893260992e-01,2.946541326875576488e+02
3.785578282794449523e-01,1.171877801513412010e+01,5.920560997887374555e+00,-0.000000000000000000e+00,2.746835200673757860e-01,-9.615336519357036149e-01,2.961820880877576769e+02
3.307203684786050868e-01,1.175116286599238258e+01,6.284374961505339030e+00,-0.000000000000000000e+00,3.890545576280208251e-01,-9.212136295074051517e-01,2.977100434879577051e+02
2.634875244006684158e-01,1.178234273343344896e+01,6.738621909819500821e+00,-0.000000000000000000e+00,4.977039852853534230e-01,-8.673458036056508336e-01,2.996424975149617467e+02
1.933285108071868263e-01,1.180318162729403042e+01,7.171891574626775068e+00,-0.000000000000000000e+00,5.990339529285548803e-01,-8.007223758831467642e-01,3.015749515419657882e+02
1.262639821258456085e-01,1.181589247759715278e+01,7.567923862480093966e+00,-0.000000000000000000e+00,6.915542524051941919e-01,-7.223231382015651292e-01,3.035074055689698298e+02
7.292655631914644887e-02,1.182244539493023794e+01,7.881238027129660928e+00,-0.000000000000000000e+00,7.739042334230186171e-01,-6.333010638637051049e-01,3.052431107428334940e+02
2.904978516576797037e-02,1.182624925072704514e+01,8.145720110156227989e+00,-0.000000000000000000e+00,8.448728142837939048e-01,-5.349653518547420328e-01,3.069788159166971582e+02
1.934119694816398977e-02,1.182694850562602795e+01,8.205531410667157743e+00,-0.000000000000000000e+00,9.034162931141684894e-01,-4.287621733976419436e-01,3.074191170015756143e+02
-1.235913467688595953e-02,1.182915590960254093e+01,8.402047257450755424e+00,-0.000000000000000000e+00,9.486736975892317014e-01,-3.162534039392089213e-01,3.090826228308427517e+02
-3.494959482381336524e-02,1.183058538186210917e+01,8.540857757542847040e+00,-0.000000000000000000e+00,9.799794473366705283e-01,-1.990936533354165650e-01,3.107461286601098891e+02
-4.922722721442714805e-02,1.183111286419371311e+01,8.617853068692888030e+00,-0.000000000000000000e+00,9.968731427319725835e-01,-7.900593205829646581e-02,3.125187012298287641e+02
-5.317305448454846123e-02,1.183023046641723752e+01,8.614976802899221298e+00,-0.000000000000000000e+00,-9.968312352681582000e-01,-7.953293898528782102e-02,3.142912737995476391e+02
-4.411901851789649248e-02,1.182735489304560339e+01,8.514548610804459017e+00,-9.968817776734339997e-01,-0.000000000000000000e+00,-7.889690326056408853e-02,3.162045701443610142e+02
-1.906367822743830140e-02,1.182255137787156229e+01,8.306917840142105547e+00,-0.000000000000000000e+00,9.968731427319725835e-01,-7.900593205829646581e-02,3.181178664891743892e+02
-1.738066431319039082e-02,1.182226551303927486e+01,8.293751425885185213e+00,-0.000000000000000000e+00,0.000000000000000000e+00,-9.999989999999968626e-01,3.182140563109689992e+02
2.054909838673767142e-02,1.181643309829881794e+01,8.010580412372517500e+00,9.968779763717972031e-01,-0.000000000000000000e+00,-7.894491893667289484e-02,3.199792790965235554e+02
7.285169770954605384e-02,1.180947907489950133e+01,7.647449286695170656e+00,9.968779756678982640e-01,-0.000000000000000000e+00,-7.894491888092960985e-02,3.217445018820781115e+02
1.462129514708321865e-01,1.180072676502376261e+01,7.167678138078870553e+00,0.000000000000000000e+00,-0.000000000000000000e+00,-9.999989999999968626e-01,3.236579681635880661e+02
2.350689534372352452e-01,1.179071252158669658e+01,6.604932894814368183e+00,-9.796745246597445833e-01,-0.000000000000000000e+00,2.005886979235721734e-01,3.255714344450980207e+02
3.354374264335240885e-01,1.177931060402668173e+01,5.970870626696703987e+00,9.968779763646680170e-01,-0.000000000000000000e+00,-7.894491893610830480e-02,3.274849007266079752e+02
4.296987107722912702e-01,1.176788629290314248e+01,5.365570331357625733e+00,6.008035540476738268e-01,8.946493359377623300e-02,-7.943734103685508030e-01,3.291690459113141287e+02
5.261434374339678532e-01,1.175486652373592023e+01,4.727014830240340082e+00,0.000000000000000000e+00,2.192496970815314972e-02,-9.997586187194160701e-01,3.308531910960202822e+02
6.220574780105531110e-01,1.173994028949842239e+01,4.062444830962961717e+00,-4.288065508223322664e-01,2.173140193538938142e-02,-9.031338151920516033e-01,3.325373362807264357e+02
7.147210226175826353e-01,1.172281028463121721e+01,3.379101245672562648e+00,-7.747626202644705140e-01,1.733906970192034686e-02,-6.320128471039171414e-01,3.342214814654325892e+02
8.062271580145158323e-01,1.170180834589037211e+01,2.640826934329178144e+00,-9.710253513819964155e-01,9.596624498638959763e-03,-2.387795463884475333e-01,3.360098362883581444e+02
8.874595916328044121e-01,1.167748848129051531e+01,1.897782972734144424e+00,-9.796745246597445833e-01,0.000000000000000000e+00,2.005886979235721734e-01,3.377981911112836997e+02
9.559872717334439995e-01,1.164945674481556459e+01,1.158670191818537587e+00,-9.796745239680101358e-01,-0.000000000000000000e+00,2.005886977819393013e-01,3.395865459342092549e+02
1.017493480063789812e+00,1.160750106060936915e+01,2.529828226904208832e-01,-9.546707119062373126e-01,-0.000000000000000000e+00,-2.976605983800955091e-01,3.418331500898481181e+02
1.047021886955712633e+00,1.155693115121560410e+01,-6.079033701939761114e-01,9.546769266717656244e-01,-0.000000000000000000e+00,-2.976406653672871716e-01,3.440797542454869813e+02
1.049797868486910479e+00,1.150685996613235673e+01,-1.306212856634488162e+00,-5.741094903288209705e-01,1.828998376289236397e-03,-8.187752731244372084e-01,3.460221404963771192e+02
1.037181596661723493e+00,1.145179368000085063e+01,-1.955892217866141536e+00,-0.000000000000000000e+00,-9.950635238632307145e-01,9.922995251858010568e-02,3.479645267472672572e+02
1.015996865436237018e+00,1.139478520052734822e+01,-2.532632417759073551e+00,-5.759863546499147668e-01,0.000000000000000000e+00,-8.174580840987117902e-01,3.498381785749494952e+02
9.955619028500204415e-01,1.134408538410990630e+01,-2.990048152735669262e+00,5.764363129605208913e-01,-1.163998612660267209e-03,-8.171400260720130815e-01,3.514450610823338934e+02
9.766843780240973549e-01,1.129321660144224460e+01,-3.415555635689071057e+00,0.000000000000000000e+00,8.080491350123117367e-02,9.967289330373387823e-01,3.530519435897182916e+02
9.613049222636153024e-01,1.124488271474312029e+01,-3.803238780507629091e+00,-4.272875887415377716e-01,2.998997113506280537e-02,9.036171302808664318e-01,3.546314714484562955e+02
9.490716632378599638e-01,1.120064923966156378e+01,-4.161371762134038477e+00,-0.000000000000000000e+00,-5.697617808902167846e-01,-8.218086839620898365e-01,3.562109993071942995e+02
9.393685723503348850e-01,1.116315481181285385e+01,-4.490441085673167798e+00,-0.000000000000000000e+00,9.997078536728067899e-01,-2.412897233221983351e-02,3.577905271659323034e+02
9.316477327439254275e-01,1.113497615696717169e+01,-4.791962519392657605e+00,5.752485914334510841e-01,0.000000000000000000e+00,-8.179774190368891418e-01,3.593760263130449175e+02
9.258481349746321420e-01,1.111894760767040147e+01,-5.065164936895577341e+00,0.000000000000000000e+00,9.997078536730036324e-01,-2.412897233222458665e-02,3.609615254601575316e+02
9.229602500064817416e-01,1.111764586884467754e+01,-5.310219809777707134e+00,4.301035175189094062e-01,3.026596604827510098e-02,9.022709878513602844e-01,3.625427489596182227e+02
9.243478498298063339e-01,1.113343700365956046e+01,-5.528933131702321369e+00,9.997494087566847210e-01,0.000000000000000000e+00,-2.234098678773002375e-02,3.641239724590789137e+02
9.390772569716894225e-01,1.123083601688371758e+01,-5.824587770984194890e+00,8.506807646955935054e-01,5.164672500191656024e-01,9.798885770682407015e-02,3.668740225112421740e+02
9.428754680271465016e-01,1.125594668712431634e+01,-5.862627727132960764e+00,5.179124917781990911e-01,7.186022948435146773e-01,4.640855445979871208e-01,3.673254196823474444e+02
9.562441511735912947e-01,1.136130444179200083e+01,-5.988067852497554355e+00,0.000000000000000000e+00,9.993857527526464057e-01,3.501595629959831923e-02,3.689782095755043656e+02
9.659448237228688283e-01,1.149157795025289985e+01,-6.087302110060625715e+00,7.294162694263894853e-01,5.001404990659442662e-01,4.667005325589688725e-01,3.706309994686612868e+02
9.673276721712593673e-01,1.164650349585367195e+01,-6.159562430257065735e+00,-5.024135394088605766e-01,7.294793312447017675e-01,4.641535744839520583e-01,3.722837893618182079e+02
9.311393929922037183e-01,1.197129976406708529e+01,-6.194200624780713760e+00,1.270998420255520451e-03,1.158168560493576804e-01,9.932687654501972663e-01,3.749852023376957391e+02
9.199935367554031851e-01,1.203449929550794018e+01,-6.189477543859857711e+00,-9.999989999999999712e-01,0.000000000000000000e+00,0.000000000000000000e+00,3.754370040723335933e+02
8.147939164131968726e-01,1.245635705051225273e+01,-6.101914174461095186e+00,1.182598423660810305e-01,0.000000000000000000e+00,9.929816764095908965e-01,3.781144303587176410e+02
6.719802200490989641e-01,1.289468789577255947e+01,-5.940214254471659849e+00,-9.994701503669238818e-01,0.000000000000000000e+00,3.251797235700848443e-02,3.804547655798012897e+02
4.962039708194989074e-01,1.348269021385075384e+01,-5.669327006295207916e+00,-0.000000000000000000e+00,1.173078338873076720e-01,9.930945937374238142e-01,3.831657672742510385e+02
4.011057965202152187e-01,1.389049148784287269e+01,-5.464628307247126671e+00,9.994709311547940178e-01,0.000000000000000000e+00,3.249396525059618929e-02,3.848621306390451764e+02
3.288479174121125004e-01,1.429560599822274547e+01,-5.258315800787236149e+00,-9.359985444648430625e-04,-1.157798199552772661e-01,9.932734553988430415e-01,3.864687383325978089e+02
2.765841642870953132e-01,1.471659102827362986e+01,-5.044065751865167258e+00,-5.517134353491486287e-01,-8.267481538649975592e-01,1.099898874309023500e-01,3.880753460261504415e+02
2.457855255100989678e-01,1.513306868087487267e+01,-4.834297718408093303e+00,-0.000000000000000000e+00,-9.993865585865699952e-01,3.499294952973203837e-02,3.896170804303950490e+02
2.326542151107405809e-01,1.555908508209943797e+01,-4.623281994289909491e+00,5.227064052945151751e-01,-8.494460335488333014e-01,-7.223191781865063998e-02,3.911588148346396565e+02
2.351920160142209892e-01,1.599198076164144133e+01,-4.413247378132322929e+00,4.972318021901271368e-01,-7.998824635057171228e-01,3.360752586371739126e-01,3.927005492388842640e+02
2.588530480868827532e-01,1.654211863041255981e+01,-4.153809828589945852e+00,3.873170104676984526e-01,-6.144823972907440535e-01,6.873099132295353852e-01,3.946400530238337865e+02
3.018276635727607515e-01,1.709270281739964759e+01,-3.903258172218218913e+00,2.116278610811115346e-01,-3.247306420548434214e-01,9.218251778545073494e-01,3.965795568087833090e+02
3.574592571030525412e-01,1.763626205718496109e+01,-3.665152849247128142e+00,0.000000000000000000e+00,2.016697227948958254e-02,9.997956257309886796e-01,3.985190605937328314e+02
4.140875481233362576e-01,1.812484355872478048e+01,-3.459339840946923150e+00,-0.000000000000000000e+00,2.016697226524963651e-02,9.997956250250304988e-01,4.003049848893569447e+02
4.713165070552329805e-01,1.859670266034035535e+01,-3.268209965545319395e+00,7.342455860439258686e-01,2.131448798322804206e-01,6.445546366102676838e-01,4.020909091849810579e+02
5.266666111710645026e-01,1.904624605534144166e+01,-3.093205113208740809e+00,6.355972790727207888e-01,2.092487626592402228e-01,7.431211571135819538e-01,4.038768334806051712e+02
5.717642357922616547e-01,1.941192941081722623e+01,-2.955629728794791244e+00,0.000000000000000000e+00,1.705397561329390771e-02,9.998535702374796719e-01,4.054108889543014698e+02
6.137927400687549495e-01,1.975675703762944835e+01,-2.829532256265393286e+00,-0.000000000000000000e+00,1.678912439550576952e-02,9.998580521495251672e-01,4.069449444279977683e+02
6.522355626375677673e-01,2.007775628701617876e+01,-2.715369488379791196e+00,-0.000000000000000000e+00,1.652427199267321803e-02,9.998624643325838557e-01,4.084789999016940669e+02
6.875749583195892578e-01,2.037217863818904107e+01,-2.613347742003389040e+00,-0.000000000000000000e+00,1.625941839447164403e-02,9.998668063594333688e-01,4.100130553753903655e+02
7.207714647900114180e-01,2.063738382617502864e+01,-2.523548055754241126e+00,-0.000000000000000000e+00,1.599456359786360568e-02,9.998710782300859190e-01,4.115471108490866641e+02
7.664698668628882050e-01,2.094870829564256454e+01,-2.420963489094779764e+00,-0.000000000000000000e+00,1.572970759981139055e-02,9.998752799445366213e-01,4.137753540583346989e+02
8.120925114158180635e-01,2.115166004278547973e+01,-2.353632099637092967e+00,-0.000000000000000000e+00,1.546485039727701731e-02,9.998794115027618279e-01,4.160035972675827338e+02
8.507659325081211588e-01,2.123826939932908431e+01,-2.317413696586113847e+00,-0.000000000000000000e+00,1.519999198722226698e-02,9.998834729047203496e-01,4.177925781126367610e+02
8.959374894930246525e-01,2.125885516994227942e+01,-2.285375614283461587e+00,8.370268619317425829e-01,-1.940497361591901893e-01,5.115943044079408475e-01,4.197100005893018988e+02
9.497269609656455724e-01,2.120019429556420931e+01,-2.253945065753845345e+00,4.595995113956203304e-01,-5.348094314392770610e-01,-7.090452462076132223e-01,4.216274230659670366e+02
1.016878983564680761e+00,2.106142046576522375e+01,-2.217393410867673165e+00,6.991536932632081980e-01,-5.387427636396280306e-01,-4.700407937809575332e-01,4.235448455426321743e+02
1.087423303978623412e+00,2.087593307512252849e+01,-2.176752573844283667e+00,-8.217572942071289521e-01,1.566598654475999386e-02,5.696205107629729314e-01,4.252399311707904985e+02
1.167085513570904620e+00,2.063593301376743483e+01,-2.124741547488989024e+00,-0.000000000000000000e+00,-2.786296520869436383e-02,9.996107518283526838e-01,4.269350167989488227e+02
1.263836377391354349e+00,2.030943128313689883e+01,-2.049764018281310829e+00,-4.199765354728122735e-01,-5.494543922600859664e-01,-7.223002010789824068e-01,4.287874910091637730e+02
1.360931262482486526e+00,1.994546821721089458e+01,-1.959229707942034437e+00,-6.126739675135529639e-01,-5.184397622560966701e-01,-5.965306550748368242e-01,4.305164043920318591e+02
1.460492439411091858e+00,1.952892059124893009e+01,-1.846704955721971020e+00,-7.723407558710115861e-01,-4.594748473679819978e-01,-4.386007540550652672e-01,4.322453177748999451e+02
1.544722280403236780e+00,1.913369316514366147e+01,-1.732106239041384166e+00,-8.903688740450957928e-01,-3.757385829856568771e-01,-2.570248730931491976e-01,4.337302406261237024e+02
1.580470708835498117e+00,1.895353435154212107e+01,-1.678027761812308505e+00,-9.603951479999112140e-01,-2.717453951402715728e-01,-6.159220664479968244e-02,4.343771228829025404e+02
1.661871296549507493e+00,1.849580194711686687e+01,-1.535541308942114380e+00,-9.786443148380656876e-01,-1.531018105199025703e-01,1.371610026645891378e-01,4.359482980328901931e+02
1.736154269549688989e+00,1.800456954797140341e+01,-1.375447401723945084e+00,-9.441325503730940705e-01,-2.620418689781719643e-02,3.285195091871164208e-01,4.375194731828778458e+02
1.803565507312856253e+00,1.752940308674689263e+01,-1.217370316638115568e+00,-8.587204954801145318e-01,1.021061357464871505e-01,5.021667528690362259e-01,4.389529461146747735e+02
1.895958239588527494e+00,1.691275699937785859e+01,-1.013317676624086783e+00,-7.270129289260709449e-01,2.249116686482247607e-01,6.487410442403546140e-01,4.407046881510376579e+02
2.006682520824138116e+00,1.625423674826058118e+01,-8.022194372665201190e-01,-8.740811315928112002e-01,-2.846837599731120300e-02,4.849430141401512850e-01,4.424564301874005423e+02
2.141469260457723234e+00,1.555516561538340525e+01,-5.909983327387569041e-01,-9.226748959561067442e-01,-2.786412042015056767e-01,2.665110048291648437e-01,4.442081722237634267e+02
2.304566339375180739e+00,1.481707488254878413e+01,-3.857225157318933118e-01,-8.673195456302688067e-01,-4.974222275864435550e-01,1.805362212331993593e-02,4.459599142601263111e+02
2.602004426575196927e+00,1.368734042487239222e+01,-1.178498601201005136e-01,-7.142513392296423458e-01,-6.601633892676501691e-01,-2.324377849664538698e-01,4.484558067237550745e+02
2.820430170249131674e+00,1.295199461257172224e+01,3.006153590342184809e-02,-7.496572358997273255e-01,-6.081377536073138135e-01,-2.611139622859813825e-01,4.499873625635356689e+02
3.055715420864115295e+00,1.219616011753227092e+01,1.677837382526865539e-01,-7.814778363788527082e-01,-5.532036574633877324e-01,-2.885413395302141026e-01,4.515189184033162633e+02
3.305566555109588300e+00,1.142213927553001263e+01,2.953510002334659434e-01,-8.095609579465409267e-01,-4.956238264736356203e-01,-3.145887442368088815e-01,4.530504742430968577e+02
3.567729860646498441e+00,1.063224479263269373e+01,4.127976412006107987e-01,-8.337722923212282922e-01,-4.356736392526155410e-01,-3.391316036850419158e-01,4.545820300828774521e+02
3.839991558344328482e+00,9.828799570340283509e+00,5.201580463334780635e-01,-8.539960479253608794e-01,-3.736398104586762803e-01,-3.620525406187097839e-01,4.561135859226580465e+02
4.120177824174608538e+00,9.014136530638905853e+00,6.174666664110374237e-01,-8.701355036130015153e-01,-3.098190196626607329e-01,-3.832419345629738960e-01,4.576451417624386409e+02
4.406154810760790852e+00,8.190598440969557359e+00,7.047580175866569041e-01,-8.821134712137953526e-01,-2.445164925709897852e-01,-4.025984460526608189e-01,4.591766976022192353e+02
4.695828668584375087e+00,7.360537739112966271e+00,7.820666811625700543e-01,-8.898726646825755315e-01,-1.780445413834161050e-01,-4.200295012666306893e-01,4.607082534419998296e+02
4.987145566847162925e+00,6.526316357991939654e+00,8.494273033640253878e-01,-8.933759740895387269e-01,-1.107210712608604486e-01,-4.354517347517267156e-01,4.622398092817804240e+02
5.278091713989546463e+00,5.690305550392528389e+00,9.068745951131190752e-01,-8.926066431399849455e-01,-4.286806004074977111e-02,-4.487913881197362342e-01,4.637713651215610184e+02
5.566693377864694980e+00,4.854885713605352926e+00,9.544433318023117785e-01,-8.875683493729790152e-01,2.518998153462473008e-02,-4.599846628108120727e-01,4.653029209613416128e+02
5.851016905568556581e+00,4.022446213988429164e+00,9.921683530676321805e-01,-9.337900412271272765e-01,1.644756568056000290e-01,-3.177765208807269981e-01,4.668344768011222072e+02
6.129168742925537039e+00,3.195385211452852481e+00,1.020084562561565544e+00,-9.410164957702131794e-01,2.968927379407667599e-01,-1.622980494224084136e-01,4.683660326409028016e+02
6.414217340505659948e+00,2.329987142067947214e+00,1.038657612208507608e+00,-9.089459700185786861e-01,4.169115275724389891e-01,-4.199995240732441536e-05,4.699849865328579313e+02
6.687767342494812084e+00,1.476860577912251671e+00,1.046123003868428158e+00,-9.387032294025746681e-01,2.987077819359678643e-01,-1.720694863131673746e-01,4.716039404248130609e+02
6.947777841637906349e+00,6.390235789698258673e-01,1.043702826101934988e+00,-9.267340335826361741e-01,1.672261144274354017e-01,-3.364482986327326786e-01,4.732228943167681905e+02
7.192317026203284058e+00,-1.804985799060127016e-01,1.033011993480726920e+00,-8.735703862515963314e-01,2.831098010942321302e-02,-4.858716586388920899e-01,4.748418482087233201e+02
7.419505952999577936e+00,-9.786713071492755267e-01,1.015665480672376164e+00,-9.022628053540081572e-01,2.695779594396019788e-02,-4.303406874937485971e-01,4.764608021006784497e+02
7.627518569058555187e+00,-1.752450939136351415e+00,9.932783107031225578e-01,-9.274284728495943986e-01,2.549923977356281790e-02,-3.731276142541238849e-01,4.780797559926335794e+02
7.814581732810836456e+00,-2.498784984930057185e+00,9.674655432204003480e-01,-9.489690229126817034e-01,2.394101279615175673e-02,-3.144560723832069971e-01,4.796987098845887090e+02
7.978975234754375201e+00,-3.214612371110598943e+00,9.398422627551660247e-01,-9.668002594678726247e-01,2.228920579255607229e-02,-2.545553959324032278e-01,4.813176637765438386e+02
8.119031817615550040e+00,-3.896863686691355522e+00,9.120235669840914827e-01,-9.808524852486745216e-01,2.055027531876940650e-02,-1.936597231388221818e-01,4.829366176684989682e+02
8.233137196002770608e+00,-4.542461428117395172e+00,8.856245549916850202e-01,-9.910707741865859566e-01,1.873101846877575638e-02,-1.320070812523608250e-01,4.845555715604540978e+02
8.319730075552453030e+00,-5.148320244344623653e+00,8.622603155324065627e-01,-9.974151860678190928e-01,1.683854630660012661e-02,-6.983845616899736486e-02,4.861745254524092275e+02
8.377302171567272637e+00,-5.711347181997484590e+00,8.435459152928372895e-01,-9.998609226199246525e-01,1.488025607141717742e-02,-7.396850505820220731e-03,4.877934793443643571e+02
8.404456671496419062e+00,-6.216908015282667677e+00,8.312252835929783146e-01,-9.983984244193028212e-01,1.286380226433649077e-02,5.507366620173095167e-02,4.893727520113143896e+02
8.402671646620003543e+00,-6.677473849698547070e+00,8.261610423827595584e-01,-9.930334082416365504e-01,1.079706672984467354e-02,1.173289114693224916e-01,4.909520246782644222e+02
8.393712621750907488e+00,-6.877469156376534443e+00,8.261061317516691371e-01,-9.837868447097923852e-01,8.688127848805753464e-03,1.791255442726366331e-01,4.916820883707489998e+02
8.339881923383625661e+00,-7.368203000186707818e+00,8.372941404507688867e-01,-9.706948763267810865e-01,6.545228963387380444e-03,2.402220161668389142e-01,4.936592775981091563e+02
8.236853123770295326e+00,-7.771472093815706472e+00,8.707896843939613163e-01,-9.538086762140802755e-01,4.376746157277349933e-03,3.003795154005804990e-01,4.956364668254693129e+02
8.113620534238101811e+00,-8.056529034448837834e+00,9.192413156063057311e-01,-9.331942481070715223e-01,2.191155517071977001e-03,3.593629003358486118e-01,4.973401002483557249e+02
7.963517108086440643e+00,-8.292568348772894282e+00,9.867165986799216748e-01,-9.089321683886583125e-01,-2.999997255205801866e-06,4.169416185266724417e-01,4.990437336712421370e+02
7.773788126416810051e+00,-8.497609810111855566e+00,1.083784571704597743e+00,-9.089459700185428259e-01,4.169115275724225023e-01,-4.199995240732275518e-05,5.008965341539060887e+02
7.564071531661808123e+00,-8.654787957906684426e+00,1.206323808375792117e+00,-2.327097549703568691e-01,-7.626911969311650497e-01,-6.034453646076316513e-01,5.027493346365700404e+02
7.344726812441791708e+00,-8.773124459929615426e+00,1.353711085787528523e+00,-2.327328258592508969e-01,7.626824293280757283e-01,6.034475484744888929e-01,5.046021351192339921e+02
7.125039523184033108e+00,-8.861805729981584889e+00,1.524593019243950076e+00,-0.000000000000000000e+00,-6.060633378291390150e-01,7.954151309477257570e-01,5.064549356018979438e+02
6.882934975816055179e+00,-8.938268840773263335e+00,1.747906264256147590e+00,-0.000000000000000000e+00,8.460544322755209068e-01,5.330946422796613016e-01,5.085831919509165573e+02
6.662270380159837302e+00,-9.001014150625785248e+00,1.996396460392313221e+00,-0.000000000000000000e+00,5.332983833111852867e-01,8.459260217988052721e-01,5.107114482999352276e+02
6.528502478736047721e+00,-9.041910650932864613e+00,2.172163269086342385e+00,-0.000000000000000000e+00,-7.954242215442772768e-01,-6.060514068772697716e-01,5.121325121927999362e+02
6.294077918877045263e+00,-9.141242653077719993e+00,2.539172115437681398e+00,3.099996898508437646e-05,-9.999989995188509617e-01,-0.000000000000000000e+00,5.149820309329513748e+02
6.158296328249874385e+00,-9.223046609123906947e+00,2.783972591889243731e+00,2.955221501515262230e-05,-9.474735656008080875e-01,-3.198309578739903514e-01,5.168399083536106673e+02
6.019374476438380306e+00,-9.320152900622817427e+00,3.024476367551030442e+00,2.499997267777621953e-05,-7.954151306986418923e-01,-6.060633376393507188e-01,5.186977857742699598e+02
5.798708342739478994e+00,-9.482588409421545350e+00,3.323579377440714300e+00,-5.163343074808737221e-01,-6.993530620120251839e-01,-4.942693370749057236e-01,5.211701687080599186e+02
5.619682658094787620e+00,-9.609144043453346384e+00,3.502667048749071199e+00,-3.003621846571702947e-01,-3.930341874289750570e-01,-8.690826689916066883e-01,5.227942044743847418e+02
5.408200709043923027e+00,-9.746177969197489688e+00,3.666599039492342893e+00,-0.000000000000000000e+00,2.371197228180407096e-02,-9.997178313762181689e-01,5.244182402407095651e+02
4.911225119353336055e+00,-1.000853419291592239e+01,3.880398335021715273e+00,-0.000000000000000000e+00,-2.291096583278904447e-02,-9.997365090891210393e-01,5.271845382986685991e+02
4.558405542918984921e+00,-1.016749335710644431e+01,3.960780960999719547e+00,5.529576574120729227e-01,8.093914985370906923e-01,-1.977908774575850848e-01,5.287163247841320981e+02
4.167757367820016157e+00,-1.033070670580297801e+01,4.021368421515596481e+00,-1.008703693321986450e-01,6.781906674574564864e-01,-7.279289712362653209e-01,5.302481112695955972e+02
3.636085076008421346e+00,-1.053518933232974852e+01,4.064701842043684898e+00,-6.814910863542317232e-01,5.479192654282231262e-02,-7.297710216274004846e-01,5.321191770996987316e+02
3.045908846426760519e+00,-1.074482855781069723e+01,4.071866019492773603e+00,1.016999272028909322e-02,-9.999472842347725265e-01,-0.000000000000000000e+00,5.339902429298018660e+02
2.535845901550314974e+00,-1.091701394304795869e+01,4.054280812523040289e+00,-6.427181838549422821e-01,1.973997493351925189e-02,-7.658470275018162132e-01,5.355018928250600538e+02
2.005908976203145233e+00,-1.109120480039362278e+01,4.019176540325152480e+00,2.883107282157971740e-01,-5.998124345699676896e-01,-7.463912963932881617e-01,5.370135427203182417e+02
1.462303115112911334e+00,-1.126760491398540687e+01,3.967499836610241637e+00,1.544824964555317481e-01,-3.170762201321680185e-01,-9.357327764465540598e-01,5.385251926155764295e+02
9.112823327989522104e-01,-1.144634766094196010e+01,3.900084605312953645e+00,0.000000000000000000e+00,8.052988517099525165e-03,-9.999665741297627530e-01,5.400368425108346173e+02
3.592052250029196814e-01,-1.162739780775649123e+01,3.817539180563505941e+00,-0.000000000000000000e+00,8.052988511417207701e-03,-9.999665734241701687e-01,5.415484924060928051e+02
-3.866218149781761593e-01,-1.188178159448729332e+01,3.674950025472574655e+00,-0.000000000000000000e+00,3.025597525984255465e-02,-9.995411826802467203e-01,5.436302904821046695e+02
-1.094921876606397504e+00,-1.214308210579343950e+01,3.495927822269287333e+00,-4.525265025555691989e-01,-5.793823631079545455e-01,-6.778892548232365867e-01,5.457120885581165339e+02
-1.611905068998387369e+00,-1.235070747985241368e+01,3.334326379814409158e+00,9.303518499620128113e-01,-2.382997054300331572e-03,3.666575467627574691e-01,5.473354630452903393e+02
-2.092581242164953448e+00,-1.256034652924385142e+01,3.156584319445552289e+00,6.827382631618490461e-01,2.016997823176132701e-02,-7.303832117415351988e-01,5.489588375324641447e+02
-2.530138834782038604e+00,-1.277118874224491485e+01,2.964497535587616195e+00,7.525789214834661678e-01,9.257286733435504678e-02,-6.519610656783380032e-01,5.505822120196379501e+02
-2.971170312112301648e+00,-1.301581868630864491e+01,2.730000772928554476e+00,7.590762284761034540e-01,2.112597852758832384e-02,-6.506573386728942143e-01,5.524631527302445875e+02
-3.331148130249249384e+00,-1.325874456846986504e+01,2.491591973295761875e+00,9.311514953130702876e-01,0.000000000000000000e+00,3.646298023695431212e-01,5.543440934408512248e+02
-3.606107377236325462e+00,-1.349635471504528894e+01,2.259324078029584904e+00,9.170449347915252680e-01,-5.074390688729758792e-03,3.987490916819495523e-01,5.562250341514578622e+02
-3.810965755592127913e+00,-1.382604665044948433e+01,1.953285592869235421e+00,9.016647224223868218e-01,-1.014173139958746833e-02,4.323145540092823147e-01,5.590551264604648622e+02
-3.823259309317552646e+00,-1.398569984144179301e+01,1.815753265709086239e+00,8.850322134134990248e-01,-1.519498649521330846e-02,4.652795864753437316e-01,5.605690565880156555e+02
-3.796452875622402523e+00,-1.413436874353856787e+01,1.693975733103998405e+00,7.197785437595819458e-01,2.487374870279599748e-01,6.481099524701033898e-01,5.620829867155664488e+02
-3.730245831161090653e+00,-1.427484864599967906e+01,1.586221863588596293e+00,4.606684729584154536e-01,4.802354505722278288e-01,7.464291460253459354e-01,5.636601389276372629e+02
-3.629038156227922141e+00,-1.439779593962347803e+01,1.500045451468365210e+00,2.463149771822679690e-01,7.380930812200718893e-01,6.281285978771595779e-01,5.652372911397080770e+02
-3.498286127898322828e+00,-1.450061538571516806e+01,1.437009469515460047e+00,8.189993087924184439e-04,9.026312382099124232e-01,4.304116367472068938e-01,5.668144433517788912e+02
-3.346005879937774541e+00,-1.458235282856482939e+01,1.398913856576108339e+00,-9.467074010464983369e-02,8.616368741685822563e-01,4.986154310091837627e-01,5.683915955638497053e+02
-3.295735428242570375e+00,-1.460438887397003960e+01,1.391508455998080152e+00,-1.886977476526979502e-01,8.073296959766642633e-01,5.591153029782912620e-01,5.688843774080692128e+02
-3.175118663607261027e+00,-1.465271479627761408e+01,1.380834922346829918e+00,-2.798092624684891394e-01,7.405487763739307949e-01,6.109765023691867691e-01,5.700565923803452506e+02
-3.071974035352523114e+00,-1.468888881181308292e+01,1.380472570536762200e+00,-3.665975676743936651e-01,6.623259080301813206e-01,6.533977463431687172e-01,5.710532801478718739e+02
-2.904944377107006925e+00,-1.473672480787185179e+01,1.402046340477903996e+00,-4.477217380014633652e-01,5.738696641820142386e-01,6.857235987271464994e-01,5.726903381209793906e+02
-2.744483151107102614e+00,-1.476819180894097094e+01,1.455259776602830568e+00,-3.603568013578991036e-01,7.520164810397771404e-01,5.519168306546116121e-01,5.743273960940869074e+02
-2.593778761661623022e+00,-1.478356843037890833e+01,1.538079218127966552e+00,-2.523530927130596124e-01,8.870927987195247333e-01,3.865000427666499538e-01,5.759644540671944242e+02
-2.441700830866975647e+00,-1.478046767805222572e+01,1.662031432736934988e+00,-1.298963349579878579e-01,9.713624232131455871e-01,1.989471913212468301e-01,5.777778685337267461e+02
-2.308662195854055632e+00,-1.475479769094664029e+01,1.816479779541942730e+00,-0.000000000000000000e+00,9.999989999997789258e-01,0.000000000000000000e+00,5.795912830002590681e+02
-2.196776076377342957e+00,-1.470648976479247416e+01,1.995860914187882917e+00,-0.000000000000000000e+00,9.536412519470121030e-01,-3.009424572670951203e-01,5.814046974667913901e+02
-2.113280607361593511e+00,-1.464440257412656976e+01,2.174610703417005908e+00,-0.000000000000000000e+00,8.188661085974975329e-01,-5.739828361470650231e-01,5.830492477035696766e+02
-2.046021298366124341e+00,-1.456670916377403380e+01,2.363522779621201053e+00,-0.000000000000000000e+00,6.081693108854697716e-01,-7.938060778918267779e-01,5.846937979403479630e+02
-1.995178480527477705e+00,-1.447387164378705471e+01,2.561124891115090563e+00,-0.000000000000000000e+00,3.410856895400330435e-01,-9.400311443732558558e-01,5.863544063645799724e+02
-1.962233041505074826e+00,-1.436881637092022501e+01,2.763168430233828854e+00,1.744338462882236498e-02,3.537992098843553701e-01,-9.351576591185545295e-01,5.880150147888119818e+02
