-2.515490444838331285e+00,-3.195111797570038270e+00,-2.154833587662686512e+01,6.483569632314599707e-01,-1.287088970149177503e-01,7.503767507426550853e-01,3.984732668583496462e+01
-2.765878463547152943e+00,-3.012462625052973131e+00,-2.033957798066609612e+01,5.868429446276559602e-01,-1.282260293771491366e-01,7.994819846174078259e-01,4.169401875091510590e+01
-3.016036166537519936e+00,-2.821030521901729760e+00,-1.909564760264196437e+01,5.216931323768081441e-01,-1.269487321702255644e-01,8.436339816700106908e-01,4.354071081599524717e+01
-3.274246440028062199e+00,-2.605581899237929377e+00,-1.774408569897594390e+01,4.533111685666765811e-01,-1.248849196037976478e-01,8.825591998872943655e-01,4.548502801563778775e+01
-3.491039443143236998e+00,-2.404658047832760381e+00,-1.653621718557615949e+01,3.821207193225354404e-01,-1.220473787846449581e-01,9.160164808528002967e-01,4.717159914931144726e+01
-3.699162586057434421e+00,-2.189137412207913247e+00,-1.529593356216420297e+01,3.085628497810034010e-01,-1.184536904555566345e-01,9.437985436259661576e-01,4.885817028298509967e+01
-3.705879292920117418e+00,-2.181758473607133375e+00,-1.525440264517403222e+01,2.330932913262253603e-01,-1.141261200363632294e-01,9.657332686940217625e-01,4.891389638844230348e+01
-3.894254785854307510e+00,-1.962956997112526469e+00,-1.404690867902871076e+01,1.561796180265472289e-01,-1.090914796442263579e-01,9.816847640564979605e-01,5.051398453533273170e+01
-4.073859176272116578e+00,-1.730902670741271132e+00,-1.280872683137935653e+01,7.829834976875345298e-02,-1.033809619499088811e-01,9.915542068533550468e-01,5.211407268222315992e+01
-4.334494369558850480e+00,-1.341998758365717137e+00,-1.078660020817746812e+01,-6.799996278743190305e-05,-9.702994690094877972e-02,9.952804553387940567e-01,5.461353278951893486e+01
-4.610536447089029544e+00,-8.614369600532681970e-01,-8.217204913862005355e+00,-4.713995349301162117e-05,-7.593830566958057471e-01,6.506422757411909341e-01,5.755889355606510804e+01
-4.827500081441248092e+00,-4.624291475634521587e-01,-5.820773705072383564e+00,-0.000000000000000000e+00,-9.983890695298428541e-01,-5.672094713769389868e-02,6.010633580849721369e+01
-5.050380808302627145e+00,-9.864223936446492313e-02,-2.897041871982369177e+00,9.360262369457841292e-01,-2.510647953304693814e-01,2.466157989573179721e-01,6.299307464477005425e+01
-5.205527934839032866e+00,8.172846433532399146e-02,-5.646874259856086153e-01,9.948943569134159892e-01,-0.000000000000000000e+00,-1.009119347718569759e-01,6.524293661838004255e+01
-5.342796608622614407e+00,1.598836823739490931e-01,1.591243972472255130e+00,0.000000000000000000e+00,-9.950534475071196594e-01,-9.933094484754567688e-02,6.749279859199003795e+01
-5.463828680071084243e+00,1.495622394922758724e-01,3.580728639804097391e+00,7.364161080998669062e-01,-4.016585135368744286e-01,-5.443893406704171101e-01,6.988417700898770590e+01
-5.531171287400875158e+00,1.092011314868432115e-01,4.787992046039291516e+00,0.000000000000000000e+00,9.999989999993076895e-07,9.999989999993077472e-01,7.152344036060237897e+01
-5.594803144226188074e+00,4.725540168577681277e-02,6.156508919333131047e+00,9.497874378631101511e-01,-2.078098770065877135e-02,-3.122018152216480824e-01,7.359432021803705481e+01
-5.619403868262793367e+00,-1.813472645965615374e-02,7.617587459813498718e+00,3.783536023998572140e-01,-7.581172033179902625e-01,-5.311354418461297078e-01,7.629843917353215943e+01
-5.610938045125081430e+00,-3.387105207034835086e-02,8.089159774993914809e+00,5.119696326534558528e-01,1.099999210732662775e-05,-8.590023836518086986e-01,7.733463552839180011e+01
-5.604596205236367368e+00,-4.088271644491949658e-02,8.334822686614947074e+00,6.426236280030985792e-01,1.961598864485107965e-02,-7.659295566247343867e-01,7.789101077776658144e+01
-5.589388741872674871e+00,-5.078882919114338645e-02,8.776131030353978346e+00,0.000000000000000000e+00,-4.977924468361993871e-01,-8.672950362324267637e-01,7.892104193766662945e+01
-5.553879254649649155e+00,-5.371765169224612668e-02,9.381679391566548176e+00,0.000000000000000000e+00,-9.950635238631385660e-01,9.922995251857090471e-02,8.044738639663522406e+01
-5.500344084554017243e+00,-4.022676564088551593e-02,9.922303058318597380e+00,-3.092060360706027494e-02,-9.982366768656406597e-01,5.065030338261704984e-02,8.197373085560381867e+01
-5.428609306734060169e+00,-1.026377871073208721e-02,1.040006492162546969e+01,-6.173836126122034945e-02,-9.980895533198567149e-01,1.902183606160830296e-03,8.350007531457241328e+01
-5.381660295484892664e+00,1.253214068323821491e-02,1.064514094204974626e+01,-9.235076862958065125e-02,-9.946226424821553724e-01,-4.685226350196151912e-02,8.435532562772920073e+01
-5.237320244614735998e+00,9.283374993078027937e-02,1.115947627418307775e+01,-1.226560043986010679e-01,-9.878474757363079339e-01,-9.545087357530519789e-02,8.646411939583471451e+01
-5.104921286769754651e+00,1.733195673895150113e-01,1.144909642826861784e+01,-1.525532689508279915e-01,-9.777865882399895403e-01,-1.437320005786175692e-01,8.799682483877838024e+01
-4.953184464141361154e+00,2.672777789809280269e-01,1.168304122375876730e+01,-1.819431196433070330e-01,-9.644734439695595851e-01,-1.915350544727425219e-01,8.952953028172204597e+01
-4.776668839581327930e+00,3.760673230502252773e-01,1.186672553058631863e+01,-2.107278015723560161e-01,-9.479523244125239723e-01,-2.387010353670462603e-01,9.110419438554150418e+01
-4.578787739255278488e+00,4.950711761250677911e-01,1.199434524815755054e+01,-2.388115727243907971e-01,-9.282781812779593578e-01,-2.850730623824756504e-01,9.267885848936096238e+01
-4.359371712488031569e+00,6.216680484251039251e-01,1.206806400911207255e+01,-2.661010224311763928e-01,-9.055164537148915338e-01,-3.304968954659614488e-01,9.425352259318042059e+01
-4.118267798679246638e+00,7.532354175024064125e-01,1.209004581654967225e+01,-2.925053820701612461e-01,-8.797428506467284137e-01,-3.748214484203424290e-01,9.582818669699987879e+01
-3.855339530558673289e+00,8.871496232979324548e-01,1.206245502915061252e+01,-3.179368269763602206e-01,-8.510430989459005779e-01,-4.178992914432229644e-01,9.740285080081933700e+01
-3.571087149172351261e+00,1.020951406858887189e+00,1.198745001350559392e+01,-3.423107685615039419e-01,-8.195126582865266407e-01,-4.595871415031004825e-01,9.897751490463879520e+01
-3.267266376486066992e+00,1.152518524479061668e+00,1.186717679648750412e+01,-3.655461356687645380e-01,-7.852564036237698053e-01,-4.997463389215855978e-01,1.005521790084582534e+02
-2.946266016601562399e+00,1.279911002328272707e+00,1.170377538328555111e+01,-3.875656442271962487e-01,-7.483882763562597074e-01,-5.382433085764496417e-01,1.021268431122777116e+02
-2.602370294259023442e+00,1.403864298498305629e+00,1.149368482077112041e+01,-4.082960543089697025e-01,-7.090309053321197652e-01,-5.749500041914317183e-01,1.037381329339357450e+02
-2.245296629772602692e+00,1.519236423857486251e+00,1.124202702882194771e+01,-4.276684137344031744e-01,-6.673151989594582334e-01,-6.097443342350240547e-01,1.053494227555937783e+02
-1.877703970402051725e+00,1.623968792905076564e+00,1.095114908861965652e+01,-4.456182874145638850e-01,-6.233799097782801724e-01,-6.425105680116698359e-01,1.069607125772518117e+02
-1.502264630821719127e+00,1.716025983500244712e+00,1.062339836355289080e+01,-4.620859716686731566e-01,-5.773711729423657291e-01,-6.731397205947285967e-01,1.085720023989098451e+02
-1.121664224460342751e+00,1.793395815787547587e+00,1.026112248232199420e+01,-4.770166928035459164e-01,-5.294420201464236087e-01,-7.015299153209688665e-01,1.101832922205678784e+02
-7.386015946650248409e-01,1.854089430814473527e+00,9.866669322042284307e+00,-4.903607892946646452e-01,-4.797518706154648149e-01,-7.275867226410263067e-01,1.117945820422259118e+02
-3.557887456898412570e-01,1.896141368840282171e+00,9.442386991345955494e+00,-5.020738769630413989e-01,-4.284660008496156136e-01,-7.512234741989234355e-01,1.134058718638839451e+02
2.404922649044757832e-02,1.917609647335371426e+00,8.990623813482748972e+00,-5.121169965985985506e-01,-3.757549948882058510e-01,-7.723615510961727715e-01,1.150171616855419785e+02
3.981742035411218739e-01,1.916575838670407261e+00,8.513728309419475337e+00,-5.204567435391869168e-01,-3.217941769217223524e-01,-7.909306453818646387e-01,1.166284515072000119e+02
7.638351143022024115e-01,1.891145147494457612e+00,8.014049180938441097e+00,-5.270653787743893037e-01,-2.667630281388930769e-01,-8.068689938992069655e-01,1.182397413288580452e+02
1.118268004496656864e+00,1.839446487801365882e+00,7.493935293734921288e+00,-5.319209212047020241e-01,-2.108445897485498322e-01,-8.201235837109367433e-01,1.198510311505160786e+02
1.458696106611647281e+00,1.759632559683607100e+00,6.955735660513740370e+00,-5.350072207493689058e-01,-1.542248541618611024e-01,-8.306503284205521975e-01,1.214623209721741119e+02
1.770825220894319596e+00,1.655094770760447753e+00,6.423121721054841693e+00,-5.363140120598305360e-01,-9.709214635986176956e-02,-8.384142148031141772e-01,1.230130338369359322e+02
2.065568303422243179e+00,1.522281247927210313e+00,5.878494747447301272e+00,-5.358369486602487797e-01,-3.963649750380601744e-02,-8.433894192581015137e-01,1.245637467016977524e+02
2.340511148136523722e+00,1.359667702613253981e+00,5.323870284185766799e+00,-5.335776174016562123e-01,1.795098712836198929e-02,-8.455593936971622648e-01,1.261144595664595727e+02
2.593229197767224825e+00,1.165749731272263334e+00,4.761263942363195056e+00,-6.021078008048307284e-01,2.006931043633715037e-02,-7.981612737956517156e-01,1.276651724312213929e+02
2.821131102408321212e+00,9.399494559875960498e-01,4.192687425697608994e+00,-6.664548463249383436e-01,2.204820244574363236e-02,-7.452179644758863963e-01,1.292158852959832132e+02
3.021310067183303971e+00,6.835239129904240318e-01,3.620144556584998785e+00,-7.261717135942555856e-01,2.387391513926204883e-02,-6.870972846331317996e-01,1.307665981607450192e+02
3.190712096131879782e+00,3.986611006164068605e-01,3.045635223283310822e+00,-7.808435287175469197e-01,2.553376465599628900e-02,-6.242030202755197710e-01,1.323173110255068252e+02
3.326296454003757397e+00,8.757421403641363344e-02,2.471159327122709470e+00,-8.300904659873357128e-01,2.701621939350271756e-02,-5.569721197377003330e-01,1.338680238902686312e+02
3.425035737534271707e+00,-2.474984297474578654e-01,1.898716769176546304e+00,-8.735703862512503859e-01,2.831098010941199977e-02,-4.858716586386996883e-01,1.354187367550304373e+02
3.483915946560411037e+00,-6.042934672126754059e-01,1.330307436932325116e+00,-9.699049319562836891e-01,3.184579245240023310e-02,-2.413882111251699492e-01,1.369694496197922433e+02
3.499936554976814662e+00,-9.805225639332072474e-01,7.679311909627372090e-01,-9.992528640253045547e-01,3.318117086675594074e-02,1.976673056812863066e-02,1.385201624845540493e+02
3.470110581531288485e+00,-1.373872490501924615e+00,2.135878515968307745e-01,-9.595872614864462413e-01,3.222488725991146802e-02,2.795565134888264303e-01,1.400708753493158554e+02
3.387968705834569771e+00,-1.793260603106000106e+00,-3.449266036363876631e-01,-8.536475879972215131e-01,2.904298598275086019e-02,5.200387490095298437e-01,1.416629677535833309e+02
3.249745625370382474e+00,-2.226026534306513760e+00,-8.903618188861051053e-01,-8.710613791589444377e-01,-4.908788197031822564e-01,-1.697227459123171536e-02,1.432550601578508065e+02
3.052168775907265985e+00,-2.669516673121879347e+00,-1.420496102543131078e+00,-4.015486972678312116e-01,-7.363974448215194757e-01,-5.444955894985293865e-01,1.448471525621182820e+02
2.792409912516220949e+00,-3.120155423876240341e+00,-1.933117119054884370e+00,-7.127413081385771676e-01,-4.228955894932131532e-01,-5.596044567892568544e-01,1.464392449663857576e+02
2.468521620940962613e+00,-3.572556311446171140e+00,-2.426031152991297901e+00,-8.384479280489354203e-01,5.561892889150532593e-02,5.421343068842704449e-01,1.480313373706532332e+02
2.081029605907863456e+00,-4.020429295289954297e+00,-2.897042987593697827e+00,-9.741568796140113173e-01,-4.289895066155743897e-02,-2.217567449557097947e-01,1.496234297749207087e+02
1.634517010211327337e+00,-4.457506386678474541e+00,-3.344642682790890387e+00,-0.000000000000000000e+00,-6.060633378291321316e-01,7.954151309477166532e-01,1.512155221791881843e+02
1.135615340949092111e+00,-4.877570863943535784e+00,-3.768723373603517945e+00,-3.999995304134040148e-06,1.561658166663490999e-01,9.877298404369047047e-01,1.528076145834556598e+02
5.909953788924402485e-01,-5.274463283326396024e+00,-4.169885259774167352e+00,-8.962736280310626968e-01,4.381243293421207552e-01,-6.883789462654016367e-02,1.543997069877231354e+02
7.367025752783658461e-03,-5.642081694708680928e+00,-4.548728702087128539e+00,-6.696665005625734857e-01,1.278249046681574075e-01,7.315774543893701631e-01,1.559917993919906110e+02
-6.085208643200588075e-01,-5.974381869403052825e+00,-4.905854218143713474e+00,3.143997210389546867e-03,3.833196598875702327e-02,9.992591133759092248e-01,1.575838917962580865e+02
-1.249880653739883440e+00,-6.265377527196990926e+00,-5.241862478136751768e+00,-2.172967494848507541e-01,3.431016044480654226e-01,9.138169464868238778e-01,1.591759842005255621e+02
-1.930903984829897890e+00,-6.515098038993592411e+00,-5.566543673983600726e+00,-0.000000000000000000e+00,4.167097442637308913e-02,9.991303868300874802e-01,1.608177560236051704e+02
-2.624572930527958370e+00,-6.706241032283260850e+00,-5.869410063527107368e+00,7.901121582996307735e-01,4.634195063227853489e-02,6.112063488866054106e-01,1.624595278466847788e+02
-3.322792525933159435e+00,-6.834198696509955262e+00,-6.151149852575237276e+00,-9.983881034632001716e-01,0.000000000000000000e+00,-5.673794905021494611e-02,1.641012996697643871e+02
-4.011578323008126112e+00,-6.899448165862597016e+00,-6.410577997570155340e+00,-0.000000000000000000e+00,9.950482571507356377e-01,-9.938292580607745175e-02,1.657303144908346439e+02
-4.687754155905183850e+00,-6.906569377221170036e+00,-6.650716680989560814e+00,2.039378542715177545e-01,3.347537607940043181e-01,9.199713426133271366e-01,1.673593293119049008e+02
-5.342950265806883259e+00,-6.858567903624693152e+00,-6.872234439581318632e+00,-2.272997664908139523e-03,5.869383970275048323e-01,-8.096271682552781401e-01,1.689883441329751577e+02
-6.236000112125226202e+00,-6.668518935681952087e+00,-7.157903635532884223e+00,-0.000000000000000000e+00,5.892782264991129892e-01,-8.079289394928859114e-01,1.713957818958127746e+02
-6.862984571385544186e+00,-6.417431001422387205e+00,-7.349101571950197531e+00,3.056193092201265893e-01,8.300629445221872071e-01,-4.664658036389029427e-01,1.733093333169784671e+02
-7.405975413704013022e+00,-6.095550571706880305e+00,-7.513981599274279333e+00,5.293393743996578360e-01,8.484089973068609236e-01,-0.000000000000000000e+00,1.752228847381441597e+02
-7.822181033891904001e+00,-5.741752775984348744e+00,-7.644967999535660752e+00,6.075376243234049678e-01,7.797075178605343826e-01,1.514999063186102668e-01,1.769943616397087567e+02
-8.145743082544717240e+00,-5.343291844711373528e+00,-7.756872318811050881e+00,9.973505985891012449e-01,0.000000000000000000e+00,-7.273089780336723653e-02,1.787658385412733537e+02
-8.367624073516632066e+00,-4.910420854414279113e+00,-7.850528783086248019e+00,9.973505978851086029e-01,-0.000000000000000000e+00,-7.273089775202921936e-02,1.805373154428379507e+02
-8.483631793985150438e+00,-4.456787198057472033e+00,-7.926764906325701077e+00,9.984358224692105876e-01,-0.000000000000000000e+00,-5.589193408241993621e-02,1.823087923444025478e+02
-8.495903770348823159e+00,-3.999312578113482619e+00,-7.986400058302859151e+00,7.591906924005410451e-01,0.000000000000000000e+00,6.508667241251311353e-01,1.840802692459671448e+02
-8.419863949034155581e+00,-3.580947227595554949e+00,-8.028493686750701741e+00,9.726792459839354865e-02,0.000000000000000000e+00,9.952572284815971448e-01,1.857479976157101191e+02
-8.265819499580352669e+00,-3.188920953862021790e+00,-8.058046349005167031e+00,9.760491763838508028e-02,-2.100193129582965668e-01,9.728119901799167080e-01,1.874157259854530935e+02
-8.063325874367391677e+00,-2.863006119562557572e+00,-8.075015009782797293e+00,9.358754965624459243e-02,-4.106692336448862779e-01,9.069675579023125378e-01,1.889390883555622622e+02
-7.808857666854754243e+00,-2.574583478635691147e+00,-8.083306599267551462e+00,8.539504319161847490e-02,-5.929983435421629645e-01,8.006613835791775990e-01,1.904624507256714310e+02
-7.507881226820210863e+00,-2.327874109777977374e+00,-8.083320697855700843e+00,7.339288275198813105e-02,-7.488725504596264182e-01,6.586360056433147037e-01,1.919858130957805997e+02
-7.082220785020802545e+00,-2.087335735889809474e+00,-8.071349360065754652e+00,5.811650996359533222e-02,-8.713379699704343340e-01,4.872274759881383144e-01,1.938525587422797400e+02
-6.605510111972229481e+00,-1.913900237721592124e+00,-8.045731173859991259e+00,4.024743641168952724e-02,-9.549311557687724106e-01,2.940826951806770895e-01,1.957193043887788804e+02
-5.847462635361406313e+00,-1.780778543077720988e+00,-7.979848772980196792e+00,2.058283981889916930e-02,-9.959228377821577327e-01,8.781826626211010345e-02,1.984406693608128194e+02
-5.411446446290268497e+00,-1.757366276788351112e+00,-7.930339264258788212e+00,0.000000000000000000e+00,-9.924842934886758394e-01,-1.223639128938455861e-01,1.999363587990146698e+02
-4.554570471227175510e+00,-1.766193853508503997e+00,-7.804910369917121393e+00,-1.855397780007903008e-01,-9.790290668915325734e-01,-8.411347668567532854e-02,2.029129500469389313e+02
-3.843978985723463637e+00,-1.807446401025560423e+00,-7.664776433442891168e+00,-3.643872247153886468e-01,-9.302610465132697959e-01,-4.282914665988749731e-02,2.055053673847398272e+02
-3.398798532276099404e+00,-1.830903949206713177e+00,-7.560407331725570224e+00,-5.300915303209632334e-01,-8.479392486971272236e-01,-0.000000000000000000e+00,2.072214651416229287e+02
-2.973884166920387706e+00,-1.841649681977149289e+00,-7.449640094448795935e+00,2.187648692057493627e-01,-3.412217959916998278e-01,9.141704534394857751e-01,2.089375628985060303e+02
-2.571372405109125125e+00,-1.832496692572752828e+00,-7.332955515976656180e+00,-9.999989999999751022e-01,-0.000000000000000000e+00,0.000000000000000000e+00,2.106536606553891318e+02
-2.182578023944248713e+00,-1.794530303865588428e+00,-7.207146386635088220e+00,-8.509987894274916378e-03,-3.496795025699239168e-01,9.368296673303716515e-01,2.124193393247330448e+02
-1.821023516978708567e+00,-1.720558845818171534e+00,-7.075934355449023272e+00,-7.367924762619142143e-02,-4.553936989929824319e-01,8.872350012192374846e-01,2.141850179940769578e+02
-1.526721950056838528e+00,-1.624949502486950470e+00,-6.957650225629573804e+00,-1.375309575101988369e-01,-5.529644533834049414e-01,8.217746339614859785e-01,2.157256422970113476e+02
-1.250574008964194350e+00,-1.500751675077404812e+00,-6.836404184536420736e+00,-1.989233113906111183e-01,-6.406469911584189436e-01,7.416191400623918240e-01,2.172662665999457374e+02
-9.923394314352036449e-01,-1.347835446895007783e+00,-6.712478737467584722e+00,-2.567584817203281689e-01,-7.168733598164369614e-01,6.482018729161194148e-01,2.188068909028801272e+02
-7.517249927972056156e-01,-1.166789607771362869e+00,-6.586152771450247023e+00,-3.100022506538033795e-01,-7.802804666661634636e-01,5.431933338421560675e-01,2.203475152058145170e+02
-4.003041863567462499e-01,-7.731527548844187026e-01,-6.365703015051251690e+00,-3.577025037505482397e-01,-8.297344534876661681e-01,4.284713006815940584e-01,2.229568572653024887e+02
-2.162213663628487492e-01,-4.753084982665863878e-01,-6.224701346603405128e+00,-3.990062556431433483e-01,-8.643509723227326136e-01,3.060872499859252915e-01,2.245814899898486487e+02
-4.963793000949772577e-02,-1.528637773471028527e-01,-6.082071261580543009e+00,-4.331749032508934172e-01,-8.835109998335567427e-01,1.782296730854096289e-01,2.262061227143948088e+02
1.006914373758408948e-01,1.904816486947711052e-01,-5.938135129310380123e+00,-4.595974337851332359e-01,-8.868719073915083406e-01,4.718494186909322902e-02,2.278307554389409688e+02
2.695193474334656170e-01,6.639950180347999886e-01,-5.750022570224742502e+00,-0.000000000000000000e+00,-9.999989999994989072e-07,9.999989999994989276e-01,2.299361849680944658e+02
4.082276083755375651e-01,1.164671409299083527e+00,-5.560682359048447765e+00,-0.000000000000000000e+00,1.466699169343334101e-02,9.998914337172190026e-01,2.320416144972479628e+02
5.103250065401929714e-01,1.625985124971206730e+00,-5.391177619049947189e+00,9.854900752829021116e-02,1.940910725433572445e-02,9.949418976347567112e-01,2.339228117885992333e+02
5.950671382749966876e-01,2.092724565695255112e+00,-5.221988143161278018e+00,1.961362562599776038e-01,2.396180977325027342e-02,9.802828166662910236e-01,2.358040090799505037e+02
6.640008138027687634e-01,2.559469578772672005e+00,-5.053666262849974444e+00,2.918094164545022018e-01,2.828067064934968594e-02,9.560572514942062838e-01,2.376852063713017742e+02
7.143017337856601978e-01,2.975533548683640728e+00,-4.903388901234133179e+00,3.846348378146164926e-01,3.232354323407023167e-02,9.225016152238324496e-01,2.393772263515389511e+02
7.549349480089362352e-01,3.385342097311816900e+00,-4.754497128352635826e+00,4.737066590282825174e-01,3.605097405068663496e-02,8.799433666211033955e-01,2.410692463317761280e+02
7.859413292774810600e-01,3.787553487250164608e+00,-4.607343428653766892e+00,3.231130308860172273e-01,2.966096776122240097e-02,9.458943895920182143e-01,2.427612663120133050e+02
8.081046607990322039e-01,4.231101233847291532e+00,-4.443865084353576300e+00,1.637731169484087090e-01,2.246807354469908952e-02,9.862411225631508849e-01,2.446723705017103612e+02
8.155153451360132033e-01,4.662384519259835436e+00,-4.283965758208075236e+00,0.000000000000000000e+00,1.466699169439773104e-02,9.998914337829643006e-01,2.465834746914074174e+02
8.114114454281938782e-01,5.013926102587929812e+00,-4.153562737028879681e+00,-1.832722116392015710e-01,1.805260763731751997e-02,9.828954165110973529e-01,2.481763902549058116e+02
7.993272472325257949e-01,5.360214267438710323e+00,-4.025821552826361227e+00,-3.603334496220649830e-01,2.082643636659365499e-02,9.325899766950791481e-01,2.497693058184042059e+02
7.799313667906482284e-01,5.702539711102093456e+00,-3.901004111965901355e+00,-5.251832835082224094e-01,2.289447593079632984e-02,8.506799408096835657e-01,2.513622213819026001e+02
7.513825152026422094e-01,6.069844698640599390e+00,-3.769761924826414479e+00,-6.722351248269242685e-01,2.418664294319828462e-02,7.399411755354448061e-01,2.530850393346039482e+02
7.159822234821633380e-01,6.435519677938772887e+00,-3.642895954425197758e+00,-7.965055444532177509e-01,2.465914746305314723e-02,6.041265133251590980e-01,2.548078572873052963e+02
6.802260193643387964e-01,6.762898626050124484e+00,-3.532844503132361424e+00,-8.937831490311932692e-01,2.429597686785830990e-02,4.478385736139610107e-01,2.563537788340681800e+02
6.427080381726644198e-01,7.089251116200807168e+00,-3.426384135613389947e+00,-6.197381533290020617e-01,7.098084235277124510e-01,3.348053512097725060e-01,2.578997003808310637e+02
6.050862995125247945e-01,7.413855488264425198e+00,-3.323704144436843588e+00,-0.000000000000000000e+00,9.993857527531188056e-01,3.501595629961486850e-02,2.594456219275939475e+02
5.690141272489878110e-01,7.735976138693819060e+00,-3.224993797081497693e+00,-0.000000000000000000e+00,9.999841710804819872e-01,5.445875370944270287e-03,2.609915434743568312e+02
5.259410042827783460e-01,8.167784348030115993e+00,-3.098648009044604468e+00,-0.000000000000000000e+00,9.997078536570985774e-01,-2.412897233184069928e-02,2.630983951370834575e+02
4.997046324241943283e-01,8.483372651023266542e+00,-3.010685522750474519e+00,-0.000000000000000000e+00,9.997078529671034053e-01,-2.412897231518696187e-02,2.646719166653975890e+02
4.789820753475975690e-01,8.792229002164777540e+00,-2.927523718434974942e+00,-4.272875887421053731e-01,2.998997113510264850e-02,9.036171302820669160e-01,2.662454381937117205e+02
4.626432282501667381e-01,9.308298992701949715e+00,-2.798329135130017242e+00,4.301035175187842285e-01,3.026596604826629205e-02,9.022709878510976056e-01,2.690423153242666103e+02
4.688430660650553250e-01,9.668821456738964315e+00,-2.717093760576087647e+00,6.243590380163419606e-01,2.637472049807980390e-02,7.806908259785205750e-01,2.711813290364380578e+02
4.892584539616572359e-01,9.999537134189507626e+00,-2.649366359027023776e+00,7.858156196810163197e-01,2.109795276315759235e-02,6.180992543722040322e-01,2.733203427486095052e+02
5.195781987045419159e-01,1.027225898667330384e+01,-2.599461731443484691e+00,9.059916009137668480e-01,1.471286183287193877e-02,4.230375287974609266e-01,2.752575089428830779e+02
5.539774304045237407e-01,1.049033292691719588e+01,-2.564037029796908840e+00,9.785738486139337056e-01,7.554869369362956534e-03,2.057526348751211320e-01,2.769460215713796742e+02
5.611133040838576225e-01,1.052967072390368664e+01,-2.558056957831246425e+00,9.997494087566847210e-01,0.000000000000000000e+00,-2.234098678773002375e-02,2.772638023249403432e+02
6.126233328017832713e-01,1.077089860307570923e+01,-2.525724014113417848e+00,8.826193678063263270e-01,-6.518065078106619016e-04,-4.700857652834278810e-01,2.793519319047393878e+02
6.340804599069708170e-01,1.085543930901045151e+01,-2.516379525284279772e+00,5.764363129604160862e-01,-1.163998612660055356e-03,-8.171400260718645336e-01,2.801474229694475184e+02
6.475595251366914606e-01,1.090720287770691144e+01,-2.510896751971988916e+00,9.546769266718766467e-01,-0.000000000000000000e+00,-2.976406653673217551e-01,2.806420738369828314e+02
6.933941380439139213e-01,1.107650929677339846e+01,-2.496079332774622017e+00,5.752485914330829342e-01,-0.000000000000000000e+00,-8.179774190363656716e-01,2.823526598806212746e+02
7.364234541093516162e-01,1.122800332178032257e+01,-2.488946860175690556e+00,2.033386739798827003e-01,7.717731767315673267e-04,-9.791071381778836402e-01,2.840632459242597179e+02
7.800606240544076808e-01,1.137646847662851179e+01,-2.490881198612133751e+00,-2.019757621744595333e-01,1.416758781250255410e-03,-9.793884746561858368e-01,2.860001234538141830e+02
8.175127356087770192e-01,1.149931688326814339e+01,-2.504136313981778272e+00,-5.741094903288133100e-01,1.828998376289211678e-03,-8.187752731244263282e-01,2.879370009833686481e+02
8.263768323646504266e-01,1.152784766030498886e+01,-2.509174824807876014e+00,-9.546707119066503155e-01,0.000000000000000000e+00,-2.976605983802242950e-01,2.884420932743479966e+02
8.452957638817855113e-01,1.158846291039870202e+01,-2.521696082815361617e+00,-0.000000000000000000e+00,-9.950635238632338231e-01,9.922995251858041099e-02,2.895637433614400038e+02
8.745618646143512587e-01,1.168190604883480965e+01,-2.553056885123673680e+00,-5.759863546499147668e-01,0.000000000000000000e+00,-8.174580840987117902e-01,2.915982218871575924e+02
8.922420654940045326e-01,1.173800687322646397e+01,-2.584411116034607048e+00,-3.149965385925159178e-01,-3.115922022919771495e-01,-8.964850696725383816e-01,2.931261772873576206e+02
9.074008363259130627e-01,1.178499378803741493e+01,-2.621396361867913249e+00,-0.000000000000000000e+00,-5.697617808903238101e-01,-8.218086839622441575e-01,2.946541326875576488e+02
9.205525808395956799e-01,1.182370230591484983e+01,-2.664012987845411295e+00,-0.000000000000000000e+00,8.080491350120935778e-02,9.967289330370694422e-01,2.961820880877576769e+02
9.321533913384437708e-01,1.185502446748146888e+01,-2.712255122225314619e+00,-2.700672047989064462e-01,1.412252585276193573e-01,9.524269689834397035e-01,2.977100434879577051e+02
9.448947835309317034e-01,1.188451068686214995e+01,-2.782479925138181986e+00,-5.189205948077866282e-01,1.905523773103819374e-01,8.333121910707075308e-01,2.996424975149617467e+02
9.558437003713370350e-01,1.190384712184763316e+01,-2.863989067847553027e+00,-7.270129289258565608e-01,2.249116686481584249e-01,6.487410442401632116e-01,3.015749515419657882e+02
9.652034508464943929e-01,1.191570416194936222e+01,-2.956696215214740242e+00,-7.142513392296423458e-01,-6.601633892676501691e-01,-2.324377849664538698e-01,3.035074055689698298e+02
9.717263700937005533e-01,1.192220601026953908e+01,-3.048951375638047523e+00,-5.036361054995698305e-01,-8.325560419527396894e-01,-2.306493230993258148e-01,3.052431107428334940e+02
9.756157856907724524e-01,1.192677698822459398e+01,-3.149120462600557335e+00,-2.557108712951119411e-01,-9.432718065617118341e-01,-2.117740523492482041e-01,3.069788159166971582e+02
9.761864805221212027e-01,1.192779426880807669e+01,-3.175591178637281242e+00,1.115772509153084568e-02,-9.841087440517763962e-01,-1.772102848393883323e-01,3.074191170015756143e+02
9.770134194611560519e-01,1.193150116059184818e+01,-3.279211119081499870e+00,2.771997217148464143e-01,-9.520416266467458533e-01,-1.295185523942815886e-01,3.090826228308427517e+02
9.757128067601904542e-01,1.193476129765936555e+01,-3.389477830651884904e+00,5.227064052949627060e-01,-8.494460335495607195e-01,-7.223191781871249328e-02,3.107461286601098891e+02
9.727686557777456278e-01,1.193721545503612802e+01,-3.514288841255514662e+00,4.466279548026955704e-01,-8.928075166880016234e-01,-5.844833731866807408e-02,3.125187012298287641e+02
9.691969139405224309e-01,1.193794112842076238e+01,-3.646589728131583108e+00,3.670398388762896036e-01,-9.291531810356777887e-01,-4.420546176834474345e-02,3.142912737995476391e+02
9.658204592935398791e-01,1.193613047222394385e+01,-3.797727046236517356e+00,2.845674724306509473e-01,-9.581974184646250281e-01,-2.961521371529804089e-02,3.162045701443610142e+02
9.638237659797509460e-01,1.193156403020308254e+01,-3.957353938497813139e+00,1.998589348391114906e-01,-9.797119962743283672e-01,-1.479224534728846782e-02,3.181178664891743892e+02
9.637673127779522453e-01,1.193126929980548390e+01,-3.965586314507919763e+00,1.135798773249285798e-01,-9.935278505760025691e-01,1.469624434060904294e-04,3.182140563109689992e+02
9.638201913481380112e-01,1.192494598176575238e+01,-4.119646459739577438e+00,2.640829229397474373e-02,-9.995364147498073670e-01,1.508501536252428513e-02,3.199792790965235554e+02
9.664817901580957660e-01,1.191684915874672335e+01,-4.279382709121770212e+00,-6.097081429677379816e-02,-9.976904725408769492e-01,2.990452819220597649e-02,3.217445018820781115e+02
9.730306684538645445e-01,1.190603414159736673e+01,-4.458512720619626002e+00,-1.478708056793914538e-01,-9.880045290930383750e-01,4.448904719796643176e-02,3.236579681635880661e+02
9.831928121226556350e-01,1.189293050024718212e+01,-4.643315772680097098e+00,-2.336088098355244835e-01,-9.705546970045104693e-01,5.872396521756424737e-02,3.255714344450980207e+02
9.959818384382188583e-01,1.187714623277128112e+01,-4.832913212645865819e+00,-3.175110854879057976e-01,-9.454780982982040616e-01,7.249742224246075173e-02,3.274849007266079752e+02
1.008365819446032097e+00,1.186056079245509665e+01,-5.002880791335871713e+00,-3.989183163647830321e-01,-9.129717870007530989e-01,8.570118441634015649e-02,3.291690459113141287e+02
1.020753995502828859e+00,1.184090106773129847e+01,-5.174928005373546469e+00,-4.771907921411619458e-01,-8.732912007894050310e-01,9.823149454443759476e-02,3.308531910960202822e+02
1.032254505123279209e+00,1.181752208169567453e+01,-5.348492991070123104e+00,-5.517134353491086607e-01,-8.267481538649376072e-01,1.099898874308943703e-01,3.325373362807264357e+02
1.042033305133431398e+00,1.178974893368739885e+01,-5.523007054493207946e+00,-7.904637783949873819e-01,-6.053881033602402928e-01,9.311422746423758667e-02,3.342214814654325892e+02
1.049635260765500178e+00,1.175441391932932156e+01,-5.708703688739615423e+00,-9.451980947473780370e-01,-3.196831800882900532e-01,6.634173690280423252e-02,3.360098362883581444e+02
1.053492032232851372e+00,1.171194414592060973e+01,-5.894091924813004368e+00,-9.994701503667255960e-01,-0.000000000000000000e+00,3.251797235700203126e-02,3.377981911112836997e+02
1.052876646032778529e+00,1.166163382389063230e+01,-6.078418529416041771e+00,-9.910311672709837261e-01,9.706843166269718548e-02,9.183106812270556973e-02,3.395865459342092549e+02
1.043981866120857971e+00,1.158551532548373686e+01,-6.306793840426990982e+00,-9.696973200506465718e-01,1.928738389316951019e-01,1.499492905717164093e-01,3.418331500898481181e+02
1.024363981054193351e+00,1.149384068504648937e+01,-6.529658500579786917e+00,-9.357461992302001930e-01,2.861696468037258634e-01,2.061164328120615730e-01,3.440797542454869813e+02
9.989352371393930285e-01,1.140308522027514826e+01,-6.716883225717411143e+00,-8.896195640195928567e-01,3.757419349100093453e-01,2.596016750031271414e-01,3.460221404963771192e+02
9.666096491595120854e-01,1.130281642421867438e+01,-6.898238816262918682e+00,-8.319175941418852638e-01,4.604252319401349047e-01,3.097090931032304151e-01,3.479645267472672572e+02
9.296684844966609518e-01,1.119809727305326064e+01,-7.066739378787719517e+00,-7.633910806059294174e-01,5.391176796442853636e-01,3.557867135616913923e-01,3.498381785749494952e+02
8.942202749645423721e-01,1.110421026420032220e+01,-7.205988177927427074e+00,-6.849316570278887184e-01,6.107953691777621152e-01,3.972349961832831178e-01,3.514450610823338934e+02
8.558617256343924451e-01,1.100954068382812068e+01,-7.340203884175705795e+00,-5.975601985731782140e-01,6.745256633152721948e-01,4.335146348289626306e-01,3.530519435897182916e+02
8.156093643865365284e-01,1.091866258667653788e+01,-7.466780810685952119e+00,-5.024135394087879680e-01,7.294793312445962963e-01,4.641535744838849453e-01,3.546314714484562955e+02
7.729270379110180222e-01,1.083342994462368658e+01,-7.587603884399553245e+00,-6.707868436462197659e-01,6.257240904892329425e-01,3.981361236729443198e-01,3.562109993071942995e+02
7.274326313881699368e-01,1.075768406642161068e+01,-7.702183253707326038e+00,-8.099989336178146093e-01,4.947667050632572616e-01,3.148104748888675419e-01,3.577905271659323034e+02
6.779394590886086425e-01,1.069524719388186895e+01,-7.810406717061173509e+00,-9.139978560779339345e-01,3.423002959039778692e-01,2.177990507553530519e-01,3.593760263130449175e+02
6.233206769343841991e-01,1.065058633621012518e+01,-7.911315019663009096e+00,-9.782624727164205281e-01,1.749530336261579666e-01,1.113192279016775310e-01,3.609615254601575316e+02
5.631959126816050709e-01,1.062746569718854239e+01,-8.004178318592853003e+00,-9.999989999998434298e-01,0.000000000000000000e+00,0.000000000000000000e+00,3.625427489596182227e+02
4.980893461390532573e-01,1.062858271274611788e+01,-8.088794615699736568e+00,-7.071059269877537634e-01,8.294918208307941465e-02,7.022240676678302984e-01,3.641239724590789137e+02
3.715100044057542683e-01,1.072512268029503879e+01,-8.204459812903623472e+00,-0.000000000000000000e+00,1.173078338873077553e-01,9.930945937374243693e-01,3.668740225112421740e+02
3.491707900616402016e-01,1.075321349637812141e+01,-8.219373845601584350e+00,4.180533842703526015e-01,3.538807623956460313e-01,8.366586961884736606e-01,3.673254196823474444e+02
2.656441402699092347e-01,1.087367377763149001e+01,-8.267832326573168800e+00,7.294162694263858215e-01,5.001404990659417127e-01,4.667005325589665410e-01,3.689782095755043656e+02
1.789162404867256084e-01,1.102649913489423739e+01,-8.304505939320696584e+00,5.179124917774815540e-01,7.186022948425190293e-01,4.640855445973440796e-01,3.706309994686612868e+02
8.923953487446481536e-02,1.121087175485693521e+01,-8.328757481800364459e+00,1.270998420255520234e-03,1.158168560493576527e-01,9.932687654501971553e-01,3.722837893618182079e+02
-6.465617504081414002e-02,1.160132593029303116e+01,-8.328348373408728023e+00,8.506807646963385761e-01,5.164672500196179072e-01,9.798885770690990427e-02,3.749852023376957391e+02
-9.120588284980939153e-02,1.167758354903834750e+01,-8.323177809992616361e+00,6.259957272622308500e-01,3.336698804135539986e-01,7.048345624018057531e-01,3.754370040723335933e+02
-2.514574875618955652e-01,1.218566191213136207e+01,-8.260224523758818549e+00,1.182598423660794623e-01,0.000000000000000000e+00,9.929816764095777959e-01,3.781144303587176410e+02
-3.951380520301347454e-01,1.270867250101453116e+01,-8.155315595297890852e+00,-9.359985444601274336e-04,-1.157798199546939688e-01,9.932734553938388222e-01,3.804547655798012897e+02
-5.645535601005001736e-01,1.339092503921045463e+01,-7.970877815363765606e+00,9.994709311547940178e-01,-0.000000000000000000e+00,3.249396525059618929e-02,3.831657672742510385e+02
-6.719745789075642906e-01,1.385059361785665466e+01,-7.823207507408957539e+00,9.502725805352799648e-01,-3.086115768431731410e-01,4.170032760544208073e-02,3.848621306390451764e+02
-7.744608366973029234e-01,1.429853702760715350e+01,-7.667323086762581674e+00,8.081884019360420224e-01,-5.870574072021664813e-01,4.683062701410213580e-02,3.864687383325978089e+02
-8.779337288758315427e-01,1.475652439177991937e+01,-7.497029283431174917e+00,5.871066826184206944e-01,-8.081203851935124804e-01,4.738339647080808820e-02,3.880753460261504415e+02
-9.785037430978155149e-01,1.520389973668811301e+01,-7.320969421389990295e+00,3.086374230295670373e-01,-9.501924289661247691e-01,4.330460764096383947e-02,3.896170804303950490e+02
-1.081043143018975528e+00,1.565698234047936310e+01,-7.133406843020151378e+00,0.000000000000000000e+00,-9.993865585873626944e-01,3.499294952975980089e-02,3.911588148346396565e+02
-1.186483861088932112e+00,1.611353948089691457e+01,-6.934935545776370169e+00,-0.000000000000000000e+00,-9.569964796629932824e-01,2.900960839351691134e-01,3.927005492388842640e+02
-1.325886960943491566e+00,1.668838771868289683e+01,-6.668677575665917345e+00,-0.000000000000000000e+00,-8.506075833908496309e-01,5.257991432855723124e-01,3.946400530238337865e+02
-1.475694213839593871e+00,1.725793165216063585e+01,-6.383340225494978704e+00,-0.000000000000000000e+00,-6.873345865571396374e-01,7.263395666794956185e-01,3.965795568087833090e+02
-1.638150343878167492e+00,1.781528243152559199e+01,-6.080384413133496757e+00,-0.000000000000000000e+00,-4.780963105377354916e-01,8.783062779304272594e-01,3.985190605937328314e+02
-1.800261390868634015e+00,1.831265743367442411e+01,-5.787596893913382168e+00,-0.000000000000000000e+00,-2.368854924771326698e-01,9.715365476685023927e-01,4.003049848893569447e+02
-1.975063813663783918e+00,1.879011543983968124e+01,-5.483237424337137789e+00,-0.000000000000000000e+00,2.016697227948966581e-02,9.997956257309926764e-01,4.020909091849810579e+02
-2.162772430384721556e+00,1.924224033536805578e+01,-5.168340377541105646e+00,-0.000000000000000000e+00,2.016697226524963651e-02,9.997956250250304988e-01,4.038768334806051712e+02
-2.333381560058667148e+00,1.960800901583868594e+01,-4.890674256416915888e+00,6.355972790763313451e-01,2.092487626604288553e-01,7.431211571178032438e-01,4.054108889543014698e+02
-2.511707553634511481e+00,1.995122537792019912e+01,-4.607539826525152371e+00,0.000000000000000000e+00,1.705397561329390771e-02,9.998535702374796719e-01,4.069449444279977683e+02
-2.697311564596675204e+00,2.026899011077390966e+01,-4.319495412718651117e+00,-4.637730791952814902e-01,1.846608752366221337e-02,8.857604273315181631e-01,4.084789999016940669e+02
-2.889085564208628387e+00,2.055868775485244271e+01,-4.027095246340650192e+00,-8.217572942076923903e-01,1.566598654477073527e-02,5.696205107633635079e-01,4.100130553753903655e+02
-3.085594315673660493e+00,2.081783665427390773e+01,-3.730891524361648948e+00,-0.000000000000000000e+00,1.519999199372182135e-02,9.998834733322731205e-01,4.115471108490866641e+02
-3.377836506214060286e+00,2.111740438446630463e+01,-3.293726412063035625e+00,-0.000000000000000000e+00,-2.786296520808142704e-02,9.996107518063629405e-01,4.137753540583346989e+02
-3.673499555696087437e+00,2.130515453648003188e+01,-2.849043661160830077e+00,4.805735144729278430e-01,-1.274097286079209357e-01,8.676484646703453985e-01,4.160035972675827338e+02
-3.907380836688524983e+00,2.137841173929069427e+01,-2.488398734894612385e+00,8.370268619317369208e-01,-1.940497361591888847e-01,5.115943044079372948e-01,4.177925781126367610e+02
-4.147461825700937688e+00,2.138544953660304415e+01,-2.099955077686061600e+00,8.065939532594890160e-01,-5.410011326170365287e-01,2.381637442448449049e-01,4.197100005893018988e+02
-4.369409511568601800e+00,2.131594565462938817e+01,-1.710655771983624840e+00,6.180150938689766837e-01,-7.818806953610043520e-01,-8.196293047155435441e-02,4.216274230659670366e+02
-4.565584966441956105e+00,2.117164532179306491e+01,-1.321728958510530294e+00,3.082640111086170642e-01,-8.694597029642908703e-01,-3.860195906631792573e-01,4.235448455426321743e+02
-4.713439474385091366e+00,2.098769987877908960e+01,-9.790746759894070061e-01,-6.192732401579292140e-02,-7.865666689340945483e-01,-6.143906589963348264e-01,4.252399311707904985e+02
-4.835027479918410975e+00,2.075699829218894976e+01,-6.382794795134786314e-01,-4.199765354728736688e-01,-5.494543922601661246e-01,-7.223002010790878780e-01,4.269350167989488227e+02
-4.932081514255727939e+00,2.045238489677037563e+01,-2.690479681215843244e-01,6.991536932645603386e-01,-5.387427636406700859e-01,-4.700407937818666393e-01,4.287874910091637730e+02
-4.983559607777861444e+00,2.012235967784847546e+01,7.165774575483059572e-02,4.595995113947056177e-01,-5.348094314382125791e-01,-7.090452462062019068e-01,4.305164043920318591e+02
-4.994130343430107644e+00,1.975490440897665678e+01,4.078404911116674247e-01,7.358840799747665695e-01,-4.682009080106570020e-01,-4.891426484968759425e-01,4.322453177748999451e+02
-4.971995913946554602e+00,1.941465425217817042e+01,6.926259179159335311e-01,9.171459866032961594e-01,-3.411348316671748426e-01,-2.060783003650252521e-01,4.337302406261237024e+02
-4.955626756517389708e+00,1.926149005169007111e+01,8.157263499479316948e-01,9.799792622521517060e-01,-1.700188454374620961e-01,1.035965141881743240e-01,4.343771228829025404e+02
-4.896795155603268945e+00,1.887821198277782742e+01,1.111724532541221500e+00,9.162702802814532976e-01,2.305129404292008757e-02,3.998942501660117665e-01,4.359482980328901931e+02
-4.803471767664376557e+00,1.847707494682678231e+01,1.402226181035150843e+00,7.342455860441354787e-01,2.131448798323412885e-01,6.445546366104517588e-01,4.375194731828778458e+02
-4.687341440012360749e+00,1.809784017211653762e+01,1.662180405877309974e+00,8.998953869819162898e-01,2.341102247486618049e-01,3.679384393576208279e-01,4.389529461146747735e+02
-4.498166496384379265e+00,1.761844890744569270e+01,1.971977107974665966e+00,9.715995898921769847e-01,2.306353683994409598e-01,5.291090402556138106e-02,4.407046881510376579e+02
-4.247453337251158700e+00,1.712194108069702025e+01,2.271480268221420129e+00,9.418725690792828509e-01,2.030830772154086084e-01,-2.676402947334731719e-01,4.424564301874005423e+02
-3.929599457342021207e+00,1.661042034783784516e+01,2.559690804687857035e+00,8.138177414983585045e-01,1.543297106506449634e-01,-5.602508581282301670e-01,4.442081722237634267e+02
-3.538984618963829654e+00,1.608593662496826227e+01,2.835609731491443686e+00,6.008035540478735559e-01,8.946493359380597310e-02,-7.943734103688149251e-01,4.459599142601263111e+02
-2.807886121181224937e+00,1.531822047357442074e+01,3.199392403670211937e+00,3.169908213566581257e-01,5.877059338972136920e-02,-9.466048999073018999e-01,4.484558067237550745e+02
-2.260349870570784514e+00,1.483409264296976282e+01,3.405348519227151538e+00,0.000000000000000000e+00,2.192496970815314972e-02,-9.997586187194160701e-01,4.499873625635356689e+02
-1.671360204760425017e+00,1.433265034418138839e+01,3.601714615165454880e+00,7.747971013751829839e-01,1.734023078316516628e-02,-6.319705436952834932e-01,4.515189184033162633e+02
-1.057327274395141403e+00,1.380207119220749057e+01,3.788730084440905532e+00,9.796526068684232591e-01,0.000000000000000000e+00,2.006957145972609602e-01,4.530504742430968577e+02
-4.346128921254477362e-01,1.323093262235038381e+01,3.966635686177242270e+00,9.796526061767043547e-01,-0.000000000000000000e+00,2.006957144555525374e-01,4.545820300828774521e+02
1.817574261040273698e-01,1.261042327036849642e+01,4.135668024107650886e+00,7.268315228414687912e-01,-5.907656121675477490e-01,-3.502997700312678320e-01,4.561135859226580465e+02
7.820927378223070381e-01,1.193825446436368765e+01,4.296050331164498637e+00,0.000000000000000000e+00,-9.968312352731990567e-01,-7.953293898568999931e-02,4.576451417624386409e+02
1.363241146834028195e+00,1.121758449214936881e+01,4.447991683363838433e+00,9.968779763718004228e-01,-0.000000000000000000e+00,-7.894491893667315852e-02,4.591766976022192353e+02
1.924642067565397463e+00,1.045304124763582010e+01,4.591696212313260972e+00,3.588155418937172825e-01,-5.920762440855659170e-01,-7.215920787303606865e-01,4.607082534419998296e+02
2.465763824531787662e+00,9.649256450620200098e+00,4.727368103148140932e+00,4.662972870391366986e-01,1.652197473817304876e-02,-8.844726476559054973e-01,4.622398092817804240e+02
2.986103661915320728e+00,8.810865483979785751e+00,4.855211593202033882e+00,9.968779763716175690e-01,0.000000000000000000e+00,-7.894491893665865623e-02,4.637713651215610184e+02
3.485187752796990779e+00,7.942507230825442299e+00,4.975430970676820053e+00,-9.796745246527556183e-01,-0.000000000000000000e+00,2.005886979221412070e-01,4.653029209613416128e+02
3.962571208043268456e+00,7.048823911616766580e+00,5.088230573312596761e+00,9.968779763646680170e-01,-0.000000000000000000e+00,-7.894491893610830480e-02,4.668344768011222072e+02
4.417838084847130808e+00,6.134460921240338926e+00,5.193814787057332794e+00,0.000000000000000000e+00,-0.000000000000000000e+00,-9.999989999999968626e-01,4.683660326409028016e+02
4.873989001125499598e+00,5.150251477980420489e+00,5.297588475068981673e+00,-0.000000000000000000e+00,-8.566789209172613606e-02,-9.963227450202754021e-01,4.699849865328579313e+02
5.303324266787073249e+00,4.153015537232821686e+00,5.393337578219180806e+00,-0.000000000000000000e+00,9.968731427319725835e-01,-7.900593205829646581e-02,4.716039404248130609e+02
5.705436231266312497e+00,3.148563256988375247e+00,5.481317480526113783e+00,-9.796745246597646783e-01,0.000000000000000000e+00,2.005886979235763090e-01,4.732228943167681905e+02
6.079955488166415734e+00,2.142708099371940289e+00,5.561783622401912375e+00,-9.796745239680101358e-01,-0.000000000000000000e+00,2.005886977819393013e-01,4.748418482087233201e+02
6.426592537583080578e+00,1.141281197615554577e+00,5.634990502230378340e+00,-9.968817776708351897e-01,-0.000000000000000000e+00,-7.889690326035841972e-02,4.764608021006784497e+02
6.745179578920310171e+00,1.501452341257115408e-01,5.701190677951649022e+00,-0.000000000000000000e+00,-0.000000000000000000e+00,-9.999989999999968626e-01,4.780797559926335794e+02
7.035629061056758005e+00,-8.248211158396904219e-01,5.760635761790305232e+00,-0.000000000000000000e+00,9.968731427319694749e-01,-7.900593205829621601e-02,4.796987098845887090e+02
7.297892098982839748e+00,-1.777738252793396923e+00,5.813577414990451331e+00,4.896725565858308649e-01,1.691298468475116445e-02,-8.717412106104386327e-01,4.813176637765438386e+02
7.531958476806967617e+00,-2.702725883011411590e+00,5.860267345985898046e+00,-3.571165318403795585e-01,-5.924852232853072831e-01,-7.220990533688904645e-01,4.829366176684989682e+02
7.737856650246279777e+00,-3.593903248538203421e+00,5.900957308570097481e+00,-9.089459700192443758e-01,4.169115275727443004e-01,-4.199995240735517282e-05,4.845555715604540978e+02
7.915653748601853223e+00,-4.445389357202238045e+00,5.935899100065817002e+00,-8.875683493727258844e-01,2.518998153461755179e-02,-4.599846628106809554e-01,4.861745254524092275e+02
8.065455576218390377e+00,-5.251303212639572671e+00,5.965344559494589305e+00,-8.278908242256414196e-01,-1.296052000459549103e-01,-5.457080494958505001e-01,4.877934793443643571e+02
8.185039697145311877e+00,-5.988595312805682802e+00,5.989071584334831222e+00,-7.393434984295481627e-01,-2.798808305542662689e-01,-6.124017570344485462e-01,4.893727520113143896e+02
8.279081730838797171e+00,-6.673479826613464283e+00,6.008153999865749384e+00,-6.250141620783160601e-01,-4.203965746803645098e-01,-6.577400833150977011e-01,4.909520246782644222e+02
8.315386152860799740e+00,-6.974772549703861735e+00,6.015709588666344310e+00,-4.888896574165104703e-01,-5.462524444828048553e-01,-6.801420217635549825e-01,4.916820883707489998e+02
8.387436031167991857e+00,-7.728520397562586020e+00,6.031452486274276659e+00,-3.357168501007103956e-01,-6.530596665944308210e-01,-6.788263904909468405e-01,4.936592775981091563e+02
