-5.732020131515032091e+00,-2.269289621145272218e+00,-6.286371618527220484e+00,-2.272997664908239270e-03,5.869383970275305895e-01,-8.096271682553137783e-01,5.755889355606510804e+01
-6.253902342172028561e+00,-2.196973026737703449e+00,-5.854143790210857290e+00,-0.000000000000000000e+00,-9.924842934885419465e-01,-1.223639128938290854e-01,6.010633580849721369e+01
-6.793317993879976591e+00,-2.163754452480378454e+00,-5.293247413971738702e+00,-0.000000000000000000e+00,5.892782266479934528e-01,-8.079289396970084081e-01,6.299307464477005425e+01
-7.172428647356424491e+00,-2.159761314662780318e+00,-4.819497852731895016e+00,-0.000000000000000000e+00,-9.983890695296534501e-01,-5.672094713768314339e-02,6.524293661838004255e+01
-7.511496907355100561e+00,-2.161363081848871381e+00,-4.331856566439510559e+00,9.360262369457841292e-01,-2.510647953304693814e-01,2.466157989573179721e-01,6.749279859199003795e+01
-7.814307264285084820e+00,-2.157878391182855626e+00,-3.811414831266003667e+00,9.726792459838760896e-02,0.000000000000000000e+00,9.952572284815361936e-01,6.988417700898770590e+01
-7.984822413337093749e+00,-2.147287699962577623e+00,-3.458413398811928996e+00,6.075376243261026987e-01,7.797075178639968351e-01,1.514999063192830064e-01,7.152344036060237897e+01
-8.147830517524786487e+00,-2.115622142279687257e+00,-3.022110574100480562e+00,9.984358225269304166e-01,0.000000000000000000e+00,-5.589193408565105992e-02,7.359432021803705481e+01
-8.212688533478406328e+00,-2.017540497127439547e+00,-2.480315565508425024e+00,9.973505985314402578e-01,-0.000000000000000000e+00,-7.273089779916236397e-02,7.629843917353215943e+01
-8.191898158568545085e+00,-1.962128565526707780e+00,-2.281063026288437268e+00,9.973505978851086029e-01,-0.000000000000000000e+00,-7.273089775202921936e-02,7.733463552839180011e+01
-8.176335944584481652e+00,-1.930556218567917037e+00,-2.174749094621953649e+00,0.000000000000000000e+00,9.999989999994974248e-07,9.999989999994973733e-01,7.789101077776658144e+01
-8.140029949827809475e+00,-1.868663294542440623e+00,-1.978725162520568182e+00,9.948943569147706834e-01,0.000000000000000000e+00,-1.009119347719943799e-01,7.892104193766662945e+01
-8.060536363139348737e+00,-1.764527517704069348e+00,-1.690126363361645234e+00,9.781178483123764700e-01,-1.045222640696684066e-02,-2.077840844948606325e-01,8.044738639663522406e+01
-7.948249014989094974e+00,-1.643985147624396070e+00,-1.402716034518507904e+00,9.497874378597080947e-01,-2.078098770058433784e-02,-3.122018152205298103e-01,8.197373085560381867e+01
-7.806220287084379983e+00,-1.508022871204238280e+00,-1.115074893530084266e+00,6.548889190326085963e-01,-7.004290273887329166e-01,-2.837563767032711404e-01,8.350007531457241328e+01
-7.716357198018283903e+00,-1.426449666714664222e+00,-9.535836943473295912e-01,0.000000000000000000e+00,-9.950534475071183271e-01,-9.933094484754553810e-02,8.435532562772920073e+01
-7.456937317474722882e+00,-1.204616705541231569e+00,-5.542047580076688851e-01,0.000000000000000000e+00,-9.994479687043907878e-01,-3.319273783592245619e-02,8.646411939583471451e+01
-7.233582150670072153e+00,-1.024579806831126261e+00,-2.636067266824203004e-01,0.000000000000000000e+00,-9.994513326409963927e-01,3.309129303097799180e-02,8.799682483877838024e+01
-6.987839822370783160e+00,-8.333668436564082294e-01,2.537104803454071425e-02,0.000000000000000000e+00,-9.950635238591930554e-01,9.922995251817745554e-02,8.952953028172204597e+01
-6.712865681650505678e+00,-6.268209009372629481e-01,3.184744929470121333e-01,7.364161080999085396e-01,-4.016585135368970771e-01,-5.443893406704479743e-01,9.110419438554150418e+01
-6.415626690214148553e+00,-4.118538833856384418e-01,6.053070899507969616e-01,5.760832163300317887e-01,-5.993410883361652841e-01,-5.558024718319491964e-01,9.267885848936096238e+01
-6.096837502314366830e+00,-1.905762147997894784e-01,8.832980907859624420e-01,3.783536023995333064e-01,-7.581172033173414482e-01,-5.311354418456750714e-01,9.425352259318042059e+01
-5.757226062043205417e+00,3.490788253254263618e-02,1.149876807976802473e+00,5.119696326534558528e-01,1.099999210732662775e-05,-8.590023836518086986e-01,9.582818669699987879e+01
-5.397533585120828370e+00,2.625004639441680387e-01,1.402472632503600547e+00,3.996517389686284893e-01,-1.354739068109789557e-01,-9.065998610813139624e-01,9.740285080081933700e+01
-5.019153768159656970e+00,4.903735870281979992e-01,1.638653322335117180e+00,2.740506525458014098e-01,-2.664560070425104343e-01,-9.240646276913966339e-01,9.897751490463879520e+01
-4.624769670621334150e+00,7.172402126829701130e-01,1.856263290009879885e+00,1.393409662666698634e-01,-3.885818767076947289e-01,-9.108162384447009430e-01,1.005521790084582534e+02
-4.217710951308583311e+00,9.421013811393106341e-01,2.053285346593239691e+00,0.000000000000000000e+00,-4.977924468361116794e-01,-8.672950362322737750e-01,1.021268431122777116e+02
-3.791473941632915512e+00,1.169076923408126412e+00,2.231178261091788517e+00,-5.347768302128170365e-02,-4.586618774759383954e-01,-8.869991091141621320e-01,1.037381329339357450e+02
-3.358914188696939807e+00,1.391867849958982717e+00,2.382640916164750600e+00,-1.066997757609360609e-01,-4.173392168364356003e-01,-9.024639250093903220e-01,1.053494227555937783e+02
-2.923702210064870410e+00,1.609472517203330399e+00,2.505462332644362800e+00,-1.594119142823611224e-01,-3.740219583006124671e-01,-9.136155735834732283e-01,1.069607125772518117e+02
-2.489515127148745233e+00,1.820920877051039666e+00,2.597431737525303763e+00,-2.113621718861626586e-01,-3.289171277843839225e-01,-9.204007580103722441e-01,1.085720023989098451e+02
-2.060036571777815517e+00,2.025274515712991441e+00,2.656338579878868345e+00,-2.623022630473630379e-01,-2.822402943726849966e-01,-9.227870496669505762e-01,1.101832922205678784e+02
-1.638956592681426461e+00,2.221626692085376664e+00,2.679972546765989616e+00,-3.119887299550322401e-01,-2.342145401352824785e-01,-9.207630431172659780e-01,1.117945820422259118e+02
-1.229971561886043840e+00,2.409102375715327593e+00,2.666123579149155098e+00,-3.601841059877963214e-01,-1.850693940419006200e-01,-9.143384106461525107e-01,1.134058718638839451e+02
-8.366442105037746879e-01,2.586858000520354750e+00,2.613413047909441733e+00,-4.066580505685181701e-01,-1.350397350675568153e-01,-9.035438560804669450e-01,1.150171616855419785e+02
-4.622607629049059197e-01,2.754079604649044999e+00,2.522142178973482363e+00,-4.511884499776717683e-01,-8.436466972616332716e-02,-8.884309681166270289e-01,1.166284515072000119e+02
-1.099678190704049818e-01,2.909980700451118452e+00,2.393478146134291329e+00,-4.935624788669210616e-01,-3.328638939276320347e-02,-8.690719738523738913e-01,1.182397413288580452e+02
2.170849511444137847e-01,3.053801746727539346e+00,2.228605647447870819e+00,-5.335776174014186246e-01,1.795098712835399221e-02,-8.455593936967856772e-01,1.198510311505160786e+02
5.157419837285331932e-01,3.184810173945227696e+00,2.028709641610681125e+00,-6.517788462687695850e-01,2.107669618136506426e-02,-7.581148385535660950e-01,1.214623209721741119e+02
7.743930474709723732e-01,3.298017908562330458e+00,1.805167757769240211e+00,-7.558834661729488813e-01,2.374656055338005348e-02,-6.542738619483304818e-01,1.230130338369359322e+02
1.003738454749472542e+00,3.397168635099863554e+00,1.553418616379430572e+00,-8.436399150693408844e-01,2.590283675968774180e-02,-5.362823293286824722e-01,1.245637467016977524e+02
1.203211796831032965e+00,3.480039777499890352e+00,1.275628149568876823e+00,-9.131502092273940940e-01,2.749888919508343757e-02,-4.066921519794538531e-01,1.261144595664595727e+02
1.373506882229373893e+00,3.543880909493672071e+00,9.743809624862039831e-01,-9.629109920920509991e-01,2.850019874629762875e-02,-2.683060938191170197e-01,1.276651724312213929e+02
1.515936182715777347e+00,3.585668558101388292e+00,6.524710663729034188e-01,-9.918460479183838219e-01,2.888510934331424071e-02,-1.241171530761212560e-01,1.292158852959832132e+02
1.631791557874597398e+00,3.602368081092761631e+00,3.126926102394456675e-01,-9.993295771297768804e-01,2.864529630788427081e-02,2.275617001866729605e-02,1.307665981607450192e+02
1.722224669561257082e+00,3.591782861647699221e+00,-4.223610619066454214e-02,-9.851997301779320537e-01,2.778594637492785152e-02,1.691373194841241101e-01,1.323173110255068252e+02
1.788134781701921971e+00,3.553404815400604377e+00,-4.097486190308574083e-01,-9.497621073611940412e-01,2.632564549790556221e-02,3.118603851258575643e-01,1.338680238902686312e+02
1.830299364247025995e+00,3.487567351419910811e+00,-7.873543489128437267e-01,-8.937831490312949656e-01,2.429597686786107505e-02,4.478385736140119699e-01,1.354187367550304373e+02
1.849497317305013544e+00,3.394596959931104330e+00,-1.172562649161816850e+00,-7.736884750554596790e-01,2.463139536683367492e-02,6.330856481783309064e-01,1.369694496197922433e+02
1.846508950725073372e+00,3.274813204989186932e+00,-1.562882822399987326e+00,-6.158846744722997757e-01,2.376629396164397709e-02,7.874764955363109387e-01,1.385201624845540493e+02
1.822115963665840832e+00,3.128528717239331236e+00,-1.955824137150367736e+00,-4.280629866906713321e-01,2.174283686053164744e-02,9.034862082351896584e-01,1.400708753493158554e+02
1.775352907377324208e+00,2.950723496630472287e+00,-2.359335821764111163e+00,-2.193777011000476729e-01,1.865964540252776013e-02,9.754605281064507860e-01,1.416629677535833309e+02
1.707160495739462602e+00,2.744897908558993738e+00,-2.760221403500824788e+00,-0.000000000000000000e+00,1.466699169441225067e-02,9.998914337839540645e-01,1.432550601578508065e+02
1.618413017635966122e+00,2.511915673411206029e+00,-3.155584774937324255e+00,4.737066590282825174e-01,3.605097405068663496e-02,8.799433666211033955e-01,1.448471525621182820e+02
1.509993482927273423e+00,2.253712325680635953e+00,-3.542272411924226816e+00,3.617455563874195645e-01,3.134090634630536110e-02,9.317488395602357976e-01,1.464392449663857576e+02
1.382799625578818636e+00,1.972755253826115718e+00,-3.917002123499010668e+00,2.442709962289007497e-01,2.615316300315888992e-02,9.693532341024131416e-01,1.480313373706532332e+02
1.237745085267262457e+00,1.671503719746826988e+00,-4.276491802703509038e+00,1.230734173425587219e-01,2.056681084333342527e-02,9.921834206605641970e-01,1.496234297749207087e+02
1.076443471967228449e+00,1.353007802257357728e+00,-4.618080838903037666e+00,0.000000000000000000e+00,1.466699169439773104e-02,9.998914337829643006e-01,1.512155221791881843e+02
9.018977815188699010e-01,1.021499564478429267e+00,-4.940351525737437299e+00,-0.000000000000000000e+00,7.333191487407806144e-03,9.999721116960981204e-01,1.528076145834556598e+02
7.178242794038465213e-01,6.817822246205565984e-01,-5.242507681826428900e+00,-0.000000000000000000e+00,-9.999989999326389967e-07,9.999989999326391876e-01,1.543997069877231354e+02
5.279710016326485400e-01,3.386270577706680385e-01,-5.523753267106728870e+00,-4.595974337851653768e-01,-8.868719073915704021e-01,4.718494186909653193e-02,1.559917993919906110e+02
3.361176608925922626e-01,-3.226789395912761649e-03,-5.783292388423395103e+00,-4.614607441857491166e-01,-8.791385989807377621e-01,1.190264901572851142e-01,1.575838917962580865e+02
1.460755522869817968e-01,-3.390724834875217808e-01,-6.020329305120417196e+00,-4.609131554449213963e-01,-8.668122355984970717e-01,1.902461861798271647e-01,1.591759842005255621e+02
-4.376486853787470849e-02,-6.739287229084989228e-01,-6.239957117273201348e+00,-4.579575283334468283e-01,-8.499572160571705615e-01,2.604719430504511268e-01,1.608177560236051704e+02
-2.231634433178948940e-01,-9.922918430317333449e-01,-6.433311742448021064e+00,-4.526093043992587828e-01,-8.286615991046915042e-01,3.293368666606762973e-01,1.624595278466847788e+02
-3.882496558163813782e-01,-1.290285286869540915e+00,-6.600013005723208259e+00,-4.448964252983894641e-01,-8.030366433723828967e-01,3.964811725155586442e-01,1.641012996697643871e+02
-5.343292114615803001e-01,-1.562579667691648355e+00,-6.738974720315529687e+00,-4.348591868192583920e-01,-7.732162261148814997e-01,4.615540654277887067e-01,1.657303144908346439e+02
-6.596130243551248107e-01,-1.808952711260431334e+00,-6.851473677497728509e+00,-4.225500283627137144e-01,-7.393561437785181045e-01,5.242155722496039116e-01,1.673593293119049008e+02
-7.617523200097136016e-01,-2.027860876079027985e+00,-6.937240317654881139e+00,-4.080332589774470775e-01,-7.016332980518907858e-01,5.841383180672248265e-01,1.689883441329751577e+02
-8.536676911213091357e-01,-2.286403673026018879e+00,-6.998476258456189036e+00,-3.913847213818810178e-01,-6.602447716507143793e-01,6.410092365777939616e-01,1.713957818958127746e+02
-8.729620109957809682e-01,-2.435726312981721708e+00,-6.986083098664587432e+00,-3.726913957276491995e-01,-6.154067986651815536e-01,6.945312057125730965e-01,1.733093333169784671e+02
-8.505221953654122924e-01,-2.545196708161531873e+00,-6.921609960039343257e+00,-3.520509451746461349e-01,-5.673536348490146874e-01,7.444245999606340369e-01,1.752228847381441597e+02
-7.945728886463748752e-01,-2.616512008285114543e+00,-6.812388045025345562e+00,-3.295712056516735267e-01,-5.163363337522388630e-01,7.904287512824235140e-01,1.769943616397087567e+02
-7.072549671422200257e-01,-2.664980759138889876e+00,-6.652141921459620022e+00,-3.053696224683621341e-01,-4.626214350917214335e-01,8.323033109801332152e-01,1.787658385412733537e+02
-5.895766895689258380e-01,-2.695805278741939315e+00,-6.439570969510129750e+00,-2.795726367217801767e-01,-4.064895722121523169e-01,8.698295054092465284e-01,1.805373154428379507e+02
-4.422158487130494753e-01,-2.715271076952970652e+00,-6.180777964224621002e+00,-2.523150247034860461e-01,-3.482340059129414578e-01,9.028112789702974483e-01,1.823087923444025478e+02
-2.652977802102939875e-01,-2.729971996673493440e+00,-5.885572844757435362e+00,-2.237391937583860235e-01,-2.881590923013084837e-01,9.310763184088152178e-01,1.840802692459671448e+02
-7.240947915618192732e-02,-2.745069157789426839e+00,-5.583656599807969023e+00,-1.939944382743239160e-01,-2.265786926766014397e-01,9.544769530716151751e-01,1.857479976157101191e+02
1.446097004484130366e-01,-2.766270854369393462e+00,-5.266715952385276900e+00,-1.632361596896660383e-01,-1.638145337538052804e-01,9.728909264157418191e-01,1.874157259854530935e+02
3.615503419273617403e-01,-2.793844829529040563e+00,-4.969425860776708781e+00,-1.316250545941612116e-01,-1.001945267936914657e-01,9.862220347391182917e-01,1.889390883555622622e+02
5.931965011243912622e-01,-2.831054196685507840e+00,-4.668852710619280089e+00,-9.932627516508120424e-02,-3.605105442178899861e-02,9.944006297957632690e-01,1.904624507256714310e+02
8.364744329980065007e-01,-2.878409129167865732e+00,-4.367714147115236756e+00,-6.650856632518384326e-02,2.828076591284142335e-02,9.973839826696964117e-01,1.919858130957805997e+02
1.145516728006791496e+00,-2.949845244480485018e+00,-4.001601531387048105e+00,-3.334338413066408741e-02,9.246483276601613621e-02,9.951565070066082930e-01,1.938525587422797400e+02
1.459814947894496395e+00,-3.034137673483855213e+00,-3.642867604773774914e+00,-3.999995304135556337e-06,1.561658166664083303e-01,9.877298404372794050e-01,1.957193043887788804e+02
1.900354270005584434e+00,-3.171529944248298705e+00,-3.150124216870873628e+00,-9.741568796143648123e-01,-4.289895066157300985e-02,-2.217567449557902581e-01,1.984406693608128194e+02
2.126097935997576460e+00,-3.249822306122772453e+00,-2.897043116910138050e+00,-9.640101073200081361e-01,-7.696681508668100358e-02,-2.544771548882885925e-01,1.999363587990146698e+02
2.481047267437063830e+00,-3.375247341435362980e+00,-2.451768132616439111e+00,-9.516131379016687930e-01,-1.108550198125811542e-01,-2.866035595646628797e-01,2.029129500469389313e+02
2.656263447207992456e+00,-3.422104270042796159e+00,-2.139389820764605599e+00,-9.369949086964408647e-01,-1.444844636907362534e-01,-3.180609703010599532e-01,2.055053673847398272e+02
2.714918293691317874e+00,-3.413836365787001004e+00,-1.962726338474855448e+00,-9.201895416753036461e-01,-1.777766495986899953e-01,-3.487759599639801977e-01,2.072214651416229287e+02
2.744214325322904546e+00,-3.373249448280962959e+00,-1.801058241943984672e+00,-9.012362637977076041e-01,-2.106538676413571565e-01,-3.786768343371836321e-01,2.089375628985060303e+02
2.748210019146624106e+00,-3.295342059209319441e+00,-1.651757737901203171e+00,-8.801793154564134802e-01,-2.430393765149209684e-01,-4.076937994449310598e-01,2.106536606553891318e+02
2.729724146035968690e+00,-3.172167866016989191e+00,-1.508312223937197771e+00,-8.570678472253261404e-01,-2.748575826105454922e-01,-4.357591244413746012e-01,2.124193393247330448e+02
2.692159758035885364e+00,-3.002094041218644982e+00,-1.372354934377495894e+00,-8.319558051510277386e-01,-3.060342164404099563e-01,-4.628072996864034394e-01,2.141850179940769578e+02
2.647489998978094228e+00,-2.816514253145448787e+00,-1.257385301900125096e+00,-8.049018048553560067e-01,-3.364965059747879739e-01,-4.887751896394352258e-01,2.157256422970113476e+02
2.594548689193737712e+00,-2.599362536340181773e+00,-1.143670757754937872e+00,-7.759689947423824563e-01,-3.661733464860760789e-01,-5.136021802146882864e-01,2.172662665999457374e+02
2.534810299231250230e+00,-2.352032766535435027e+00,-1.029508013630198393e+00,-7.452249086284995494e-01,-3.949954665037714308e-01,-5.372303202543272649e-01,2.188068909028801272e+02
2.469637472849504523e+00,-2.076261880330089848e+00,-9.133260267048132208e-01,-7.127413081389296634e-01,-4.228955894934223192e-01,-5.596044567895336330e-01,2.203475152058145170e+02
2.345760917199658291e+00,-1.528654550217008135e+00,-7.037380342755586993e-01,-8.536475879973068892e-01,2.904298598275376064e-02,5.200387490095819132e-01,2.229568572653024887e+02
2.261508770328802154e+00,-1.140562329850473899e+00,-5.634024499748949699e-01,-8.710613791589444377e-01,-4.908788197031822564e-01,-1.697227459123171536e-02,2.245814899898486487e+02
2.174956064424599322e+00,-7.317929174972592765e-01,-4.160633087348578063e-01,-4.015486972678312116e-01,-7.363974448215194757e-01,-5.444955894985293865e-01,2.262061227143948088e+02
2.086739999480835106e+00,-3.067376599628482969e-01,-2.609492562495526746e-01,-3.582542948459432330e-01,-7.195779343796211425e-01,-5.948608716152634646e-01,2.278307554389409688e+02
1.969810711854923291e+00,2.632858397084635871e-01,-4.537295323452473356e-02,-3.132782587400781971e-01,-6.993807460577463608e-01,-6.424338912643202670e-01,2.299361849680944658e+02
1.849071206455631833e+00,8.477953463384825250e-01,1.886816063974636748e-01,-2.668317054147057998e-01,-6.759006853366665846e-01,-6.869913424108564648e-01,2.320416144972479628e+02
1.737688894054148836e+00,1.373424201570343062e+00,4.125640044464020106e-01,-2.191326538132664925e-01,-6.492479673629215631e-01,-7.283240740964694870e-01,2.339228117885992333e+02
1.622439506514273821e+00,1.894904996486333815e+00,6.489987392223218743e-01,-1.704050019777220426e-01,-6.195476995849499291e-01,-7.662380721685788654e-01,2.358040090799505037e+02
1.501821321092214889e+00,2.406941058751108198e+00,8.965183881059249904e-01,-1.208774760757132527e-01,-5.869392944877943608e-01,-8.005553699553987768e-01,2.376852063713017742e+02
1.387671706441980568e+00,2.856312433307333976e+00,1.126712321096844160e+00,-7.078255676862424406e-02,-5.515758151835733480e-01,-8.311148836127280060e-01,2.393772263515389511e+02
1.266807138860854165e+00,3.293202699198793493e+00,1.361975373871406658e+00,-2.035538796005405618e-02,-5.136232569299706840e-01,-8.577731682224628562e-01,2.410692463317761280e+02
1.136710816445460015e+00,3.716947275318722266e+00,1.600060189776087771e+00,3.016732695325694338e-02,-4.732597679495977316e-01,-8.804050910947592845e-01,2.427612663120133050e+02
9.736178569580086206e-01,4.178827415419178237e+00,1.868969196667132238e+00,8.054843614748909142e-02,-4.306748132078276892e-01,-8.989044191144025531e-01,2.446723705017103612e+02
7.880844238197205476e-01,4.623156625193900027e+00,2.133403659377893558e+00,1.305514525400310877e-01,-3.860682850742847005e-01,-9.131843173753640963e-01,2.465834746914074174e+02
6.152770257084634320e-01,4.983258955464758166e+00,2.346718183242119782e+00,1.799416638354696951e-01,-3.396495650423184687e-01,-9.231777567638410620e-01,2.481763902549058116e+02
4.261775771538864888e-01,5.337890711744300631e+00,2.549810072056033050e+00,2.284872342395061484e-01,-2.916365409103648942e-01,-9.288378285773319920e-01,2.497693058184042059e+02
2.199984712854519964e-01,5.689635531939710944e+00,2.738606609005701298e+00,2.759602926701777981e-01,-2.422545840380038729e-01,-9.301379647035146192e-01,2.513622213819026001e+02
-2.273333839672740664e-02,6.069424181150242070e+00,2.921704749538633461e+00,3.221380023591779995e-01,-1.917354914768023277e-01,-9.270720623258001947e-01,2.530850393346039482e+02
-2.848269988369417360e-01,6.450988097350313311e+00,3.078918207455238587e+00,3.668036068233949121e-01,-1.403163979408091899e-01,-9.196545125703867729e-01,2.548078572873052963e+02
-5.334386062584263177e-01,6.796348043449311760e+00,3.197097283403177226e+00,4.097474472976683213e-01,-8.823866272306830905e-02,-9.079201329603174830e-01,2.563537788340681800e+02
-7.914626938284804458e-01,7.144911454640860526e+00,3.293434134267577917e+00,4.507679468536360257e-01,-3.574673678208332983e-02,-8.919240039933651332e-01,2.578997003808310637e+02
-1.056211201202027938e+00,7.496608106359194501e+00,3.367139841009844314e+00,4.896725565858144336e-01,1.691298468475059893e-02,-8.717412106104095448e-01,2.594456219275939475e+02
-1.324985067880706024e+00,7.851177587523635815e+00,3.417704370031870109e+00,4.780272641022016988e-01,1.671896069572938182e-02,-8.781847249053709170e-01,2.609915434743568312e+02
-1.692796964372465407e+00,8.337703554338114387e+00,3.444316677255832904e+00,4.662972870224132982e-01,1.652197473758049845e-02,-8.844726476241844271e-01,2.630983951370834575e+02
-1.965029807091372316e+00,8.702056084701093042e+00,3.436014933877344912e+00,4.568700220355091934e-01,-1.455097984266744693e-01,-8.775503868884495517e-01,2.646719166653975890e+02
-2.231258627933569993e+00,9.065353793646826475e+00,3.413015551493459476e+00,4.353854392640205684e-01,-3.037013873181200752e-01,-8.474685755937333420e-01,2.662454381937117205e+02
-2.664485923094781938e+00,9.697603678083021705e+00,3.344716131607697651e+00,4.024105357518386605e-01,-4.538779715758594069e-01,-7.950210988614082597e-01,2.690423153242666103e+02
-2.946823701668127349e+00,1.016474887218416612e+01,3.282498724456401007e+00,3.588155418935190522e-01,-5.920762440852388453e-01,-7.215920787299621164e-01,2.711813290364380578e+02
-3.173383500163198701e+00,1.061572890980208328e+01,3.234035616769267651e+00,7.268315228409760742e-01,-5.907656121671474025e-01,-3.502997700310304663e-01,2.733203427486095052e+02
-3.319100462037526622e+00,1.100841913339854372e+01,3.214935568332164983e+00,8.866875027761281780e-01,-3.115204960214582042e-01,-3.416698010932241458e-01,2.752575089428830779e+02
-3.395733609075567205e+00,1.133818194482982378e+01,3.224454828256301031e+00,9.546769266718609925e-01,-0.000000000000000000e+00,-2.976406653673169256e-01,2.769460215713796742e+02
-3.405457964856373199e+00,1.139910867848065656e+01,3.228875067744769733e+00,9.796526068673956367e-01,-0.000000000000000000e+00,2.006957145970504341e-01,2.772638023249403432e+02
-3.424867984336918081e+00,1.178493325841268380e+01,3.290421813249276184e+00,9.796526061767043547e-01,-0.000000000000000000e+00,2.006957144555525374e-01,2.793519319047393878e+02
-3.413621069955786957e+00,1.192550744561393117e+01,3.327918923825888164e+00,9.822511769525622549e-01,-0.000000000000000000e+00,1.875649897288735324e-01,2.801474229694475184e+02
-3.404768080308197220e+00,1.201208211847830576e+01,3.352905625387542443e+00,9.846737581051216992e-01,-0.000000000000000000e+00,1.744006596772653961e-01,2.806420738369828314e+02
-3.354747444087135211e+00,1.229930892438384404e+01,3.460640996104037193e+00,9.869199163167140521e-01,-0.000000000000000000e+00,1.612050829663035090e-01,2.823526598806212746e+02
-3.272569475430164410e+00,1.256193795417281045e+01,3.607714388863442423e+00,9.889892491838085942e-01,-0.000000000000000000e+00,1.479806237168705130e-01,2.840632459242597179e+02
-3.146427368186460516e+00,1.282239550557050656e+01,3.824269479112001324e+00,9.908813859782215072e-01,-0.000000000000000000e+00,1.347296512230397592e-01,2.860001234538141830e+02
-2.991180310172267820e+00,1.303662704807750572e+01,4.094944724600057206e+00,9.925959877134751252e-01,-0.000000000000000000e+00,1.214545395278448930e-01,2.879370009833686481e+02
-2.947252394304852974e+00,1.308566508110568982e+01,4.172847036056291259e+00,9.941327472054797276e-01,-0.000000000000000000e+00,1.081576669982011463e-01,2.884420932743479966e+02
-2.847337976528462988e+00,1.318812391612435597e+01,4.351411607801371595e+00,9.954913891275301019e-01,-0.000000000000000000e+00,9.484141589905337177e-02,2.895637433614400038e+02
-2.653424838232931737e+00,1.333276891626317529e+01,4.705851603355131196e+00,9.966716700596051082e-01,-0.000000000000000000e+00,8.150817196682792753e-02,2.915982218871575924e+02
-2.498076566420373013e+00,1.340556582168858135e+01,4.995401354243586667e+00,9.976733785319623626e-01,-0.000000000000000000e+00,6.816032398226282152e-02,2.931261772873576206e+02
-2.337770177762941604e+00,1.345502306348372734e+01,5.295679043937620456e+00,9.984963350630189360e-01,-0.000000000000000000e+00,5.480026334269356980e-02,2.946541326875576488e+02
-2.173899161875084474e+00,1.348330748252123534e+01,5.601581337159836416e+00,9.991403921915140707e-01,-0.000000000000000000e+00,4.143038363386975648e-02,2.961820880877576769e+02
-2.007842940440273782e+00,1.349259691123443794e+01,5.908004862165055826e+00,9.996054345029447008e-01,-0.000000000000000000e+00,2.805308020137982014e-02,2.977100434879577051e+02
-1.796906197545231176e+00,1.347755653715383950e+01,6.286369601265620943e+00,9.998913786502725554e-01,-0.000000000000000000e+00,1.467074972175895324e-02,2.996424975149617467e+02
-1.587447455225545756e+00,1.343419847647710696e+01,6.642488714577825526e+00,9.999981733688948493e-01,-0.000000000000000000e+00,1.285789773357706722e-03,3.015749515419657882e+02
-1.381960741349520072e+00,1.336756559322342675e+01,6.963523469023386703e+00,9.999257994858806731e-01,-0.000000000000000000e+00,-1.209940159295302443e-02,3.035074055689698298e+02
-1.202247460067549456e+00,1.329243665431846821e+01,7.213835200315360296e+00,9.996742699234673069e-01,-0.000000000000000000e+00,-2.548242628316363043e-02,3.052431107428334940e+02
-1.028541071661633888e+00,1.320680705884793404e+01,7.421540081681761158e+00,9.992436296968177922e-01,-0.000000000000000000e+00,-3.886088658951820929e-02,3.069788159166971582e+02
-9.854201521786359885e-01,1.318384471026699245e+01,7.467933684347654477e+00,9.986339559060398718e-01,-0.000000000000000000e+00,-5.223238561984070577e-02,3.074191170015756143e+02
-8.263467058471674065e-01,1.309455997217344780e+01,7.618132313059981620e+00,9.978453577224669635e-01,-0.000000000000000000e+00,-6.559452772671858778e-02,3.090826228308427517e+02
-6.744798103694564784e-01,1.300209716290693684e+01,7.719492877096551631e+00,9.968779763692036111e-01,-0.000000000000000000e+00,-7.894491893646750358e-02,3.107461286601098891e+02
-5.209527327046867828e-01,1.290245899097781646e+01,7.768057203066979000e+00,9.968779756678982640e-01,-0.000000000000000000e+00,-7.894491888092960985e-02,3.125187012298287641e+02
-3.759886908558289775e-01,1.280343121628075487e+01,7.750175214009377811e+00,0.000000000000000000e+00,-9.968312352734686188e-01,-7.953293898571152376e-02,3.142912737995476391e+02
-2.284554642174152772e-01,1.269921355388356687e+01,7.650485970275334502e+00,-0.000000000000000000e+00,-0.000000000000000000e+00,-9.999989999999967516e-01,3.162045701443610142e+02
-8.909739103111247172e-02,1.260000518362807576e+01,7.462814038287169716e+00,-0.000000000000000000e+00,9.968731427319694749e-01,-7.900593205829621601e-02,3.181178664891743892e+02
-8.227859909145959771e-02,1.259517367775867491e+01,7.451147561043552692e+00,-9.968817776734337777e-01,0.000000000000000000e+00,-7.889690326056407466e-02,3.182140563109689992e+02
4.042030755509631867e-02,1.250952453438573642e+01,7.203094800406652176e+00,-0.000000000000000000e+00,-0.000000000000000000e+00,-9.999989999999968626e-01,3.199792790965235554e+02
1.586662370175011549e-01,1.243011899552012345e+01,6.889516219445698475e+00,-0.000000000000000000e+00,9.968731427319694749e-01,-7.900593205829621601e-02,3.217445018820781115e+02
2.820783529588418714e-01,1.235171718091695503e+01,6.478471545834199041e+00,-9.796745246597646783e-01,0.000000000000000000e+00,2.005886979235763090e-01,3.236579681635880661e+02
3.999388245242718187e-01,1.228153992338007683e+01,5.998150214550872050e+00,9.968779763646680170e-01,-0.000000000000000000e+00,-7.894491893610830480e-02,3.255714344450980207e+02
5.112720251509117464e-01,1.221893957896460847e+01,5.457357968497571932e+00,9.386198578562073846e-01,-0.000000000000000000e+00,3.449503767108041408e-01,3.274849007266079752e+02
6.033284583649825006e-01,1.216877386006792250e+01,4.940640260332165745e+00,7.085036204171412111e-01,-0.000000000000000000e+00,7.057057600414724519e-01,3.291690459113141287e+02
6.893471188002254779e-01,1.212172571088697204e+01,4.394517503318778218e+00,3.486411359112958075e-01,-0.000000000000000000e+00,9.372552257579621626e-01,3.308531910960202822e+02
7.685545815875125530e-01,1.207674778596455845e+01,3.824581771841135236e+00,-7.507168019255619495e-02,-0.000000000000000000e+00,9.971771370706713489e-01,3.325373362807264357e+02
8.401697835144033011e-01,1.203279978884803114e+01,3.236425327502203686e+00,-4.850275877416004855e-01,-0.000000000000000000e+00,8.744977067076790123e-01,3.342214814654325892e+02
9.067131442319787960e-01,1.198608364560370099e+01,2.597903842958263709e+00,-8.061545860017585996e-01,-0.000000000000000000e+00,5.917032900278477170e-01,3.360098362883581444e+02
9.623350485432059509e-01,1.193799068418241660e+01,1.951273587835482770e+00,-9.796745246527556183e-01,-0.000000000000000000e+00,2.005886979221412070e-01,3.377981911112836997e+02
1.006356655897642005e+00,1.188696243896447946e+01,1.303346560813816390e+00,-9.796745239680101358e-01,-0.000000000000000000e+00,2.005886977819393013e-01,3.395865459342092549e+02
1.041803181998431249e+00,1.181497230581135582e+01,5.002363446551525428e-01,-9.546707119062373126e-01,-0.000000000000000000e+00,-2.976605983800955091e-01,3.418331500898481181e+02
1.053345070017609686e+00,1.173036359178469823e+01,-2.761601705338783685e-01,-3.212948053597333153e-01,-9.887692927379265837e-04,-9.469776504147989771e-01,3.440797542454869813e+02
1.047404150789648325e+00,1.164580723471691570e+01,-9.173463255883668177e-01,5.764363129605272196e-01,-1.163998612660279786e-03,-8.171400260720220743e-01,3.460221404963771192e+02
1.031296189295635157e+00,1.155006580315041731e+01,-1.524956237769749867e+00,-5.741094903288136431e-01,1.828998376289212979e-03,-8.187752731244267723e-01,3.479645267472672572e+02
1.009833221666735614e+00,1.144675383783077471e+01,-2.075368349562505710e+00,5.752485914334148909e-01,0.000000000000000000e+00,-8.179774190368376274e-01,3.498381785749494952e+02
9.897351527669183691e-01,1.135072991327986536e+01,-2.520049415453956776e+00,0.000000000000000000e+00,-9.950635238632309365e-01,9.922995251858011956e-02,3.514450610823338934e+02
9.703825617531045555e-01,1.124964872004836813e+01,-2.940578462145507554e+00,-5.759863546499147668e-01,0.000000000000000000e+00,-8.174580840987117902e-01,3.530519435897182916e+02
9.534756957411180123e-01,1.114762216799769234e+01,-3.330244913934418793e+00,-0.000000000000000000e+00,8.080491350123109040e-02,9.967289330373376721e-01,3.546314714484562955e+02
9.396130485095676166e-01,1.104626256287053820e+01,-3.696508022250003744e+00,-0.000000000000000000e+00,-5.697617808899569924e-01,-8.218086839617149142e-01,3.562109993071942995e+02
9.298742586518510267e-01,1.094911342424766509e+01,-4.039290932002445267e+00,-7.142513392295073427e-01,-6.601633892675252691e-01,-2.324377849664099327e-01,3.577905271659323034e+02
9.255467029896590203e-01,1.085938120123270423e+01,-4.359635966970691889e+00,9.997494087563633114e-01,-0.000000000000000000e+00,-2.234098678772284199e-02,3.593760263130449175e+02
9.276015806204844782e-01,1.078108843884139212e+01,-4.656159834944149978e+00,4.301035175188680504e-01,3.026596604827218664e-02,9.022709878512734649e-01,3.609615254601575316e+02
9.361292725589790420e-01,1.071816266510021443e+01,-4.928347046558158695e+00,0.000000000000000000e+00,9.997078536730037435e-01,-2.412897233222458665e-02,3.625427489596182227e+02
9.505806425863706499e-01,1.067408962721123267e+01,-5.177410335736595925e+00,-0.000000000000000000e+00,9.997078529671034053e-01,-2.412897231518696187e-02,3.641239724590789137e+02
9.891940124116347377e-01,1.067951490526928637e+01,-5.533372463015465925e+00,8.506807646962084579e-01,5.164672500195388594e-01,9.798885770689490238e-02,3.668740225112421740e+02
9.970001271690775990e-01,1.069123192796497079e+01,-5.582150257801123061e+00,0.000000000000000000e+00,9.993857527529492746e-01,3.501595629960892880e-02,3.673254196823474444e+02
1.025508325103950069e+00,1.075054383550306092e+01,-5.747772075898418542e+00,-4.272875887421045960e-01,2.998997113510259299e-02,9.036171302820652507e-01,3.689782095755043656e+02
1.052107072932823906e+00,1.084054241512001759e+01,-5.889003441006043005e+00,5.179124917786739335e-01,7.186022948441734837e-01,4.640855445984126137e-01,3.706309994686612868e+02
1.073616517092929934e+00,1.096127863095278876e+01,-6.005451959394329187e+00,7.294162694248140788e-01,5.001404990648640192e-01,4.667005325579609010e-01,3.722837893618182079e+02
1.079636245444487663e+00,1.124952768120609647e+01,-6.120359256827179628e+00,-5.024135394088605766e-01,7.294793312447017675e-01,4.641535744839520583e-01,3.749852023376957391e+02
1.076585573920566974e+00,1.130905938141246025e+01,-6.130113375268745557e+00,-0.000000000000000000e+00,1.173078338872849818e-01,9.930945937372316346e-01,3.754370040723335933e+02
1.020221860360642330e+00,1.172417114266174387e+01,-6.134389447095584202e+00,1.270998419732385096e-03,1.158168560016881454e-01,9.932687650413736247e-01,3.781144303587176410e+02
9.036723242544216772e-01,1.217812732658041419e+01,-6.060712235621109834e+00,-9.994701503669272125e-01,0.000000000000000000e+00,3.251797235700859545e-02,3.804547655798012897e+02
6.764583054476392965e-01,1.280729878640071817e+01,-5.895374299365732540e+00,1.182598423660814052e-01,0.000000000000000000e+00,9.929816764095941162e-01,3.831657672742510385e+02
4.924010162062423257e-01,1.325255346780880217e+01,-5.756260206731104390e+00,-9.359985444601274336e-04,-1.157798199546939688e-01,9.932734553938388222e-01,3.848621306390451764e+02
3.029108117682164925e-01,1.369950008623095705e+01,-5.609917166046892056e+00,-9.999990000000000823e-01,-0.000000000000000000e+00,0.000000000000000000e+00,3.864687383325978089e+02
1.015000027480098543e-01,1.416814525026235039e+01,-5.452156750191184287e+00,9.994709311250643546e-01,-0.000000000000000000e+00,3.249396524962964994e-02,3.880753460261504415e+02
-1.013376279965739202e-01,1.463539447688469686e+01,-5.292154484790819069e+00,-5.517134353490528165e-01,-8.267481538648538963e-01,1.099898874308832403e-01,3.896170804303950490e+02
-3.125827695990448518e-01,1.511652888930967720e+01,-5.125510745540634794e+00,-0.000000000000000000e+00,-9.993865585865699952e-01,3.499294952973203837e-02,3.911588148346396565e+02
-5.318907490549952266e-01,1.560828178596374372e+01,-4.953466210959882154e+00,5.227064052945151751e-01,-8.494460335488333014e-01,-7.223191781865063998e-02,3.927005492388842640e+02
-8.207114873422988177e-01,1.623696452367614995e+01,-4.729844370996914016e+00,-7.270129289259051886e-01,2.249116686481734684e-01,6.487410442402066213e-01,3.946400530238337865e+02
-1.125168483668457675e+00,1.686984961595654298e+01,-4.498796518764176966e+00,-3.998265333040793013e-01,1.347829435961762079e-01,9.066257780270718936e-01,3.965795568087833090e+02
-1.444007213563035963e+00,1.749755990976873576e+01,-4.261477567741630779e+00,-0.000000000000000000e+00,2.016697227948319876e-02,9.997956257306721550e-01,3.985190605937328314e+02
-1.747646109907336376e+00,1.806379858075046130e+01,-4.037800032643157344e+00,-0.000000000000000000e+00,2.016697226524963651e-02,9.997956250250304988e-01,4.003049848893569447e+02
-2.057851265503678029e+00,1.861223367381632343e+01,-3.809184563797367140e+00,6.355972790763313451e-01,2.092487626604288553e-01,7.431211571178032438e-01,4.020909091849810579e+02
-2.372279014244000006e+00,1.913620929546667426e+01,-3.575433570841595188e+00,0.000000000000000000e+00,1.705397561329390771e-02,9.998535702374796719e-01,4.038768334806051712e+02
-2.643459663933584114e+00,1.956389390460809707e+01,-3.370561454338712348e+00,-8.217572942076923903e-01,1.566598654477073527e-02,5.696205107633635079e-01,4.054108889543014698e+02
-2.912758315610530779e+00,1.996933118093276605e+01,-3.161715041576352192e+00,7.342455860441354787e-01,2.131448798323413163e-01,6.445546366104517588e-01,4.069449444279977683e+02
-3.177309847940788856e+00,2.034984767887489809e+01,-2.948301666227091999e+00,0.000000000000000000e+00,1.519999199372036765e-02,9.998834733321774193e-01,4.084789999016940669e+02
-3.434288582825484326e+00,2.070273864917812290e+01,-2.729868806904417688e+00,-0.000000000000000000e+00,-6.332962606652572934e-03,9.999789465491109031e-01,4.100130553753903655e+02
-3.681042148777624590e+00,2.102525418658088796e+01,-2.506334146657793749e+00,-0.000000000000000000e+00,-2.786296520808142704e-02,9.996107518063629405e-01,4.115471108490866641e+02
-4.009750403842930133e+00,2.141628745538296030e+01,-2.170909566863121753e+00,3.284154996414213046e-01,-9.673147929840232584e-02,9.395660064676386591e-01,4.137753540583346989e+02
-4.293169508764340669e+00,2.169348111148412883e+01,-1.823139821386202009e+00,6.186673437187470981e-01,-1.543592791598510372e-01,7.703388415203118456e-01,4.160035972675827338e+02
-4.488679815999346623e+00,2.183630314182230236e+01,-1.537692074664223085e+00,8.370268619317369208e-01,-1.940497361591888847e-01,5.115943044079372948e-01,4.177925781126367610e+02
-4.667898847537250262e+00,2.191502550363565760e+01,-1.227004087866111925e+00,8.890937439377137874e-01,-2.833161389444164291e-01,3.595028232237731936e-01,4.197100005893018988e+02
-4.812923804128809380e+00,2.191351685581835795e+01,-9.104040789339444828e-01,9.110991785508086860e-01,-3.630032546216727107e-01,1.952560472285501947e-01,4.216274230659670366e+02
-4.921046403701521577e+00,2.183292762496112616e+01,-5.859565441013223630e-01,9.022991163601591369e-01,-4.304167581542486798e-01,2.440735373883442041e-02,4.235448455426321743e+02
-4.984964341796941589e+00,2.170153576277564866e+01,-2.913141461738805726e-01,8.629910688421130738e-01,-4.832773003403119660e-01,-1.472666495680128584e-01,4.252399311707904985e+02
-5.018361203085240696e+00,2.151978273118645291e+01,1.160678694685660789e-02,7.945040583215173813e-01,-5.197975768035996147e-01,-3.139614314844678122e-01,4.269350167989488227e+02
-5.015755018417702438e+00,2.126398417932117013e+01,3.534975391890632923e-01,6.991536932645218139e-01,-5.387427636406402209e-01,-4.700407937818407156e-01,4.287874910091637730e+02
-4.974650930161805817e+00,2.097453884168000826e+01,6.822136665165657865e-01,4.595995113947056177e-01,-5.348094314382125791e-01,-7.090452462062019068e-01,4.305164043920318591e+02
-4.895407716953028121e+00,2.064236886141861760e+01,1.017927929809222531e+00,1.730147582869360490e-01,-5.942164588185467888e-01,-7.854748204016575031e-01,4.322453177748999451e+02
-4.797141339137402483e+00,2.032802958684684924e+01,1.309818801433259017e+00,-1.294010743361806437e-01,-5.992516874889408651e-01,-7.900321366902033349e-01,4.337302406261237024e+02
-4.747474701560610910e+00,2.018508107526117357e+01,1.437445802456252641e+00,-4.199765354728743905e-01,-5.494543922601671238e-01,-7.223002010790892102e-01,4.343771228829025404e+02
-4.607206906860637829e+00,1.982280045006236335e+01,1.746502708732827758e+00,-2.760905796842021420e-01,-4.943729427279656141e-01,-8.242374568710776339e-01,4.359482980328901931e+02
-4.432801089558639163e+00,1.943494553581628281e+01,2.051788323734524244e+00,-1.227820927161553527e-01,-4.224193325427421097e-01,-8.980448013342791080e-01,4.375194731828778458e+02
-4.244836106011628196e+00,1.905963354221197292e+01,2.324143995416767972e+00,3.471676103302683003e-02,-3.360492180049061695e-01,-9.412033093772648185e-01,4.389529461146747735e+02
-3.973963664311441768e+00,1.857031360202179116e+01,2.642260605574085375e+00,1.910308047847641966e-01,-2.382102658374752602e-01,-9.522400437252331873e-01,4.407046881510376579e+02
-3.652117369134649572e+00,1.804234641167542108e+01,2.935471180127769752e+00,3.408252918177903656e-01,-1.322415570516531358e-01,-9.307783254065452594e-01,4.424564301874005423e+02
-3.277528633182623441e+00,1.747318757595172301e+01,3.195077797316451917e+00,4.789879697896906596e-01,-2.175963222312421105e-02,-8.775505929590780019e-01,4.442081722237634267e+02
-2.851385171610474334e+00,1.686008989315382323e+01,3.415013391335859350e+00,6.008035540478506853e-01,8.946493359380257304e-02,-7.943734103687848380e-01,4.459599142601263111e+02
-2.153503989559830689e+00,1.588448708585415936e+01,3.642763542510525365e+00,0.000000000000000000e+00,2.192496970815314972e-02,-9.997586187194160701e-01,4.484558067237550745e+02
-1.682550243712421567e+00,1.522587993258749073e+01,3.736100752836553518e+00,-0.000000000000000000e+00,6.540999572365943301e-03,-9.999776074042669993e-01,4.499873625635356689e+02
-1.196684725250543924e+00,1.453279748700881946e+01,3.806373525882092324e+00,-0.000000000000000000e+00,-8.844516321117155619e-03,-9.999598864537224685e-01,4.515189184033162633e+02
-7.010537938134568936e-01,1.380481183346541840e+01,3.855350200485649026e+00,-0.000000000000000000e+00,-2.422793724360976925e-02,-9.997054601443678967e-01,4.530504742430968577e+02
-2.008061164711537616e-01,1.304153667608636447e+01,3.884799253961859211e+00,-0.000000000000000000e+00,-3.960562296434604057e-02,-9.992143887150113368e-01,4.545820300828774521e+02
2.993907717150349201e-01,1.224345334689049913e+01,3.896385884950219314e+00,-0.000000000000000000e+00,-5.497393460848930269e-02,-9.984867883447696713e-01,4.561135859226580465e+02
7.962590122468796716e-01,1.141296114813262186e+01,3.891510437893867191e+00,-0.000000000000000000e+00,-7.032923551465619649e-02,-9.975228311257430258e-01,4.576451417624386409e+02
1.287857824448970900e+00,1.055376844143289894e+01,3.871353640537305019e+00,-0.000000000000000000e+00,-8.566789209192911259e-02,-9.963227450226359583e-01,4.591766976022192353e+02
1.772688743227710750e+00,9.669827421695316616e+00,3.837038160936572684e+00,-3.571165318402182987e-01,-5.924852232850398304e-01,-7.220990533685643920e-01,4.607082534419998296e+02
2.249278634854059433e+00,8.765102069896100190e+00,3.789686759199194288e+00,-5.019059665774151524e-01,-4.920646640639098068e-01,-7.113091923311127829e-01,4.622398092817804240e+02
2.716179729382695918e+00,7.843568010641635446e+00,3.730422280181763472e+00,-6.310536305995947393e-01,-3.763090267173892500e-01,-6.783515546669306451e-01,4.637713651215610184e+02
3.171969652768462655e+00,6.909212369589254443e+00,3.660367646187115298e+00,-7.405346818079039384e-01,-2.488257854088508358e-01,-6.242532447300793708e-01,4.653029209613416128e+02
3.615251458679894281e+00,5.966033630732167303e+00,3.580645849661118429e+00,-8.269371661565994014e-01,-1.135879020673931095e-01,-5.507002013193226242e-01,4.668344768011222072e+02
4.044653660009637441e+00,5.018041493549796783e+00,3.492379945889130255e+00,-8.875683493731181262e-01,2.518998153462868525e-02,-4.599846628108842927e-01,4.683660326409028016e+02
4.481564943062070761e+00,4.015305660072405303e+00,3.390826388581857920e+00,-9.337900412271272765e-01,1.644756568056000290e-01,-3.177765208807269981e-01,4.699849865328579313e+02
4.899061245814166909e+00,3.016764295550820041e+00,3.281910552320695285e+00,-9.410164957702131794e-01,2.968927379407667599e-01,-1.622980494224084136e-01,4.716039404248130609e+02
5.295528614127382738e+00,2.027464971823104367e+00,3.167034793993969810e+00,-9.089459700185786861e-01,4.169115275724389891e-01,-4.199995240732441536e-05,4.732228943167681905e+02
5.669510375956057224e+00,1.052500060653537739e+00,3.047688586315821624e+00,-9.379447850849553792e-01,2.342722996625442866e-01,-2.556835343596929322e-01,4.748418482087233201e+02
6.019830977825054497e+00,9.703588233851129230e-02,2.925535579555979648e+00,-8.735703862515963314e-01,2.831098010942321302e-02,-4.858716586388920899e-01,4.764608021006784497e+02
6.345472925509502815e+00,-8.337204123193069361e-01,2.802326516896738173e+00,-8.564906421560174454e-01,-3.496859194846435592e-02,-5.149747347943894882e-01,4.780797559926335794e+02
6.645453438623246889e+00,-1.734552535881120239e+00,2.679812149156989953e+00,-8.350059509791383228e-01,-9.806831322261234940e-02,-5.414292823365185470e-01,4.796987098845887090e+02
6.918824478309503867e+00,-2.600235269954160877e+00,2.559743222069710722e+00,-8.092268102275809172e-01,-1.606636608070314276e-01,-5.650992458899760651e-01,4.813176637765438386e+02
7.164672774470911776e+00,-3.425534670997617770e+00,2.443870463559462802e+00,-7.792858036819766410e-01,-2.224327060899956576e-01,-5.858628913335908184e-01,4.829366176684989682e+02
7.382119852538791882e+00,-4.205208276250319344e+00,2.333944571020005743e+00,-7.453369194648559182e-01,-2.830577704126948646e-01,-6.036134318355244055e-01,4.845555715604540978e+02
7.570322059781435797e+00,-4.934005309778137338e+00,2.231716198592064604e+00,-7.075547580353097610e-01,-3.422270588581853845e-01,-6.182595770124196255e-01,4.861745254524092275e+02
7.728470591151250346e+00,-5.606666888639099788e+00,2.138935944441338943e+00,-6.661336341861054944e-01,-3.996362637698199216e-01,-6.297260023906312565e-01,4.877934793443643571e+02
7.853385730323923397e+00,-6.204492008916334456e+00,2.059058747917515309e+00,-6.212865776630408510e-01,-4.549901297545049239e-01,-6.379537367572644113e-01,4.893727520113143896e+02
7.949250518717537517e+00,-6.741334819884569285e+00,1.991067175716347171e+00,-5.732442375470924167e-01,-5.080039721245909190e-01,-6.429004654109112815e-01,4.909520246782644222e+02
7.985333539454518181e+00,-6.971933793780113575e+00,1.963207090222997442e+00,-5.222536960342064605e-01,-5.584051409719182901e-01,-6.445407477542814956e-01,4.916820883707489998e+02
8.051720501223989856e+00,-7.527259623984179804e+00,1.903553353543567583e+00,-4.685771977128925236e-01,-6.059344233472649943e-01,-6.428661481111529463e-01,4.936592775981091563e+02
8.064699131804390575e+00,-7.964345843853428697e+00,1.873056157260451826e+00,-4.124908008737462328e-01,-6.503473763367494387e-01,-6.378852790959852470e-01,4.956364668254693129e+02
8.036983313570418730e+00,-8.257784103295515266e+00,1.870164970398869420e+00,-3.542829577854489931e-01,-6.914155841819713544e-01,-6.296237573138445676e-01,4.973401002483557249e+02
7.977295035304252657e+00,-8.487469744736481303e+00,1.888200725893450338e+00,-2.942530312366231637e-01,-7.289278329810362500e-01,-6.181240716187214046e-01,4.990437336712421370e+02
7.876269220978497465e+00,-8.671871715598651775e+00,1.932890373985541643e+00,-2.327097549703264767e-01,-7.626911969310655737e-01,-6.034453646075529365e-01,5.008965341539060887e+02
7.738683765311933804e+00,-8.797677227071647010e+00,2.004194195263598655e+00,-9.089321683888758052e-01,-2.999997255206519727e-06,4.169416185267721953e-01,5.027493346365700404e+02
7.568199400294392198e+00,-8.879115857539519041e+00,2.100734073471068886e+00,-5.163343074813367961e-01,-6.993530620126523489e-01,-4.942693370753490356e-01,5.046021351192339921e+02
7.368548965330631972e+00,-8.931215897743225440e+00,2.220183379091765552e+00,-9.089459700192324965e-01,4.169115275727388603e-01,-4.199995240735462395e-05,5.064549356018979438e+02
7.104575856146029267e+00,-8.974891430996006392e+00,2.382773451417948607e+00,-0.000000000000000000e+00,-7.954242215457090204e-01,-6.060514068783605657e-01,5.085831919509165573e+02
6.804483200798485676e+00,-9.019365394319915907e+00,2.568226370996626873e+00,-0.000000000000000000e+00,5.332983833108964067e-01,8.459260217983469721e-01,5.107114482999352276e+02
6.587497225455467564e+00,-9.053903596557489664e+00,2.700695301538252213e+00,-0.000000000000000000e+00,8.460544322744092405e-01,5.330946422789608619e-01,5.121325121927999362e+02
