6.496273315771752266e-01,-1.093813747448722928e+01,-4.217498824226823650e+00,-1.809119087107621121e-03,7.747175103682139852e-02,9.969919031150281663e-01,1.966523328118677512e+02
6.981442790945312504e-01,-1.100274996268525740e+01,-4.161094342296278725e+00,-1.349677739134472459e-03,5.812932317210445232e-02,9.983071472021978199e-01,1.975830039243116971e+02
9.018323603564725177e-01,-1.130335680672831344e+01,-3.906650384362386319e+00,-8.897287807103229987e-04,3.876503304742470735e-02,9.992469567593802449e-01,2.018077278047092591e+02
1.036245498070079707e+00,-1.152646919827150462e+01,-3.724229354470709463e+00,-4.294451799686323690e-04,1.938616278615920216e-02,9.998109782686552816e-01,2.048679677756856563e+02
1.203199351413453133e+00,-1.184018950151374305e+01,-3.475269349652301276e+00,3.099996898504489117e-05,0.000000000000000000e+00,9.999989995175772028e-01,2.090926916560832183e+02
1.351331366707723580e+00,-1.215669122569873650e+01,-3.228388294811149972e+00,2.641112252858630164e-05,1.082943959809175294e-01,9.941178617757546743e-01,2.133174155364807802e+02
1.481125397989860648e+00,-1.247222671799564786e+01,-2.982470113290812463e+00,2.151162224384890607e-05,2.153149729148960967e-01,9.765436303494882120e-01,2.175421394168783422e+02
1.593135460874839149e+00,-1.278305845330979551e+01,-2.736398678809460971e+00,1.635909718932651984e-05,3.198029355285190167e-01,9.474830247345380485e-01,2.217668632972759042e+02
1.687985654982035788e+00,-1.308546007299845471e+01,-2.489057870852364740e+00,1.101415237881018721e-05,4.205292789693659272e-01,9.072778656005100473e-01,2.259915871776734662e+02
1.766370080386682195e+00,-1.337571742265912000e+01,-2.239331630071293766e+00,5.539655995488164800e-06,5.163092430137999900e-01,8.564010541493891626e-01,2.302163110580710281e+02
1.811504868514800970e+00,-1.357247305487405420e+01,-2.058074846777818934e+00,0.000000000000000000e+00,6.060162459351242648e-01,7.954510102218032008e-01,2.332426390315659148e+02
1.859846199663015121e+00,-1.383010579274568030e+01,-1.802408090672218410e+00,1.047639099275337639e-02,6.478003501469923320e-01,7.617367994113392049e-01,2.374673629119634768e+02
1.893917748291843006e+00,-1.407205998560029592e+01,-1.547414517619614349e+00,2.092143258969491465e-02,6.876460257979097879e-01,7.257432306669838740e-01,2.416920867923610388e+02
1.914482271613392683e+00,-1.430080516438408900e+01,-1.297635860645701911e+00,3.130387153835322012e-02,7.254340481085754799e-01,6.875780024604905005e-01,2.459168106727586007e+02
1.922307520254232571e+00,-1.451836729296183925e+01,-1.057073867916240140e+00,4.159264184769178446e-02,7.610513480602836278e-01,6.473553102859883612e-01,2.501415345531561627e+02
1.918235717903634008e+00,-1.472587265805334589e+01,-8.286503789966099820e-01,5.175695768515804068e-02,7.943913505309053713e-01,6.051955052114091904e-01,2.543662584335537247e+02
1.914613494419770356e+00,-1.477519287498956402e+01,-7.752681809331396501e-01,4.940121529535346917e-02,8.147872674122397241e-01,5.776497457713301031e-01,2.554184293606945744e+02
1.890161459918641373e+00,-1.496416793128758727e+01,-5.764926156490560727e-01,4.698716419215343693e-02,8.342214774623827322e-01,5.494221809694241898e-01,2.596431532410921363e+02
1.855831263512750073e+00,-1.514458363084305503e+01,-3.952103637482518583e-01,4.451765371090175838e-02,8.526710426444742419e-01,5.205461281608845248e-01,2.638678771214896983e+02
1.812463385858612774e+00,-1.531716242552611362e+01,-2.338008792121903379e-01,4.199559864214932187e-02,8.701141870962069147e-01,4.910556700704098443e-01,2.680926010018872603e+02
1.760703111278367983e+00,-1.548233651201388383e+01,-9.404806336442571302e-02,3.942397579156019932e-02,8.865303228287001458e-01,4.609856145670936933e-01,2.723173248822848223e+02
1.700829980900623095e+00,-1.563993680864326841e+01,2.345439220100429406e-02,3.680582046655832967e-02,9.019000740219178525e-01,4.303714535826890231e-01,2.765420487626823842e+02
1.633699486547677049e+00,-1.578785805526066888e+01,1.176648927786594773e-01,3.414422289396585458e-02,9.162052998896372813e-01,3.992493212229564215e-01,2.807204880425874762e+02
1.557935971718327428e+00,-1.592890962768901986e+01,1.906736474235835310e-01,3.144232457285852517e-02,9.294291160870323809e-01,3.676559511215040654e-01,2.849452119229850382e+02
1.474394885496012719e+00,-1.606098177462386190e+01,2.414412377558810829e-01,2.870331456693970065e-02,9.415559146356476949e-01,3.356286330864161060e-01,2.891699358033826002e+02
1.383203041906956976e+00,-1.618360756400510070e+01,2.699729389061608642e-01,2.593042574080555926e-02,9.525713823422874427e-01,3.032051690908004749e-01,2.933946596837801621e+02
1.284362498150638299e+00,-1.629634053745700228e+01,2.766880352716357683e-01,2.312693094453987033e-02,9.624625176901170365e-01,2.704238286591524321e-01,2.976193835641777241e+02
1.177617819573437252e+00,-1.639877005474220795e+01,2.628327086727556550e-01,2.029613915113755163e-02,9.712176461820722917e-01,2.373233037021435232e-01,3.018441074445752861e+02
1.062587573374153216e+00,-1.649049738116790920e+01,2.300670677485185944e-01,1.744139155131142413e-02,9.788264341184911288e-01,2.039426628530917329e-01,3.060688313249728481e+02
1.003562441659633819e+00,-1.652922010742960168e+01,2.060476578352001820e-01,1.456605761028688384e-02,9.852799007927298680e-01,1.703213053599548221e-01,3.080890373362083210e+02
8.714647604342505849e-01,-1.659913104455678479e+01,1.395809409647447430e-01,1.167353109123381479e-02,9.905704290903808440e-01,1.364989145872121390e-01,3.123137612166058830e+02
7.302144378415449388e-01,-1.665727430046801771e+01,5.832209774223747617e-02,8.767226050024267206e-03,9.946917744795950034e-01,1.025154111824581604e-01,3.165384850970034449e+02
5.794514214398502894e-01,-1.670322244379810073e+01,-3.606564526472353510e-02,5.850572806038400152e-03,9.976390723818953088e-01,6.841090596292706549e-02,3.207632089774010069e+02
4.187414347247507274e-01,-1.673679251698014880e+01,-1.418409343032773218e-01,2.927013893769286456e-03,9.994088439147845726e-01,3.422565257749863449e-02,3.249879328577985689e+02
2.476677833064309109e-01,-1.675826158193460103e+01,-2.572867338001972870e-01,0.000000000000000000e+00,9.999989999993535994e-01,0.000000000000000000e+00,3.292126567381961308e+02
6.608174755093292052e-02,-1.676808046616836734e+01,-3.809677254189183793e-01,-0.000000000000000000e+00,9.882727551242174169e-01,1.526923753169902587e-01,3.334373806185936928e+02
-4.242630738404032376e-02,-1.676748011754748546e+01,-4.548616335250434961e-01,-0.000000000000000000e+00,9.533690417012876672e-01,3.018036950180339462e-01,3.358241066674566468e+02
-2.449576599042781744e-01,-1.675584355230248690e+01,-5.917960458549416103e-01,-0.000000000000000000e+00,8.961064511741348992e-01,4.438369387119612819e-01,3.400488305478542088e+02
-4.579344261094548951e-01,-1.673356944754892339e+01,-7.337436034359912096e-01,-0.000000000000000000e+00,8.178279381727694419e-01,5.754610877767778465e-01,3.442735544282517708e+02
-6.813652560369380939e-01,-1.670106892281117439e+01,-8.794475835261439389e-01,-0.000000000000000000e+00,7.203693244705506871e-01,6.935892418160423123e-01,3.484982783086493328e+02
-9.152695740935478108e-01,-1.665875196721098206e+01,-1.027651077031455973e+00,-0.000000000000000000e+00,6.060162459353624076e-01,7.954510102221157286e-01,3.527230021890468947e+02
-1.159294873118938529e+00,-1.660662278343484033e+01,-1.177432326393369921e+00,-9.465679626184098777e-03,5.950463885441558132e-01,8.036343673494918960e-01,3.569477260694444567e+02
-1.412310162562740778e+00,-1.654409167385164636e+01,-1.328666886144670212e+00,-1.892873773742296054e-02,5.839117604852086529e-01,8.115951939546057758e-01,3.611724499498420187e+02
-1.520486422460646470e+00,-1.651394292668428676e+01,-1.392148852878372312e+00,-2.838655413609632652e-02,5.726154448084841420e-01,8.193312858096902795e-01,3.629244871571564772e+02
-1.788040565028936602e+00,-1.643082870964721920e+01,-1.547483785575410886e+00,-3.783651007630482732e-02,5.611605693254891891e-01,8.268405009039162534e-01,3.671492110375540392e+02
-2.060760882191113197e+00,-1.633626646749242184e+01,-1.705572742224299887e+00,-4.727598898840872782e-02,5.495503057421757820e-01,8.341207600337807726e-01,3.713739349179516012e+02
-2.337069777408402160e+00,-1.622997905297365406e+01,-1.867006687027134459e+00,-5.670237720296505968e-02,5.377878687814123815e-01,8.411700473783687571e-01,3.755986587983491631e+02
-2.615385393302709804e+00,-1.611171979515176034e+01,-2.032376417596637452e+00,-6.611306467386422747e-02,5.258765152935719334e-01,8.479864110571079250e-01,3.798233826787467251e+02
-2.894121834470516408e+00,-1.598127255961140492e+01,-2.202272535616626836e+00,-7.550544570046738291e-02,5.138195433554839653e-01,8.545679636698656489e-01,3.840481065591442871e+02
-3.171689390629699012e+00,-1.583845180609364256e+01,-2.377285417510441867e+00,-8.487691964854621185e-02,5.016202913579953515e-01,8.609128828192381677e-01,3.882728304395418490e+02
-3.446494760089563680e+00,-1.568310264354061800e+01,-2.558005185117980584e+00,-9.422489166982683795e-02,4.892821370823931537e-01,8.670194116148884911e-01,3.924975543199394110e+02
-3.716941273533830081e+00,-1.551510088254881481e+01,-2.745021676382339404e+00,-1.035467734199404105e-01,4.768084967659412809e-01,8.728858591597942196e-01,3.967222782003369730e+02
-3.721354545151017934e+00,-1.551211955513520913e+01,-2.748241869418971195e+00,-1.128399837745826945e-01,4.642028241567871527e-01,8.785106010182712755e-01,3.967924797770085661e+02
-3.981242770070682280e+00,-1.532126226290219506e+01,-2.949107501117673280e+00,-1.221019495436862085e-01,4.514686095585000447e-01,8.838920796656447587e-01,4.010172036574061281e+02
-4.233444359334177065e+00,-1.511764064731909940e+01,-3.157458180027564509e+00,-1.313301061834081518e-01,4.386093788645007430e-01,8.890288049194413622e-01,4.052419275378036900e+02
-4.476353957025955843e+00,-1.490122440578755203e+01,-3.373882540866571134e+00,-1.405218985057388459e-01,4.256286925826498480e-01,8.939193543519881047e-01,4.094666514182012520e+02
-4.708212991638336398e+00,-1.467194907779372670e+01,-3.599057281041246004e+00,1.745319947904498403e-01,6.389593426591425596e-01,7.491779102614641861e-01,4.136913752985988140e+02
-4.926957417645563275e+00,-1.442965504812773148e+01,-3.833835591222691797e+00,4.606624106661346696e-01,7.464020451141830659e-01,4.802833855646618244e-01,4.179160991789963759e+02
-5.130595856406269029e+00,-1.417423922720914575e+01,-4.079045595438736349e+00,8.831649377958831204e-01,4.690604358495172876e-01,-1.299998436460017925e-05,4.221408230593939379e+02
-5.235956217100926402e+00,-1.402372435135017525e+01,-4.222922233660521663e+00,8.713480995850735322e-01,4.905770475757726956e-01,9.200529339348041680e-03,4.245132310070253538e+02
-5.406526996924609918e+00,-1.374324772182593613e+01,-4.490517674395188230e+00,8.589322162853326725e-01,5.117563904721983414e-01,1.840773307237089304e-02,4.287379548874229158e+02
-5.558364251817643265e+00,-1.345013803316547829e+01,-4.769907778937604093e+00,8.459258235985689378e-01,5.325839042125610767e-01,2.760228145697053367e-02,4.329626787678204778e+02
-5.690160099660722892e+00,-1.314463816090512083e+01,-5.061579416621739824e+00,8.323378631642236458e-01,5.530452703338832876e-01,3.677785343620388475e-02,4.371874026482180398e+02
-5.800958190421545702e+00,-1.282712497938224061e+01,-5.365560446191718569e+00,8.181776764127492996e-01,5.731264220772608331e-01,4.592814099845885650e-02,4.414121265286156017e+02
-5.844930875842470286e+00,-1.266694268261031553e+01,-5.519341580479678377e+00,8.034549981451533096e-01,5.928135540561455530e-01,5.504685351303208185e-02,4.434706400513396716e+02
-5.914686477029308165e+00,-1.232753079759663883e+01,-5.845574301884349566e+00,7.881799498423160966e-01,6.120931317450851727e-01,6.412772205377044454e-02,4.476953639317372335e+02
-5.963306492747782350e+00,-1.197788236404224271e+01,-6.181220903739060191e+00,7.723630327086697944e-01,6.309519007824181402e-01,7.316450370781099610e-02,4.519200878121347955e+02
-5.990913549782995062e+00,-1.161871428725101296e+01,-6.524931999692364037e+00,7.560151204550047410e-01,6.493768960805366142e-01,8.215098586646407686e-02,4.561448116925323575e+02
-5.997639535157883728e+00,-1.125074002614662483e+01,-6.875357800484530379e+00,7.391474518253557946e-01,6.673554507374716005e-01,9.108099049529670699e-02,4.603695355729299195e+02
-5.983937708150697254e+00,-1.087444994934280018e+01,-7.230550109309667128e+00,7.217716228730848282e-01,6.848752047436832413e-01,9.994837838048713230e-02,4.645942594533274814e+02
-5.950888999807040669e+00,-1.048988343423001268e+01,-7.587364346790003822e+00,7.038995789914560541e-01,7.019241134780801472e-01,1.087470533485376673e-01,4.688189833337250434e+02
-5.903666134898961637e+00,-1.012528845207658001e+01,-7.916442319043581755e+00,6.855436067041648096e-01,7.184904559874389918e-01,1.174709664564507483e-01,4.727377794290534894e+02
-5.836223302965049875e+00,-9.723518559499455094e+00,-8.265557212289662559e+00,6.667163252214450830e-01,7.345628430435354739e-01,1.261141201494936082e-01,4.769625033094510513e+02
-5.753465206036907809e+00,-9.312803577291736801e+00,-8.605337306571767542e+00,6.474306777675427060e-01,7.501302249724586257e-01,1.346705723836983670e-01,4.811872271898486133e+02
-5.656753886211857818e+00,-8.892856312203361924e+00,-8.932040688856089261e+00,6.276999226854951264e-01,7.651818992507262163e-01,1.431344407102682070e-01,4.854119510702461753e+02
-5.547442214304230568e+00,-8.463361579510390698e+00,-9.241926088027854647e+00,6.075376243253149955e-01,7.797075178629858661e-01,1.514999063190865802e-01,4.896366749506437372e+02
-5.426873676535377555e+00,-8.023976346626476186e+00,-9.531253059852822673e+00,5.610303087586632209e-01,7.422062858956891551e-01,3.665689864560713884e-01,4.938613988310412992e+02
-5.296382162096127999e+00,-7.574329879189384052e+00,-9.796282171908234915e+00,4.865701887581085905e-01,6.677253236224302002e-01,5.633740707609392606e-01,4.980861227114388612e+02
-5.157291751591353446e+00,-7.114023889612762552e+00,-1.003327518847615885e+01,3.878671844986952832e-01,5.599755945054961659e-01,7.321095414949712055e-01,5.023108465918364232e+02
-5.010916506376312363e+00,-6.642632688093046411e+00,-1.023849525539248440e+01,2.698390870224626759e-01,4.243256381532785615e-01,8.643683357929817790e-01,5.065355704722339851e+02
-4.858560258794382136e+00,-6.159703336061417289e+00,-1.040820708484471346e+01,1.383665310940144777e-01,2.675340833204490898e-01,9.535608094588319261e-01,5.107602943526315471e+02
-4.701516403325203264e+00,-5.664755802070879476e+00,-1.053867714011177625e+01,0.000000000000000000e+00,9.741290686804691956e-02,9.952430484943745048e-01,5.149850182330291091e+02
-4.570981467116336461e+00,-5.251014836074677561e+00,-1.061017114059532851e+01,-0.000000000000000000e+00,9.397463074529185945e-02,9.955735878151331653e-01,5.184288607475059507e+02
-4.408429165741607925e+00,-4.730808115526290436e+00,-1.065429495717705777e+01,-0.000000000000000000e+00,9.053523356502700403e-02,9.958922489216281981e-01,5.226535846279034558e+02
-4.243061257830027522e+00,-4.198707452195264089e+00,-1.065890415682989811e+01,-0.000000000000000000e+00,8.709475633798788308e-02,9.961990280046018054e-01,5.268783085083009610e+02
-4.074633372454238511e+00,-3.655644805432460398e+00,-1.062999226736815039e+01,-0.000000000000000000e+00,8.365324008882828177e-02,9.964939214072282558e-01,5.311030323886984661e+02
-3.975613946041134827e+00,-3.334546704007288032e+00,-1.059646900059055774e+01,-0.000000000000000000e+00,8.021072585455826798e-02,9.967769256141617573e-01,5.335538792580680365e+02
-3.802380273781962750e+00,-2.771395572191920564e+00,-1.051345500909873465e+01,-0.000000000000000000e+00,7.676725468405819208e-02,9.970480372515770906e-01,5.377786031384655416e+02
-3.625202514413561783e+00,-2.199864353502767766e+00,-1.040929234794861102e+01,-0.000000000000000000e+00,7.332286763759272852e-02,9.973072530872099106e-01,5.420033270188630468e+02
-3.443812941951732487e+00,-1.620918451529949289e+00,-1.028812653710424208e+01,-0.000000000000000000e+00,6.987760578632463970e-02,9.975545700303953822e-01,5.462280508992605519e+02
-3.273993736458686410e+00,-1.084930064511499204e+00,-1.016454803112782912e+01,-0.000000000000000000e+00,6.643151021182844285e-02,9.977899851321042624e-01,5.500948565851313106e+02
-3.084190548028868051e+00,-4.934393158350549591e-01,-1.001828965948112327e+01,-0.000000000000000000e+00,6.298462200560395186e-02,9.980134955849776501e-01,5.543195804655288157e+02
-2.889781393346662064e+00,1.030787750800077063e-01,-9.863447851834825642e+00,-0.000000000000000000e+00,5.953698226858985393e-02,9.982250987233610706e-01,5.585443043459263208e+02
-2.690676586807773774e+00,7.038215871717133920e-01,-9.702749222049835254e+00,-0.000000000000000000e+00,5.608863211067686289e-02,9.984247920233348950e-01,5.627690282263238259e+02
-2.486801688996138182e+00,1.307985429975367930e+00,-9.538920667812378795e+00,-0.000000000000000000e+00,5.263961265022110148e-02,9.986125731027454266e-01,5.669937521067213311e+02
-2.278303394550699856e+00,1.914761613603694901e+00,-9.374154080683167578e+00,-0.000000000000000000e+00,4.918996501355716450e-02,9.987884397212328791e-01,5.712184759871188362e+02
-2.065755536936036307e+00,2.523337981539518715e+00,-9.209571082626728966e+00,-0.000000000000000000e+00,4.573973033451111253e-02,9.989523897802574659e-01,5.754431998675163413e+02
-1.849953332786288485e+00,3.132911491575727680e+00,-9.045758125692186624e+00,-0.000000000000000000e+00,4.228894975391354200e-02,9.991044213231250470e-01,5.796679237479138465e+02
-1.631707450077228172e+00,3.742695335737460383e+00,-8.883301618180276193e+00,-0.000000000000000000e+00,3.883766441911236378e-02,9.992445325350104435e-01,5.838926476283113516e+02
-1.492604742712019261e+00,4.130206464556031243e+00,-8.781272933710226880e+00,-0.000000000000000000e+00,3.538591548348558879e-02,9.993727217429788645e-01,5.865778203509069044e+02
-1.273818821203016372e+00,4.739198588573263926e+00,-8.623154252247157814e+00,-0.000000000000000000e+00,3.193374410595407886e-02,9.994889874160058918e-01,5.908025442313044095e+02
-1.054793852142432486e+00,5.346423411296291839e+00,-8.467937098211198332e+00,-0.000000000000000000e+00,2.848119145049417961e-02,9.995933281649965751e-01,5.950272681117019147e+02
-8.363496814794051382e-01,5.951264471428791225e+00,-8.315927299249514348e+00,-0.000000000000000000e+00,2.502829868565027011e-02,9.996857427428009757e-01,5.992519919920994198e+02
-6.192263025813530275e-01,6.553340257705437821e+00,-8.166870205598319998e+00,-0.000000000000000000e+00,2.157510698404739927e-02,9.997662300442308192e-01,6.034767158724969249e+02
-5.139158199498856661e-01,6.848855262135768562e+00,-8.094661118894460827e+00,-0.000000000000000000e+00,1.812165752190362383e-02,9.998347891060711534e-01,6.055587724482752492e+02
-3.041937391398340518e-01,7.445881462491343861e+00,-7.950277867924134156e+00,-0.000000000000000000e+00,1.466799147854253201e-02,9.998914191070935598e-01,6.097834963286727543e+02
-9.755696967854385337e-02,8.039566928797315271e+00,-7.807513502216425927e+00,-1.101543211861470001e-01,1.889174555844217937e-02,9.937339319313794883e-01,6.140082202090702594e+02
1.052784263892948963e-01,8.629688795659532730e+00,-7.665832771517972155e+00,-2.189658420393358063e-01,2.288521225448095914e-02,9.754630834011162044e-01,6.182329440894677646e+02
3.035907151634126278e-01,9.216038301138212319e+00,-7.524700367164972370e+00,-3.251082050326828954e-01,2.659971339278205046e-02,9.453015975159807516e-01,6.224576679698652697e+02
4.966525953932732218e-01,9.798420874830128469e+00,-7.383580948663253096e+00,-4.272875887415334417e-01,2.998997113506250700e-02,9.036171302808574390e-01,6.266823918502627748e+02
6.839203389882834161e-01,1.037654227172783195e+01,-7.241694899231531757e+00,-2.909657522639264582e-01,-1.945253829560602069e-02,9.565346463994939263e-01,6.309071157306602800e+02
8.652199161163028895e-01,1.094988970206930290e+01,-7.097774093434867204e+00,-1.477107228875022271e-01,-6.843149298447921691e-02,9.866593500857496757e-01,6.351318396110577851e+02
1.040746259449485622e+00,1.151777840825896071e+01,-6.950309028663675726e+00,-9.359985444636862188e-04,-1.157798199551341861e-01,9.932734553976153569e-01,6.393565634914552902e+02
1.210949733888576629e+00,1.207952110650412259e+01,-6.798050996197043006e+00,-0.000000000000000000e+00,-1.168708950943586483e-01,9.931461085322876858e-01,6.435812873718527953e+02
1.256456700145417216e+00,1.223449900323068285e+01,-6.754092332386372632e+00,-7.893317475195539556e-02,-2.360902743051931651e-01,9.685189395685185332e-01,6.447593772604591322e+02
1.329074020491866071e+00,1.249248894228746209e+01,-6.677536064223256851e+00,-1.562047799332269005e-01,-3.503398851267309211e-01,9.235042131015752664e-01,6.467409287698892513e+02
1.477520168124006661e+00,1.303611433960030119e+01,-6.508683476281095004e+00,-2.301882279975298318e-01,-4.572147441483854768e-01,8.590495081342954808e-01,6.509656526502867564e+02
1.620801734296204222e+00,1.357277713004225639e+01,-6.334563960547985317e+00,-2.993261499189400765e-01,-5.544651114153441585e-01,7.765116201314139488e-01,6.551903765306842615e+02
1.758529532206715817e+00,1.410234185661573747e+01,-6.155798619925112902e+00,-3.621631782867938965e-01,-6.400438480094067240e-01,6.776279989196939413e-01,6.594151004110817667e+02
1.890309974032386986e+00,1.462468025150776185e+01,-5.973008783364762486e+00,-4.173765828342003159e-01,-7.121495081575059949e-01,5.644801733756443785e-01,6.636398242914792718e+02
2.015745121813590668e+00,1.513967130621301749e+01,-5.786815975229250952e+00,-4.638041135686981620e-01,-7.692642589446756496e-01,4.394499336087112074e-01,6.678645481718767769e+02
2.134432738777106930e+00,1.564720134106636173e+01,-5.597841884642596355e+00,-5.004684655206756982e-01,-8.101858296238436674e-01,3.051691932319487433e-01,6.720892720522742820e+02
2.245966341094561169e+00,1.614716407417978772e+01,-5.406708334836065610e+00,-5.265978502849816278e-01,-8.340528182469999496e-01,1.644645872255019181e-01,6.763139959326717872e+02
2.349935250074162152e+00,1.663946068977871562e+01,-5.214037252488830987e+00,-5.416422414975148314e-01,-8.403628231765527534e-01,2.029797157521938747e-02,6.805387198130692923e+02
2.388360324731390705e+00,1.683647528249621672e+01,-5.135338650338637123e+00,-7.605537263013550930e-01,-4.014205601721889116e-01,5.103112415782558031e-01,6.822554503958920122e+02
2.473235734265414543e+00,1.731374417151853251e+01,-4.940972828791371896e+00,-6.138617165755229088e-01,2.304878935820414421e-01,7.550146514041730095e-01,6.864801742762895174e+02
2.484789200181835245e+00,1.738671033889883688e+01,-4.910701107429351175e+00,-6.532811237777549351e-01,2.125464589249820013e-01,7.266675829490530925e-01,6.871365691795111843e+02
2.548458097914040987e+00,1.784853821530027318e+01,-4.715483678939087042e+00,-6.909501384241425459e-01,1.940355520333175432e-01,6.963735425433065229e-01,6.913612930599086894e+02
2.603326330742054662e+00,1.830190639850389545e+01,-4.519795108843170262e+00,-7.267678414551814736e-01,1.750047681996632354e-01,6.642136973369111574e-01,6.955860169403061946e+02
2.649218397932185276e+00,1.874632287487995441e+01,-4.323566254291603350e+00,-7.606382734566483617e-01,1.555050950708340152e-01,6.302742120349141830e-01,6.998107408207036997e+02
2.653135888383276519e+00,1.879541116437079751e+01,-4.301374788114655345e+00,-7.924706915035423238e-01,1.355887761211422016e-01,5.946460181438675274e-01,7.002871871487596991e+02
2.676768802816936077e+00,1.922123496675909138e+01,-4.103837982433426568e+00,-7.072943749939790692e-01,1.235284138883301075e-01,6.960412330213181509e-01,7.045119110291572042e+02
2.691675329147281914e+00,1.963686009709679325e+01,-3.904910785891566150e+00,-6.096120310788901708e-01,1.092838840638194614e-01,7.851294187898751886e-01,7.087366349095547093e+02
2.698377152945612423e+00,2.004145340795971109e+01,-3.703820069923076108e+00,-5.011508119846902476e-01,9.310704844842716821e-02,8.603353655276207990e-01,7.129613587899522145e+02
2.697376920649511067e+00,2.043417047657930041e+01,-3.499792810647288643e+00,-3.838284563424098628e-01,7.528393473241747069e-02,9.203293134926613384e-01,7.171860826703497196e+02
2.690951603207172749e+00,2.071170324400952367e+01,-3.348135154513878664e+00,-2.597193842000258823e-01,5.612967966452409724e-02,9.640504657599410221e-01,7.202712785080751701e+02
2.674746988936378855e+00,2.107833217399111092e+01,-3.136147610312449263e+00,-1.310180212119222976e-01,3.598295747637011988e-02,9.907257465560097565e-01,7.244960023884726752e+02
2.652079919758763893e+00,2.143075438392828502e+01,-2.919113833964207316e+00,-0.000000000000000000e+00,1.519999199372137899e-02,9.998834733322439217e-01,7.287207262688701803e+02
2.623565304475251381e+00,2.176811365513769303e+01,-2.696239704839452855e+00,-4.766013582140743443e-01,-3.399995421605139529e-03,8.791118161981057444e-01,7.329454501492676854e+02
2.612192105133055886e+00,2.187332068873768165e+01,-2.621200845875737429e+00,-8.217572942068716024e-01,1.566598654475508806e-02,5.696205107627945186e-01,7.343277757035457398e+02
2.571940883240082520e+00,2.217864360933121048e+01,-2.385072190267391701e+00,-8.212248931702977872e-01,-9.254715376003473659e-02,5.630476881837630510e-01,7.385524995839432449e+02
2.528308867779408331e+00,2.246742879322582098e+01,-2.141903105539726404e+00,-8.110401495059967880e-01,-1.996725305737324929e-01,5.498570327133440738e-01,7.427772234643407501e+02
2.482495600030611094e+00,2.273910955252510746e+01,-1.891420846383828236e+00,-7.913227711786867680e-01,-3.044510355078368091e-01,5.302035824030859601e-01,7.470019473447382552e+02
2.446367215981056997e+00,2.293274586951870475e+01,-1.694830453987840935e+00,-7.623045089713921252e-01,-4.056511446413549882e-01,5.043183364243735145e-01,7.502232324820287204e+02
2.397876519381770599e+00,2.316840106439432745e+01,-1.430134686047252135e+00,-7.243264324983974545e-01,-5.020833933838139140e-01,4.725055399391341893e-01,7.544479563624262255e+02
2.348843235969518606e+00,2.338517136787995554e+01,-1.159383898727943896e+00,-6.778349213225840497e-01,-5.926143569551418633e-01,4.351391080644371190e-01,7.586726802428237306e+02
2.299529021162402653e+00,2.358236604845985340e+01,-8.834469277487383421e-01,-6.233764183063853492e-01,-6.761799721614822900e-01,3.926582309694937045e-01,7.628974041232212357e+02
2.250181480127693590e+00,2.375928733382517066e+01,-6.031928647918186615e-01,-5.615910068724251358e-01,-7.517980438918464570e-01,3.455622117670398286e-01,7.671221280036187409e+02
2.201034106041545702e+00,2.391523062188145587e+01,-3.194910146591211086e-01,-4.932048876718527763e-01,-8.185797893462735120e-01,2.944045978773896510e-01,7.713468518840162460e+02
2.152306219581626490e+00,2.404948469247398890e+01,-3.321085242089293066e-02,-4.190218430921581749e-01,-8.757402843188637487e-01,2.397866748460521502e-01,7.755715757644137511e+02
2.104202909657373333e+00,2.416133191981717587e+01,2.547780194419723698e-01,-3.399137899300294086e-01,-9.226076887654297565e-01,1.823503990872737401e-01,7.797962996448112563e+02
2.056914975392422740e+00,2.425004848561520987e+01,5.436059139020853470e-01,-2.568105312691150721e-01,-9.586311432337306648e-01,1.227708526183794724e-01,7.840210235252087614e+02
2.010632149757837883e+00,2.431490591597578188e+01,8.324040757339696839e-01,-1.706888280117418444e-01,-9.833872433556053450e-01,6.174830846605952606e-02,7.882457474056062665e+02
1.965656361699569032e+00,2.435518408314177918e+01,1.120326365513092615e+00,-8.256091850746095917e-02,-9.965850163112908167e-01,0.000000000000000000e+00,7.924704712860037716e+02
1.951279563227145797e+00,2.436017674010807710e+01,1.215142130347988569e+00,-2.156758109603265638e-02,-9.960809228055309550e-01,-8.576499676058285671e-02,7.938692576050638081e+02
1.909750742194361584e+00,2.435016401786272766e+01,1.499375828612233841e+00,3.966463393785247399e-02,-9.845441411985837998e-01,-1.705800423467540017e-01,7.980939814854613132e+02
1.870657672133101412e+00,2.431576160607318826e+01,1.780682998653569493e+00,1.004575138969565351e-01,-9.621024572361839278e-01,-2.535057192308010632e-01,8.023187053658588184e+02
1.834612624157995198e+00,2.425763197091450962e+01,2.058127082781179951e+00,1.601377127421171054e-01,-9.290044393251757349e-01,-3.336235373484394695e-01,8.065434292462563235e+02
1.802241683722008991e+00,2.417642288143828111e+01,2.330771713409049539e+00,2.180442089177051790e-01,-8.856166851698048514e-01,-4.100461070506318251e-01,8.107681531266538286e+02
1.774184628515848683e+00,2.407276720250490598e+01,2.597680759226945746e+00,2.735356266390577273e-01,-8.324197612394795831e-01,-4.819269675565676647e-01,8.149928770070513337e+02
1.751094805158703638e+00,2.394728268914996860e+01,2.857918371363227461e+00,3.259973395759521719e-01,-7.700028800484284286e-01,-5.484699620832346190e-01,8.192176008874488389e+02
1.733639004684767837e+00,2.380057178239832183e+01,3.110549029537594823e+00,3.748482782769123611e-01,-6.990573741939181129e-01,-6.089380558471799709e-01,8.234423247678463440e+02
1.722497336830977055e+00,2.363322140653958314e+01,3.354637588201680121e+00,4.195473659584927351e-01,-6.203690394137089115e-01,-6.626614993004560361e-01,8.276670486482438491e+02
1.718448801532588499e+00,2.344918206032866692e+01,3.585019874145160212e+00,4.595995113955546052e-01,-5.348094314392005666e-01,-7.090452462075117479e-01,8.318155236432169204e+02
1.721634539281125642e+00,2.324244446619636051e+01,3.809403718489130064e+00,4.287525143649845716e-01,-4.973578760371248908e-01,-7.541912387252736050e-01,8.360402475236144255e+02
1.731607284717981310e+00,2.301755756241270490e+01,4.023118711624561250e+00,3.960222994345181102e-01,-4.577217662251626407e-01,-7.960245744163960691e-01,8.402649714040119306e+02
1.747483219273753940e+00,2.277590715353723994e+01,4.225890750544538221e+00,3.615526279890998729e-01,-4.160751962273872007e-01,-8.343615093465509558e-01,8.444896952844094358e+02
1.768407879746794364e+00,2.251889468890801638e+01,4.417446271363470345e+00,3.254949014315840494e-01,-3.726010905802836781e-01,-8.690336566790657358e-01,8.487144191648069409e+02
1.793556265539716588e+00,2.224793682021608277e+01,4.597512262731961563e+00,2.880074962155989571e-01,-3.274904007139962658e-01,-8.998887262125072617e-01,8.529391430452044460e+02
1.822132943302441799e+00,2.196446495785655628e+01,4.765816279231223085e+00,2.492550682504819093e-01,-2.809412662870411914e-01,-9.267911932301780009e-01,8.571638669256019512e+02
1.853372148977088241e+00,2.166992482608573312e+01,4.922086454746520623e+00,2.094078297315809800e-01,-2.331581449557822705e-01,-9.496228937259115765e-01,8.613885908059994563e+02
1.883277288525963211e+00,2.139700198348490545e+01,5.051273655288561315e+00,1.686408015701815200e-01,-1.843509143984306542e-01,-9.682835433934848801e-01,8.651793028177307860e+02
1.918022016234899541e+00,2.108459494416150193e+01,5.182703405219076132e+00,1.271330447043089451e-01,-1.347339505349954281e-01,-9.826911781011187230e-01,8.694040266981282912e+02
1.953370228952844956e+00,2.076538052755153885e+01,5.301315083769519099e+00,8.506687366432247321e-02,-8.452518598906000324e-02,-9.927825139166670532e-01,8.736287505785257963e+02
1.988672705776772576e+00,2.044085606419242396e+01,5.406839241017420861e+00,4.262705584516352647e-02,-3.394515292406561496e-02,-9.985132251017039273e-01,8.778534744589233014e+02
2.023132330218885055e+00,2.011251741499669876e+01,5.499173690834082251e+00,0.000000000000000000e+00,1.678398554445860447e-02,-9.998581388522901348e-01,8.820781983393208066e+02
2.055625782299387971e+00,1.978184965589885991e+01,5.578550135194705994e+00,-6.474221471234570258e-02,3.807682943290600919e-02,-9.971743080797969006e-01,8.863029222197183117e+02
2.084881143233390244e+00,1.945034730796381695e+01,5.645367533337132038e+00,-1.291832296180365214e-01,5.919253112279818096e-02,-9.898514724163448575e-01,8.905276461001158168e+02
2.092740212295618907e+00,1.935062736801658900e+01,5.661828371413514915e+00,-1.930232570870288877e-01,8.003285777001899193e-02,-9.779237004495094920e-01,8.918004599719630505e+02
2.114863420362086632e+00,1.902114670731279489e+01,5.704545111532527635e+00,-2.559653056352603762e-01,1.005008576945729398e-01,-9.614464831252789168e-01,8.960251838523605556e+02
2.130941766631022638e+00,1.869437537128926152e+01,5.735623474915838571e+00,-3.177165614655895753e-01,1.205013113780257633e-01,-9.404964755526603604e-01,9.002499077327580608e+02
2.139801178015629635e+00,1.837188851465099404e+01,5.755464592955461534e+00,-3.779897505674735814e-01,1.399411744010932157e-01,-9.151711403740415696e-01,9.044746316131555659e+02
2.140297600751065676e+00,1.805528478902494172e+01,5.764470149680748001e+00,-4.365044750435819187e-01,1.587300102623900588e-01,-8.855882943610791092e-01,9.086993554935530710e+02
2.131413035088487007e+00,1.774606425638154761e+01,5.763035577833173662e+00,-4.929885174514926915e-01,1.767804110664219497e-01,-8.518855603450902203e-01,9.129240793739505762e+02
2.112348343937987760e+00,1.744550377056987855e+01,5.751543255257153930e+00,-5.471791070972514825e-01,1.940084041252683467e-01,-8.142197270302780066e-01,9.171488032543480813e+02
2.082422706391433120e+00,1.715477442939814168e+01,5.730369270009538774e+00,-5.988241423942196606e-01,2.103338425837984749e-01,-7.727660196656617186e-01,9.213735271347455864e+02
2.046628670847004283e+00,1.691198464923509448e+01,5.703916735498509638e+00,-6.476833636044839748e-01,2.256807782523939376e-01,-7.277172849653964493e-01,9.250397566458357232e+02
1.993467868834624790e+00,1.664428588597461811e+01,5.664478423942230556e+00,-7.326734523134207366e-01,2.195958120069660957e-01,-6.441779968492004071e-01,9.292644805262332284e+02
1.927624992292368944e+00,1.638986679810027169e+01,5.616439612284342964e+00,-8.072308542683117594e-01,2.103839831597176524e-01,-5.514661617432329299e-01,9.334892044066307335e+02
1.848500944368862253e+00,1.614995190352804144e+01,5.560178154356134606e+00,-8.702939437620994534e-01,1.981764618717551385e-01,-4.509019199469578854e-01,9.377139282870282386e+02
1.755678105811971257e+00,1.592539353961909221e+01,5.496437304840131155e+00,-9.209647634142361650e-01,1.831470735715496900e-01,-3.439172196800517334e-01,9.419386521674257438e+02
1.649070318822183356e+00,1.571628207290453538e+01,5.426690679857746780e+00,-9.585218089988262191e-01,1.655098238133167199e-01,-2.320354281048973011e-01,9.461633760478232489e+02
1.575809146712292774e+00,1.559771308329048800e+01,5.381456578226936571e+00,-9.824303020882868553e-01,1.455158511309952718e-01,-1.168496410314967537e-01,9.487435166074565132e+02
1.442569265245441823e+00,1.541831213919437715e+01,5.304551457039655915e+00,-9.923498043655251122e-01,1.234498512612211552e-01,-0.000000000000000000e+00,9.529682404878540183e+02
1.295761922007657052e+00,1.525363925617844885e+01,5.226441872796145027e+00,-9.978449368304830314e-01,0.000000000000000000e+00,-6.560093010446153838e-02,9.571929643682515234e+02
1.135433491540116080e+00,1.510340171991119718e+01,5.148967104705575615e+00,-9.059975652671427016e-01,-2.432587371300403700e-01,-3.463980348403394860e-01,9.614176882486490285e+02
9.617156229833032643e-01,1.496704237556196482e+01,5.073993597604055772e+00,-6.814596367310007397e-01,-4.508902152038343769e-01,-5.764622948133175662e-01,9.656424121290465337e+02
7.749125571584187799e-01,1.484347237213334658e+01,5.003442069873169196e+00,-3.571165318403879407e-01,-5.924852232853211609e-01,-7.220990533689073398e-01,9.698671360094440388e+02
6.611763109716819464e-01,1.477933055785960903e+01,4.966712748334650485e+00,-4.914577994019113105e-01,-3.117209761114472233e-01,-8.132018596016001855e-01,9.722779632674273671e+02
4.496434357096719125e-01,1.467704078694122671e+01,4.910064828248748903e+00,-5.741094903284769124e-01,1.828998376288140269e-03,-8.187752731239464898e-01,9.765026871478248722e+02
2.261596637815824484e-01,1.458381813518380810e+01,4.862505389644237397e+00,-0.000000000000000000e+00,-9.988619020529990733e-01,4.767494759579315317e-02,9.807274110282223774e+02
-8.387280031345907202e-03,1.449748778177327857e+01,4.824962364086384348e+00,1.142724338256458638e-01,-9.923006575980343191e-01,-4.774113319928507265e-02,9.849521349086198825e+02
-2.525667348675111890e-01,1.441559355802858455e+01,4.797745147879024508e+00,2.260073968839733383e-01,-9.637048664721570290e-01,-1.420971037447027741e-01,9.891768587890173876e+02
-3.194551033304749432e-01,1.439424184827770858e+01,4.793229685242363480e+00,3.327237547192830602e-01,-9.137095095031971814e-01,-2.332977395730735926e-01,9.902990691568544435e+02
-5.773067221754075717e-01,1.431379991099897886e+01,4.786115146082013716e+00,4.320518127865448643e-01,-8.434247576110220912e-01,-3.193178812994988958e-01,9.945237930372519486e+02
-8.394813381100187932e-01,1.423215174079633449e+01,4.788411034588881954e+00,5.217859374270525930e-01,-7.544113201725796136e-01,-3.982474048876986639e-01,9.987485169176494537e+02
-1.103544906200615072e+00,1.414670869716803558e+01,4.799589534415503955e+00,5.999335338016192898e-01,-6.486457885322165495e-01,-4.683336375285126474e-01,1.002973240798046959e+03
-1.367115776310558806e+00,1.405483365711332411e+01,4.819122386669721259e+00,6.647592930602990169e-01,-5.284767442506987933e-01,-5.280202771458306632e-01,1.007197964678444464e+03
-1.627772248129732091e+00,1.395400431146621578e+01,4.846423704320496739e+00,7.148237261018716149e-01,-3.965726068370019619e-01,-5.759819512010800890e-01,1.011422688558841969e+03
-1.882955806561569023e+00,1.384197398525898670e+01,4.880792789450723923e+00,7.490151281935626404e-01,-2.558623791921288415e-01,-6.111536473362931821e-01,1.015647412439239474e+03
-2.099648094111384644e+00,1.373195754823784576e+01,4.916492300298408225e+00,7.665742646539652760e-01,-1.094706067284816481e-01,-6.327543623191655975e-01,1.019352225004376919e+03
-2.336262743578794154e+00,1.359102032979932240e+01,4.962830095566688193e+00,7.671112294972977086e-01,3.935200539565420624e-02,-6.403044441917927765e-01,1.023576948884774424e+03
-2.560031068301542589e+00,1.343258007234621765e+01,5.014053337296418889e+00,7.506141027920847364e-01,1.873007761196621990e-01,-6.336362426155461858e-01,1.027801672765172043e+03
-2.768463356893932747e+00,1.325434957696912974e+01,5.069402938849544071e+00,7.222881338432696197e-01,4.989294968933157687e-02,-6.897887685962893478e-01,1.032026396645569548e+03
-2.959111987076442851e+00,1.305399040347171180e+01,5.128119606301754452e+00,6.774676977280739143e-01,-8.865422635372186000e-02,-7.301889801180824202e-01,1.036251120525967053e+03
-3.129742188884579779e+00,1.282942150492387157e+01,5.189393391239228492e+00,6.171763366248134153e-01,-2.251768418528466154e-01,-7.539142918162967666e-01,1.040475844406364558e+03
-3.238020374233742782e+00,1.264684899328535472e+01,5.235325069260006181e+00,5.427908868723544389e-01,-3.565572229626617906e-01,-7.604229085731035731e-01,1.043555864160539841e+03
-3.363480271115863118e+00,1.236982251219600926e+01,5.299301157096016901e+00,4.560100378177788794e-01,-4.797951250358811759e-01,-7.495661968114816220e-01,1.047780588040937346e+03
-3.466350038148365620e+00,1.206635349235944155e+01,5.363597571924747953e+00,3.588155418936562757e-01,-5.920762440854652198e-01,-7.215920787302380068e-01,1.052005311921334851e+03
-3.547769145296228999e+00,1.173692264324878565e+01,5.427689073750874726e+00,7.247823443951237898e-01,-3.690093797294706213e-01,-5.818252580684044606e-01,1.056230035801732356e+03
-3.609624420665688671e+00,1.138220553422608461e+01,5.491153726262752777e+00,9.434547525921302968e-01,-7.095031974503408778e-02,-3.238165868834816385e-01,1.060454759682129861e+03
-3.653992269025497119e+00,1.100299552340367981e+01,5.553603829878615450e+00,9.703928888894571836e-01,2.415277234480971702e-01,0.000000000000000000e+00,1.064679483562527366e+03
-3.682805121522824354e+00,1.060021314753838162e+01,5.614648727545037410e+00,9.969795307158221265e-01,-7.765188556165565636e-02,0.000000000000000000e+00,1.068904207442924871e+03
-3.687572589296412406e+00,1.044887847669880721e+01,5.635754400137138909e+00,9.973936545228350159e-01,-5.390231651225763781e-02,-4.794202951625731179e-02,1.070406437877591088e+03
-3.686864739664198254e+00,1.000111340818023997e+01,5.693155005891162190e+00,9.949525819282425410e-01,-2.999844343547113448e-02,-9.574681774192647654e-02,1.074631161757988593e+03
-3.675061504771193199e+00,9.532074806688651591e+00,5.748226971217033743e+00,9.896633008032019729e-01,-6.008694827044896297e-03,-1.432775161415992260e-01,1.078855885638386098e+03
-3.653954176887821870e+00,9.042844744291333114e+00,5.800578462954180559e+00,9.815409524151731402e-01,1.799825497991901571e-02,-1.903980607871183783e-01,1.083080609518783604e+03
-3.625309507074612636e+00,8.534538706370208061e+00,5.849817779064363954e+00,9.706087880894846975e-01,4.195368240213173672e-02,-2.369735618549984324e-01,1.087305333399181109e+03
-3.590869466843972901e+00,8.008305217555149014e+00,5.895553367985514548e+00,9.568981026536802492e-01,6.578901133467009166e-02,-2.828706897634507555e-01,1.091530057279578614e+03
-3.552351012038499789e+00,7.465325464911384046e+00,5.937393847980040107e+00,9.404481448572009628e-01,8.943600945767513077e-02,-3.279580568438053567e-01,1.095754781159976119e+03
-3.530466700286674087e+00,7.177667055210417146e+00,5.956776667896833466e+00,9.213060050226792308e-01,1.128269835593231213e-01,-3.721065934538821396e-01,1.097930474787374806e+03
-3.485286608773167760e+00,6.604424943439319406e+00,5.989914554042050199e+00,8.995264802502834778e-01,1.358949733160019213e-01,-4.151899174567507123e-01,1.102155198667772311e+03
-3.440037634237401054e+00,6.017554765499426139e+00,6.018192533806964839e+00,8.751719175607790557e-01,1.585739429750282481e-01,-4.570846960072816878e-01,1.106379922548169816e+03
-3.395541679663431012e+00,5.418469423328832413e+00,6.041275768824534431e+00,8.483120354261196594e-01,1.807989703912330215e-01,-4.976709986108831529e-01,1.110604646428567321e+03
-3.352323759145460436e+00,4.808637048132329284e+00,6.058848255153896467e+00,8.190237241982329941e-01,2.025064328763002131e-01,-5.368326404437638866e-01,1.114829370308964826e+03
-3.310879432791167254e+00,4.189534893640733060e+00,6.070594257892336643e+00,7.873908260070761056e-01,2.236341893288534832e-01,-5.744575149519159929e-01,1.119054094189362331e+03
-3.271674745068102741e+00,3.562648894508435138e+00,6.076198326790863469e+00,7.535038947578046598e-01,2.441217581239140122e-01,-6.104379147766600955e-01,1.123278818069759836e+03
-3.235146165724808398e+00,2.929473224014010668e+00,6.075345311859090103e+00,7.174599369138831007e-01,2.639104902524764817e-01,-6.446708400879876955e-01,1.127503541950157341e+03
-3.206849733307319372e+00,2.398696407181834189e+00,6.069023324620917315e+00,6.793621338079719463e-01,2.829437372155304553e-01,-6.770582934429462130e-01,1.131018260572192730e+03
-3.175703016928797862e+00,1.757251677474926055e+00,6.054390068343805886e+00,6.393195462753363811e-01,3.011670131918569582e-01,-7.075075603248636158e-01,1.135242984452590235e+03
-3.148313928577623155e+00,1.113784028795054448e+00,6.032409047240674838e+00,5.974468024551429224e-01,3.185281510153045725e-01,-7.359314745601693852e-01,1.139467708332987741e+03
-3.124784392386641407e+00,4.697684364874508689e-01,6.002849316237115040e+00,5.538637696532234811e-01,3.349774515149624987e-01,-7.622486678528429538e-01,1.143692432213385246e+03
-3.111064642289883331e+00,5.249935642527729651e-02,5.978732301947771610e+00,5.086952112055500574e-01,3.504678257906328476e-01,-7.863838027219687277e-01,1.146432912737599963e+03
-3.091788018752262168e+00,-5.889241789582515541e-01,5.933949560650738420e+00,4.620704293246281069e-01,3.649549300162232557e-01,-8.082677881753745908e-01,1.150657636617997468e+03
-3.074968865185766287e+00,-1.227345876528445734e+00,5.881553998945459938e+00,4.141228949511850388e-01,3.783972923850620340e-01,-8.278379775017448150e-01,1.154882360498394974e+03
-3.059948725609414222e+00,-1.861460160256802610e+00,5.821564744545580261e+00,3.649898656707637468e-01,3.907564318336324560e-01,-8.450383476147903528e-01,1.159107084378792479e+03
-3.045800146275231324e+00,-2.490028457809624562e+00,5.754099655277848058e+00,3.148119927890367098e-01,4.019969682037545233e-01,-8.598196594358683553e-01,1.163331808259189984e+03
-3.031085091509457374e+00,-3.111940113781111794e+00,5.679473671174715577e+00,2.637329186907233503e-01,4.120867235277546614e-01,-8.721395988557344436e-01,1.167556532139587489e+03
-3.025294874843318382e+00,-3.300131930978297046e+00,5.654539883400070188e+00,2.118988656348466115e-01,4.209968141465820768e-01,-8.819628978717236611e-01,1.168850675330724926e+03
-3.001065712099828975e+00,-3.906296412286685005e+00,5.566643476654705935e+00,1.594582171636096946e-01,4.287017333970748467e-01,-8.892614355534209647e-01,1.173075399211122431e+03
-2.972255064108601186e+00,-4.503548395945678351e+00,5.472540808531323187e+00,1.065610933233428897e-01,4.351794246315914827e-01,-8.940143185476558951e-01,1.177300123091519936e+03
-2.936979686868839590e+00,-5.090984136832040541e+00,5.372485017146687802e+00,5.335892091371334522e-02,4.404113443609043999e-01,-8.962079408922474233e-01,1.181524846971917441e+03
-2.893073348523934829e+00,-5.667827748811467004e+00,5.266406823179178076e+00,3.999995637452772125e-06,4.443825153395438154e-01,-8.958360229671947783e-01,1.185749570852314946e+03
-2.844952135929462500e+00,-6.161253130273530054e+00,5.168416029491365471e+00,8.667161273835900515e-01,4.591995376744019419e-02,-4.966814999372763384e-01,1.189435480108141292e+03
-2.776562528328940349e+00,-6.714937719671197236e+00,5.049539017353615655e+00,6.818411546847885640e-01,5.506893172807868220e-02,-7.294230956948929423e-01,1.193660203988538797e+03
-2.693643003992719720e+00,-7.256240695853104938e+00,4.923542432294468085e+00,5.259873689386210804e-01,-1.171396582127197245e-01,-8.423856528880850902e-01,1.197884927868936302e+03
-2.652068357599653314e+00,-7.475077870110574452e+00,4.868176917135813575e+00,3.350466163313396972e-01,-2.815342230568034232e-01,-8.991552958935445927e-01,1.199635257361118420e+03
-2.533367308963007325e+00,-7.989822567957618915e+00,4.726497979075948486e+00,1.217558766213700377e-01,-4.271485671584282495e-01,-8.959450921138177870e-01,1.203859981241515925e+03
-2.396923010890318562e+00,-8.490940326101689806e+00,4.576291070007323825e+00,8.189993714591445274e-04,-4.303506697274900317e-01,-9.026603072535811512e-01,1.208084705121913430e+03
-2.290531740005906425e+00,-8.823072380100052570e+00,4.467709691658489746e+00,2.222142500387204178e-01,-3.238260637205434556e-01,-9.196496656530107616e-01,1.210967255010378949e+03
-2.114542031260503663e+00,-9.295208456808175868e+00,4.299407816089701129e+00,4.301316307905116432e-01,-1.976607968918830671e-01,-8.808603689386679259e-01,1.215191978890776454e+03
-2.003019159952930117e+00,-9.554386103124693719e+00,4.198712457877359583e+00,6.119605815365047885e-01,-5.950705728114068227e-02,-7.886451399588770839e-01,1.217587369489866660e+03
-1.785541855014215695e+00,-9.996232676934814876e+00,4.011808753212296352e+00,7.566728811009374445e-01,8.225587836748549098e-02,-6.485970409136641024e-01,1.221812093370264165e+03
-1.548782219587000020e+00,-1.042290700144895865e+01,3.815774671117296624e+00,4.164352343566570802e-01,6.192093436266635914e-02,-9.070531921971428657e-01,1.226036817250661670e+03
-1.293499897995426418e+00,-1.083396793847134099e+01,3.610909501641681452e+00,0.000000000000000000e+00,3.025597526116248145e-02,-9.995411827238520619e-01,1.230261541131059175e+03
-1.061064932241087888e+00,-1.116991849156516103e+01,3.429451387051504430e+00,-0.000000000000000000e+00,8.313305535013525149e-02,-9.965374529362588385e-01,1.233855742262691592e+03
-7.711834772769825541e-01,-1.154842495688706272e+01,3.208362146297981887e+00,-0.000000000000000000e+00,1.357769331175933680e-01,-9.907384238182697089e-01,1.238080466143089097e+03
-4.664575350481142135e-01,-1.191059846196886873e+01,2.980256275907585461e+00,-0.000000000000000000e+00,1.880399476436750705e-01,-9.821603627142456716e-01,1.242305190023486603e+03
-1.484119243320874693e-01,-1.225622376061370389e+01,2.746081700043190299e+00,-0.000000000000000000e+00,2.397755063552703403e-01,-9.708273309651234140e-01,1.246529913903884108e+03
1.817441684798659918e-01,-1.258503473067481693e+01,2.507231048336717727e+00,-0.000000000000000000e+00,2.908384960105344641e-01,-9.567711164301470061e-01,1.250754637784281613e+03
