-1.823179208541735763e+00,-6.482881370625563910e+00,-7.849848335002262978e+00,-7.152709479375716356e-03,2.338578160090626079e-01,9.722434677792788360e-01,1.403217543092100357e+02
-1.380483642541657785e+00,-6.506259976293384817e+00,-7.299739857383515940e+00,-6.122302283159230911e-03,1.228076477770189967e-01,9.924106000356128776e-01,1.445464781896075976e+02
-1.234254964805484356e+00,-6.501533017513757784e+00,-7.133935758001019423e+00,-5.013897212973738270e-03,1.019290673758636682e-02,9.999344805974490491e-01,1.459556462470970075e+02
-8.014090682098294893e-01,-6.458265083466863565e+00,-6.673914452579008838e+00,-3.841615249803650035e-03,-1.025517034968328745e-01,9.947192519011436307e-01,1.501803701274945695e+02
-3.795449701581712909e-01,-6.368888491125859197e+00,-6.267061425822630483e+00,-2.620391173954416970e-03,-2.139898234136387301e-01,9.768313513733974940e-01,1.544050940078921315e+02
2.931812665211263463e-02,-6.245971348059425665e+00,-5.889439465469798130e+00,-1.365783300411870915e-03,-3.227017366205753857e-01,9.464986655132731075e-01,1.586298178882896934e+02
4.229209804557217955e-01,-6.102032738686824942e+00,-5.517109908757219294e+00,-9.377526873675678151e-05,-4.273024570043159609e-01,9.041076271354696603e-01,1.628545417686872554e+02
7.987647119769973880e-01,-5.949539072432210141e+00,-5.126133827414513178e+00,1.179427587550781501e-03,-5.264593735926472728e-01,8.501982926983338018e-01,1.670792656490848174e+02
1.154111227333175282e+00,-5.800900436697639329e+00,-4.692573212668290417e+00,2.437604697869379371e-03,-6.189092283018261531e-01,7.854574623786152454e-01,1.713039895294823793e+02
1.485983662263137939e+00,-5.668466954898340404e+00,-4.192492160212850649e+00,3.664726907305702018e-03,-7.034742102335581615e-01,7.107099305011764789e-01,1.755287134098799413e+02
1.791166847660936146e+00,-5.564525149805079174e+00,-3.601958055104017120e+00,4.845160692033767362e-03,-7.790769614295789403e-01,6.269079777666811681e-01,1.797534372902775033e+02
2.066207796393757512e+00,-5.501294312436566969e+00,-2.897042756532987262e+00,5.963867335184851529e-03,-8.447543028540616117e-01,5.351192391382840752e-01,1.839781611706750653e+02
2.307416206722944896e+00,-5.490922880006291251e+00,-2.095000990517539297e+00,7.006594525044555245e-03,-8.996695056790787737e-01,4.365131019618105346e-01,1.882028850510726272e+02
2.532540028230665818e+00,-5.545636748576384001e+00,-1.272883075392272412e+00,7.960057933977056702e-03,-9.431229514883023857e-01,3.323458076367509784e-01,1.924276089314701892e+02
2.802437861823665166e+00,-5.678495285094141920e+00,-5.037902717996343149e-01,8.812110464179758601e-03,-9.745610455520197224e-01,2.239444466867461514e-01,1.966523328118677512e+02
2.872047215599607295e+00,-5.717714859619303702e+00,-3.435734527695313290e-01,9.551897003620659493e-03,-9.935832695992619090e-01,1.126900511858624776e-01,1.975830039243116971e+02
3.284461645240154937e+00,-5.950170428886789153e+00,3.110929470016522980e-01,1.016999272028846005e-02,-9.999472842347103541e-01,0.000000000000000000e+00,2.018077278047092591e+02
3.623089241077673606e+00,-6.193996066181820304e+00,7.657602154108960057e-01,3.099996898210734703e-05,-9.999989994228176693e-01,-0.000000000000000000e+00,2.048679677756856563e+02
3.826567336974781686e+00,-6.693423635537410377e+00,1.631620737209940497e+00,1.491032649706089397e-02,-9.736222850318766442e-01,-2.276737320242113172e-01,2.090926916560832183e+02
3.641724785857334279e+00,-7.357045259765721212e+00,2.785479476590786874e+00,2.900309243878469029e-02,-8.958845239067730892e-01,-4.433370506219909690e-01,2.133174155364807802e+02
3.197308449168301703e+00,-8.072575470476039072e+00,4.022561622854875729e+00,4.156587152321700174e-02,-7.708865818644031753e-01,-6.356132127534218634e-01,2.175421394168783422e+02
2.624098669325380939e+00,-8.730463501080556910e+00,5.138088244761402024e+00,5.193594709213628091e-02,-6.052223834516325951e-01,-7.943591907753652093e-01,2.217668632972759042e+02
2.026868989889239359e+00,-9.262651878401072736e+00,5.989336831910812009e+00,4.547061512783928672e-02,-5.252101336368402151e-01,-8.497556935290840885e-01,2.259915871776734662e+02
1.455369806630180562e+00,-9.680545282541810792e+00,6.557698764930322888e+00,3.857274243561752136e-02,-4.402018057355285841e-01,-8.970688456123581123e-01,2.302163110580710281e+02
1.068877916144129303e+00,-9.939387578954645974e+00,6.830115002711335315e+00,3.130794497937734733e-02,-3.510060407631522272e-01,-9.358485838687103930e-01,2.332426390315659148e+02
5.787661307851080794e-01,-1.028811684801521942e+01,7.059635420317472487e+00,2.374532897525321457e-02,-2.584713113388740768e-01,-9.657260173396405856e-01,2.374673629119634768e+02
1.698510983952889464e-01,-1.066187300043525532e+01,7.124334681916002054e+00,1.595683358053021084e-02,-1.634778513496173702e-01,-9.864169359759213940e-01,2.416920867923610388e+02
-1.391995161647580359e-01,-1.111275846515694710e+01,7.067694611121068782e+00,8.016546641089439609e-03,-6.692928356076573160e-02,-9.977245140727581951e-01,2.459168106727586007e+02
-3.306816494988154553e-01,-1.169326688784681068e+01,6.933203032486527917e+00,0.000000000000000000e+00,3.025597526115438377e-02,-9.995411827235847202e-01,2.501415345531561627e+02
-4.024540035371844682e-01,-1.243146800049036749e+01,6.749164915882585269e+00,-0.000000000000000000e+00,8.313305535013525149e-02,-9.965374529362588385e-01,2.543662584335537247e+02
-4.057735549243146611e-01,-1.263619259569637165e+01,6.697557611197431093e+00,-0.000000000000000000e+00,1.357769331175933680e-01,-9.907384238182697089e-01,2.554184293606945744e+02
-3.863928578875880926e-01,-1.351262603735213297e+01,6.456389050706681232e+00,-0.000000000000000000e+00,1.880399476436750705e-01,-9.821603627142456716e-01,2.596431532410921363e+02
-3.260266491830628999e-01,-1.446611950963058391e+01,6.142061868404609548e+00,-0.000000000000000000e+00,2.397755063552703403e-01,-9.708273309651234140e-01,2.638678771214896983e+02
-2.649391864586430057e-01,-1.544857943128375233e+01,5.737330059081019229e+00,-0.000000000000000000e+00,2.908384960105344641e-01,-9.567711164301470061e-01,2.680926010018872603e+02
-2.424777532749071429e-01,-1.641107831226138103e+01,5.224952088054594768e+00,-0.000000000000000000e+00,3.410856895393044041e-01,-9.400311443712476844e-01,2.723173248822848223e+02
-2.786538348314427371e-01,-1.730883759849064418e+01,4.601209156427926494e+00,-0.000000000000000000e+00,5.242709818433631819e-01,-8.515503141904429141e-01,2.765420487626823842e+02
-3.548976758553523125e-01,-1.809929580098680546e+01,3.897872030961858858e+00,-0.000000000000000000e+00,6.857588840016159981e-01,-7.278274198007557150e-01,2.807204880425874762e+02
-4.364642414743724608e-01,-1.877045818380444331e+01,3.136000361594092567e+00,-0.000000000000000000e+00,8.188661085974975329e-01,-5.739828361470650231e-01,2.849452119229850382e+02
-4.856197117421828802e-01,-1.928349270927619585e+01,2.359370691223625638e+00,-0.000000000000000000e+00,9.180839240797107337e-01,-3.963835369278636556e-01,2.891699358033826002e+02
-4.646205082870675240e-01,-1.961025694307498313e+01,1.604829542691339261e+00,-0.000000000000000000e+00,9.793061316569147134e-01,-2.023795950686599621e-01,2.933946596837801621e+02
-3.351819917050375408e-01,-1.972338730631245340e+01,9.092223442048328330e-01,-0.000000000000000000e+00,9.999989999999361334e-01,-0.000000000000000000e+00,2.976193835641777241e+02
-7.550827835011902911e-02,-1.961081126166750366e+01,2.951336786367149134e-01,7.934802136821222235e-03,9.956538385087466692e-01,9.278185586482325109e-02,3.018441074445752861e+02
3.023122253617527844e-01,-1.928978066315076845e+01,-2.433717614215251124e-01,1.580064719524939751e-02,9.826561171814287565e-01,1.847573947480757317e-01,3.060688313249728481e+02
5.125121915746091439e-01,-1.908122474957609072e+01,-4.824529133617936338e-01,2.352917899017682724e-02,9.611187919621871911e-01,2.751273259296144746e-01,3.080890373362083210e+02
9.912633662100214238e-01,-1.855258327290826870e+01,-9.588273875069259766e-01,3.105323462774896640e-02,9.312290281637307654e-01,3.631063118761744812e-01,3.123137612166058830e+02
1.513593141023656052e+00,-1.789181008549618213e+01,-1.409674867166421208e+00,3.830742810732409159e-02,8.932465740815193067e-01,4.479297923148580773e-01,3.165384850970034449e+02
2.048611781564752210e+00,-1.712863975172010811e+01,-1.855196977536005987e+00,4.522871848775838338e-02,8.475015040510017750e-01,5.288606278168639374e-01,3.207632089774010069e+02
2.564876814398809213e+00,-1.629213974076508009e+01,-2.315595606516204441e+00,5.175695768526441393e-02,7.943913505325380653e-01,6.051955052126530843e-01,3.249879328577985689e+02
3.032238482058851492e+00,-1.541557872151660291e+01,-2.800015890715444211e+00,4.615413013934384356e-02,7.083179927230347506e-01,7.043815851200500022e-01,3.292126567381961308e+02
3.423562517348269996e+00,-1.454134602547391530e+01,-3.295489748659924167e+00,3.975385622860076046e-02,6.100063887170978916e-01,7.913973948907095934e-01,3.334373806185936928e+02
3.610242580023895087e+00,-1.406055877017651845e+01,-3.573344098562144744e+00,3.266671946243764751e-02,5.011551599019823389e-01,8.647394932254598432e-01,3.358241066674566468e+02
3.858948221979574988e+00,-1.326921586315375379e+01,-4.042728561130652487e+00,2.501517060747779353e-02,3.836450257883329273e-01,9.231406910260498977e-01,3.400488305478542088e+02
3.962908212585662504e+00,-1.259915682721383234e+01,-4.461546328139474049e+00,1.693141205046017062e-02,2.595063099717798138e-01,9.655919440278619703e-01,3.442735544282517708e+02
3.893679466526319466e+00,-1.209563409244599619e+01,-4.805776663095287837e+00,8.555113713274541468e-03,1.308838618587894742e-01,9.913597857160164617e-01,3.484982783086493328e+02
3.621928336227438372e+00,-1.180331095537628450e+01,-5.051402518245253326e+00,3.099996898509659407e-05,0.000000000000000000e+00,9.999989995192447578e-01,3.527230021890468947e+02
3.134930880414173782e+00,-1.174319493624487798e+01,-5.184972795687706970e+00,-1.817637910901300988e-02,5.513754678518667518e-02,9.983123109406564222e-01,3.569477260694444567e+02
2.454654141283207025e+00,-1.189006404547791718e+01,-5.214164085618062217e+00,-3.632241985850055005e-02,1.100890254457962680e-01,9.932568088318216581e-01,3.611724499498420187e+02
2.131229614027202679e+00,-1.199380347770025423e+01,-5.203571102270510451e+00,-5.434588941183813443e-02,1.646690050845599218e-01,9.848495535193546591e-01,3.629244871571564772e+02
1.280921768293935781e+00,-1.231434731066907595e+01,-5.136199802294405536e+00,-7.218596851620653898e-02,2.186933084224930157e-01,9.731189150352255179e-01,3.671492110375540392e+02
3.358424447079103592e-01,-1.272862159435620377e+01,-5.008507136665115489e+00,-8.978245672080185924e-02,2.719796331616624596e-01,9.581044773974577433e-01,3.713739349179516012e+02
-6.619211960087275637e-01,-1.319108830676819721e+01,-4.838744181332428340e+00,-1.070759754775604811e-01,3.243481670259124039e-01,9.398569050770069211e-01,3.755986587983491631e+02
-1.669442722284415703e+00,-1.365710938707350053e+01,-4.645164091331878353e+00,-1.240081684714972043e-01,3.756221944084741637e-01,9.184377720991011573e-01,3.798233826787467251e+02
-2.642963332314641534e+00,-1.408295941690372111e+01,-4.446021197511674572e+00,-1.405218985059941972e-01,4.256286925834232293e-01,8.939193543536124720e-01,3.840481065591442871e+02
-3.550619955228346836e+00,-1.443911011284251522e+01,-4.251065269165940741e+00,-6.190141092727332456e-02,4.872085541957799082e-01,8.710878486373625496e-01,3.882728304395418490e+02
-4.385507949604622979e+00,-1.472315673417112336e+01,-4.053036197575412558e+00,1.736868264994104530e-02,5.436753619516434544e-01,8.391146701554066389e-01,3.924975543199394110e+02
-5.153465428535226600e+00,-1.494601558637736893e+01,-3.836169189488247699e+00,9.645648024484462790e-02,5.944365279010982439e-01,7.983353692002830293e-01,3.967222782003369730e+02
-5.165694574285639717e+00,-1.494925523318317850e+01,-3.832343456837877138e+00,1.745319947904498403e-01,6.389593426591425596e-01,7.491779102614641861e-01,3.967924797770085661e+02
-5.872824593277696792e+00,-1.512166167271256789e+01,-3.580732532123869660e+00,2.507758639964831615e-01,6.767765652898387607e-01,6.921581804126177850e-01,4.010172036574061281e+02
-6.525377539376623126e+00,-1.525448313122714339e+01,-3.278495741289672694e+00,3.243879485877739222e-01,7.074913261603680281e-01,6.278745752295826765e-01,4.052419275378036900e+02
-7.129757924741555009e+00,-1.535823258549848802e+01,-2.909873455508975582e+00,3.945957287409369574e-01,7.307812913718589876e-01,5.570017190648196559e-01,4.094666514182012520e+02
-7.692555917744230420e+00,-1.544328369599618256e+01,-2.459109329484632678e+00,4.606624106661346696e-01,7.464020451141830659e-01,4.802833855646618244e-01,4.136913752985988140e+02
-8.216187800658584450e+00,-1.550519203793744438e+01,-1.926268326018475641e+00,5.542722449529564610e-01,7.237679664649995237e-01,4.110233681856044208e-01,4.179160991789963759e+02
-8.694166778239695859e+00,-1.551014002054576757e+01,-1.343053957610503168e+00,6.400823018591651481e-01,6.909489728535627151e-01,3.359794097264137136e-01,4.221408230593939379e+02
-8.942818176382616002e+00,-1.547930772440944480e+01,-1.009004308039924691e+00,7.168850667850635849e-01,6.484068961265463393e-01,2.562075293135728238e-01,4.245132310070253538e+02
-9.341111594382541128e+00,-1.532680603538248576e+01,-4.395881665828187956e-01,7.835997736709557904e-01,5.967403879975814451e-01,1.728302752300586997e-01,4.287379548874229158e+02
-9.662507264743283031e+00,-1.499389368122358768e+01,5.846848142681745214e-02,8.392876121708281456e-01,5.366764964557876327e-01,8.702092971885133643e-02,4.329626787678204778e+02
-9.893056096350543172e+00,-1.443289081374749117e+01,4.376466670743089926e-01,8.831649377958831204e-01,4.690604358495172876e-01,-1.299998436460017925e-05,4.371874026482180398e+02
-1.002494907853440154e+01,-1.362573775653674879e+01,6.672246724977807242e-01,9.461322533657745559e-01,3.237773293682658093e-01,-1.137286157892322203e-05,4.414121265286156017e+02
-1.005926896498698575e+01,-1.316295710363491800e+01,7.327249667471649186e-01,9.853780275366043062e-01,1.703764736104533273e-01,-9.460597539933280560e-06,4.434706400513396716e+02
-1.007900819033621076e+01,-1.212233554544826575e+01,7.866255891130911060e-01,9.999183015442295597e-01,1.270394367579020384e-02,-7.311136738468823676e-06,4.476953639317372335e+02
-1.002816052182153328e+01,-1.097983955699990055e+01,7.230456146012581575e-01,9.893885288339518969e-01,-1.452870916099749110e-01,-4.978370552135481610e-06,4.519200878121347955e+02
-9.922776039518371505e+00,-9.804821571266206348e+00,5.616602161947558125e-01,9.540527129802677253e-01,-2.996354799586381512e-01,-2.520786117719813262e-06,4.561448116925323575e+02
-9.780198998930057286e+00,-8.666279257391423130e+00,3.221494069827021134e-01,8.947967886284332595e-01,-4.464713955691830272e-01,-0.000000000000000000e+00,4.603695355729299195e+02
-9.613931674536626559e+00,-7.615182860716822155e+00,2.157674533757612464e-02,8.898949752205425057e-01,-4.440256192410594882e-01,1.045283814881080992e-01,4.645942594533274814e+02
-9.428053478251015918e+00,-6.666948277442135584e+00,-3.282318303670839765e-01,8.752432816868936927e-01,-4.367150030375426817e-01,2.079115292271039306e-01,4.688189833337250434e+02
-9.237757478376373399e+00,-5.874341089506834201e+00,-6.876807232572571538e-01,8.510022342535957796e-01,-4.246196432032712798e-01,3.090167566701757518e-01,4.727377794290534894e+02
-9.012376379721363406e+00,-5.111430307377196058e+00,-1.104015704746502013e+00,8.174374216893263156e-01,-4.078720584230871582e-01,4.067363342279748939e-01,4.769625033094510513e+02
-8.764614874062948147e+00,-4.444788348167911352e+00,-1.542624118283355106e+00,7.749165856050870271e-01,-3.866557379923818427e-01,4.999996256331110112e-01,4.811872271898486133e+02
-8.493457585564636148e+00,-3.872227030401273140e+00,-1.994293454196385929e+00,7.239055915833128019e-01,-3.612031315613670190e-01,5.877848179615896562e-01,4.854119510702461753e+02
-8.197842974097577340e+00,-3.391590166596934353e+00,-2.449810555449277949e+00,6.649633252593630806e-01,-3.317931024690040087e-01,6.691301168049412773e-01,4.896366749506437372e+02
-7.879469860678493198e+00,-3.000734601719298844e+00,-2.897040745266793671e+00,5.987355692546875163e-01,-2.987478725582685679e-01,7.431442839398623157e-01,4.938613988310412992e+02
-7.545603543762425147e+00,-2.697432570603414792e+00,-3.322758048689989252e+00,5.259479280269738766e-01,-2.624294919358672318e-01,8.090164020387102806e-01,4.980861227114388612e+02
-7.206268487139989354e+00,-2.479274066136574195e+00,-3.720318124299136553e+00,4.473978781358075585e-01,-2.232358723453300720e-01,8.660247594260647164e-01,5.023108465918364232e+02
-6.871440597242747472e+00,-2.343647901959130753e+00,-4.087828971544948509e+00,3.639460310083166283e-01,-1.815964276054485016e-01,9.135447575216824045e-01,5.065355704722339851e+02
-6.551045738513455952e+00,-2.287742460544238465e+00,-4.423400074809570093e+00,2.765067039225087009e-01,-1.379673688737067527e-01,9.510557543136175518e-01,5.107602943526315471e+02
-6.254958253700543480e+00,-2.308546458911431287e+00,-4.725142496743542253e+00,1.860379025114768936e-01,-9.282670627923653162e-02,9.781467688601283017e-01,5.149850182330291091e+02
-6.035926363467289057e+00,-2.375845798305939560e+00,-4.947046091439267990e+00,9.353082454560072978e-02,-4.666901169012039469e-02,9.945209842978151027e-01,5.184288607475059507e+02
-5.765757300517910799e+00,-2.274048930789891898e+00,-5.133324286748692344e+00,-9.999989999995001777e-07,0.000000000000000000e+00,9.999989999995001488e-01,5.226535846279034558e+02
-5.338609974966925797e+00,-1.719867668173338693e+00,-5.056850284490462144e+00,3.215765662152491045e-01,-6.562280006189041837e-01,6.826062725069085291e-01,5.268783085083009610e+02
-4.829120612544461011e+00,-6.594133378243201005e-01,-4.483360863036673472e+00,4.390215922881107180e-01,-8.958911680011025780e-01,-6.809593676046117594e-02,5.311030323886984661e+02
-4.626972688583758320e+00,1.759064775590800378e-01,-3.921164889611696847e+00,4.390215919782255449e-01,-8.958911673687341981e-01,-6.809593671239538848e-02,5.335538792580680365e+02
-4.560983965717113620e+00,1.683922976912118452e+00,-2.897042263979325849e+00,4.390215919781156884e-01,-8.958911673685100441e-01,-6.809593671237834656e-02,5.377786031384655416e+02
-4.706556090400164649e+00,2.592984350192852450e+00,-2.361374838704790591e+00,4.370297129362206157e-01,-8.888087938781679131e-01,1.379201143289856546e-01,5.420033270188630468e+02
-4.767492892400267301e+00,2.694781847929975882e+00,-2.628658085880161366e+00,4.164654556545245301e-01,-8.439548622612036421e-01,3.380750134405668961e-01,5.462280508992605519e+02
-4.582979673172377311e+00,2.749493477219511206e+00,-3.184775465750650625e+00,3.782027300341042064e-01,-7.632355104420205372e-01,5.238628165804671832e-01,5.500948565851313106e+02
-4.094719217944860823e+00,3.209018586997672173e+00,-3.761364091885420091e+00,3.238675736331195210e-01,-6.500810408300087273e-01,6.873881255177330951e-01,5.543195804655288157e+02
-3.366175652901687521e+00,3.965889645491135873e+00,-4.272371773368649706e+00,2.557690534369001512e-01,-5.093001498801523752e-01,8.217016177642147978e-01,5.585443043459263208e+02
-2.476458479541819635e+00,4.874611203880339971e+00,-4.683800139865593515e+00,1.768011400914853426e-01,-3.468755782813810473e-01,9.210953751129645761e-01,5.627690282263238259e+02
-1.507370973805816083e+00,5.791397086318402110e+00,-4.961655746795184285e+00,9.031972408594141077e-02,-1.697098648971120671e-01,9.813454586422577508e-01,5.669937521067213311e+02
-5.433970048107396034e-01,6.574211146820290175e+00,-5.071951757463730281e+00,0.000000000000000000e+00,1.466799147870492814e-02,9.998914191181639266e-01,5.712184759871188362e+02
3.448794072147537970e-01,7.134733495762969113e+00,-5.008330457602182761e+00,-6.303165110176084385e-02,1.710681910320459298e-02,9.978639023921929141e-01,5.754431998675163413e+02
1.118662614690565382e+00,7.489856851443280839e+00,-4.819684402594952566e+00,-1.258122248294214207e-01,1.947750861324031371e-02,9.918618405502739321e-01,5.796679237479138465e+02
1.756349432008901479e+00,7.709073001766559408e+00,-4.582533165097802730e+00,-1.880916676459975234e-01,2.177061765511257088e-02,9.819091428270424471e-01,5.838926476283113516e+02
2.094274185801068722e+00,7.810320056317225479e+00,-4.435263637123427749e+00,-2.496219224049832930e-01,2.397701287814287333e-02,9.680454528102847567e-01,5.865778203509069044e+02
2.504273382831796901e+00,7.966760741857203953e+00,-4.271579205133598123e+00,-3.101579161176002408e-01,2.608790630259027327e-02,9.503259904962904070e-01,5.908025442313044095e+02
2.727485590789493042e+00,8.172058065621298439e+00,-4.261065508130160495e+00,-3.694585358312138523e-01,2.809489031258667960e-02,9.288213323552346745e-01,5.950272681117019147e+02
2.746988690497322416e+00,8.497159855363753067e+00,-4.480232992497200861e+00,-4.272875887415334417e-01,2.998997113506250700e-02,9.036171302808574390e-01,5.992519919920994198e+02
2.563563326208986748e+00,8.982580099550689923e+00,-4.967390977104111371e+00,-3.771900887708154460e-01,1.146957132043342764e-02,9.260637590714730916e-01,6.034767158724969249e+02
2.416412782681290228e+00,9.270331616565249178e+00,-5.286164635969067938e+00,-3.258265206912799306e-01,-7.089321565035338821e-03,9.454019356512103345e-01,6.055587724482752492e+02
2.039765647060225007e+00,9.913035378910347362e+00,-6.035725234274857520e+00,-2.733692908639375752e-01,-2.562441332518765325e-02,9.615667528849056733e-01,6.097834963286727543e+02
1.568093585102974030e+00,1.061529027716874296e+01,-6.901311718639107973e+00,-2.199944760001416866e-01,-4.407348979985276777e-02,9.745039548538538821e-01,6.140082202090702594e+02
1.049733646061231873e+00,1.132278201364358239e+01,-7.806630826367097598e+00,-1.658812322450338439e-01,-6.237462564777009749e-02,9.841701188635070263e-01,6.182329440894677646e+02
5.319760895758416375e-01,1.198019101596195490e+01,-8.675387324120791277e+00,-1.112111939417054496e-01,-8.046639215716065718e-02,9.905328011100752450e-01,6.224576679698652697e+02
6.105679755404356396e-02,1.253120841247009132e+01,-9.431287783341749886e+00,-5.616786409039421779e-02,-9.828806338793034947e-02,9.935706455198209941e-01,6.266823918502627748e+02
-3.178502205295631322e-01,1.291855209563029483e+01,-9.998044355609636114e+00,-9.359985444636862188e-04,-1.157798199551341861e-01,9.932734553976153569e-01,6.309071157306602800e+02
-5.728947178523250416e-01,1.312270538106730555e+01,-1.032138408563963416e+01,-7.487989973564721045e-04,-1.159980542214650440e-01,9.932481511340719438e-01,6.351318396110577851e+02
-6.968374204267389072e-01,1.320099544676012826e+01,-1.039105713484115867e+01,-5.615993839893976530e-04,-1.162162788860478801e-01,9.932227646113763742e-01,6.393565634914552902e+02
-6.933376115235003745e-01,1.324937906713128477e+01,-1.021883175054325399e+01,-3.743996895451144526e-04,-1.164344939085738967e-01,9.931972953382005587e-01,6.435812873718527953e+02
-6.733955087257627037e-01,1.326620870325790946e+01,-1.013541205116119670e+01,-1.871998996673934887e-04,-1.166526993057702827e-01,9.931717433125258898e-01,6.447593772604591322e+02
-6.310626289126026744e-01,1.330186502453925534e+01,-9.979329723042631883e+00,-0.000000000000000000e+00,-1.168708950943586483e-01,9.931461085322876858e-01,6.467409287698892513e+02
-4.694974809182435038e-01,1.345286926593765564e+01,-9.523861027754703557e+00,-9.847125165670110591e-02,-2.652147242428529728e-01,9.591467888925164775e-01,6.509656526502867564e+02
-2.024545849472548786e-01,1.371455692110231794e+01,-8.897725757693956794e+00,-1.937068744972015311e-01,-4.048439793291908062e-01,8.936313552995180931e-01,6.551903765306842615e+02
1.504139603851970819e-01,1.405947591191996793e+01,-8.151567187481864707e+00,-2.825775678951796266e-01,-5.311706528951587458e-01,7.987525622034508110e-01,6.594151004110817667e+02
5.689618339396301794e-01,1.446060203821761370e+01,-7.336034526457530625e+00,-3.621631782867938965e-01,-6.400438480094067240e-01,6.776279989196939413e-01,6.636398242914792718e+02
1.032551806824316909e+00,1.489134641911689805e+01,-6.501780412419339683e+00,-4.298486505462508767e-01,-7.278861692321167975e-01,5.342376458709390263e-01,6.678645481718767769e+02
1.520059100229895543e+00,1.532556289543784089e+01,-5.699458405240790171e+00,-4.834099528984043825e-01,-7.918112671430018734e-01,3.732930948542328986e-01,6.720892720522742820e+02
2.009874786174714600e+00,1.573755539266463899e+01,-4.979720480455805287e+00,-5.210871525268132576e-01,-8.297186750857447057e-01,2.000827321065659914e-01,6.763139959326717872e+02
2.479909231008247783e+00,1.610208524398930052e+01,-4.393214522903016395e+00,-5.416422414975148314e-01,-8.403628231765527534e-01,2.029797157521938747e-02,6.805387198130692923e+02
2.664184729288427977e+00,1.623553309966095526e+01,-4.191815373662779898e+00,-7.605537263013550930e-01,-4.014205601721889116e-01,5.103112415782558031e-01,6.822554503958920122e+02
3.150941009045318264e+00,1.653044431031876016e+01,-3.703047789240389243e+00,-6.138617165755229088e-01,2.304878935820414421e-01,7.550146514041730095e-01,6.864801742762895174e+02
3.232174299577933230e+00,1.657186707726606301e+01,-3.626121085269600197e+00,-6.628665011583720901e-01,2.079702079651944979e-01,7.192735183753391492e-01,6.871365691795111843e+02
3.794676960337425076e+00,1.686073724516972661e+01,-3.095860168339407359e+00,-7.090965206730217574e-01,1.845819890569507515e-01,6.805215747358678291e-01,6.913612930599086894e+02
4.360674405159888245e+00,1.728547125884308855e+01,-2.580781858707641430e+00,-7.523582761014865339e-01,1.604211348177032870e-01,6.389210310215706068e-01,6.955860169403061946e+02
4.787809196424985814e+00,1.802724591879203331e+01,-2.245369559474511334e+00,-7.924706915035423238e-01,1.355887761211422016e-01,5.946460181438675274e-01,6.998107408207036997e+02
4.824089307849296127e+00,1.813428252485450543e+01,-2.222554255194896466e+00,-8.009926782953632474e-01,1.057357967448789987e-01,5.892611225868527036e-01,7.002871871487596991e+02
5.027923192225723703e+00,1.924033263093802404e+01,-2.163114039457488591e+00,-8.087194216361950350e-01,7.577783594629183828e-02,5.832911936895793792e-01,7.045119110291572042e+02
5.034966375345036660e+00,2.049771336993294568e+01,-2.333928592480543518e+00,-8.156432515028981811e-01,4.574462915651242301e-02,5.767421565731872812e-01,7.087366349095547093e+02
4.913545571627887298e+00,2.159136615134658399e+01,-2.632641888285616183e+00,-8.217572942021558191e-01,1.566598654466518428e-02,5.696205107595255779e-01,7.129613587899522145e+02
4.701187888110728075e+00,2.230797303769500672e+01,-2.982369900252706874e+00,-7.649686378259633601e-01,1.199632149316930303e-02,6.439542463654518434e-01,7.171860826703497196e+02
4.491267282290002605e+00,2.260544448505498139e+01,-3.251857933644894949e+00,-7.014758704699104452e-01,8.221523008962606377e-03,7.126443781487507012e-01,7.202712785080751701e+02
4.094761598707885142e+00,2.278616726298635342e+01,-3.639787882158680876e+00,-6.318354361629777705e-01,4.374672727469595436e-03,7.750889264120567335e-01,7.244960023884726752e+02
3.524751092342250036e+00,2.274838796564601040e+01,-4.052018573852782524e+00,-5.566576515830381489e-01,4.894836157825685746e-04,8.307406450506802376e-01,7.287207262688701803e+02
2.744509556924811466e+00,2.258936383683358784e+01,-4.488095227264842002e+00,-4.766013582140177784e-01,-3.399995421604735772e-03,8.791118161980012724e-01,7.329454501492676854e+02
2.448154392234087595e+00,2.252583272735511599e+01,-4.634673987782425897e+00,-3.640367091240751529e-01,1.353977081619116762e-03,9.313825428660489347e-01,7.343277757035457398e+02
1.500349407410101588e+00,2.237396205182768227e+01,-5.040401818450144233e+00,-2.458565321580128138e-01,6.087064425798782187e-03,9.692860843120876257e-01,7.385524995839432449e+02
6.035243706150021925e-01,2.236782217571559528e+01,-5.296100346814023752e+00,-1.238838021355382207e-01,1.072625669138746810e-02,9.922377492236620355e-01,7.427772234643407501e+02
-1.651360913816714987e-02,2.263027589387886351e+01,-5.271111817375483177e+00,-0.000000000000000000e+00,1.519999199370844663e-02,9.998834733313931578e-01,7.470019473447382552e+02
-2.381241496529226676e-01,2.303249412139268415e+01,-5.036059289953567664e+00,-1.854781610176970200e-02,-2.090256597808095307e-01,9.777332213191601840e-01,7.502232324820287204e+02
-2.174660912396541024e-01,2.378646304017614099e+01,-4.465192921228335443e+00,-3.614761671645073254e-02,-4.225675963411769098e-01,9.056091741631003833e-01,7.544479563624262255e+02
9.775781455884799409e-02,2.473816187310789516e+01,-3.631958771628622351e+00,-5.189984198860039810e-02,-6.145112759349742326e-01,7.871977503465843462e-01,7.586726802428237306e+02
5.862636212438415706e-01,2.578272931823527614e+01,-2.620894697350810709e+00,-6.499936667170513882e-02,-7.750461030903665893e-01,6.285512074742327648e-01,7.628974041232212357e+02
1.124851919152764612e+00,2.681788518806004618e+01,-1.516547353470631965e+00,-7.477665148366928471e-02,-8.959668654741250737e-01,4.377782867687153301e-01,7.671221280036187409e+02
1.588427572834820944e+00,2.774395929890247103e+01,-4.034680102077550234e-01,-8.073196373761178102e-02,-9.710931084435485694e-01,2.246297504014971025e-01,7.713468518840162460e+02
1.850019626107934245e+00,2.846392012903353574e+01,6.337916309826693295e-01,-8.256091850746105631e-02,-9.965850163112920379e-01,0.000000000000000000e+00,7.755715757644137511e+02
1.827896913889096808e+00,2.891594561175607936e+01,1.536788840775384024e+00,-2.156758109603265638e-02,-9.960809228055309550e-01,-8.576499676058285671e-02,7.797962996448112563e+02
1.533504546142061553e+00,2.910466997966773306e+01,2.299297973210370660e+00,3.966463393785247399e-02,-9.845441411985837998e-01,-1.705800423467540017e-01,7.840210235252087614e+02
1.025607061634424610e+00,2.906666898198050575e+01,2.941205553810509965e+00,1.004575138969565351e-01,-9.621024572361839278e-01,-2.535057192308010632e-01,7.882457474056062665e+02
3.635969914805849412e-01,2.883725071934658146e+01,3.482404075452763426e+00,1.601377127421171054e-01,-9.290044393251757349e-01,-3.336235373484394695e-01,7.924704712860037716e+02
1.221511990747778109e-01,2.873000771928662189e+01,3.645155074936053285e+00,2.180442089177051790e-01,-8.856166851698048514e-01,-4.100461070506318251e-01,7.938692576050638081e+02
-6.336684838019577271e-01,2.833347532982582351e+01,4.100309450175390502e+00,2.735356266390577273e-01,-8.324197612394795831e-01,-4.819269675565676647e-01,7.980939814854613132e+02
-1.402417969944411036e+00,2.782267622870682189e+01,4.501143228964171961e+00,3.259973395759521719e-01,-7.700028800484284286e-01,-5.484699620832346190e-01,8.023187053658588184e+02
-2.122684071687552354e+00,2.722862548738181943e+01,4.867561252201178412e+00,3.748482782769123611e-01,-6.990573741939181129e-01,-6.089380558471799709e-01,8.065434292462563235e+02
-2.732468324189272213e+00,2.658103081336643925e+01,5.219470061322383003e+00,4.195473659584927351e-01,-6.203690394137089115e-01,-6.626614993004560361e-01,8.107681531266538286e+02
-3.169196986403098659e+00,2.590828368793350478e+01,5.576776912872068337e+00,4.595995113955546052e-01,-5.348094314392005666e-01,-7.090452462075117479e-01,8.149928770070513337e+02
-3.392878536242948773e+00,2.523144170844318168e+01,5.949290730501563651e+00,4.180447541078535778e-01,-4.843801607132535714e-01,-7.685131381250108751e-01,8.192176008874488389e+02
-3.409413178786541376e+00,2.455886064961541138e+01,6.326623556745846422e+00,3.732265956928824124e-01,-4.301696520884231156e-01,-8.219817386597778608e-01,8.234423247678463440e+02
-3.247677238996638849e+00,2.389317199795407021e+01,6.688289129458538262e+00,3.254949014315840494e-01,-3.726010905802836781e-01,-8.690336566790657358e-01,8.276670486482438491e+02
-2.944374111892540391e+00,2.324919285241684364e+01,7.008826833227225883e+00,2.752222800160687988e-01,-3.121238745586160102e-01,-9.093015910652687550e-01,8.318155236432169204e+02
-2.516774339060257049e+00,2.260707901690065569e+01,7.279720776986698283e+00,2.228011750202374686e-01,-2.492101078101593148e-01,-9.424711977431223797e-01,8.360402475236144255e+02
-1.996412929108343226e+00,2.198332702187807541e+01,7.473866946788710663e+00,1.686408015701815200e-01,-1.843509143984306542e-01,-9.682835433934848801e-01,8.402649714040119306e+02
-1.411747572802697803e+00,2.138297561549041603e+01,7.570788150212544920e+00,1.131639521115464092e-01,-1.180526050685900552e-01,-9.865371267110518705e-01,8.444896952844094358e+02
-7.911194132112342459e-01,2.081166377409004653e+01,7.550012002085759732e+00,5.680369619149774896e-02,-5.083272510264977978e-02,-9.970894514323875857e-01,8.487144191648069409e+02
-1.627484782105669547e-01,2.027562886621081617e+01,7.391071937635849132e+00,0.000000000000000000e+00,1.678398554445860447e-02,-9.998581388522901348e-01,8.529391430452044460e+02
4.506940498451262322e-01,1.977466135644490208e+01,7.095414821412902917e+00,-1.016218103537300521e-01,5.017096050161340415e-02,-9.935561797818974750e-01,8.571638669256019512e+02
1.037336374200648725e+00,1.929490811157349839e+01,6.708307471766717711e+00,-2.020768376959165002e-01,8.298189496905988838e-02,-9.758467896008874432e-01,8.613885908059994563e+02
1.536780956629304917e+00,1.886592768023121636e+01,6.337122356672587387e+00,-3.002117231829982691e-01,1.148400753837457572e-01,-9.469333019540793206e-01,8.651793028177307860e+02
2.056629242501856414e+00,1.836997314496255029e+01,5.960591100145832932e+00,-3.948997473211167120e-01,1.453797273688731406e-01,-9.071476861218430443e-01,8.694040266981282912e+02
2.529010104412567461e+00,1.783569894987635251e+01,5.687242735311243358e+00,-4.850537652138709466e-01,1.742502149820323032e-01,-8.569467354689388472e-01,8.736287505785257963e+02
2.946018875831433181e+00,1.724286788019136551e+01,5.584249543155929807e+00,-5.696386874730174910e-01,2.011200661705865866e-01,-7.969068231090510324e-01,8.778534744589233014e+02
3.299357534655787738e+00,1.657140699063555900e+01,5.718775370047113782e+00,-6.476833636044839748e-01,2.256807782523939376e-01,-7.277172849653964493e-01,8.820781983393208066e+02
3.582370882563687964e+00,1.581724390943966441e+01,6.119165250726973149e+00,-7.208067607507739893e-01,2.027226057127365921e-01,-6.628266430895738415e-01,8.863029222197183117e+02
3.792481388316969682e+00,1.500808448203699008e+01,6.736136952366586605e+00,-7.866608655563467334e-01,1.777199954426803286e-01,-5.912514573534014550e-01,8.905276461001158168e+02
3.843524218417683880e+00,1.475919652705197471e+01,6.949578276168336899e+00,-8.445815508828014018e-01,1.509250965349470952e-01,-5.137135574860262066e-01,8.918004599719630505e+02
3.972648333844402746e+00,1.394429521468530098e+01,7.692193747307116247e+00,-8.939846966946859430e-01,1.226081325376950915e-01,-4.309949047401940847e-01,8.960251838523605556e+02
4.030229631460431783e+00,1.317449749960358574e+01,8.448640249742007668e+00,-9.343720802636430456e-01,9.305467640000020246e-02,-3.439297062257912763e-01,9.002499077327580608e+02
4.018185987182939733e+00,1.249332443917433899e+01,9.130810261215128065e+00,-9.653364002470656846e-01,6.256277066812042376e-02,-2.533960025039524999e-01,9.044746316131555659e+02
3.939240758521532992e+00,1.194425807952601915e+01,9.650599930366166035e+00,-9.865653840160868437e-01,3.143992195869168421e-02,-1.603068132330360551e-01,9.086993554935530710e+02
3.796922497703726584e+00,1.157072925735166358e+01,9.919913436712652910e+00,-9.978449368362465322e-01,0.000000000000000000e+00,-6.560093010484044362e-02,9.129240793739505762e+02
3.599595558152933972e+00,1.139194624489967644e+01,9.884543833579815697e+00,-9.760755288795943674e-01,-1.063910446938312881e-01,-1.896193754142787846e-01,9.171488032543480813e+02
3.363882476358038165e+00,1.137861280906812667e+01,9.558052213970258393e+00,-9.277826548018316410e-01,-2.098910449534495126e-01,-3.084851612290401279e-01,9.213735271347455864e+02
3.143916264427677021e+00,1.145616123400370867e+01,9.085768147759550217e+00,-8.542786164984803587e-01,-3.076875395644766975e-01,-4.189682844698724984e-01,9.250397566458357232e+02
2.890306575581155446e+00,1.159760780796903745e+01,8.368126300425778652e+00,-7.575607880477315259e-01,-3.971230549005120292e-01,-5.180665320984364497e-01,9.292644805262332284e+02
2.652639850469142413e+00,1.174913041017245163e+01,7.495474957766790070e+00,-6.402573386148927570e-01,-4.757673159889507786e-01,-6.030870595428091674e-01,9.334892044066307335e+02
2.447906791030977747e+00,1.185582648502479763e+01,6.515293743928697090e+00,-5.055558160672961598e-01,-5.414832835791795196e-01,-6.717195623519982561e-01,9.377139282870282386e+02
2.292065692652408782e+00,1.186244192149315424e+01,5.475067600304454274e+00,-3.571165318403879407e-01,-5.924852232853211609e-01,-7.220990533689073398e-01,9.419386521674257438e+02
2.199914372311751798e+00,1.174792228510811221e+01,4.423506758850027865e+00,-4.068657480581117092e-01,-5.044701676972308535e-01,-7.615563754319683021e-01,9.461633760478232489e+02
2.174488293609609713e+00,1.163752825360687559e+01,3.791811649307605503e+00,-4.518226779220836375e-01,-4.105131966796778942e-01,-7.920436749748035465e-01,9.487435166074565132e+02
2.195640800504394363e+00,1.145675522857210993e+01,2.816876041637994543e+00,-4.914577994019113105e-01,-3.117209761114472233e-01,-8.132018596016001855e-01,9.529682404878540183e+02
2.320532507088606256e+00,1.133451371391178775e+01,1.966122498491384762e+00,-5.253042711513535856e-01,-2.092571224852543821e-01,-8.247817162131315660e-01,9.571929643682515234e+02
2.567072102339582607e+00,1.135215676560372522e+01,1.291918505380269977e+00,-5.529634307665879378e-01,-1.043284988912614036e-01,-8.266468463339046169e-01,9.614176882486490285e+02
2.954729906489847568e+00,1.159066000110911965e+01,8.466228089125463763e-01,-5.741094903284769124e-01,1.828998376288140269e-03,-8.187752731239464898e-01,9.656424121290465337e+02
3.465496273252039128e+00,1.208202722829211417e+01,6.591564324166040434e-01,-7.186246177969943805e-01,3.034967299345846942e-02,-6.947341621411654566e-01,9.698671360094440388e+02
3.783557940644503681e+00,1.244628818611349530e+01,6.477359769868640260e-01,-8.364900075128716139e-01,5.774484263553215230e-02,-5.449293536606791832e-01,9.722779632674273671e+02
4.280439002114543534e+00,1.314411174648629554e+01,7.626793837226838457e-01,-9.233347362062521713e-01,8.299858028255895082e-02,-3.749162580991793337e-01,9.765026871478248722e+02
4.589276314765169396e+00,1.385770508932263567e+01,1.052507026115210076e+00,-9.759382535237631773e-01,1.051743732418648491e-01,-1.909996767621957581e-01,9.807274110282223774e+02
4.570506472804767739e+00,1.448092488723390048e+01,1.475822981765691821e+00,-9.923498043656551193e-01,1.234498512612373505e-01,-0.000000000000000000e+00,9.849521349086198825e+02
4.144001015603596016e+00,1.494892970991509529e+01,1.990134654119466218e+00,-9.874027004479607461e-01,-1.576536780784093539e-01,1.338749183901889739e-02,9.891768587890173876e+02
3.972021263413603620e+00,1.504994751272760745e+01,2.136318017409285730e+00,-9.042305310886793457e-01,-4.262674242347564979e-01,2.571438672368975970e-02,9.902990691568544435e+02
3.169406708764384017e+00,1.537385825946228834e+01,2.693702052948137027e+00,-7.494224313036753626e-01,-6.611109767157430372e-01,3.600410984863493258e-02,9.945237930372519486e+02
2.132467367095264965e+00,1.561807613591183674e+01,3.239477328972790282e+00,-5.352427652605280528e-01,-8.435792910708518333e-01,4.344147688295747767e-02,9.987485169176494537e+02
9.659600949936451020e-01,1.582995817671660888e+01,3.727874788781351700e+00,-2.786595111257013091e-01,-9.592166500358599857e-01,4.743727599990494453e-02,1.002973240798046959e+03
-2.245158097737008640e-01,1.605464521911080666e+01,4.113128213417191148e+00,-0.000000000000000000e+00,-9.988619020529923009e-01,4.767494759579282704e-02,1.007197964678444464e+03
-1.352410551285911477e+00,1.631417880923650898e+01,4.368609491621024077e+00,1.944883438547603816e-01,-9.740955590927550256e-01,-1.153695187709552622e-01,1.011422688558841969e+03
-2.370641897186975822e+00,1.658717765104974617e+01,4.505962942671791538e+00,3.763305437224664374e-01,-8.859908662950113367e-01,-2.709123598220123386e-01,1.015647412439239474e+03
-3.159553136261392670e+00,1.680711436399151282e+01,4.556453042769994966e+00,5.337027112006360596e-01,-7.402766228873368659e-01,-4.088397457006356372e-01,1.019352225004376919e+03
-3.916151347272545102e+00,1.699493880675900215e+01,4.563143613619783601e+00,6.563720675147516337e-01,-5.464275738244666059e-01,-5.201832518946739592e-01,1.023576948884774424e+03
-4.488369293862894516e+00,1.707090085267651247e+01,4.540277754278025490e+00,7.363623149679014990e-01,-3.170483300403519888e-01,-5.977030178230970936e-01,1.027801672765172043e+03
-4.851792856877270133e+00,1.699033221055979581e+01,4.518646750957978853e+00,7.684722799971883678e-01,-6.705377027818705538e-02,-6.363585049079076850e-01,1.032026396645569548e+03
-4.982806791196718876e+00,1.670804196003647846e+01,4.529041825989122749e+00,7.506141027920847364e-01,1.873007761196621990e-01,-6.336362426155461858e-01,1.036251120525967053e+03
-4.883957564001788043e+00,1.619977475536096279e+01,4.593309553713723403e+00,7.222881338432696197e-01,4.989294968933157687e-02,-6.897887685962893478e-01,1.040475844406364558e+03
-4.705211304886176116e+00,1.570879195454017818e+01,4.673003782538945217e+00,6.774676977280739143e-01,-8.865422635372186000e-02,-7.301889801180824202e-01,1.043555864160539841e+03
-4.381152760368651755e+00,1.490619106125309301e+01,4.823050276826304383e+00,6.171763366248134153e-01,-2.251768418528466154e-01,-7.539142918162967666e-01,1.047780588040937346e+03
-4.015334881828205305e+00,1.396965747101673827e+01,5.022301188879159994e+00,5.427908868723544389e-01,-3.565572229626617906e-01,-7.604229085731035731e-01,1.052005311921334851e+03
-3.684670544887737709e+00,1.294355149090298340e+01,5.265764281140151937e+00,4.560100378177788794e-01,-4.797951250358811759e-01,-7.495661968114816220e-01,1.056230035801732356e+03
-3.465227413840787474e+00,1.187383230925900257e+01,5.548445124866002054e+00,3.588155418936562757e-01,-5.920762440854652198e-01,-7.215920787302380068e-01,1.060454759682129861e+03
-3.285531212230219822e+00,1.085341204748682387e+01,5.826739366822446975e+00,4.185186929156515245e-01,-3.164974100587755745e-01,-8.512752158420113791e-01,1.064679483562527366e+03
-2.933223192994209860e+00,9.990619082328306533e+00,6.026715201270111066e+00,4.379075826773777824e-01,-1.043146435895551428e-02,-8.989583603177065951e-01,1.068904207442924871e+03
-2.754564694033590833e+00,9.721828564869216649e+00,6.075984124329688818e+00,4.151144963563527801e-01,2.966394213818077108e-01,-8.600482594581061457e-01,1.070406437877591088e+03
-2.171894767275476923e+00,9.026090865527031326e+00,6.172194625263464296e+00,3.523349804414085407e-01,5.751361779753744186e-01,-7.382929217736731164e-01,1.074631161757988593e+03
-1.504879125752993207e+00,8.399157183314073905e+00,6.209465289772120755e+00,2.556163727636958094e-01,7.982321781047887477e-01,-5.454206265016272592e-01,1.078855885638386098e+03
-8.581396896138241415e-01,7.774972250775235239e+00,6.215933652431219869e+00,1.342752603593813099e-01,9.444374378204242193e-01,-3.000101339943902490e-01,1.083080609518783604e+03
-3.375292241206689914e-01,7.089694616931645932e+00,6.219738768491327896e+00,0.000000000000000000e+00,9.996686752873877868e-01,-2.570096594232212581e-02,1.087305333399181109e+03
-1.262617984706180391e-02,6.305501342488736505e+00,6.242228907023894102e+00,-0.000000000000000000e+00,9.763668914965293322e-01,-2.161149999215097595e-01,1.091530057279578614e+03
1.213705405879109966e-01,5.433339027601504334e+00,6.291169580156303454e+00,-0.000000000000000000e+00,9.171342700487283839e-01,-3.985758782263260080e-01,1.095754781159976119e+03
1.366832344408173416e-01,4.962978881747522664e+00,6.325191519664439710e+00,-0.000000000000000000e+00,8.241506075375357732e-01,-5.663689399121811796e-01,1.097930474787374806e+03
9.489059057270929354e-02,4.033618339064799940e+00,6.409114011749300843e+00,-0.000000000000000000e+00,7.008377572836966829e-01,-7.133193099638709400e-01,1.102155198667772311e+03
-2.941014245925311146e-02,3.100644372574449470e+00,6.521932449442839896e+00,-0.000000000000000000e+00,5.517337020202449649e-01,-8.340191377041911158e-01,1.106379922548169816e+03
-1.921104617092995182e-01,2.196112195232664988e+00,6.664616774836201074e+00,-0.000000000000000000e+00,3.823255528030978789e-01,-9.240266076664865880e-01,1.110604646428567321e+03
-3.485137489614313910e-01,1.351146322121204113e+00,6.838135447939945877e+00,-0.000000000000000000e+00,1.988476201536271137e-01,-9.800293995391557988e-01,1.114829370308964826e+03
-4.533423518657545004e-01,5.959316953558392305e-01,7.043455398665682488e+00,-0.000000000000000000e+00,8.051988583367907307e-03,-9.999665821824688106e-01,1.119054094189362331e+03
-4.789426118716946235e-01,-5.515812812133591425e-02,7.266485603853318764e+00,-0.000000000000000000e+00,8.051988577683466541e-03,-9.999665814765252847e-01,1.123278818069759836e+03
-4.338646870911000986e-01,-6.179209872620239352e-01,7.463021409520342431e+00,-0.000000000000000000e+00,8.051988577684139614e-03,-9.999665814766085514e-01,1.127503541950157341e+03
-3.635651694174751314e-01,-1.042700238052264083e+00,7.571371864767519000e+00,-0.000000000000000000e+00,8.051988577684363393e-03,-9.999665814766364180e-01,1.131018260572192730e+03
-2.650152989459049757e-01,-1.528367412773060430e+00,7.581035748808391261e+00,-0.000000000000000000e+00,8.051988577684137879e-03,-9.999665814766085514e-01,1.135242984452590235e+03
-1.740959867874949940e-01,-2.010060214338041717e+00,7.396397766615916858e+00,-0.000000000000000000e+00,8.051988577683468276e-03,-9.999665814765252847e-01,1.139467708332987741e+03
-1.194925417851888938e-01,-2.516446854916642994e+00,6.958217428481503930e+00,-0.000000000000000000e+00,8.051988577682347645e-03,-9.999665814763862848e-01,1.143692432213385246e+03
-1.122278636542323321e-01,-2.863600038528006930e+00,6.545715511410897136e+00,8.268285378278704544e-07,9.837924052601855485e-02,-9.951479915230073692e-01,1.146432912737599963e+03
-1.818599931770188416e-01,-3.419577181890596229e+00,5.779011780941225140e+00,1.646891680324647987e-06,1.879015204871229416e-01,-9.821868552344663605e-01,1.150657636617997468e+03
-4.032915088883434196e-01,-3.984515305335792235e+00,4.934206523589637960e+00,2.453479596006295136e-06,2.758863490047499534e-01,-9.611892230076914956e-01,1.154882360498394974e+03
-8.283640548958770555e-01,-4.530343587391441496e+00,4.153644151855536926e+00,3.239992699297987237e-06,3.616138251037466778e-01,-9.323268962560146145e-01,1.159107084378792479e+03
-1.508426843161267517e+00,-5.027904396589023328e+00,3.579665895772924600e+00,3.999995637447623011e-06,4.443825153389718285e-01,-8.958360229660418117e-01,1.163331808259189984e+03
-2.431001386145089871e+00,-5.452105991461912993e+00,3.302426721029038781e+00,2.111634389927759259e-01,3.947324735283058716e-01,-8.942003558353467385e-01,1.167556532139587489e+03
-2.746073177964038603e+00,-5.567604161282539543e+00,3.269774980374905216e+00,4.123863043933500006e-01,3.265078289179420556e-01,-8.504870214208144485e-01,1.168850675330724926e+03
-3.748231000465969132e+00,-5.893064932852753124e+00,3.290462826442584365e+00,5.942038375171290188e-01,2.429189701315258298e-01,-7.667530067963720386e-01,1.173075399211122431e+03
-4.588322588320070672e+00,-6.124771107884264154e+00,3.506934845635263365e+00,7.480604137483821692e-01,1.478992602802571277e-01,-6.469385026353959844e-01,1.177300123091519936e+03
-5.063216911829210076e+00,-6.262705309197912129e+00,3.852777331559073648e+00,8.667161273835900515e-01,4.591995376744019419e-02,-4.966814999372763384e-01,1.181524846971917441e+03
-5.080282789325722526e+00,-6.341723303018295788e+00,4.264944870009088618e+00,8.271508553843789358e-01,4.862631091766247970e-02,-5.598704710199694512e-01,1.185749570852314946e+03
-4.825104162861991952e+00,-6.431061804859774078e+00,4.636118459382257306e+00,7.829820157127305169e-01,5.106203301573458697e-02,-6.199434102010146219e-01,1.189435480108141292e+03
-4.449116686048932401e+00,-6.673307667629384099e+00,5.025266286738253818e+00,7.344554264734703963e-01,5.321356462399820519e-02,-6.765659931304628394e-01,1.193660203988538797e+03
