-2.413536963929459933e+00,-7.716899254387688423e+00,-7.559794921548024682e+00,-7.489742021602349004e-03,3.165833002438924737e-01,9.485340888805811055e-01,5.182195939159065290e+01
-1.980093895025259565e+00,-7.938604412920842179e+00,-7.321587914855646417e+00,-6.882092734632404632e-03,2.910097155718050499e-01,9.566942992617312180e-01,5.334949583949799745e+01
-1.554286794002499583e+00,-8.182037945681114977e+00,-7.056043666581055973e+00,-6.269481738370376485e-03,2.652263247048161632e-01,9.641647630357990106e-01,5.487703228740534200e+01
-1.138711488514763559e+00,-8.447317644116127511e+00,-6.766342427667554560e+00,-5.652350692922383096e-03,2.392517161034137807e-01,9.709400945840316322e-01,5.640456873531268656e+01
-7.359647552996456676e-01,-8.734539458790774091e+00,-6.455664605290613700e+00,-5.031144516500093977e-03,2.131046160601803297e-01,9.770154093955571994e-01,5.793210518322003111e+01
-3.486442586439899016e-01,-9.043777493796214983e+00,-6.127190742283247005e+00,-4.406311064776376532e-03,1.868038752040980521e-01,9.823863275866673295e-01,5.945964163112737566e+01
2.065151116365186029e-02,-9.375084001420949775e+00,-5.784101496560678513e+00,-3.778300808127123007e-03,1.603684549153795436e-01,9.870489770567296706e-01,6.098717807903472021e+01
3.693232993924680518e-01,-9.728489377083983314e+00,-5.429577620544563388e+00,-3.147566506991099355e-03,1.338174136605842779e-01,9.909999962784685756e-01,6.251471452694206477e+01
6.947711484405254545e-01,-1.010400215453004868e+01,-5.066799940586904860e+00,-2.514562885580943347e-03,1.071698932578318414e-01,9.942365367206106308e-01,6.404225097484940932e+01
9.943944594174403129e-01,-1.050160900128777186e+01,-4.698949336393055454e+00,-1.879746304179671099e-03,8.044510508197805221e-02,9.967562649011540987e-01,6.556978742275676098e+01
1.265592053737895517e+00,-1.092127471439085262e+01,-4.329206720443922407e+00,-1.243574430258010538e-03,5.366231621965978499e-02,9.985573640697846809e-01,6.709732387066411263e+01
1.506251342508974744e+00,-1.136073201190392723e+01,-3.959674704592173189e+00,-6.065059086487462189e-04,2.684083558415059287e-02,9.996385355182264565e-01,6.862486031857146429e+01
1.715255790200840735e+00,-1.181327692698495113e+01,-3.590299273635988886e+00,3.099996898504489117e-05,0.000000000000000000e+00,9.999989995175772028e-01,7.015239676647881595e+01
1.989811786016698836e+00,-1.258205330766016239e+01,-2.961003756314186219e+00,2.151162224384890607e-05,2.153149729148960967e-01,9.765436303494882120e-01,7.273894350572574297e+01
2.114196323258774157e+00,-1.306414081665069027e+01,-2.546892944943639048e+00,1.101415237881018721e-05,4.205292789693659272e-01,9.072778656005100473e-01,7.441802787071446801e+01
2.200549368738621503e+00,-1.350455732187175606e+01,-2.123162493055161804e+00,0.000000000000000000e+00,6.060162459351242648e-01,7.954510102218032008e-01,7.609711223570319305e+01
2.252527193237274794e+00,-1.387623190725919997e+01,-1.684480974194089820e+00,-0.000000000000000000e+00,7.067878774312923440e-01,7.074241276046067117e-01,7.777619660069191809e+01
2.273939565591907019e+00,-1.416474473182999638e+01,-1.230192545707746721e+00,-0.000000000000000000e+00,7.949054113834354007e-01,6.067317256861703978e-01,7.945528096568064313e+01
2.268616747365841402e+00,-1.437781161315167466e+01,-7.672283726375696000e-01,-0.000000000000000000e+00,8.687912142188292108e-01,4.951765605284097482e-01,8.113436533066936818e+01
2.240286394149428872e+00,-1.453371055365130715e+01,-3.060191226876521897e-01,-0.000000000000000000e+00,9.271224487492595312e-01,3.747558739039606457e-01,8.281344969565809322e+01
2.196179355269484823e+00,-1.464425066974689038e+01,1.160243559804843838e-01,-0.000000000000000000e+00,9.688547589697693585e-01,2.476256368426894838e-01,8.438816494027014414e+01
2.138227429630568110e+00,-1.473597171171218889e+01,5.194681419226183650e-01,-0.000000000000000000e+00,9.932409695444187614e-01,1.160619507778932608e-01,8.596288018488219507e+01
2.069295129896155494e+00,-1.482087420312711856e+01,8.971877735535195297e-01,-0.000000000000000000e+00,9.998444649288527053e-01,-1.757970280937836902e-02,8.753759542949424599e+01
1.992503722249720832e+00,-1.490504025749583583e+01,1.244374699169082055e+00,-0.000000000000000000e+00,9.885470082897299671e-01,-1.509066347150511966e-01,8.911231067410629691e+01
1.911105383122582158e+00,-1.499160791974062512e+01,1.557378443504998877e+00,-0.000000000000000000e+00,9.595508599340607514e-01,-2.815317871916492298e-01,9.068702591871834784e+01
1.816855230807783661e+00,-1.509755939094458554e+01,1.865953738048319099e+00,-0.000000000000000000e+00,9.133751570737635994e-01,-4.071164728182580239e-01,9.248373922341214382e+01
1.725753712123284656e+00,-1.521576761230724983e+01,2.115581895180150607e+00,-0.000000000000000000e+00,8.508466195858306325e-01,-5.254122476103028072e-01,9.428045252810593979e+01
1.641591849361231814e+00,-1.534841813780686870e+01,2.302323133186450210e+00,-0.000000000000000000e+00,7.730847481306087898e-01,-6.343011683794067546e-01,9.607716583279973577e+01
1.565784591728548669e+00,-1.549230774497350893e+01,2.426047916533975002e+00,-0.000000000000000000e+00,6.814817797205258154e-01,-7.318337132906250764e-01,9.787387913749353174e+01
1.498594262702110491e+00,-1.564153240383752319e+01,2.488532115382475318e+00,-0.000000000000000000e+00,5.776777598019399163e-01,-8.162636864581230833e-01,9.967059244218732772e+01
1.445516545447641077e+00,-1.577582480635799200e+01,2.495170845915343438e+00,-0.000000000000000000e+00,4.635311774238824456e-01,-8.860794815118119283e-01,1.012901390722410184e+02
1.399647913639423091e+00,-1.590540361470804243e+01,2.457456613117332545e+00,-0.000000000000000000e+00,3.410856895399902999e-01,-9.400311443731380612e-01,1.029096857022947091e+02
1.360615853168249068e+00,-1.602629372071260505e+01,2.377379155087984586e+00,-0.000000000000000000e+00,4.802256902672102368e-01,-8.771438231032532284e-01,1.045292323323483998e+02
1.326780107938601683e+00,-1.613507427913315695e+01,2.258451892127761429e+00,-0.000000000000000000e+00,6.081693108854697716e-01,-7.938060778918267779e-01,1.061487789624020905e+02
1.295875830198971901e+00,-1.622858740090460117e+01,2.104950214127721875e+00,-0.000000000000000000e+00,7.219335781892057824e-01,-6.919609155753815299e-01,1.077683255924557812e+02
1.265659231969919585e+00,-1.630365459506789705e+01,1.921149762417761364e+00,-0.000000000000000000e+00,8.188661085974975329e-01,-5.739828361470650231e-01,1.093878722225094720e+02
1.233450027196195009e+00,-1.635759401280558123e+01,1.708272259160653839e+00,-0.000000000000000000e+00,8.967069462536558788e-01,-4.426224717990386304e-01,1.110291078462112466e+02
1.197353893356623900e+00,-1.638589113073754788e+01,1.472944309428415588e+00,-0.000000000000000000e+00,9.536412519470121030e-01,-3.009424572670951203e-01,1.126703434699130213e+02
1.155089824032561108e+00,-1.638516567888720488e+01,1.219651410930000512e+00,-0.000000000000000000e+00,9.883416147371493210e-01,-1.522460264825510889e-01,1.143115790936147960e+02
1.103753398154377008e+00,-1.635393703933204890e+01,9.527861861965629675e-01,-0.000000000000000000e+00,9.999989999999361334e-01,-0.000000000000000000e+00,1.159528147173165706e+02
1.039153681063181178e+00,-1.629453743018370204e+01,6.765553404304684992e-01,-1.169923947542986405e-02,9.971570702192916746e-01,7.442382083856097230e-02,1.175940503410183453e+02
9.564335009649090891e-01,-1.621117919446948719e+01,3.950726394326639079e-01,-2.333198159552397205e-02,9.886474344683122695e-01,1.484246238159916964e-01,1.192352859647201200e+02
8.535531867369279269e-01,-1.611060225653358202e+01,1.188809372288814753e-01,-3.483210758413932129e-02,9.745184608145587291e-01,2.215817993738619096e-01,1.208389635811108462e+02
7.243747752928787476e-01,-1.599504158657682495e+01,-1.545971645730978561e-01,-4.613425244597017805e-02,9.548504565738692440e-01,2.934795330731249652e-01,1.224426411975015725e+02
5.643311529871662957e-01,-1.586828607426916626e+01,-4.215763709767728074e-01,-5.717417648056075108e-02,9.297552118513492392e-01,3.637091689522129467e-01,1.240463188138922987e+02
3.696090603324970747e-01,-1.573431542990695675e+01,-6.787695945138735309e-01,-6.788913040050956194e-02,8.993753641559733003e-01,4.318715321986842381e-01,1.256499964302830250e+02
1.379266990094211442e-01,-1.559754122820825195e+01,-9.238861398675705106e-01,-7.821821197919130719e-02,8.638835876994299667e-01,4.975791979365414841e-01,1.272536740466737513e+02
-1.322487212031539516e-01,-1.546258873494668862e+01,-1.155133559024272394e+00,-8.810271220142421034e-02,8.234816119854985184e-01,5.604586932373374353e-01,1.288573516630644917e+02
-4.667962541789447140e-01,-1.532541544513444443e+01,-1.385011590019067595e+00,-9.748644895010395717e-02,7.783990752657554690e-01,6.201526198422804281e-01,1.305751981295856012e+02
-8.485444048346721946e-01,-1.519909193175395501e+01,-1.595138758275789881e+00,-1.063160863325714883e-01,7.288922193753522016e-01,6.763216855326020793e-01,1.322930445961067107e+02
-1.273435322091759136e+00,-1.508230082535912864e+01,-1.786953320094351261e+00,-1.145414378319885157e-01,6.752424333636783960e-01,7.286466326039421348e-01,1.340108910626278202e+02
-1.735367198222482754e+00,-1.497142410477223251e+01,-1.963137216837988586e+00,-1.221157515607975419e-01,6.177546541938470082e-01,7.768300524845087596e-01,1.357287375291489298e+02
-2.228214268187258096e+00,-1.486290187912791794e+01,-2.126372517764378856e+00,-1.289959759949354523e-01,5.567556335972080328e-01,8.205980761830367065e-01,1.374465839956700393e+02
-2.745826995074835963e+00,-1.475323253813456681e+01,-2.279341398071797808e+00,-1.351430046782731709e-01,4.925920809299473291e-01,8.597019309574439605e-01,1.391644304621911488e+02
-3.282032255895437789e+00,-1.463897290143917829e+01,-2.424726116948844101e+00,-1.405218985061524040e-01,4.256286925839024016e-01,8.939193543546188891e-01,1.408822769287122583e+02
-3.805424370439193460e+00,-1.452221299527189302e+01,-2.559544167465055864e+00,-3.550919978736727378e-02,5.066293705172083550e-01,8.614312379173902912e-01,1.425226652721161429e+02
-4.333558393585739132e+00,-1.439413418774313236e+01,-2.694593798973359711e+00,7.016550519964658006e-02,5.781842789790024861e-01,8.128823662880305667e-01,1.441630536155200275e+02
-4.860048354982660967e+00,-1.425070839805056622e+01,-2.834460059946578347e+00,1.745319947904498403e-01,6.389593426591425596e-01,7.491779102614641861e-01,1.458034419589239121e+02
-5.378481405482556710e+00,-1.408796554509032006e+01,-2.983727962888711893e+00,2.756444427221936277e-01,6.878214686071484341e-01,6.715055982792000888e-01,1.474438303023277967e+02
-5.882417993435451464e+00,-1.390199371073000911e+01,-3.146982450120846764e+00,3.716176942394253113e-01,7.238596692820585821e-01,5.813135715910332513e-01,1.490842186457316814e+02
-6.365392041354160924e+00,-1.368893930227547884e+01,-3.328808359567965613e+00,4.606624106661346696e-01,7.464020451141830659e-01,4.802833855646618244e-01,1.507246069891355660e+02
-6.832667363907819258e+00,-1.343925026899334085e+01,-3.539379125606151089e+00,8.831649377958831204e-01,4.690604358495172876e-01,-1.299998436460017925e-05,1.524073272314224710e+02
-7.266106899278354625e+00,-1.315715094715258715e+01,-3.778626651420333715e+00,8.687376983570687106e-01,4.951443704539157387e-01,1.117424985715344612e-02,1.540900474737093759e+02
-7.661037503847063945e+00,-1.284290006250745897e+01,-4.050498182434462358e+00,8.534298431162768983e-01,5.207263894571345642e-01,2.235017226556184136e-02,1.557727677159962809e+02
-8.013817970199205831e+00,-1.249781188759065564e+01,-4.357525390246365760e+00,8.372568889924183466e-01,5.457805616056328191e-01,3.350343873423503038e-02,1.574554879582831859e+02
-8.331010509288580224e+00,-1.211396995424030720e+01,-4.710191782788864856e+00,8.202352297601598341e-01,5.702814906709234855e-01,4.462274372192782251e-02,1.591873845393539284e+02
-8.600857455606229607e+00,-1.170572889476331291e+01,-5.098483612452294977e+00,8.023821194355349462e-01,5.942043411858821678e-01,5.569681610990035586e-02,1.609192811204246709e+02
-8.822827258554756469e+00,-1.127790381435314693e+01,-5.520500523282456662e+00,7.837156547909405191e-01,6.175248636134671454e-01,6.671443062418325187e-02,1.626511777014954134e+02
-8.996420894162799442e+00,-1.083531431879536555e+01,-5.974341878742086998e+00,7.642547570165012516e-01,6.402194189220254961e-01,7.766441921143213412e-02,1.643830742825661559e+02
-9.121558992583755909e+00,-1.038129294315196560e+01,-6.455915148379403945e+00,7.440191525463391020e-01,6.622650025423294506e-01,8.853568235686819221e-02,1.661149708636368985e+02
-9.198954809875059979e+00,-9.916188672339208310e+00,-6.956744312727336066e+00,7.230293530691249693e-01,6.836392676821092529e-01,9.931720033285816596e-02,1.678468674447076410e+02
-9.229584606072481989e+00,-9.469518987577711044e+00,-7.433910681354236161e+00,7.013066347431140546e-01,7.043205479744916175e-01,1.099980443667570168e-01,1.694691420339579224e+02
-9.221119053585210779e+00,-9.011278407820379144e+00,-7.909889023238920736e+00,6.788730166366646612e-01,7.242878794374235651e-01,1.205673877167172392e-01,1.710914166232082039e+02
-9.174422305136193501e+00,-8.540512513369151293e+00,-8.376234255111356219e+00,6.557512384160261165e-01,7.435210217218523043e-01,1.310145166442601983e-01,1.727136912124584853e+02
-9.090350932201937795e+00,-8.056258874710728435e+00,-8.824501363899395656e+00,6.319647373029368964e-01,7.620004786271472597e-01,1.413288412725076659e-01,1.743359658017087668e+02
-8.969753900569999772e+00,-7.557547099735578477e+00,-9.246245468351700580e+00,6.075376243253149955e-01,7.797075178629858661e-01,1.514999063190865802e-01,1.759582403909590482e+02
-8.813472546006968500e+00,-7.043398881067558293e+00,-9.633021880659647707e+00,5.610303087586632209e-01,7.422062858956891551e-01,3.665689864560713884e-01,1.775805149802093297e+02
-8.622340550037002060e+00,-6.512828043503714248e+00,-9.976386168078287042e+00,4.865701887581085905e-01,6.677253236224302002e-01,5.633740707609392606e-01,1.792027895694596111e+02
-8.397183915831039513e+00,-5.964840591563479677e+00,-1.026789421454652107e+01,3.878671844986952832e-01,5.599755945054961659e-01,7.321095414949712055e-01,1.808250641587098926e+02
-8.138820944207576957e+00,-5.398434757148011798e+00,-1.049910228230590548e+01,2.698390870224626759e-01,4.243256381532785615e-01,8.643683357929817790e-01,1.824473387479601740e+02
-7.848796000259622652e+00,-4.813412564322929299e+00,-1.066168514037902249e+01,1.383665310940144777e-01,2.675340833204490898e-01,9.535608094588319261e-01,1.840696133372104555e+02
-7.497262827127586071e+00,-4.148537628113869502e+00,-1.075551375958474409e+01,0.000000000000000000e+00,9.741290686804691956e-02,9.952430484943745048e-01,1.858596733433497263e+02
-7.120982279695222239e+00,-3.468177116494375767e+00,-1.076407605314661176e+01,-0.000000000000000000e+00,9.255854180825363875e-02,9.957062399709858402e-01,1.876497333494889972e+02
-6.727043139659876658e+00,-2.778545935229450592e+00,-1.069641379526189340e+01,-0.000000000000000000e+00,8.770197604712558215e-02,9.961457540823585033e-01,1.894397933556282680e+02
-6.282177270960493054e+00,-2.020049999797670193e+00,-1.054596771422830770e+01,-0.000000000000000000e+00,8.284332500326796467e-02,9.965615803759058089e-01,1.913974334044622765e+02
-5.828051834902086448e+00,-1.260126629791385122e+00,-1.033261522760296636e+01,-0.000000000000000000e+00,7.798270414578621634e-02,9.969537089720142964e-01,1.933550734532962849e+02
-5.367472645708890155e+00,-4.990161978111999908e-01,-1.007401392744006330e+01,-0.000000000000000000e+00,7.312022899048485625e-02,9.973221305532807834e-01,1.953127135021302934e+02
-4.982446871731338156e+00,1.318139558884140472e-01,-9.836798178927834257e+00,-0.000000000000000000e+00,6.825601509714111781e-02,9.976668363647317461e-01,1.969318857604221762e+02
-4.594434709083902391e+00,7.642078694558087637e-01,-9.588058413406152170e+00,-0.000000000000000000e+00,6.339017806677792188e-02,9.979878182140295984e-01,1.985510580187140590e+02
-4.204022725005746253e+00,1.398533957363156111e+00,-9.335249899883059754e+00,-0.000000000000000000e+00,5.852283353893569101e-02,9.982850684716669809e-01,2.001702302770059418e+02
-3.811794980148359713e+00,2.035165964383192971e+00,-9.085827936824665940e+00,-0.000000000000000000e+00,5.365409718894331714e-02,9.985585800711453963e-01,2.017894025352978247e+02
-3.418797036818923107e+00,2.674049879488300974e+00,-8.845609324681264596e+00,-0.000000000000000000e+00,4.878408472518829669e-02,9.988083465091439628e-01,2.034085747935897075e+02
-3.027003787215944097e+00,3.314276425520555236e+00,-8.617133850324647071e+00,-0.000000000000000000e+00,4.391291188638613008e-02,9.990343618456730690e-01,2.050277470518815903e+02
-2.638861121588195413e+00,3.954522505760663886e+00,-8.401302741865821488e+00,-0.000000000000000000e+00,3.904069443884893714e-02,9.992366207042151505e-01,2.066469193101734731e+02
-2.256823753287789724e+00,4.593487107871800923e+00,-8.199017135384975674e+00,-0.000000000000000000e+00,3.416754817375338565e-02,9.994151182718530313e-01,2.082660915684653560e+02
-1.868553107369087751e+00,5.255601869605647458e+00,-8.004077277079757025e+00,-0.000000000000000000e+00,2.929358890440819305e-02,9.995698502993844992e-01,2.099509015674192653e+02
-1.492574702190633706e+00,5.913511912688301564e+00,-7.826185309375157217e+00,-0.000000000000000000e+00,2.441893246352092040e-02,9.997008131014245569e-01,2.116357115663731747e+02
-1.131274912829124402e+00,6.566285404208085374e+00,-7.665518566200909767e+00,-0.000000000000000000e+00,1.954369470046436394e-02,9.998080035564935741e-01,2.133205215653270841e+02
-7.861406761213803884e-01,7.213944024204464789e+00,-7.520531620388893224e+00,-0.000000000000000000e+00,1.466799147854253201e-02,9.998914191070935598e-01,2.150053315642809935e+02
-4.841524712165125033e-01,7.804367576050060151e+00,-7.398962352320207714e+00,-1.101543211861470001e-01,1.889174555844217937e-02,9.937339319313794883e-01,2.165518075755722407e+02
-1.968515743578618804e-01,8.391335300442696266e+00,-7.286247644716187466e+00,-2.189658420393358063e-01,2.288521225448095914e-02,9.754630834011162044e-01,2.180982835868634879e+02
7.499403908301276178e-02,8.975240086101479164e+00,-7.180619010396169344e+00,-3.251082050326828954e-01,2.659971339278205046e-02,9.453015975159807516e-01,2.196447595981547352e+02
3.306184085005152706e-01,9.556481412436765410e+00,-7.080307915110691575e+00,-4.272875887415334417e-01,2.998997113506250700e-02,9.036171302808574390e-01,2.211912356094459824e+02
5.700980452670525445e-01,1.013493685689141266e+01,-6.982934588783122010e+00,-3.256121068381556682e-01,-7.374970382123794202e-03,9.454736197753292881e-01,2.227377116207372296e+02
7.951879578793975556e-01,1.070942391735835386e+01,-6.884896840806067786e+00,-2.195454306280861523e-01,-4.464044522289124101e-02,9.745794141779825503e-01,2.242841876320284769e+02
1.008661489400406674e+00,1.127813524801896961e+01,-6.781983113566893095e+00,-1.105179545179931500e-01,-8.130389891652688161e-02,9.905420020114473756e-01,2.258306636433197241e+02
1.213653888409436776e+00,1.183908146260699290e+01,-6.669985540011421854e+00,-0.000000000000000000e+00,-1.168708951519380757e-01,9.931461090215865095e-01,2.273771396546109713e+02
1.412940726768808108e+00,1.239071050903848636e+01,-6.545474700770378185e+00,-9.359985440025481466e-04,-1.157798198980929810e-01,9.932734549082596898e-01,2.289236156659022186e+02
1.502420262032468035e+00,1.263874700280002195e+01,-6.484870897992729866e+00,-9.939442645336465931e-02,-2.642071162655730832e-01,9.593296345400558200e-01,2.296271710575188649e+02
1.700271839268074903e+00,1.318810404259448177e+01,-6.340033426474086298e+00,-1.945850653563393484e-01,-4.039480807061111012e-01,8.938459601274922894e-01,2.312033623053712574e+02
1.892573442610108403e+00,1.372853414000150885e+01,-6.181849246875332327e+00,-2.833783375909312285e-01,-5.304084568825666590e-01,7.989753354476900604e-01,2.327795535532236499e+02
2.077435301289670466e+00,1.426133008653934908e+01,-6.012622306961546315e+00,-3.628549905760830030e-01,-6.394306121493427142e-01,6.778368152161660110e-01,2.343557448010760424e+02
2.252975751699703544e+00,1.478780112209093112e+01,-5.834656630500015595e+00,-4.304020723111069424e-01,-7.274302270946790827e-01,5.344130620234426310e-01,2.359319360489284350e+02
2.417321285315209067e+00,1.530927288765676231e+01,-5.650256301389916302e+00,-4.837988371477869309e-01,-7.915141370529031883e-01,3.734194103441339507e-01,2.375081272967808275e+02
2.568606596510834006e+00,1.582708737789785403e+01,-5.461725447791531352e+00,-5.212897575741178846e-01,-8.295754514001296709e-01,2.001488423259876470e-01,2.390843185446332200e+02
2.704974630274984637e+00,1.634260289346944361e+01,-5.271368226255135347e+00,-5.416422414975148314e-01,-8.403628231765526424e-01,2.029797157521939094e-02,2.406605097924856125e+02
2.824520097870586444e+00,1.685708349846540699e+01,-5.081255446616709470e+00,-7.605537263013550930e-01,-4.014205601721889116e-01,5.103112415782558031e-01,2.422367010403380050e+02
2.933607570673654852e+00,1.742285843488819452e+01,-4.874524854730868384e+00,-6.138617165755229088e-01,2.304878935820414421e-01,7.550146514041730095e-01,2.439697558819575818e+02
3.009626911300873342e+00,1.793165874658213355e+01,-4.692036642904350963e+00,-7.090965206730217574e-01,1.845819890569507515e-01,6.805215747358678291e-01,2.455261437479512097e+02
3.063453863287733281e+00,1.844096257545237094e+01,-4.513001934933690507e+00,-7.924706915035423238e-01,1.355887761211422016e-01,5.946460181438675274e-01,2.470825316139448375e+02
3.093985746792025537e+00,1.894991917004653814e+01,-4.337075033668664759e+00,-7.982399748500117465e-01,1.156999201705292135e-01,5.911213674131501339e-01,2.486389194799384654e+02
3.099839009689421054e+00,1.952759402526886845e+01,-4.138442896006918836e+00,-8.036570148644773814e-01,9.576000785927435421e-02,5.873358692794246050e-01,2.504127713272781648e+02
3.075238740863483144e+00,2.010019561408934408e+01,-3.938932185881424353e+00,-8.087194216361950350e-01,7.577783594629183828e-02,5.832911936895793792e-01,2.521866231746178642e+02
3.021420010743610440e+00,2.066503547516797923e+01,-3.735342094917173839e+00,-8.134249615877369166e-01,5.576221983256823833e-02,5.789891248487419873e-01,2.539604750219575635e+02
2.939597019044601911e+00,2.121941302208994884e+01,-3.524471850259207173e+00,-8.177715584550726557e-01,3.572198968340310754e-02,5.744315604337641989e-01,2.557343268692972629e+02
2.838746824744083241e+00,2.172749582119548606e+01,-3.317459204788461680e+00,-8.217572942021558191e-01,1.566598654466518428e-02,5.696205107595255779e-01,2.573979263841308693e+02
2.716732342910305409e+00,2.222189011924955437e+01,-3.098804172059498097e+00,-0.000000000000000000e+00,1.519999199372182135e-02,9.998834733322731205e-01,2.590615258989644758e+02
2.577229000507090362e+00,2.270065051265899214e+01,-2.865770964509411822e+00,-4.766013582140743443e-01,-3.399995421605139529e-03,8.791118161981057444e-01,2.607251254137980823e+02
2.404116439334238020e+00,2.322114109871654364e+01,-2.581485851187469649e+00,-4.806297440679674904e-01,-1.414673451779228375e-01,8.654363288926318898e-01,2.626063675054099349e+02
2.221016361831932961e+00,2.371748640875447123e+01,-2.272041064919928299e+00,-4.753983754968429953e-01,-2.768092049313784497e-01,8.350874496972591210e-01,2.644876095970217875e+02
2.033465971701069464e+00,2.418664709645282684e+01,-1.936224052248883165e+00,-4.610080383699015072e-01,-4.068180978192568187e-01,7.886498740547990272e-01,2.663688516886336402e+02
1.877402431035887664e+00,2.454956008957702807e+01,-1.641628007098926645e+00,-4.377359733414204479e-01,-5.289892897234603764e-01,7.270182590569668202e-01,2.679185159871295809e+02
1.720420835323987818e+00,2.488775699853286127e+01,-1.333498146050366540e+00,-4.060305349103697226e-01,-6.409690446584589418e-01,6.513799878039269187e-01,2.694681802856255217e+02
1.562843073034455132e+00,2.519785742854358190e+01,-1.013363995040283294e+00,-3.665025539159328938e-01,-7.405999714170186099e-01,5.631922942579492553e-01,2.710178445841214625e+02
1.405061720935034453e+00,2.547654664949600090e+01,-6.827756978064335458e-01,-3.199135698025135088e-01,-8.259625878606418059e-01,4.641541891569946343e-01,2.725675088826174033e+02
1.247632656787853733e+00,2.572064353790809577e+01,-3.433245434344414093e-01,-2.671611592903450072e-01,-8.954123020432711577e-01,3.561737277191304174e-01,2.741171731811133441e+02
1.091183871334178379e+00,2.592703021738317659e+01,3.377582107105192404e-03,-2.092616440381948884e-01,-9.476110975933449421e-01,2.413312496412861607e-01,2.756668374796092849e+02
9.363236970648626256e-01,2.609258275822037376e+01,3.557187445673881121e-01,-1.473305104026923495e-01,-9.815533127614247677e-01,1.218392995406531454e-01,2.772165017781052256e+02
7.836407898994655064e-01,2.621417129068515450e+01,7.120869721449161194e-01,-8.256091850746098693e-02,-9.965850163112912607e-01,0.000000000000000000e+00,2.787661660766011664e+02
6.341075500329335091e-01,2.628975636856899456e+01,1.070857618011399781e+00,-2.156758109603265638e-02,-9.960809228055309550e-01,-8.576499676058285671e-02,2.803158303750971072e+02
4.894927601256157113e-01,2.631948066054788526e+01,1.430380722919866621e+00,3.966463393785247399e-02,-9.845441411985837998e-01,-1.705800423467540017e-01,2.818654946735930480e+02
3.406545824474569994e-01,2.630079725827470938e+01,1.819928472547317710e+00,1.004575138969565351e-01,-9.621024572361839278e-01,-2.535057192308010632e-01,2.835496106261566069e+02
2.033871408882753362e-01,2.623008614316321285e+01,2.206104078253974698e+00,1.601377127421171054e-01,-9.290044393251757349e-01,-3.336235373484394695e-01,2.852337265787201659e+02
8.060512694101315545e-02,2.610888510470409685e+01,2.586664870698843099e+00,2.180442089177051790e-01,-8.856166851698048514e-01,-4.100461070506318251e-01,2.869178425312837248e+02
-2.476573293077293306e-02,2.593870363860677131e+01,2.959368224667353164e+00,2.735356266390577273e-01,-8.324197612394795831e-01,-4.819269675565676647e-01,2.886019584838472838e+02
-1.097887674159370025e-01,2.572102287743869198e+01,3.321971576703384610e+00,3.259973395759521719e-01,-7.700028800484284286e-01,-5.484699620832346190e-01,2.902860744364108427e+02
-1.715164506427336588e-01,2.545729552168913656e+01,3.672232442741262037e+00,3.748482782769123611e-01,-6.990573741939181129e-01,-6.089380558471799709e-01,2.919701903889744017e+02
-2.069904926285990321e-01,2.514894577125465247e+01,4.007908435738213981e+00,4.195473659584927351e-01,-6.203690394137089115e-01,-6.626614993004560361e-01,2.936543063415379606e+02
-2.132419298924674023e-01,2.479736925734497532e+01,4.326757283306529089e+00,4.595995113955546052e-01,-5.348094314392005666e-01,-7.090452462075117479e-01,2.953384222941015196e+02
-1.884481613942362577e-01,2.440261089226738633e+01,4.628306577817763667e+00,4.180447541078535778e-01,-4.843801607132535714e-01,-7.685131381250108751e-01,2.970306941334172848e+02
-1.336341393356408613e-01,2.396971943505749891e+01,4.909858917861518179e+00,3.732265956928824124e-01,-4.301696520884231156e-01,-8.219817386597778608e-01,2.987229659727330500e+02
-5.132873954247801213e-02,2.350287336279185268e+01,5.170724871946586809e+00,3.254949014315840494e-01,-3.726010905802836781e-01,-8.690336566790657358e-01,3.004152378120488152e+02
5.596924435364585004e-02,2.300627395561808086e+01,5.410215172779565762e+00,2.752222800160687988e-01,-3.121238745586160102e-01,-9.093015910652687550e-01,3.021075096513645803e+02
1.857911710685853646e-01,2.248414510654582443e+01,5.627640722733718626e+00,2.228011750202374686e-01,-2.492101078101593148e-01,-9.424711977431223797e-01,3.037997814906803455e+02
3.356986213675681729e-01,2.194073313090898125e+01,5.822312599316926907e+00,1.686408015701815200e-01,-1.843509143984306542e-01,-9.682835433934848801e-01,3.054920533299961107e+02
5.032834673152212224e-01,2.138030657550135771e+01,5.993542060638655578e+00,1.131639521115464092e-01,-1.180526050685900552e-01,-9.865371267110518705e-01,3.071843251693118759e+02
6.729078030367298124e-01,2.084709832392659479e+01,6.131710631265699263e+00,5.680369619149774896e-02,-5.083272510264977978e-02,-9.970894514323875857e-01,3.087596445220009969e+02
8.535186905949105896e-01,2.030643376682363410e+01,6.249301411155772534e+00,0.000000000000000000e+00,1.678398554445860447e-02,-9.998581388522901348e-01,3.103349638746901178e+02
1.042929017477413955e+00,1.976174155897535911e+01,6.346070376392749957e+00,-8.895903910950431204e-02,4.602127533859258490e-02,-9.949705179435817115e-01,3.119102832273792387e+02
1.238237661032973946e+00,1.921642927673493162e+01,6.422349927913582057e+00,-1.771358953432038419e-01,7.485392072247384898e-02,-9.813346855857046913e-01,3.134856025800683597e+02
1.436197449186459973e+00,1.867391036736739096e+01,6.478760748398178393e+00,-2.637552842220871052e-01,1.030284141767663780e-01,-9.590705375088003359e-01,3.150609219327574806e+02
1.633583315183137818e+00,1.813762678477511514e+01,6.515923657175851424e+00,-3.480556158414810364e-01,1.302970351205289812e-01,-9.283738314495623145e-01,3.166362412854466015e+02
1.840467692777189246e+00,1.757465626407915948e+01,6.534656494548241490e+00,-4.292956905447996574e-01,1.564200277934346683e-01,-8.895144658661284787e-01,3.183221991448855306e+02
2.038962727526008933e+00,1.702730032167902152e+01,6.531972925315185918e+00,-5.067612153138740805e-01,1.811677091095194314e-01,-8.428341069450754341e-01,3.200081570043244596e+02
2.225091867053177630e+00,1.649994121537534753e+01,6.508665689539624211e+00,-5.797710836260323575e-01,2.043224879640576641e-01,-7.887431847588033396e-01,3.216941148637633887e+02
2.395405940679380397e+00,1.599705905659048177e+01,6.465266385363967139e+00,-6.476833636044839748e-01,2.256807782523939376e-01,-7.277172849653964493e-01,3.233800727232023178e+02
2.547481206049852176e+00,1.552328589901886069e+01,6.401784160445687100e+00,-7.612357666192121064e-01,1.879506676537974763e-01,-6.206389080202963093e-01,3.250660305826412468e+02
2.679422907560890632e+00,1.508333580369581206e+01,6.317967016260535473e+00,-8.551607977225891277e-01,1.453745338124668163e-01,-4.975582930249649039e-01,3.267519884420801759e+02
2.789368249473216377e+00,1.468194108534109255e+01,6.213563114464636605e+00,-9.270367601663545010e-01,9.905013660601229286e-02,-3.616488846094786380e-01,3.284379463015191050e+02
2.875374365744503891e+00,1.432438946217126308e+01,6.088551159101165844e+00,-9.750104504786831772e-01,5.017187636634055925e-02,-2.164148892285748527e-01,3.301211635222898053e+02
2.935855440801339533e+00,1.401473573020298069e+01,5.942537645255717038e+00,-9.978449368362465322e-01,0.000000000000000000e+00,-6.560093010484044362e-02,3.318043807430605057e+02
2.969449781534897692e+00,1.375620014000173441e+01,5.776533786159654404e+00,-9.598835568757689840e-01,-1.482980642393069426e-01,-2.379689924834572368e-01,3.334875979638312060e+02
2.975603914603692779e+00,1.354893327884883725e+01,5.594073158877351126e+00,-8.709099236745272421e-01,-2.887149096555273742e-01,-3.976903390695245011e-01,3.351708151846019064e+02
2.954156140805782371e+00,1.339154970040788228e+01,5.399950573111897079e+00,-7.356524945740232635e-01,-4.137882090790382383e-01,-5.362767245142245898e-01,3.368540324053726067e+02
2.905421705071194793e+00,1.328325060850625050e+01,5.200413011393671070e+00,-5.612994190085585089e-01,-5.168710611140440170e-01,-6.463631087902798056e-01,3.385252265941220458e+02
2.829203135216309839e+00,1.322135794256024610e+01,4.998807512300873057e+00,-3.571165318403879407e-01,-5.924852232853211609e-01,-7.220990533689073398e-01,3.401964207828714848e+02
2.725069648727486804e+00,1.320374028387717047e+01,4.799954174062783352e+00,-6.324525661125530718e-01,-4.666439414375535555e-01,-6.182598026225937238e-01,3.418676149716209238e+02
2.592087969921331059e+00,1.322670263879666130e+01,4.608965841882564085e+00,-8.430072615390726831e-01,-2.930049129903342653e-01,-4.510929814989049769e-01,3.435388091603703629e+02
2.429054186872104282e+00,1.328577571468058771e+01,4.431101684164482357e+00,-9.672137881196255504e-01,-8.935374509433920143e-02,-2.377212575905314484e-01,3.452100033491198019e+02
2.243979476374017956e+00,1.337195160755659984e+01,4.277725260894436055e+00,-9.923498043658288692e-01,1.234498512612589582e-01,-0.000000000000000000e+00,3.468096143295891807e+02
2.029651365101883709e+00,1.348303242117510337e+01,4.145255260355201976e+00,-5.741094903287249362e-01,1.828998376288930652e-03,-8.187752731243003179e-01,3.484092253100585594e+02
1.785278379929003290e+00,1.361411723999060008e+01,4.037315599353524576e+00,-5.671966434701564141e-01,-1.982311655082259205e-01,-7.993687338507865503e-01,3.500088362905279382e+02
1.511806411824292429e+00,1.375871485805841843e+01,3.955118445322344023e+00,-5.373415146848915525e-01,-3.902731632248981897e-01,-7.476288883285483466e-01,3.516084472709973170e+02
1.189110940715654374e+00,1.392163194456943032e+01,3.894879817416874168e+00,-4.857517035908476832e-01,-5.665291696233584195e-01,-6.656485427200454774e-01,3.533276812771727009e+02
8.417619646413307954e-01,1.408497140151739480e+01,3.862278715435025767e+00,-4.145139478845905057e-01,-7.198698847175014626e-01,-5.567436897593763812e-01,3.550469152833480848e+02
4.755120458059714506e-01,1.424099614335552388e+01,3.855149414906738237e+00,-3.265097159239774838e-01,-8.440929044503485690e-01,-4.253193788964326760e-01,3.567661492895234687e+02
9.605821048943757878e-02,1.438191457910854076e+01,3.871325982533907251e+00,-2.252986535833143844e-01,-9.341735977556072656e-01,-2.766915357415159482e-01,3.584853832956988526e+02
-2.909582244248363203e-01,1.449988096747559219e+01,3.908642293944291524e+00,-1.149746004843188868e-01,-9.864683426927546295e-01,-1.168719389316722757e-01,3.602046173018742365e+02
-6.799518240684739867e-01,1.458699577276158443e+01,3.964932051446066197e+00,-0.000000000000000000e+00,-9.988619020529990733e-01,4.767494759579315317e-02,3.619238513080496205e+02
-1.065071218020204435e+00,1.463624440854800923e+01,4.038059373248844786e+00,2.260073968839733383e-01,-9.637048664721570290e-01,-1.420971037447027741e-01,3.636425652293403914e+02
-1.440336031159201058e+00,1.464249261271529434e+01,4.126041316314612573e+00,4.320518127865448643e-01,-8.434247576110220912e-01,-3.193178812994988958e-01,3.653612791506311623e+02
-1.799475496374572714e+00,1.460146008486043456e+01,4.226938384554606465e+00,5.999335338016192898e-01,-6.486457885322165495e-01,-4.683336375285126474e-01,3.670799930719219333e+02
-2.136248683747319799e+00,1.450880611550233290e+01,4.338810976030431199e+00,7.148237261018716149e-01,-3.965726068370019619e-01,-5.759819512010800890e-01,3.687987069932127042e+02
-2.444444694391285200e+00,1.436012977577634508e+01,4.459719398839077975e+00,7.665742646539652760e-01,-1.094706067284816481e-01,-6.327543623191655975e-01,3.705174209145034752e+02
-2.699147630994837233e+00,1.416939786870078599e+01,4.577753918446918924e+00,7.506141027920847364e-01,1.873007761196621990e-01,-6.336362426155461858e-01,3.721063160989696712e+02
-2.921226152910736840e+00,1.392549753164891868e+01,4.700102327236121980e+00,7.222881338432696197e-01,4.989294968933157687e-02,-6.897887685962893478e-01,3.736952112834358672e+02
-3.108611999485065169e+00,1.362886764498858305e+01,4.825256794525943249e+00,6.774676977280739143e-01,-8.865422635372186000e-02,-7.301889801180824202e-01,3.752841064679020633e+02
-3.260107370988166497e+00,1.328126065285173141e+01,4.951694894017729887e+00,6.171763366248134153e-01,-2.251768418528466154e-01,-7.539142918162967666e-01,3.768730016523682593e+02
-3.374502016025152873e+00,1.288441735205198846e+01,5.077894190373340777e+00,5.427908868723544389e-01,-3.565572229626617906e-01,-7.604229085731035731e-01,3.784618968368344554e+02
-3.450573267453017401e+00,1.244006681724664531e+01,5.202332249872328340e+00,4.560100378177788794e-01,-4.797951250358811759e-01,-7.495661968114816220e-01,3.800507920213006514e+02
-3.487249576796227934e+00,1.193694961717076808e+01,5.326431550427491501e+00,3.588155418936562757e-01,-5.920762440854652198e-01,-7.215920787302380068e-01,3.816795397033381505e+02
-3.482532489753392024e+00,1.138766477889142337e+01,5.445605513671712750e+00,2.789406480537876543e-01,-4.833895236228263892e-01,-8.297738748091347816e-01,3.833082873853756496e+02
-3.441084467212553566e+00,1.079507897620385570e+01,5.558921604504782010e+00,1.907265185379168615e-01,-3.602513385871322638e-01,-9.131486013642159394e-01,3.849370350674131487e+02
-3.369726716479551243e+00,1.016241768227479625e+01,5.665706276851413925e+00,9.681039951865366699e-02,-2.263430241981869151e-01,-9.692237006710964220e-01,3.865657827494506478e+02
-3.275358206136423256e+00,9.492952053283127967e+00,5.765295030835988044e+00,0.000000000000000000e+00,-8.566789209259183246e-02,-9.963227450303434596e-01,3.881945304314881469e+02
-3.164855139154812314e+00,8.790014849409475417e+00,5.857023419446719004e+00,-0.000000000000000000e+00,3.164103078584048490e-01,-9.486213770954341484e-01,3.898232781135256459e+02
-3.041337669306966696e+00,8.034218648420136333e+00,5.942530234503625053e+00,-0.000000000000000000e+00,6.666153703748436410e-01,-7.454005285626831290e-01,3.915015510638433511e+02
-2.915374048764155290e+00,7.250126574000939961e+00,6.018087452056199993e+00,-0.000000000000000000e+00,9.075337492175415965e-01,-4.199767779684208113e-01,3.931798240141610563e+02
-2.794496588509013613e+00,6.441608912832073486e+00,6.082955572037130665e+00,-0.000000000000000000e+00,9.996686752876065007e-01,-2.570096594232774631e-02,3.948580969644787615e+02
-2.685060498508168081e+00,5.613025536065040733e+00,6.136435801753240327e+00,-0.000000000000000000e+00,9.450284828210436805e-01,-3.269849639641636552e-01,3.965363699147964667e+02
-2.591089434508659917e+00,4.769631711497383186e+00,6.177910685318647843e+00,-0.000000000000000000e+00,8.017845220763978320e-01,-5.976115629407392493e-01,3.982146428651141719e+02
-2.515419938513538956e+00,3.917136288481306572e+00,6.206803484500262869e+00,-0.000000000000000000e+00,5.833670436210881549e-01,-8.122074195786460615e-01,3.998929158154318770e+02
-2.460849796956898761e+00,3.061274103377269462e+00,6.222537559245641781e+00,-0.000000000000000000e+00,3.102543904574254774e-01,-9.506525196956778778e-01,4.015711887657495822e+02
-2.429101546460164851e+00,2.133956088958628872e+00,6.223647453821921971e+00,-0.000000000000000000e+00,8.052988517103471661e-03,-9.999665741302526945e-01,4.033955271842827415e+02
-2.428671173910744496e+00,1.215757003088037580e+00,6.207337415835945116e+00,4.597828668184748332e-07,5.829021385420690010e-02,-9.982986782361331635e-01,4.052198656028159007e+02
-2.459625203039280450e+00,3.104590743325311153e-01,6.173844415549979203e+00,9.184040205218244303e-07,1.083801606049993732e-01,-9.941085155986990607e-01,4.070442040213490600e+02
-2.510944271585983767e+00,-4.671356060535096777e-01,6.131477849549519021e+00,1.374704746976013201e-06,1.581962756723646057e-01,-9.874066732410614611e-01,4.086361018514398324e+02
-2.583619953836611582e+00,-1.231563741170949022e+00,6.077749321261538995e+00,1.827532194759634365e-06,2.076126978090934438e-01,-9.782100836244419506e-01,4.102279996815306049e+02
-2.675993650831531845e+00,-1.981847945497677177e+00,6.013251205863383575e+00,2.275742287195920685e-06,2.565045755356414325e-01,-9.665419818732510215e-01,4.118198975116213774e+02
-2.784543850264800113e+00,-2.718341246531789324e+00,5.939053435394598957e+00,2.718202612232825031e-06,3.047483825087208831e-01,-9.524318470894260757e-01,4.134117953417121498e+02
-2.904824022292800123e+00,-3.442086981097631782e+00,5.856464750612549786e+00,3.153795282886234289e-06,3.522222295457206331e-01,-9.359153279025680394e-01,4.150036931718029223e+02
-3.051534061643017104e+00,-4.258385527292579908e+00,5.752725174048384460e+00,3.581419761034960998e-06,3.988061725183203454e-01,-9.170341524432573665e-01,4.168308662628890033e+02
-3.201115775705314359e+00,-5.060761282412841844e+00,5.641045432854738806e+00,3.999995637447623858e-06,4.443825153389718285e-01,-8.958360229660418117e-01,4.186580393539750844e+02
-3.345443672694934811e+00,-5.851002408077306427e+00,5.522676357816168391e+00,5.062818420914955153e-01,2.864030132222324943e-01,-8.134187177504728083e-01,4.204852124450611655e+02
-3.474212154714720224e+00,-6.630949816100231153e+00,5.397093701243579567e+00,8.667161273835900515e-01,4.591995376744019419e-02,-4.966814999372763384e-01,4.223123855361472465e+02
-3.576393021545603901e+00,-7.395375550960015865e+00,5.263531373487388088e+00,6.818411546847885640e-01,5.506893172807868220e-02,-7.294230956948929423e-01,4.241231152208084154e+02
-3.645378439095141143e+00,-8.152582400163691290e+00,5.117657621438854498e+00,4.341523345850005211e-01,-2.010201626340372139e-01,-8.781233652453370730e-01,4.259338449054695843e+02
-3.674192208174665186e+00,-8.985414294095619425e+00,4.935899725264270010e+00,1.217558766213700377e-01,-4.271485671584282495e-01,-8.959450921138177870e-01,4.279455735953326894e+02
-3.643863009785122120e+00,-9.807113556788573661e+00,4.728061575705408970e+00,8.189993714591445274e-04,-4.303506697274900317e-01,-9.026603072535811512e-01,4.299573022851957944e+02
-3.522098792584626104e+00,-1.074748604905380844e+01,4.444760594768767170e+00,4.301316307905116432e-01,-1.976607968918830671e-01,-8.808603689386679259e-01,4.323077924001373162e+02
-3.348790147620024804e+00,-1.149519091481736588e+01,4.177703496152029849e+00,7.566728811009374445e-01,8.225587836748549098e-02,-6.485970409136641024e-01,4.342331694464703560e+02
-3.109978795158900855e+00,-1.221215758631491610e+01,3.879487455896369674e+00,0.000000000000000000e+00,3.025597526116248145e-02,-9.995411827238520619e-01,4.361585464928033957e+02
-2.807710565871249564e+00,-1.288711810683289549e+01,3.550606030136602254e+00,-0.000000000000000000e+00,3.725262060155266064e-01,-9.280205955848933597e-01,4.380839235391364355e+02
-2.514827481923787911e+00,-1.340330647127501251e+01,3.259135011138211357e+00,-0.000000000000000000e+00,6.692501234888521555e-01,-7.430358485342180019e-01,4.396681512038687174e+02
-2.185681406015462347e+00,-1.387710071543276769e+01,2.951312717619350323e+00,-0.000000000000000000e+00,8.841485374062434399e-01,-4.672037711734507992e-01,4.412523788686009993e+02
-1.822075662452310230e+00,-1.430176677951772923e+01,2.628366053744450426e+00,-0.000000000000000000e+00,9.909466131881742301e-01,-1.342490588706196919e-01,4.428366065333332813e+02
-1.426026928326324494e+00,-1.467195268830274024e+01,2.292362237932456193e+00,-0.000000000000000000e+00,9.765867533780259180e-01,2.151192997491258030e-01,4.444208341980655632e+02
-1.000068555269219894e+00,-1.498677611752081873e+01,1.947115601797219764e+00,-0.000000000000000000e+00,8.428250669643262416e-01,5.381857546386499269e-01,4.460050618627978452e+02
-5.470584939169093053e-01,-1.525011239755371406e+01,1.597413958929861710e+00,-0.000000000000000000e+00,6.060162459351620123e-01,7.954510102218528278e-01,4.475892895275301271e+02
-6.988751578521092134e-02,-1.546713278333188413e+01,1.247990180130220672e+00,7.484965434314922242e-03,6.360544715203129140e-01,7.716065607209851018e-01,4.491735171922624090e+02
4.323936031984405570e-01,-1.564337292973440796e+01,9.008165972185384618e-01,1.495850163068104983e-02,6.651215156604546319e-01,7.465839622110481688e-01,4.507695475154322935e+02
9.534194348874969194e-01,-1.578111508631685211e+01,5.629904466539837893e-01,2.240919800066741921e-02,6.931729989241737222e-01,7.204214193120821452e-01,4.523655778386021780e+02
1.490225194666169317e+00,-1.588443994880357124e+01,2.389983134811118903e-01,2.982567882192151826e-02,7.201660921915330471e-01,6.931588768359422392e-01,4.539616081617720624e+02
2.039820118356959533e+00,-1.595740104547242133e+01,-6.667331497599657264e-02,3.719662059562706125e-02,7.460595820045211601e-01,6.648379588376235327e-01,4.555576384849419469e+02
2.599187543941161582e+00,-1.600402458395175032e+01,-3.495380808016159135e-01,4.451076932450736406e-02,7.708139334575039303e-01,6.355019051092629656e-01,4.571536688081118314e+02
3.165284993620212095e+00,-1.602830929838258101e+01,-6.051097871748660761e-01,5.175695768515804068e-02,7.943913505309053713e-01,6.051955052114091904e-01,4.587496991312817158e+02
3.735044256216599745e+00,-1.603422629694623680e+01,-8.289024300549764357e-01,4.451074149286977921e-02,7.708162032512599904e-01,6.354991539669514466e-01,4.603457294544516003e+02
4.331697949499538680e+00,-1.602500612570312910e+01,-1.023549162372349386e+00,3.719657753626916252e-02,7.460643302010054878e-01,6.648326329365109588e-01,4.620156434717953857e+02
4.925043853086402912e+00,-1.600366703899966225e+01,-1.173002198559617959e+00,2.982563117625659788e-02,7.201735170486305293e-01,6.931511646552879213e-01,4.636855574891391711e+02
5.510517945635335479e+00,-1.597260224988013277e+01,-1.274562698344587242e+00,2.240915441047719794e-02,6.931832877178448760e-01,7.204115208849057872e-01,4.653554715064829566e+02
6.083241325316784298e+00,-1.593346464990678335e+01,-1.326391446541359098e+00,1.495846870695595812e-02,6.651348440787987482e-01,7.465720885505487958e-01,4.670253855238267420e+02
6.598740653992714478e+00,-1.589141657772912808e+01,-1.329443592782866279e+00,7.484947732204033990e-03,6.360710030841741913e-01,7.715929332163866672e-01,4.685731321949108406e+02
7.096061877502463311e+00,-1.584467344517228860e+01,-1.289354912530764619e+00,0.000000000000000000e+00,6.060361314456168547e-01,7.954358600031138371e-01,4.701208788659949391e+02
7.572270098790093940e+00,-1.579298801349966297e+01,-1.206474569005883568e+00,-2.038720165109181651e-02,7.069240346568134159e-01,7.069941804779847905e-01,4.716686255370790377e+02
8.062414779548515043e+00,-1.573021583494616671e+01,-1.067655018635854880e+00,-4.039896372711486439e-02,7.947932863815573290e-01,6.055324563125584758e-01,4.733514354612947841e+02
8.520805364051749820e+00,-1.565924245092910816e+01,-8.787118896151325798e-01,-1.382754467733406378e-01,7.078746855896901335e-01,6.926697122859741818e-01,4.750342453855105305e+02
8.904231743582018410e+00,-1.558754306326843242e+01,-6.709194923831736102e-01,-2.327326561486448286e-01,6.034521084284057979e-01,7.626788731784853725e-01,4.765415883756723474e+02
9.262564498682641201e+00,-1.550744215890258282e+01,-4.316738518437213123e-01,-0.000000000000000000e+00,8.460544322742477030e-01,5.330946422788590544e-01,4.780489313658341644e+02
9.595590493577306646e+00,-1.541849632047952490e+01,-1.646332317756017127e-01,-6.798226504779054935e-02,8.798710718644018325e-01,4.703225579701018622e-01,4.795562743559959813e+02
9.932911989776807005e+00,-1.530924460542196996e+01,1.596514504810354063e-01,-1.353047220417890883e-01,9.051481144296389392e-01,4.029857604657239301e-01,4.812228273912775762e+02
1.023614409558629923e+01,-1.518791641984237550e+01,5.108663538927580294e-01,-2.013139714962981219e-01,9.216402354632233784e-01,3.317377899128592933e-01,4.828893804265591712e+02
1.050423200864673134e+01,-1.505398947310178315e+01,8.842661288575814904e-01,-2.653693599563108352e-01,9.291873733376551092e-01,2.572701460079627189e-01,4.845559334618407661e+02
1.073612330652534830e+01,-1.490693146543092951e+01,1.275105254909455255e+00,-3.268491979379668511e-01,9.277162825585327788e-01,1.803055764082982793e-01,4.862224864971223610e+02
1.093076797807414202e+01,-1.474620010114720969e+01,1.678638077261394246e+00,-3.851567937465165681e-01,9.172412443686193129e-01,1.015910619148671229e-01,4.878890395324039559e+02
1.108711845476142521e+01,-1.457124310201671591e+01,2.090118843349848987e+00,-4.397262446094700739e-01,8.978639278308896410e-01,2.189056652654472121e-02,4.895555925676855509e+02
1.120412964197559447e+01,-1.438149822076102069e+01,2.504801739379078906e+00,-4.900279289239561908e-01,8.697724027657578461e-01,-5.802237725927399808e-02,4.912221456029671458e+02
1.128075895030106679e+01,-1.417639325470887890e+01,2.917940926865103091e+00,-5.355736463237130707e-01,8.332393141496720057e-01,-1.373721759318781988e-01,4.928886986382487407e+02
1.131596082459410901e+01,-1.395556569699551908e+01,3.324410762589888879e+00,-5.759213556938644896e-01,7.886192357186523338e-01,-2.153887023771642040e-01,4.945536646283094342e+02
1.130880092418367511e+01,-1.371823855450463547e+01,3.719876854929131227e+00,-6.106794651671018093e-01,7.363452284823379657e-01,-2.913147701645764642e-01,4.962186306183701276e+02
