-4.635193180676994373e+00,1.259901718830444550e-01,-4.680975207493066392e+00,3.957179147382788309e-01,-8.864756943883911333e-01,2.399295213456849318e-01,5.420033270188630468e+02
-4.719439529284788826e+00,1.279691599959593917e+00,-3.748032749096450900e+00,3.385391988325524015e-01,-9.340644785829848029e-01,1.136343288913630040e-01,5.462280508992605519e+02
-4.530218537023826819e+00,2.299635331050915887e+00,-3.300233913160142585e+00,2.740870848470282617e-01,-9.615852490007112952e-01,-1.510227874434035174e-02,5.500948565851313106e+02
-4.037630181327221734e+00,3.366346671609203867e+00,-3.240410886555980419e+00,1.769853114105339742e-01,-9.771287218564559396e-01,1.178713725579245974e-01,5.543195804655288157e+02
-3.312525051063150539e+00,4.356884167354283299e+00,-3.509126012949200124e+00,7.504256716507289038e-02,-9.659453790267601425e-01,2.476209560007953947e-01,5.585443043459263208e+02
-2.437675413662151680e+00,5.247022849011859336e+00,-3.959166504316320001e+00,-2.895276963568509804e-02,-9.283411132517668252e-01,3.705975102149630107e-01,5.627690282263238259e+02
-1.496200841538548154e+00,6.014636126320152876e+00,-4.443310596695602577e+00,-1.321561778696965506e-01,-8.653444920748289970e-01,4.834373327405220855e-01,5.669937521067213311e+02
-5.715514478217900152e-01,6.639701128294382748e+00,-4.814334836183980393e+00,-2.317447977475877718e-01,-7.786786239210389260e-01,5.830539849499383198e-01,5.712184759871188362e+02
2.707602778308814684e-01,7.116867864586434500e+00,-4.980439337814376977e+00,-3.249946424799998734e-01,-6.707140270650422398e-01,6.667227131710106169e-01,5.754431998675163413e+02
1.001701103914885760e+00,7.467407415916309965e+00,-4.960670301548447902e+00,-4.093551055660787363e-01,-5.444037906061691690e-01,7.321549769831670051e-01,5.796679237479138465e+02
1.610886324953788362e+00,7.725716369374151071e+00,-4.829501096684180261e+00,-4.825187258209197583e-01,-4.032028008706146638e-01,7.775610462226263397e-01,5.838926476283113516e+02
1.940243209777127387e+00,7.859556845766436872e+00,-4.720830012903003414e+00,-5.424843019462962657e-01,-2.509732424757360469e-01,8.016989545356821845e-01,5.865778203509069044e+02
2.359851229301628273e+00,8.050574851271607102e+00,-4.570952794871518954e+00,-5.064675808322959272e-01,-2.172289808463767902e-01,8.344460194897840299e-01,5.908025442313044095e+02
2.633002885611897881e+00,8.240860895576606282e+00,-4.505973066222851209e+00,-4.686740505651644795e-01,-1.827226324171462024e-01,8.642656269490108789e-01,5.950272681117019147e+02
2.751275774371689575e+00,8.465657732395586166e+00,-4.600366497684735378e+00,-4.292362954145009790e-01,-1.475752492202388744e-01,8.910531681738174115e-01,5.992519919920994198e+02
2.715349766739669324e+00,8.749512030389691830e+00,-4.898173478848577567e+00,-3.882926668852607066e-01,-1.119101317132480122e-01,9.147146698610868487e-01,6.034767158724969249e+02
2.653073662217057205e+00,8.909494505225223904e+00,-5.107393538748846495e+00,-3.459867986255631966e-01,-7.585239646005277614e-02,9.351671236328893411e-01,6.055587724482752492e+02
2.456011806430342226e+00,9.268100244313181690e+00,-5.623374854342921836e+00,-3.099461949269035621e-01,-8.287148105206283699e-02,9.471344539588820721e-01,6.097834963286727543e+02
2.162382230179070053e+00,9.674717353811880471e+00,-6.255391247902294616e+00,-2.734433389345734544e-01,-8.976696906873972426e-02,9.576892145440868420e-01,6.140082202090702594e+02
1.798538236013079272e+00,1.011956053275998535e+01,-6.956173254669136163e+00,-2.365326702480779475e-01,-9.652857680369769655e-02,9.668156648313072088e-01,6.182329440894677646e+02
1.390652752303127571e+00,1.059218097985232099e+01,-7.678448002971539843e+00,-1.992692365679556155e-01,-1.031462202107994580e-01,9.745001942593631838e-01,6.224576679698652697e+02
9.647130497499886159e-01,1.108146937576366042e+01,-8.374941553417908580e+00,-1.617086116232336890e-01,-1.096100299381686238e-01,9.807313425508228377e-01,6.266823918502627748e+02
5.465154757880322789e-01,1.157565892796511875e+01,-8.998381238327203491e+00,-1.239068123153710954e-01,-1.159103660421913207e-01,9.854998167952552235e-01,6.309071157306602800e+02
1.616602070154808946e-01,1.206232847789865836e+01,-9.501498001185170850e+00,-8.592021520214943031e-02,-1.220378323596935377e-01,9.887985053033663263e-01,6.351318396110577851e+02
-1.644539797117159918e-01,1.252840567002118277e+01,-9.837028735618456921e+00,-4.780547244567977944e-02,-1.279832905169289714e-01,9.906224882114319508e-01,6.393565634914552902e+02
-4.066349172106228926e-01,1.296017018252289787e+01,-9.957718624020811760e+00,-9.619427349482753339e-03,-1.337378735545461383e-01,9.909690448202399526e-01,6.435812873718527953e+02
-4.592340489306103724e-01,1.307433727243507882e+01,-9.955213857397140487e+00,2.858097038978706095e-02,-1.392929991482723395e-01,9.898376576575785846e-01,6.447593772604591322e+02
-5.363853081209773999e-01,1.326410020025039316e+01,-9.932322908690448315e+00,-2.641285153453154858e-02,-1.228237828137284104e-01,9.920759444804706506e-01,6.467409287698892513e+02
-5.950499688523819275e-01,1.365522420234053769e+01,-9.734224265926028963e+00,-1.090833264490447818e-01,-2.522944908492976146e-01,9.614813143157910913e-01,6.509656526502867564e+02
-4.912132776770921083e-01,1.402671794696400021e+01,-9.318363388238585898e+00,-1.890776399604296443e-01,-3.755756143186632645e-01,9.072985197809544378e-01,6.551903765306842615e+02
-2.479658719963016011e-01,1.438100562989943043e+01,-8.728867632218475947e+00,-2.644332807404799479e-01,-4.896426809770397237e-01,8.308568378505603036e-01,6.594151004110817667e+02
1.116752399319746319e-01,1.472109626256927406e+01,-8.009872942680924979e+00,-3.333015391237734715e-01,-5.916972689477270064e-01,7.340316246171757486e-01,6.636398242914792718e+02
5.647713483156449055e-01,1.505058234927370542e+01,-7.205521668691496906e+00,-3.939928613735210750e-01,-6.792356601699700569e-01,6.191983067974080601e-01,6.678645481718767769e+02
1.088466702685513043e+00,1.537363850934141674e+01,-6.359960379177195477e+00,-4.450182993555654165e-01,-7.501102638694250313e-01,4.891741052805370638e-01,6.720892720522742820e+02
1.659993163948870309e+00,1.569502004395373262e+01,-5.517337678414604873e+00,-4.851260388184915895e-01,-8.025823032788970135e-01,3.471489203848730498e-01,6.763139959326717872e+02
2.256674847391967997e+00,1.602006144784093067e+01,-4.721802021539275529e+00,-5.133321101942031062e-01,-8.353644731368053966e-01,1.966070743003832111e-01,6.805387198130692923e+02
2.502049837334074933e+00,1.615355123273853977e+01,-4.416009546206233871e+00,-5.289445285191162194e-01,-8.476525214795831431e-01,4.124183045730538816e-02,6.822554503958920122e+02
3.112021378111671677e+00,1.647510580567319138e+01,-3.721111377670954123e+00,-7.693097131510051589e-01,-3.889391375951138374e-01,5.068401251863309254e-01,6.864801742762895174e+02
3.207803340320261043e+00,1.652379538567683781e+01,-3.620954617345242266e+00,-6.365780489876359249e-01,2.584004437775399010e-01,7.266330560903121460e-01,6.871365691795111843e+02
3.819186636838134419e+00,1.685449061407805615e+01,-3.032269387264681981e+00,-6.768201844412813362e-01,2.064938571464797201e-01,7.065923328830676642e-01,6.913612930599086894e+02
4.372680178155153641e+00,1.730819373170710662e+01,-2.578849826168380766e+00,-7.138708582653614521e-01,1.536135899651912273e-01,6.832197762748825065e-01,6.955860169403061946e+02
4.776959762996246361e+00,1.805905725363106740e+01,-2.311646884073697006e+00,-7.475553734015168983e-01,1.000089791636775832e-01,6.566255917801639974e-01,6.998107408207036997e+02
4.811528015134332925e+00,1.816578775471188933e+01,-2.293621435798752550e+00,-7.777149021455098676e-01,4.593277650879677015e-02,6.269351728991736650e-01,7.002871871487596991e+02
5.013422890992679903e+00,1.925966485707100162e+01,-2.238791970840428469e+00,-7.650017347570341464e-01,1.340217960777382016e-03,6.440252709554066257e-01,7.045119110291572042e+02
5.033412136434306738e+00,2.049283823720221775e+01,-2.366284770291982475e+00,-7.504202859782733714e-01,-4.325560293223702085e-02,6.595425287288578797e-01,7.087366349095547093e+02
4.917994046718822787e+00,2.156430061577871626e+01,-2.626811592149567165e+00,-7.340061651775965368e-01,-8.774578145454689504e-02,6.734490532423482723e-01,7.129613587899522145e+02
4.692716758549774880e+00,2.227088630870551000e+01,-2.976833711858586362e+00,-7.157994562846724529e-01,-1.320216709047866699e-01,6.857108842571536522e-01,7.171860826703497196e+02
4.464139875615882325e+00,2.256744405769841677e+01,-3.267643895984185587e+00,-6.958446199789608544e-01,-1.759751477097846462e-01,6.962980771402410562e-01,7.202712785080751701e+02
4.042402164311090118e+00,2.275368050510653362e+01,-3.691332995959396790e+00,-6.230506129138466687e-01,-1.307516390015253660e-01,7.711743918494800010e-01,7.244960023884726752e+02
3.460155514940338684e+00,2.273134657885960408e+01,-4.127018140275257707e+00,-5.421877328461431889e-01,-8.383482638964379063e-02,8.360635049048688039e-01,7.287207262688701803e+02
2.695171456865323112e+00,2.259498856767115171e+01,-4.548420010643006606e+00,-4.543031874840854356e-01,-3.583230095826543671e-02,8.901250811252022777e-01,7.329454501492676854e+02
2.410039703867271399e+00,2.253981462557169024e+01,-4.680801740946760603e+00,-3.605351128423410212e-01,1.263428655960290893e-02,9.326589983530124695e-01,7.343277757035457398e+02
1.506833942434873785e+00,2.240781159089403118e+01,-5.021859206647203422e+00,-2.739440562115351141e-01,-1.747034864086601663e-02,9.615858989098438059e-01,7.385524995839432449e+02
6.566688165960314905e-01,2.240046998153048108e+01,-5.193506549149957685e+00,-1.848214796997975640e-01,-4.741353220182058931e-02,9.816266997200834288e-01,7.427772234643407501e+02
5.478551768997290405e-02,2.262121403363230598e+01,-5.098670089752973311e+00,-9.399095151420619465e-02,-7.691856402085812949e-02,9.925962097146568963e-01,7.470019473447382552e+02
-1.797771754245828246e-01,2.296362104684410355e+01,-4.831434759597587281e+00,-2.291821669375349729e-03,-1.057127925280114539e-01,9.943930576218183992e-01,7.502232324820287204e+02
-2.047156125735335452e-01,2.361901956928664603e+01,-4.249596878793832744e+00,4.009591361726491492e-03,-2.678737063235899774e-01,9.634446536453742382e-01,7.544479563624262255e+02
4.566501887166337509e-02,2.447229476698274553e+01,-3.439776437778184537e+00,1.020156819237093455e-02,-4.227233602348731689e-01,9.062002475823774938e-01,7.586726802428237306e+02
4.739606818575813896e-01,2.545278788359295419e+01,-2.478905162029955367e+00,1.611510648742854948e-02,-5.660353238720658986e-01,8.242222488334728370e-01,7.628974041232212357e+02
9.816713401643135661e-01,2.649235543362771139e+01,-1.443922251263862977e+00,2.158880348185041737e-02,-6.938980725581541664e-01,7.197481423834655168e-01,7.671221280036187409e+02
1.469221218025222431e+00,2.752538648823270861e+01,-4.117705720763946697e-01,2.647326133495974190e-02,-8.028217492973516167e-01,5.956294194292270916e-01,7.713468518840162460e+02
1.835979160717501113e+00,2.848881971852352279e+01,5.406071497662049419e-01,3.063516482121781542e-02,-8.898334175942135271e-01,4.552537485943355944e-01,7.755715757644137511e+02
2.012587015606991159e+00,2.933766731699044072e+01,1.359236708263207749e+00,3.396092004576400231e-02,-9.525582049252978578e-01,3.024525122055188309e-01,7.797962996448112563e+02
1.993625587057173520e+00,3.005944027658204831e+01,2.036079659272246989e+00,3.635975485932047696e-02,-9.892841219216966797e-01,1.413962317056904616e-01,7.840210235252087614e+02
1.805822302934764423e+00,3.065700366126222320e+01,2.586069146466170920e+00,3.776619634703031608e-02,-9.990087880879011673e-01,-2.351926310710750201e-02,7.882457474056062665e+02
1.475909370582146218e+00,3.113252231655196312e+01,3.024144590471984362e+00,3.814185777637976033e-02,-9.814667889412674873e-01,-1.877928137370015738e-01,7.924704712860037716e+02
1.343403111200148325e+00,3.126778176031914214e+01,3.150144427933444735e+00,3.747648624418308677e-02,-9.371369182688439325e-01,-3.469407865861578455e-01,7.938692576050638081e+02
8.910234476386722502e-01,3.160966735822442075e+01,3.483128157266696334e+00,6.617608740884527163e-02,-9.378519897556909513e-01,-3.406646015684793305e-01,7.980939814854613132e+02
3.591024110696886540e-01,3.183158450052995647e+01,3.739042693317316424e+00,9.481853605203252600e-02,-9.377571598673469788e-01,-3.340942297225177327e-01,8.023187053658588184e+02
-2.256534198929997237e-01,3.193336403233434950e+01,3.932842516796722254e+00,1.233790988081682055e-01,-9.368525108377032673e-01,-3.272353448359094363e-01,8.065434292462563235e+02
-8.365572544939450239e-01,3.191413752884055199e+01,4.079485180311756665e+00,1.518331130367583937e-01,-9.351388240823462761e-01,-3.200938697866640981e-01,8.107681531266538286e+02
-1.446947754984019729e+00,3.177233769193726332e+01,4.193930567973900736e+00,1.801560081044829842e-01,-9.326175795198256013e-01,-3.126759714304656046e-01,8.149928770070513337e+02
-2.030194699095317912e+00,3.150569881386065774e+01,4.291140154921766481e+00,2.083233265879936846e-01,-9.292909542936971246e-01,-3.049880552787559984e-01,8.192176008874488389e+02
-2.559704639584007069e+00,3.111125730790383059e+01,4.386076266784661115e+00,2.363107453791285506e-01,-9.251618208938212629e-01,-2.970367599711963291e-01,8.234423247678463440e+02
-3.008926560576415277e+00,3.058535230613922451e+01,4.493701339114566373e+00,2.640940966744433904e-01,-9.202337446785333608e-01,-2.888289515472478031e-01,8.276670486482438491e+02
-3.347380055852534397e+00,2.993791228391866710e+01,4.625867793274984763e+00,2.916493888310539018e-01,-9.145109807997996443e-01,-2.803717175217832480e-01,8.318155236432169204e+02
-3.561272514637525699e+00,2.914015658517539009e+01,4.802259536988592536e+00,2.748577973306698952e-01,-8.599993158492278411e-01,-4.299446103698486565e-01,8.360402475236144255e+02
-3.615988450755600603e+00,2.819590839767689872e+01,5.035950876260380404e+00,2.510228167091548279e-01,-7.834496739748155747e-01,-5.684999154273351341e-01,8.402649714040119306e+02
-3.485201790052335102e+00,2.709873734419455005e+01,5.341897353738384702e+00,2.207552322139469114e-01,-6.868236842204877846e-01,-6.924870787564924024e-01,8.444896952844094358e+02
-3.142657013102333252e+00,2.584151974074620028e+01,5.735050933038856158e+00,1.848306672941402995e-01,-5.725974405445677373e-01,-7.987288623244598318e-01,8.487144191648069409e+02
-2.583827706466512275e+00,2.444287182992870200e+01,6.197556417527253281e+00,1.441697081006138581e-01,-4.436980514389934904e-01,-8.845027611127506129e-01,8.529391430452044460e+02
-1.846999725826361072e+00,2.297431667374866748e+01,6.645949492714772866e+00,9.981431340678573183e-02,-3.034286325795731432e-01,-9.476107680744213502e-01,8.571638669256019512e+02
-9.907532940966353729e-01,2.153494258905077174e+01,6.963963697850447332e+00,5.290111435011200097e-02,-1.553836642679087554e-01,-9.864356993639608051e-01,8.613885908059994563e+02
-1.688061825738148558e-01,2.034254401884022556e+01,7.056308415914164023e+00,4.632288078805687701e-03,-3.356882285905255902e-03,-9.999826364736731366e-01,8.651793028177307860e+02
7.592860181211840143e-01,1.918344099370299460e+01,6.903331883945604375e+00,-1.046675570963463281e-01,6.826943027656064145e-02,-9.921602629521757422e-01,8.694040266981282912e+02
1.665046730873384062e+00,1.819919833163821821e+01,6.561094734438976950e+00,-2.121735897309712793e-01,1.387257282725698759e-01,-9.673342442693775300e-01,8.736287505785257963e+02
2.513113356210384008e+00,1.734442320998463671e+01,6.191291167354870062e+00,-3.160433779594472026e-01,2.068045359386088411e-01,-9.259300552220914859e-01,8.778534744589233014e+02
3.267378268492683091e+00,1.657465413019584588e+01,5.955616743115896838e+00,-4.144968090932510951e-01,2.713391237416092339e-01,-8.686572829252448003e-01,8.820781983393208066e+02
3.901856981819641135e+00,1.585800599570438330e+01,5.962381843632349465e+00,-5.058465956069522207e-01,3.312235027509210505e-01,-7.964974657452805751e-01,8.863029222197183117e+02
4.411809579822569383e+00,1.518644541605426390e+01,6.213127775370836048e+00,-5.885271903632907087e-01,3.854313780878805273e-01,-7.106872722855379632e-01,8.905276461001158168e+02
4.545299777019297771e+00,1.499179170368475589e+01,6.324090280398806385e+00,-6.611216157648130975e-01,4.330337367838278384e-01,-6.126973086081680675e-01,8.918004599719630505e+02
4.925305158118505666e+00,1.437316444973570384e+01,6.776219987422593682e+00,-7.268639863059981332e-01,3.823968425253733705e-01,-5.704729618815069792e-01,8.960251838523605556e+02
5.194595759655313394e+00,1.380754844748533117e+01,7.352998091822141369e+00,-7.863051156077071058e-01,3.284449328064495410e-01,-5.233031542833715966e-01,9.002499077327580608e+02
5.359274236604516517e+00,1.329824594989889519e+01,8.002558188516506021e+00,-8.389297101228898601e-01,2.716457187220405745e-01,-4.715968033958617966e-01,9.044746316131555659e+02
5.425474155882779037e+00,1.284841230590495442e+01,8.673030265979143394e+00,-8.842815683211033839e-01,2.124915938064076970e-01,-4.158021530599484983e-01,9.086993554935530710e+02
5.399358850889798056e+00,1.246105555783422503e+01,9.312543272966371077e+00,-9.219675350912900358e-01,1.514953657345983473e-01,-3.564028877530372452e-01,9.129240793739505762e+02
5.287120274144664123e+00,1.213903605240652084e+01,9.869227685291559027e+00,-9.516609097123978067e-01,8.918581111346259027e-02,-2.939139398214891674e-01,9.171488032543480813e+02
5.094977848077204108e+00,1.188506606526858178e+01,1.029121807255764232e+01,-9.731042778730069065e-01,2.610309186956138311e-02,-2.288770258893379206e-01,9.213735271347455864e+02
4.871459447710988044e+00,1.171865138242007376e+01,1.051900421588594980e+01,-9.861117432027451946e-01,-3.720592706129156185e-02,-1.618559511071913093e-01,9.250397566458357232e+02
4.554245973307938122e+00,1.159127834969964077e+01,1.057356255208512508e+01,-9.429666262833196200e-01,-1.217455161320467605e-01,-3.098224830739093050e-01,9.292644805262332284e+02
4.175034927447150324e+00,1.153883517028361183e+01,1.034473196824560581e+01,-8.706814018307674763e-01,-2.025228408728091956e-01,-4.482146756091524575e-01,9.334892044066307335e+02
3.740140948554008915e+00,1.156345884097854793e+01,9.780686456712569310e+00,-7.714898750849867870e-01,-2.770416797120181518e-01,-5.727558645219924527e-01,9.377139282870282386e+02
3.275425564088429109e+00,1.165020728547055207e+01,8.862999207757875197e+00,-6.484573161262030538e-01,-3.429992143056926901e-01,-6.795974162316088529e-01,9.419386521674257438e+02
2.845452533885963309e+00,1.174946770732406698e+01,7.640026135631012849e+00,-5.053857372947242466e-01,-3.983571901095772638e-01,-7.654376562644108484e-01,9.461633760478232489e+02
2.623001905846998660e+00,1.179478906044275632e+01,6.789419351559990545e+00,-3.466964055800227373e-01,-4.414049020460463213e-01,-8.276238969531515277e-01,9.487435166074565132e+02
2.390957141884260562e+00,1.178787877279619956e+01,5.292669049576679718e+00,-4.148450368533790344e-01,-4.069214588551970935e-01,-8.138283121885607763e-01,9.529682404878540183e+02
2.378986416643579460e+00,1.167516498783483669e+01,3.740005376712983498e+00,-4.804947639355691691e-01,-3.699868611119682682e-01,-7.951304952229975020e-01,9.571929643682515234e+02
2.579724488650989578e+00,1.157648023563372774e+01,2.320947955357367309e+00,-5.432501424131905843e-01,-3.308235879363990439e-01,-7.716430758009396040e-01,9.614176882486490285e+02
2.958487160811739791e+00,1.167628948467513972e+01,1.260925974645857872e+00,-6.027331616011861737e-01,-2.896675421237918657e-01,-7.435075325406839131e-01,9.656424121290465337e+02
3.458952699600436276e+00,1.207900191770631437e+01,7.000296992646497518e-01,-6.585855210145024063e-01,-2.467666294515774572e-01,-7.108933408729705139e-01,9.698671360094440388e+02
3.766573613234778239e+00,1.241838118908100519e+01,5.712932029985207105e-01,-7.104707881970591110e-01,-2.023792657341926260e-01,-6.739969524542669399e-01,9.722779632674273671e+02
4.241666778466081311e+00,1.309942929457674587e+01,5.899628633594820037e-01,-7.899969133378417219e-01,-1.631957555265703130e-01,-5.909907125277837903e-01,9.765026871478248722e+02
4.527727995414038809e+00,1.381890856826139036e+01,8.951053757669344968e-01,-8.578707169864451254e-01,-1.216051454936340620e-01,-4.992674849477466981e-01,9.807274110282223774e+02
4.490916379298957928e+00,1.444833707027070524e+01,1.370777393582986114e+00,-9.130910870069576246e-01,-7.822088404984846310e-02,-4.001801595860159932e-01,9.849521349086198825e+02
4.056067513981946426e+00,1.490991333764423921e+01,1.921386736578551968e+00,-9.548435399645472943e-01,-3.368287438156856300e-02,-2.951902406255342837e-01,9.891768587890173876e+02
3.883454365112458451e+00,1.500715967437974463e+01,2.072748012678153007e+00,-9.825122332600184638e-01,1.135196277885421740e-02,-1.858462924955828766e-01,9.902990691568544435e+02
3.086298233178260464e+00,1.531782024830854994e+01,2.639940334665669575e+00,-9.371650840254243109e-01,-2.716456025881132663e-01,-2.189252655085497934e-01,9.945237930372519486e+02
2.071927618371714352e+00,1.555818012331704381e+01,3.183506349778628675e+00,-8.138097930145881120e-01,-5.320319016610918217e-01,-2.337812576063666992e-01,9.987485169176494537e+02
9.482226287991631919e-01,1.578842089477856980e+01,3.668929259662941256e+00,-6.227142218003185459e-01,-7.481327395246260004e-01,-2.291776647461180039e-01,1.002973240798046959e+03
-1.760000250416609013e-01,1.606596129837931031e+01,4.061695141809925858e+00,-3.797848835442840243e-01,-9.019601689681207013e-01,-2.054976783952189301e-01,1.007197964678444464e+03
-1.217546056213661965e+00,1.642277050538636018e+01,4.340825677492739842e+00,-1.052428889049299571e-01,-9.807098256870605546e-01,-1.647123921738002095e-01,1.011422688558841969e+03
-2.145896153712525845e+00,1.684358456813870930e+01,4.512410209872643740e+00,1.780592761926102774e-01,-9.778267576281011175e-01,-1.102167239052924824e-01,1.015647412439239474e+03
-2.869083376539468322e+00,1.723554710614429908e+01,4.593130174587643388e+00,4.465399967664533398e-01,-8.935510199321060609e-01,-4.654681585821542761e-02,1.019352225004376919e+03
-3.587211970837547170e+00,1.767260836214615694e+01,4.624063036579463493e+00,5.421108462262583805e-01,-8.263620390993323683e-01,-1.524454352869133722e-01,1.023576948884774424e+03
-4.183339512423438045e+00,1.806288387444519117e+01,4.603922422314034257e+00,6.242033382349845283e-01,-7.386274693585097584e-01,-2.545538332962631878e-01,1.027801672765172043e+03
-4.655578095214472967e+00,1.836768846983583003e+01,4.552343700462349929e+00,6.907764421750725026e-01,-6.325286285767401928e-01,-3.503333283706702161e-01,1.032026396645569548e+03
-5.002645799603085308e+00,1.854828278466986902e+01,4.488963793028584170e+00,7.401749772334974553e-01,-5.107034126641646354e-01,-4.374025918658839274e-01,1.036251120525967053e+03
-5.223867147071906025e+00,1.856588286748455374e+01,4.433420203480838317e+00,7.711707626624848544e-01,-3.761807130458252879e-01,-5.135968515744337992e-01,1.040475844406364558e+03
-5.314548419536116342e+00,1.846930396546084552e+01,4.406139039664916268e+00,7.829931531648638421e-01,-2.323051140946155169e-01,-5.770217119506775294e-01,1.043555864160539841e+03
-5.342073938877846651e+00,1.815342338006326273e+01,4.403817762739238972e+00,7.487081769419231536e-01,-2.792422900031300559e-01,-6.012136136617134419e-01,1.047780588040937346e+03
-5.244602311968917796e+00,1.756878950282382590e+01,4.462919863998793701e+00,7.114554681728125773e-01,-3.250725926267274413e-01,-6.230224123802960978e-01,1.052005311921334851e+03
-5.023721991594257474e+00,1.667653291713092756e+01,4.603076610918749090e+00,6.713826881367540578e-01,-3.696143632691903380e-01,-6.423616649004497692e-01,1.056230035801732356e+03
-4.684333200840360867e+00,1.547042174418192495e+01,4.827806961551554643e+00,6.286486753175014597e-01,-4.126910505254174355e-01,-6.591547161600824767e-01,1.060454759682129861e+03
-4.236641601581633942e+00,1.400959749639695495e+01,5.108409094961672281e+00,5.834228159339244213e-01,-4.541319099080682875e-01,-6.733350029882619880e-01,1.064679483562527366e+03
-3.692387932019750796e+00,1.238606901903283664e+01,5.400070126980489604e+00,5.358843726971930232e-01,-4.937726804728644892e-01,-6.848463178813516405e-01,1.068904207442924871e+03
-3.481408594513394572e+00,1.178650369922532271e+01,5.500798417866432644e+00,4.862217744480307746e-01,-5.314562357666651193e-01,-6.936430317643011989e-01,1.070406437877591088e+03
-2.815150322139653216e+00,1.019138155831596393e+01,5.753014016189194280e+00,5.002779806528980799e-01,-2.578393763607458866e-01,-8.265826020861178902e-01,1.074631161757988593e+03
-2.017639715064798001e+00,8.874826684788903464e+00,5.950803022117292507e+00,4.679399444490608961e-01,3.968883628356705690e-02,-8.828674898662580706e-01,1.078855885638386098e+03
-1.168336536501663581e+00,7.875159574510742111e+00,6.108035465631621364e+00,3.922065486137852330e-01,3.335365209678443632e-01,-8.572779085011942302e-01,1.083080609518783604e+03
-4.122806708149207577e-01,7.094609461001091688e+00,6.247885790290274244e+00,2.801010734830520210e-01,5.964530453477746574e-01,-7.521869138240185881e-01,1.087305333399181109e+03
1.488247345367867680e-01,6.456577005429427807e+00,6.386790917759864072e+00,1.420198797927343382e-01,8.040562502572971004e-01,-5.773403676906913029e-01,1.091530057279578614e+03
5.019440196565362333e-01,5.921554352041614955e+00,6.527711055388397909e+00,-9.231753929893919339e-03,9.370936503598611411e-01,-3.489530988176527959e-01,1.095754781159976119e+03
6.221939405076810647e-01,5.675017173215746169e+00,6.600115523408855545e+00,-1.596271974956000872e-01,9.832278557837140776e-01,-8.820511000461346562e-02,1.097930474787374806e+03
7.593453781732569796e-01,5.234963214236285189e+00,6.737521266362585415e+00,-1.771735646637701278e-01,9.343895965410642379e-01,-3.090689403039698080e-01,1.102155198667772311e+03
7.662573211805596696e-01,4.840435009939339395e+00,6.867439891778659877e+00,-1.856001028483051929e-01,8.374545670539528253e-01,-5.140237834415050111e-01,1.106379922548169816e+03
6.731937324588331828e-01,4.467376657830317122e+00,6.986093676020622922e+00,-1.844730612516626012e-01,6.974123870450874563e-01,-6.925197846045763050e-01,1.110604646428567321e+03
5.099987141186032025e-01,4.090969926167030479e+00,7.089705449158279826e+00,-1.738504508281768779e-01,5.214715834011084405e-01,-8.353690253128798204e-01,1.114829370308964826e+03
3.060904360447425088e-01,3.685641095475854723e+00,7.174498781830004113e+00,-1.542790592908989677e-01,3.186885398144777004e-01,-9.352184699071388607e-01,1.119054094189362331e+03
9.045510548174770515e-02,3.225067871655935114e+00,7.236698172086279079e+00,-1.267663059579001161e-01,9.950132475326005366e-02,-9.869284624765933822e-01,1.123278818069759836e+03
-1.083590220935434639e-01,2.682186370200887904e+00,7.272529232210288797e+00,-9.272838509572836618e-02,-1.248076047936063360e-01,-9.878372884152524236e-01,1.127503541950157341e+03
-2.447638127519197737e-01,2.154999041350938338e+00,7.281378828794943026e+00,-5.391736737128441370e-02,-3.426921637805891430e-01,-9.378981812433710985e-01,1.131018260572192730e+03
-3.483407141732753343e-01,1.404520264000645335e+00,7.263367526844153765e+00,-3.475808268756077485e-02,-3.271952764422627058e-01,-9.443162217949078174e-01,1.135242984452590235e+03
-3.565206774182376748e-01,4.912084012092640117e-01,7.208306580490090099e+00,-1.557626457292437747e-02,-3.114862315068557264e-01,-9.501219435140828562e-01,1.139467708332987741e+03
-2.822860547868299430e-01,-5.777098130277237287e-01,7.077439379493719152e+00,3.615653798466125605e-03,-2.955752112466695780e-01,-9.553115834780426807e-01,1.143692432213385246e+03
-2.241706338813346244e-01,-1.319436293123962489e+00,6.924008410822771964e+00,2.280523271143785127e-02,-2.794725287023654414e-01,-9.598817776395829338e-01,1.146432912737599963e+03
-2.269898724157708436e-01,-2.437646234137342827e+00,6.463350054340280870e+00,7.795898315184690563e-02,-1.411228207017084235e-01,-9.869167879934503951e-01,1.150657636617997468e+03
-4.248320372906321807e-01,-3.453218663416066647e+00,5.687205663319813809e+00,1.313264100790766942e-01,4.604822799186125541e-04,-9.913380664395651243e-01,1.154882360498394974e+03
-8.591113061895819802e-01,-4.318373306534128986e+00,4.769804373852801760e+00,1.816846836671981991e-01,1.420332204867769677e-01,-9.730443155372119346e-01,1.159107084378792479e+03
-1.541864094000611640e+00,-5.010641146642710098e+00,3.991353360191023381e+00,2.278799243504297245e-01,2.803514789820343855e-01,-9.324547111313061798e-01,1.163331808259189984e+03
-2.436974759740252683e+00,-5.519684926090600463e+00,3.542035948937241496e+00,2.688536408513031439e-01,4.122459134454076191e-01,-8.704992973281344693e-01,1.167556532139587489e+03
-2.738140667442454657e+00,-5.644899269044631573e+00,3.467279736778765553e+00,3.036669828420500705e-01,5.346943675107933558e-01,-7.885976774527397870e-01,1.168850675330724926e+03
-3.692520075614486696e+00,-5.973437248903803010e+00,3.376329323779781788e+00,4.085652576002083425e-01,4.572703866667668926e-01,-7.899216567225064711e-01,1.173075399211122431e+03
-4.493627810856989591e+00,-6.177548187484206643e+00,3.520268459447695175e+00,5.065179414732571272e-01,3.720728695216135029e-01,-7.778170445106677988e-01,1.177300123091519936e+03
-4.962880107071512725e+00,-6.295238375605064718e+00,3.819182206934127244e+00,5.958598652448842126e-01,2.805501564180867269e-01,-7.524896216718135467e-01,1.181524846971917441e+03
-5.018460889360992105e+00,-6.379173193956613197e+00,4.200333699644501095e+00,6.750722377526249263e-01,1.842581109662693450e-01,-7.143699478269677217e-01,1.185749570852314946e+03
-4.818901332104030821e+00,-6.477911409692658218e+00,4.554959015983188308e+00,7.428084624183758367e-01,8.483367341973048481e-02,-6.641060427469199778e-01,1.189435480108141292e+03
-4.501138178591383543e+00,-6.695913519459901764e+00,4.938817498072664236e+00,7.284026794534379512e-01,1.026863561678081627e-01,-6.774090705030622050e-01,1.193660203988538797e+03
-4.272911022464165320e+00,-7.100781154495345859e+00,5.250703517255353781e+00,7.134846749225337570e-01,1.204668241208125962e-01,-6.902357299609523933e-01,1.197884927868936302e+03
-4.229606031617209716e+00,-7.323024882978697470e+00,5.355406600850283638e+00,6.980649327960558592e-01,1.381625816458148526e-01,-7.025770068901769916e-01,1.199635257361118420e+03
-4.272937380126204054e+00,-7.926016305756153457e+00,5.546526382593590654e+00,5.343875059182503495e-01,-8.388087056273639541e-02,-8.410659861583180685e-01,1.203859981241515925e+03
-4.527989893984748271e+00,-8.531415153073504953e+00,5.646551146838588053e+00,3.197974273161077186e-01,-2.979327073735438813e-01,-8.994240976088110351e-01,1.208084705121913430e+03
-4.783692900628744304e+00,-8.875154816061114005e+00,5.677816895624423488e+00,7.473926129717653466e-02,-4.835996442535855366e-01,-8.720914097149353728e-01,1.210967255010378949e+03
-5.129207083049639238e+00,-9.268310827934991281e+00,5.682654730500698470e+00,2.981390894304396591e-02,-4.304701118693967099e-01,-9.021111980296249166e-01,1.215191978890776454e+03
-5.248729983207943484e+00,-9.480063176467359298e+00,5.665275334647152938e+00,-1.528264249240663536e-02,-3.748687186994646980e-01,-9.269508533726691368e-01,1.217587369489866660e+03
-5.149344671874871437e+00,-1.003237412513866822e+01,5.585508592409662576e+00,2.240123218715869002e-01,-1.966780487990856252e-01,-9.545335116017769073e-01,1.221812093370264165e+03
-4.694721245173099078e+00,-1.085497622040146837e+01,5.398717782055243219e+00,4.431965591813427086e-01,-8.306369907449006641e-04,-8.964229581913916167e-01,1.226036817250661670e+03
-4.112289296508521375e+00,-1.190133776390312192e+01,5.052018062971505685e+00,6.225928470646645563e-01,1.950913471155179824e-01,-7.578360726866218977e-01,1.230261541131059175e+03
-3.638195740577121917e+00,-1.291208006634404093e+01,4.616968338150723383e+00,7.460959024959946673e-01,3.734990377816289620e-01,-5.512144528722022763e-01,1.233855742262691592e+03
-3.141963292272836661e+00,-1.413583963300582980e+01,3.953960605148267415e+00,7.296196659863002365e-01,5.528333767015456424e-01,-4.025275153464877853e-01,1.238080466143089097e+03
-2.686752354359432271e+00,-1.527835371340866644e+01,3.150106571405789868e+00,6.733498268373985240e-01,7.020160985371390883e-01,-2.318866276714427188e-01,1.242305190023486603e+03
-2.238373936483118332e+00,-1.620360582972223895e+01,2.244287193351556020e+00,5.803553435172200681e-01,8.129107289146755289e-01,-4.859858090998277202e-02,1.246529913903884108e+03
-1.760426207669237852e+00,-1.677644454215849024e+01,1.275388472584346733e+00,4.557081558992006065e-01,8.794690379037480854e-01,1.373400452004925054e-01,1.250754637784281613e+03
-1.230582462675920974e+00,-1.696917119248557171e+01,3.076992743677334774e-01,3.062065586250102833e-01,8.980609197966710200e-01,3.157881058386262652e-01,1.254979361664679118e+03
-6.529120116161863940e-01,-1.690551079487499564e+01,-5.794897269340197887e-01,1.400044136857094834e-01,8.676723815697988673e-01,4.770130002524253232e-01,1.259204085545076623e+03
-3.744227053981624698e-02,-1.669137214318144657e+01,-1.353087330396657295e+00,-3.383357154026495062e-02,7.899608408198325327e-01,6.122214953826123907e-01,1.263428809425474128e+03
2.125899546044054955e-01,-1.657908236024395876e+01,-1.631680683503704987e+00,-2.058262413637863275e-01,6.691647197805991043e-01,7.140393099596300530e-01,1.265089389682868614e+03
8.651570738825009599e-01,-1.625207807385552528e+01,-2.277529701390823114e+00,-2.293191441306825507e-01,6.517400933260478757e-01,7.229423081278147922e-01,1.269314113563266119e+03
1.541853117031770637e+00,-1.587861420984739524e+01,-2.816285746414589397e+00,-2.525976757152497698e-01,6.337062236760557798e-01,7.311694990166552888e-01,1.273538837443663624e+03
2.235874063752899765e+00,-1.550190068843699720e+01,-3.250673120061793764e+00,-2.756400768839973314e-01,6.150799680082623677e-01,7.387131926297182405e-01,1.277763561324061129e+03
2.939715343700405992e+00,-1.516496389091982699e+01,-3.583421287831256130e+00,-2.984248091004738090e-01,5.958787371027128854e-01,7.455663377440562289e-01,1.281988285204458634e+03
3.645173343574637403e+00,-1.491063546299838372e+01,-3.817264743856628506e+00,-3.209305746411303395e-01,5.761204790771047302e-01,7.517225284925893591e-01,1.286213009084856139e+03
4.346830018426797615e+00,-1.476362691010742267e+01,-3.958112231360119804e+00,-3.431363364872374588e-01,5.558236626231778388e-01,7.571760103469802328e-01,1.290437732965253645e+03
5.045927494561456506e+00,-1.471272375691044232e+01,-4.018215806092539921e+00,-3.650213379737706210e-01,5.350072597577284483e-01,7.619216854932582272e-01,1.294662456845651150e+03
5.359352287085529021e+00,-1.471140863675935861e+01,-4.025943710688721922e+00,-3.865651221770435852e-01,5.136907281042384366e-01,7.659551175951970770e-01,1.296555730976829182e+03
6.063049108515589758e+00,-1.473547302575352624e+01,-4.011499622084047978e+00,-3.655731713979430419e-01,5.312173593614387679e-01,7.643051572868798660e-01,1.300780454857226687e+03
6.777404715229616627e+00,-1.478477192429527065e+01,-3.954080277375279895e+00,-3.443068378031575727e-01,5.483452715958531121e-01,7.620815340557887119e-01,1.305005178737624192e+03
7.508581004178489948e+00,-1.483061956534557169e+01,-3.869117265647190163e+00,-3.227820799658795980e-01,5.650616120468691106e-01,7.592859167877740179e-01,1.309229902618021697e+03
8.236103442501041982e+00,-1.486400069472041885e+01,-3.765055552020838636e+00,-3.010150502505172798e-01,5.813538366143011782e-01,7.559204033261044398e-01,1.313454626498419202e+03
8.554717887597579562e+00,-1.487921926604464851e+01,-3.712436192040878602e+00,-2.790220827214950350e-01,5.972097192460398274e-01,7.519875188988772718e-01,1.315368865982916532e+03
9.159421869998515930e+00,-1.494767775351747829e+01,-3.575141301844336539e+00,-2.462574486438069421e-01,6.083112090392461813e-01,7.545281584759283566e-01,1.319593589863314037e+03
9.536916549006329902e+00,-1.510005362853630650e+01,-3.395029747443729651e+00,-2.131965205513590422e-01,6.186807631711306321e-01,7.561609331983027982e-01,1.323818313743711542e+03
9.583742534584803963e+00,-1.537917629512006990e+01,-3.159587406271464616e+00,-1.798790699317070196e-01,6.283059076296784173e-01,7.568838792222835066e-01,1.328043037624109047e+03
9.569731739523815506e+00,-1.541290536671499645e+01,-3.134131967029416987e+00,-1.463451766704712553e-01,6.371750633515611550e-01,7.566961265238985046e-01,1.328446470627186045e+03
9.288391779936334913e+00,-1.578198699100964042e+01,-2.817017397177651983e+00,-1.325418176610248244e-01,6.883037679386173613e-01,7.132100599443027544e-01,1.332671194507583550e+03
8.885341714773037580e+00,-1.606748101251530869e+01,-2.372116688390494499e+00,-1.181160818722489653e-01,7.362003779474822762e-01,6.663749655458734988e-01,1.336895918387981055e+03
8.791309866036531417e+00,-1.611046728339508860e+01,-2.243363981648815120e+00,-1.031357022207774338e-01,7.806400050612026797e-01,6.164107473253158664e-01,1.337925680324524819e+03
8.532280192164870769e+00,-1.613110685951225420e+01,-1.610190703140060409e+00,-8.214314955911034000e-02,8.048508324129401981e-01,5.877632521142106548e-01,1.342150404204922324e+03
8.519240549197832024e+00,-1.593436834974959559e+01,-7.760687713752999484e-01,-6.099884001214100210e-02,8.275746648251461890e-01,5.580298519326868378e-01,1.346375128085319830e+03
8.759283630223793082e+00,-1.566429383650254081e+01,2.641074607729812507e-01,-3.974183320533168640e-02,8.487695254804272782e-01,5.272654732678667688e-01,1.350599851965717335e+03
8.764689052343438647e+00,-1.566032181492918340e+01,2.809155559290290038e-01,-1.841139686237168449e-02,8.683962608732911370e-01,4.955269463487068649e-01,1.350661896177497738e+03
9.241812563055486152e+00,-1.541738295928092306e+01,1.505306633892807833e+00,-1.798977476964695454e-01,9.078337856759259861e-01,3.787777949660868226e-01,1.354886620057895243e+03
9.897793013203807888e+00,-1.521423240284076073e+01,2.839475798438499510e+00,-3.339608841753207158e-01,9.098108123775729972e-01,2.463988910728323045e-01,1.359111343938292748e+03
1.065483185238401909e+01,-1.501864430339582235e+01,4.183513086620515686e+00,-4.742435973922467518e-01,8.742457514535835195e-01,1.038526667832044004e-01,1.363336067818690253e+03
1.143569397235858531e+01,-1.479641851134484298e+01,5.437508045541930457e+00,-5.949573063027226993e-01,8.026061411508629284e-01,-4.297890021950086931e-02,1.367560791699087758e+03
1.216372348520541280e+01,-1.451138976901963318e+01,6.501554676275539180e+00,-6.911209194174893211e-01,6.978480931171822110e-01,-1.880370008174369056e-01,1.371785515579485264e+03
1.278380118435037893e+01,-1.414002681912924153e+01,7.309025640070677454e+00,-7.587663758613728548e-01,5.642943113936106370e-01,-3.253360062938959740e-01,1.376010239459882769e+03
1.328298433966490855e+01,-1.368674196034431745e+01,7.859844817664581207e+00,-7.951023832473281816e-01,4.074557185812859306e-01,-4.492104601967573663e-01,1.380234963340280274e+03
1.366909686326517637e+01,-1.317037047709555964e+01,8.187218050098866939e+00,-7.986295954489150972e-01,2.338040507920411404e-01,-5.545488572766211766e-01,1.384459687220677779e+03
1.392769810878088244e+01,-1.267535954092334727e+01,8.324341583642652864e+00,-7.692024779844045534e-01,5.050480657220604574e-02,-6.370045622884790149e-01,1.388212437010048006e+03
1.413057351997261968e+01,-1.209541536990481347e+01,8.337076645427289989e+00,-7.865582048276672511e-01,-8.986707710018325412e-03,-6.174491311040416486e-01,1.392437160890445512e+03
1.424106417414613546e+01,-1.150790513865516829e+01,8.222329299287531867e+00,-8.005923846267294364e-01,-6.844026106068487603e-02,-5.952862877155036259e-01,1.396661884770843017e+03
1.426568947764353013e+01,-1.093235171468195865e+01,8.013338720885375466e+00,-8.112457552362550839e-01,-1.276047926346118022e-01,-5.706096226899621815e-01,1.400886608651240522e+03
1.421063007218043062e+01,-1.038844149498748060e+01,7.743348745297840452e+00,-8.184733302867833737e-01,-1.862304622520850883e-01,-5.435233412993191182e-01,1.405111332531638027e+03
1.408172653585076795e+01,-9.896018895914657776e+00,7.445606221858228402e+00,-8.222445890827723147e-01,-2.440697051897476599e-01,-5.141418235576127316e-01,1.409336056412035532e+03
1.388447811719035485e+01,-9.475080827798766592e+00,7.153359368887931780e+00,-8.225436054593388002e-01,-3.008782773667225685e-01,-4.825891413252880180e-01,1.413560780292433037e+03
1.372393508379594174e+01,-9.238618697818653303e+00,6.975039842031178772e+00,-8.193691150537115719e-01,-3.564162865221539578e-01,-4.489985345142161188e-01,1.416348523323084919e+03
1.343885430827130278e+01,-8.959817765581854943e+00,6.754404958981779394e+00,-8.044294510849798741e-01,-3.499686388611066845e-01,-4.800137602573558704e-01,1.420573247203482424e+03
1.309859546721359891e+01,-8.806534994116287152e+00,6.627696092673677875e+00,-7.885029864238930486e-01,-3.430916815794196051e-01,-5.104401418651728362e-01,1.424797971083879929e+03
1.270739796658970278e+01,-8.799280139923821409e+00,6.628152711847996592e+00,-7.716092577145438058e-01,-3.357938504908173361e-01,-5.402403570426556056e-01,1.429022694964277434e+03
1.226915441614240621e+01,-8.958689513360820200e+00,6.789007987766071395e+00,-7.537689878994500159e-01,-3.280840975886550881e-01,-5.693778515066374446e-01,1.433247418844674939e+03
1.178440105073747013e+01,-9.284892398620407050e+00,7.116612533783258421e+00,-7.350040608111990670e-01,-3.199718800698871379e-01,-5.978168837958560689e-01,1.437472142725072445e+03
1.124775719252197881e+01,-9.736776713101464864e+00,7.563559475271645738e+00,-7.153374943440754530e-01,-3.114671487410625161e-01,-6.255225690863216448e-01,1.441696866605469950e+03
1.065160728275552060e+01,-1.025246868664555144e+01,8.055561411373632907e+00,-6.947934122372951826e-01,-3.025803358200112037e-01,-6.524609219579697861e-01,1.445921590485867455e+03
1.044226296432198353e+01,-1.042832243894410382e+01,8.219066182800984777e+00,-6.733970145042390554e-01,-2.933223421480886661e-01,-6.785988980604484855e-01,1.447321010137442954e+03
9.770459958020660807e+00,-1.093321007628756014e+01,8.664830063203613264e+00,-6.824666490739919045e-01,-2.264308995836915306e-01,-6.949577833324853682e-01,1.451545734017840459e+03
9.025274282116939162e+00,-1.135716274664440206e+01,8.982464142176217692e+00,-6.882438275605180511e-01,-1.584470882865337271e-01,-7.079639496736291893e-01,1.455770457898237964e+03
8.202423490527005256e+00,-1.163779976981599518e+01,9.097687627614511996e+00,-6.907006806918617459e-01,-8.969888229275557734e-02,-7.175546531146206330e-01,1.459995181778635470e+03
7.298628260453966732e+00,-1.171262291919133602e+01,8.936229739861120791e+00,-6.898253568660966950e-01,-2.051794280074203253e-02,-7.236836263499684119e-01,1.464219905659032975e+03
6.333110187872718733e+00,-1.152914512940402325e+01,8.476706345297314371e+00,-6.856220792783341844e-01,4.876198163817218462e-02,-7.263213018712895153e-01,1.468444629539430480e+03
5.368869327096934541e+00,-1.105574864086498721e+01,7.803493972685157765e+00,-6.781111255331512266e-01,1.178066649860639165e-01,-7.254549545713904202e-01,1.472669353419827985e+03
4.490850412916287837e+00,-1.027267829737652782e+01,7.053852679703706663e+00,-6.673287298425309988e-01,1.862830158860359908e-01,-7.210887631340372472e-01,1.476894077300225490e+03
3.838268599936683234e+00,-9.306083132276324221e+00,6.422877781559209076e+00,-6.533269082800822192e-01,2.538606843647738809e-01,-7.132437899132850756e-01,1.480679423907843557e+03
3.340453363460777148e+00,-7.916583419772934782e+00,5.894213892405410604e+00,-6.346189634174934646e-01,1.358347401824844258e-01,-7.607928066370669429e-01,1.484904147788241062e+03
3.113883787131425773e+00,-6.235740367853620292e+00,5.628565295836781779e+00,-6.054137578710118150e-01,1.556196427951702516e-02,-7.957575051789492759e-01,1.489128871668638567e+03
3.055887285850113599e+00,-4.441162312940397427e+00,5.588996819684012962e+00,-5.661943782963971827e-01,-1.049682121121841283e-01,-8.175595393804342415e-01,1.493353595549036072e+03
2.998137889860875482e+00,-2.770989853506522937e+00,5.680503841858330460e+00,-5.176095533659359482e-01,-2.237621017235810195e-01,-8.258382844703757719e-01,1.497578319429433577e+03
2.818683645033344565e+00,-1.389316013461739052e+00,5.829636150288056484e+00,-4.604629234099948953e-01,-3.388547372598411656e-01,-8.204568015451039198e-01,1.501803043309831082e+03
2.493726820072712957e+00,-3.181057005028590234e-01,6.006062478184865050e+00,-3.956997480792031618e-01,-4.483423723642313008e-01,-8.015041026177405215e-01,1.506027767190228587e+03
2.320352549287421962e+00,7.252685886507573287e-02,6.087933197271306440e+00,-3.243912717884375740e-01,-5.504139701855877975e-01,-7.692936787807586052e-01,1.507853526682818256e+03
1.862944152265052722e+00,8.427374246755983123e-01,6.284115944019236011e+00,-2.498647290258381726e-01,-5.116017537436876594e-01,-8.220883545916236601e-01,1.512078250563215761e+03
1.326204245170494289e+00,1.417422289028366977e+00,6.486257098797749698e+00,-1.728775574496927425e-01,-4.677513459171210308e-01,-8.667871875627920497e-01,1.516302974443613266e+03
7.383687830428604659e-01,1.842694533134422663e+00,6.685583559851569824e+00,-9.418791529288852993e-02,-4.192945804071253613e-01,-9.029499938834576467e-01,1.520527698324010771e+03
1.284092057318814983e-01,2.163914862447597010e+00,6.873322361136080083e+00,-1.457072547683497046e-02,-3.667086524729285535e-01,-9.302206502549473788e-01,1.524752422204408276e+03
-4.739737042311482629e-01,2.425679913212055006e+00,7.040701106393265185e+00,6.518995525464067742e-02,-3.105114197930327058e-01,-9.483306005355698343e-01,1.528977146084805781e+03
-1.046607846558655908e+00,2.662835085791891210e+00,7.179655238381715598e+00,1.443086570988953432e-01,-2.512563029931056957e-01,-9.571015002039285902e-01,1.533201869965203286e+03
-1.583303247895313071e+00,2.891768344735759388e+00,7.283535273080530281e+00,2.220062318713646454e-01,-1.895268360292071685e-01,-9.564469726205240274e-01,1.537426593845600792e+03
-1.846589286984515743e+00,3.008139450597078213e+00,7.324053233718117895e+00,2.975175254746973974e-01,-1.259309200566381404e-01,-9.463734597973757490e-01,1.539588861081658251e+03
-2.340038140594154825e+00,3.239591439665280959e+00,7.374014896872411740e+00,3.472959851406496878e-01,-8.262739998179247092e-02,-9.341071734426041884e-01,1.543813584962055756e+03
-2.801910928491705199e+00,3.481366672316736022e+00,7.373983606798071300e+00,3.955103696438060368e-01,-3.895176851684362118e-02,-9.176340813381176353e-01,1.548038308842453262e+03
-3.233724816253249035e+00,3.740892360922093651e+00,7.318023836350068478e+00,4.419435448117721155e-01,4.899279842789797459e-03,-8.970283720462461918e-01,1.552263032722850767e+03
-3.636869193952441570e+00,4.025634965464580439e+00,7.200202822294365035e+00,4.863863982213922355e-01,4.872826081423953931e-02,-8.723828449843609167e-01,1.556487756603248272e+03
-4.012605360283902023e+00,4.343098121640152520e+00,7.014590858959948605e+00,5.286387808353876228e-01,9.233778962249966638e-02,-8.438084924935823627e-01,1.560712480483645777e+03
-4.362066219092316288e+00,4.700820565294560716e+00,6.755261591773204621e+00,5.685104082789914637e-01,1.355314698424912312e-01,-8.114340000028082978e-01,1.564937204364043282e+03
-4.686255988307665987e+00,5.106374053341056651e+00,6.416292310666942278e+00,6.058217177019825650e-01,1.781147777887848727e-01,-7.754051665378474123e-01,1.569161928244440787e+03
-4.986049921295115261e+00,5.567361281276702378e+00,5.991764243363203235e+00,6.404046763711400692e-01,2.198959384739638256e-01,-7.358842481832704729e-01,1.573386652124838292e+03
-5.262194040651879234e+00,6.091413797482156056e+00,5.475762848495247859e+00,6.721035383548902287e-01,2.606867891944691928e-01,-6.930492274505616335e-01,1.577611376005235797e+03
-5.469031446362235371e+00,6.560706690199091362e+00,4.995371502412492504e+00,7.007755458949218585e-01,3.003036268582338075e-01,-6.470930118389601748e-01,1.581017114993511768e+03
-5.706596456902391701e+00,7.207909724505345395e+00,4.314214566875658186e+00,7.834496091698631703e-01,2.648081651528677583e-01,-5.622111218744666461e-01,1.585241838873909273e+03
-5.922014256825646861e+00,7.939756465618081016e+00,3.525011819098794685e+00,8.541369634576693182e-01,2.252611746663165937e-01,-4.687274803580186444e-01,1.589466562754306779e+03
