-3.528337044786868937e+00,-8.632856722113176673e+00,-1.676131018409960705e+00,6.887784794641370612e-01,5.750834316323353290e-01,-4.414309151946432808e-01,1.628545417686872554e+02
-3.536092442520247126e+00,-8.703942929042364440e+00,-1.692220611439318345e+00,7.727072499786380444e-01,5.190792026523205482e-01,-3.653468040161565455e-01,1.670792656490848174e+02
-3.546559104406288299e+00,-8.773169210126626538e+00,-1.707916609832858867e+00,8.442963981157526332e-01,4.547856240515072423e-01,-2.834283477096067871e-01,1.713039895294823793e+02
-3.559779971434876344e+00,-8.840435151157597815e+00,-1.723277308269103303e+00,9.024026927987567337e-01,3.832294222097630820e-01,-1.969837302492041808e-01,1.755287134098799413e+02
-3.575791338498652827e+00,-8.905637025393225770e+00,-1.738359141523432960e+00,9.460982155720554232e-01,3.055533027799919310e-01,-1.073934153111816003e-01,1.797534372902775033e+02
-3.594617535624437199e+00,-8.968665666296622874e+00,-1.753214806212556320e+00,9.746851787954462498e-01,2.229977023219030796e-01,-1.608810107669511255e-02,1.839781611706750653e+02
-3.616276078951588424e+00,-9.029408984557550255e+00,-1.767895133630207116e+00,9.877070687458707754e-01,1.368809792519034840e-01,7.547412715042173259e-02,1.882028850510726272e+02
-3.640782884143054954e+00,-9.087754346979993514e+00,-1.782450962675366180e+00,9.849559356931777421e-01,4.857836046144745762e-02,1.658310816412824074e-01,1.924276089314701892e+02
-3.668152261338761377e+00,-9.143588599328333899e+00,-1.796933137327221708e+00,9.664757145527095306e-01,-4.050002017672735266e-02,2.535398224070540829e-01,1.966523328118677512e+02
-3.674744086438722857e+00,-9.155339354461203172e+00,-1.800120046717964328e+00,9.325615231096974211e-01,-1.289316406987290609e-01,3.371996999446481569e-01,1.975830039243116971e+02
-3.707222255999970795e+00,-9.206115212373033430e+00,-1.814602508482045629e+00,9.442353111102382845e-01,-1.128945001298710810e-01,3.093097299907949238e-01,2.018077278047092591e+02
-3.732750053895156572e+00,-9.240920883220093529e+00,-1.825123460464021186e+00,9.548030972050783882e-01,-9.672512437099371752e-02,2.810574600620497354e-01,2.048679677756856563e+02
-3.770754385461307479e+00,-9.286142317686055137e+00,-1.839731702465166263e+00,9.430792657933366741e-01,-1.142849411179546748e-01,3.123114641823147575e-01,2.090926916560832183e+02
-3.811610367660072995e+00,-9.328370158743343410e+00,-1.854459092548445209e+00,9.300138021656401133e-01,-1.316821713982097852e-01,3.431211644780256531e-01,2.133174155364807802e+02
-3.855297582511170162e+00,-9.367479424817508615e+00,-1.869348703963638725e+00,9.156252929949822983e-01,-1.488920671995122569e-01,3.734427334257322539e-01,2.175421394168783422e+02
-3.901793776089508725e+00,-9.403345281412587298e+00,-1.884443600797703011e+00,8.999342066780001703e-01,-1.658901469790734773e-01,4.032330378102380042e-01,2.217668632972759042e+02
-3.951069476287125681e+00,-9.435842601267678376e+00,-1.899780950808697799e+00,8.829628642440675579e-01,-1.826522304661554186e-01,4.324497000428397242e-01,2.259915871776734662e+02
-4.003082598146868953e+00,-9.464845667358307679e+00,-1.915386138551968820e+00,8.647354076245700183e-01,-1.991544730358861259e-01,4.610511584038118893e-01,2.302163110580710281e+02
-4.042211510845670652e+00,-9.483088589604944829e+00,-1.926774368537702786e+00,8.452777653374883293e-01,-2.153733996067747625e-01,4.889967261270480869e-01,2.332426390315659148e+02
-4.099398989213858258e+00,-9.504910609237539276e+00,-1.942981634527614299e+00,8.116616529076612352e-01,-2.311824335760538918e-01,5.364308376691383495e-01,2.374673629119634768e+02
-4.159176690585917768e+00,-9.522892959979719407e+00,-1.959509626763907830e+00,7.750992402355592059e-01,-2.461522790735426180e-01,5.819177117863567616e-01,2.416920867923610388e+02
-4.221490160674499670e+00,-9.536904753201753238e+00,-1.976384356982438861e+00,7.357232451856332567e-01,-2.602285980096428197e-01,6.252922382926333622e-01,2.459168106727586007e+02
-4.286282818660665406e+00,-9.546801276569478745e+00,-1.993644964688877863e+00,6.936765975076817359e-01,-2.733602954316399769e-01,6.663969739946182802e-01,2.501415345531561627e+02
-4.353492455970575215e+00,-9.552433085861025575e+00,-2.011329733674189768e+00,6.491119201952132434e-01,-2.854997049213904292e-01,7.050827139758877316e-01,2.543662584335537247e+02
-4.370784855973768757e+00,-9.552807404262260604e+00,-2.015849518346509051e+00,6.021909756981725925e-01,-2.966027615622202629e-01,7.412090330118712433e-01,2.554184293606945744e+02
-4.442385250899775428e+00,-9.550088183156297816e+00,-2.034470906729199946e+00,6.073397084322798012e-01,-3.700669243675251963e-01,7.029843170721038481e-01,2.596431532410921363e+02
-4.516207408288678060e+00,-9.542767362845221868e+00,-2.053559887521168026e+00,6.083071289881026855e-01,-4.409832962952969782e-01,6.599198202885945275e-01,2.638678771214896983e+02
-4.592171788261948606e+00,-9.530704510202241408e+00,-2.073132433825630727e+00,6.050865792054379577e-01,-5.088636527681206223e-01,6.123120238538141136e-01,2.680926010018872603e+02
-4.670196580720118895e+00,-9.513760383329767478e+00,-2.093204493558271650e+00,5.977002318188077146e-01,-5.732406702913578345e-01,5.604886857079469653e-01,2.723173248822848223e+02
-4.750194039608323315e+00,-9.491802729269309680e+00,-2.113785895230240630e+00,5.861989377890720609e-01,-6.336711431323849286e-01,5.048065844410858372e-01,2.765420487626823842e+02
-4.831169650760734235e+00,-9.465013625186681878e+00,-2.134643524219541622e+00,5.706618763156889873e-01,-6.897390340562334909e-01,4.456490635215083485e-01,2.807204880425874762e+02
-4.914815036236767298e+00,-9.432688056570071922e+00,-2.156231004667103601e+00,5.704328128536635401e-01,-6.976974954122435735e-01,4.333850607701743018e-01,2.849452119229850382e+02
-5.000129323512422452e+00,-9.395008062461300824e+00,-2.178308500430684802e+00,5.700817933596318277e-01,-7.055067904035361437e-01,4.210284046925582557e-01,2.891699358033826002e+02
-5.087006247396074876e+00,-9.351864787229942522e+00,-2.200867455489003532e+00,5.696088929078021446e-01,-7.131652501409728728e-01,4.085817361255763003e-01,2.933946596837801621e+02
-5.175337782041277812e+00,-9.303151030080668349e+00,-2.223899288659253681e+00,5.690142125946172635e-01,-7.206712379414066394e-01,3.960477151215618385e-01,2.976193835641777241e+02
-5.265010213248614512e+00,-9.248769979931070750e+00,-2.247392800657328937e+00,5.682978795127993088e-01,-7.280231496704848704e-01,3.834290203789037510e-01,3.018441074445752861e+02
-5.355900441823686187e+00,-9.188644053688847180e+00,-2.271331581287345802e+00,5.674600467243094970e-01,-7.352194140839051206e-01,3.707283486721875687e-01,3.060688313249728481e+02
-5.399919616789646604e+00,-9.157230850953014922e+00,-2.282990806512602333e+00,5.665008932278416953e-01,-7.422584931617458581e-01,3.579484142785301914e-01,3.080890373362083210e+02
-5.493034672078123570e+00,-9.085921251099108531e+00,-2.307802366888097811e+00,6.164519073469907351e-01,-7.070937010144590085e-01,3.464152766726640853e-01,3.123137612166058830e+02
-5.587022439506657001e+00,-9.008698341469060011e+00,-2.333011994964340197e+00,6.640205183681048284e-01,-6.691962204999335473e-01,3.335433549828030753e-01,3.165384850970034449e+02
-5.681752200737987479e+00,-8.925500602919427706e+00,-2.358600603585000233e+00,7.090228933500303254e-01,-6.287125118816303537e-01,3.193823947990121481e-01,3.207632089774010069e+02
-5.777092246127523367e+00,-8.836268605535428478e+00,-2.384549085409024993e+00,7.512851164479427135e-01,-5.857990294142617627e-01,3.039871229832344368e-01,3.249879328577985689e+02
-5.872902991877565704e+00,-8.740951273384116149e+00,-2.410838248018530638e+00,7.906438608491355158e-01,-5.406216168392049548e-01,2.874170362142378643e-01,3.292126567381961308e+02
-5.969030262834733591e+00,-8.639512331385864385e+00,-2.437448749030678652e+00,8.269470198120957294e-01,-4.933548666185040843e-01,2.697361711117355898e-01,3.334373806185936928e+02
-6.023506387874896006e+00,-8.578850328604836761e+00,-2.452661323932673998e+00,8.600542943803113349e-01,-4.441814453833057841e-01,2.510128568285758810e-01,3.358241066674566468e+02
-6.120100630866876834e+00,-8.465513173776637146e+00,-2.479890990894331182e+00,8.701946005883419710e-01,-4.327525240003138873e-01,2.355517142117833640e-01,3.400488305478542088e+02
-6.216573503357840202e+00,-8.345986577744580970e+00,-2.507392133181712168e+00,8.799237431795903230e-01,-4.211191320859208331e-01,2.199792780469100317e-01,3.442735544282517708e+02
-6.312762305915211591e+00,-8.220250216709684921e+00,-2.535145281112325844e+00,8.892371261832102691e-01,-4.092867655011283023e-01,2.043029050041972050e-01,3.484982783086493328e+02
-6.408503947544040180e+00,-8.088286464711258006e+00,-2.563130950996209023e+00,8.981303499459620809e-01,-3.972610140523669120e-01,1.885300008225098412e-01,3.527230021890468947e+02
-6.503626617404844268e+00,-7.950083508409720778e+00,-2.591331722515566760e+00,9.065992132022976380e-01,-3.850475588541615868e-01,1.726680168168191476e-01,3.569477260694444567e+02
-6.597941538729520161e+00,-7.805638682748396562e+00,-2.619734316002147345e+00,9.146397150549823163e-01,-3.726521696508364734e-01,1.567244463653722220e-01,3.611724499498420187e+02
-6.636767767620447955e+00,-7.743261821385532429e+00,-2.631600761889189233e+00,9.222480568616989727e-01,-3.600807020966223515e-01,1.407068213771126008e-01,3.629244871571564772e+02
-6.729548293683286886e+00,-7.586888543309487254e+00,-2.660417943573171407e+00,8.942607526205285096e-01,-4.187896844577947419e-01,1.578318932085005510e-01,3.671492110375540392e+02
-6.821013753088410070e+00,-7.424288820445170245e+00,-2.689409843540781164e+00,8.622284338917147739e-01,-4.756043427156468328e-01,1.742430399707726729e-01,3.713739349179516012e+02
-6.910966766428943586e+00,-7.255474827031174634e+00,-2.718565217579582249e+00,8.262959928982468449e-01,-5.302676897503965092e-01,1.898660299441601029e-01,3.755986587983491631e+02
-6.999209940695966914e+00,-7.080462116864870481e+00,-2.747872811739699550e+00,7.866259624965288300e-01,-5.825324693451222613e-01,2.046301964148961594e-01,3.798233826787467251e+02
-7.085545891772014215e+00,-6.899269623698908838e+00,-2.777321362872924748e+00,7.433977810504843742e-01,-6.321622744389832071e-01,2.184687572744735407e-01,3.840481065591442871e+02
-7.169773634728788814e+00,-6.711925676582292333e+00,-2.806900979689117559e+00,6.968069808663482911e-01,-6.789326163189149943e-01,2.313191170524541984e-01,3.882728304395418490e+02
-7.251685133574328646e+00,-6.518474110647304975e+00,-2.836604523744616024e+00,6.470643038597704289e-01,-7.226319399215572759e-01,2.431231500191348704e-01,3.924975543199394110e+02
-7.331069196025515211e+00,-6.318968392238568654e+00,-2.866426229260415237e+00,5.943947484503168122e-01,-7.630625806583366533e-01,2.538274630790182118e-01,3.967222782003369730e+02
-7.332355611356384806e+00,-6.315559721657751702e+00,-2.866924241593570510e+00,5.390365519884907641e-01,-8.000416584400714681e-01,2.633836372670899650e-01,3.967924797770085661e+02
-7.407680640006761408e+00,-6.104830295329412237e+00,-2.897040386990822114e+00,4.983076026659211122e-01,-8.234640767369767467e-01,2.712829656390701172e-01,4.010172036574061281e+02
-7.480003082138019010e+00,-5.888178578712590650e+00,-2.927269159553077316e+00,4.564475729091195810e-01,-8.450173419681161757e-01,2.785665180087935067e-01,4.052419275378036900e+02
-7.549113602632486320e+00,-5.665669552554155608e+00,-2.957623127778853167e+00,4.135514763737623833e-01,-8.646525338430041119e-01,2.852177626044117287e-01,4.094666514182012520e+02
-7.614803521665349351e+00,-5.437371828973586396e+00,-2.988120972551949084e+00,3.697166780096364791e-01,-8.823250852755861739e-01,2.912216027221606884e-01,4.136913752985988140e+02
-7.676864951782444990e+00,-5.203365937348925385e+00,-3.018780938270659853e+00,3.250426731506065314e-01,-8.979948834884470266e-01,2.965644109746095047e-01,4.179160991789963759e+02
-7.735091155003829932e+00,-4.963752606021877511e+00,-3.049620404368344140e+00,2.796308617771616767e-01,-9.116263610212472779e-01,3.012340602086731600e-01,4.221408230593939379e+02
-7.765757005322165618e+00,-4.826173446154328417e+00,-3.067056973004034237e+00,2.335843184610654488e-01,-9.231885764366577485e-01,3.052199510231681234e-01,4.245132310070253538e+02
-7.816582284573983408e+00,-4.575883163402533427e+00,-3.098332011758135440e+00,2.193787105486204037e-01,-9.219417654529958872e-01,3.192089636186094537e-01,4.287379548874229158e+02
-7.863027757805040707e+00,-4.320291111444955590e+00,-3.129829919195590726e+00,2.050855637412210275e-01,-9.203270567274336456e-01,3.330705933935945717e-01,4.329626787678204778e+02
-7.904939806758146226e+00,-4.059525329935491200e+00,-3.161557344428089777e+00,1.907105794361540485e-01,-9.183450945250704045e-01,3.467993111816545793e-01,4.371874026482180398e+02
-7.942264244785741667e+00,-3.793736975372500542e+00,-3.193497403429894632e+00,1.762594916325824212e-01,-9.159966694337837723e-01,3.603896407760513454e-01,4.414121265286156017e+02
-7.958473688154483305e+00,-3.661901099995907405e+00,-3.209159902971354228e+00,1.617380646536767941e-01,-9.132827180439204717e-01,3.738361611015351693e-01,4.434706400513396716e+02
-7.987677866823191586e+00,-3.386689101818993741e+00,-3.241481894348458681e+00,1.662478477731835491e-01,-9.117026153426199819e-01,3.757099868723462466e-01,4.476953639317372335e+02
-8.012277563659818469e+00,-3.106914381158190963e+00,-3.273929541530682386e+00,1.707532499883211985e-01,-9.100984931383742094e-01,3.775739137616067609e-01,4.519200878121347955e+02
-8.032280454384030932e+00,-2.822759359989592820e+00,-3.306466649612521014e+00,1.752541529660708586e-01,-9.084703935581979195e-01,3.794278928123368533e-01,4.561448116925323575e+02
-8.047696865333920258e+00,-2.534405864064902314e+00,-3.339057017256481963e+00,1.797504384934901778e-01,-9.068183593691904187e-01,3.812718753331009180e-01,4.603695355729299195e+02
-8.058541232283204181e+00,-2.242040146034040227e+00,-3.371661397204512411e+00,1.842419884778247197e-01,-9.051424339612063052e-01,3.831058128925874939e-01,4.645942594533274814e+02
-8.064833693379334534e+00,-1.945857869210992908e+00,-3.404234456940129938e+00,1.887286849494935748e-01,-9.034426613457583466e-01,3.849296573208340622e-01,4.688189833337250434e+02
-8.066549807439042041e+00,-1.667766501108945310e+00,-3.434378503531928750e+00,1.932104100650721967e-01,-9.017190861549058134e-01,3.867433607104451831e-01,4.727377794290534894e+02
-8.063983168065558260e+00,-1.364538484477573199e+00,-3.466753431737355395e+00,2.241989671509028725e-01,-8.957930567508114450e-01,3.837806959744062829e-01,4.769625033094510513e+02
-8.056942558691478240e+00,-1.058078241604545999e+00,-3.498955427170023835e+00,2.549623820724755130e-01,-8.889674838029623105e-01,3.804326437967388563e-01,4.811872271898486133e+02
-8.045461383398173183e+00,-7.485830288298963575e-01,-3.530936127714102923e+00,2.854697636481827172e-01,-8.812492216082620233e-01,3.767025662970623912e-01,4.854119510702461753e+02
-8.029576045671033668e+00,-4.362491007007432975e-01,-3.562647180063675645e+00,3.156904777946453189e-01,-8.726460207487046761e-01,3.725942091587169935e-01,4.896366749506437372e+02
-8.009325939273928441e+00,-1.212716665385682457e-01,-3.594040242096228521e+00,3.455941782805528883e-01,-8.631665203317628876e-01,3.681116978776197146e-01,4.938613988310412992e+02
-7.984753438880198395e+00,1.961551528849705406e-01,-3.625066985245748441e+00,3.751508371868159109e-01,-8.528202393172717999e-01,3.632595336206003722e-01,4.980861227114388612e+02
-7.955900369899510771e+00,5.158344525213748311e-01,-3.655680345887418081e+00,4.043307750473750795e-01,-8.416175669619431199e-01,3.580425887069931812e-01,5.023108465918364232e+02
-7.922804581820895642e+00,8.375625771309110901e-01,-3.685835776659935004e+00,4.331046906405195962e-01,-8.295697523910698923e-01,3.524661017180049649e-01,5.065355704722339851e+02
-7.885503615190378568e+00,1.161132942695551673e+00,-3.715489999639410179e+00,4.614436904009143192e-01,-8.166888933078547685e-01,3.465356722387525346e-01,5.107602943526315471e+02
-7.844038265536366517e+00,1.486339952936390763e+00,-3.744599759450722321e+00,4.893193174229125142e-01,-8.029879238516476336e-01,3.402572552382254201e-01,5.149850182330291091e+02
-7.807076871979404586e+00,1.752644678261560118e+00,-3.767858532738758814e+00,5.167035800261337020e-01,-7.884806016172236642e-01,3.336371550927890173e-01,5.184288607475059507e+02
-7.757899132390114083e+00,2.080630600201391012e+00,-3.795774866196848674e+00,5.344746386932754945e-01,-8.148884328328432902e-01,2.242581160794282491e-01,5.226535846279034558e+02
-7.704685962684270528e+00,2.409677408251216235e+00,-3.823025108172222630e+00,5.453098265938639555e-01,-8.307214671188158928e-01,1.119689112514408724e-01,5.268783085083009610e+02
-7.647490502641517196e+00,2.739583676455209282e+00,-3.849566111149320680e+00,5.490685410074469530e-01,-8.357742474168153857e-01,-1.773310294963391116e-03,5.311030323886984661e+02
-7.612358936185826153e+00,2.931433811224307906e+00,-3.864541090745383212e+00,5.457020037871884721e-01,-8.299812016297498651e-01,-1.154925452232074407e-01,5.335538792580680365e+02
-7.548474517089672098e+00,3.262779083852689332e+00,-3.889594841447259199e+00,5.438688439337263647e-01,-8.364118131597173544e-01,-6.797028319594008994e-02,5.377786031384655416e+02
-7.480736445404883028e+00,3.594442121451468797e+00,-3.913832709972738577e+00,5.407831097388645647e-01,-8.409160978359642158e-01,-2.029149117930344193e-02,5.420033270188630468e+02
-7.409198084461810829e+00,3.926211393119594995e+00,-3.937214541334981721e+00,5.364519075543109361e-01,-8.434836836773956792e-01,2.743403440978208277e-02,5.462280508992605519e+02
-7.340397857006472293e+00,4.229808465775263038e+00,-3.957799210881336904e+00,5.308852109162833788e-01,-8.441086571633966695e-01,7.509638955663640314e-02,5.500948565851313106e+02
-7.261650947367857434e+00,4.561229987233111238e+00,-3.979357094040784748e+00,6.066898538315447231e-01,-7.846043416173211771e-01,1.277554240476216907e-01,5.543195804655288157e+02
-7.179263362918122837e+00,4.892129627022460348e+00,-3.999936788281265976e+00,6.751777456088258189e-01,-7.156376234711244733e-01,1.788737088220772042e-01,5.585443043459263208e+02
-7.093294267305694234e+00,5.222291364952988957e+00,-4.019495527335276819e+00,7.355229196438557437e-01,-6.380402490829745199e-01,2.278347542175318263e-01,5.627690282263238259e+02
-7.003806429055224214e+00,5.551500383100458791e+00,-4.037990593014641583e+00,7.869976108699519024e-01,-5.527480496079376637e-01,2.740480872771978160e-01,5.669937521067213311e+02
-6.910866212499147565e+00,5.879543118806207502e+00,-4.055379317312732823e+00,8.289810321701901463e-01,-4.607896550188668172e-01,3.169563725977389002e-01,5.712184759871188362e+02
-6.814543568406706164e+00,6.206207317569757187e+00,-4.071619084504857433e+00,8.609668607412885866e-01,-3.632740891401565753e-01,3.560421335534798559e-01,5.754431998675163413e+02
-6.714912024310851990e+00,6.531282085831102258e+00,-4.086667333246730927e+00,8.825693441682032070e-01,-2.613773952565533465e-01,3.908339928716066392e-01,5.796679237479138465e+02
-6.612048674533483883e+00,6.854557943639242978e+00,-4.100481558670964866e+00,8.935279525950958757e-01,-1.563284535327088276e-01,4.209123573236283611e-01,5.838926476283113516e+02
-6.544977221160162451e+00,7.058884148161999050e+00,-4.108464580344232786e+00,8.937105208921894972e-01,-4.939416121812512800e-02,4.459144779937950220e-01,5.865778203509069044e+02
-6.436855767652777338e+00,7.378395772516244122e+00,-4.119735936404178567e+00,8.964952838687616499e-01,-3.727640913060466937e-02,4.414800961494317888e-01,5.908025442313044095e+02
-6.325726425057596636e+00,7.695562094717177004e+00,-4.129661544104919813e+00,8.991238239330767712e-01,-2.515216430471861608e-02,4.369687835985923696e-01,5.950272681117019147e+02
-6.211674342407084382e+00,8.010178365807382406e+00,-4.138199936758160113e+00,9.015956835252306734e-01,-1.302353756199145680e-02,4.323813257888637351e-01,5.992519919920994198e+02
-6.094778553814658828e+00,8.322039590619963789e+00,-4.145311322810003141e+00,9.039104323009367059e-01,-8.926404837466318277e-04,4.277185213937322872e-01,6.034767158724969249e+02
-6.036130789624574611e+00,8.474434325864564244e+00,-4.148108804133334715e+00,9.060676671931404691e-01,1.123841495315455567e-02,4.229811821688405638e-01,6.055587724482752492e+02
-5.915083670721259068e+00,8.780876025467625468e+00,-4.152321231553925074e+00,9.369155552248531471e-01,4.076317296199836321e-02,3.471679796698254883e-01,6.097834963286727543e+02
-5.791402566131114149e+00,9.084055019235787398e+00,-4.155009786457903864e+00,9.606700905009970537e-01,6.997931140089592994e-02,2.687263909500000048e-01,6.140082202090702594e+02
-5.665174121628723469e+00,9.383770436988415398e+00,-4.156135745215443045e+00,9.771514311775707506e-01,9.866563705097639025e-02,1.882502924655525545e-01,6.182329440894677646e+02
-5.536488525438294950e+00,9.679822917356322165e+00,-4.155660458987808781e+00,9.862347996879108347e-01,1.266049679798823269e-01,1.063489631722345508e-01,6.224576679698652697e+02
-5.405439498070093940e+00,9.972014660284195031e+00,-4.153545355639482572e+00,9.878514272922839234e-01,1.535857777209431452e-01,2.364247192874010389e-02,6.266823918502627748e+02
-5.272117486560214061e+00,1.026014816305304933e+01,-4.149752183814626960e+00,9.819890746428655559e-01,1.794037966355792879e-01,-5.924301676321402227e-02,6.309071157306602800e+02
-5.136602893070329579e+00,1.054402477603875354e+01,-4.144243256998675129e+00,9.686921244409824050e-01,2.038635583419176611e-01,-1.416799831540812293e-01,6.351318396110577851e+02
-4.998972912803432145e+00,1.082344580161919900e+01,-4.136981213218645870e+00,9.480612454855559257e-01,2.267798795078416474e-01,-2.230443029064922700e-01,6.393565634914552902e+02
-4.859308338818109085e+00,1.109821377386831287e+01,-4.127928774728458095e+00,9.202526306515694809e-01,2.479792618102674706e-01,-3.027199720716093334e-01,6.435812873718527953e+02
-4.820050604014207707e+00,1.117363265767363778e+01,-4.124906952629759260e+00,8.854768145583666872e-01,2.673012054504345647e-01,-3.801037706262600513e-01,6.447593772604591322e+02
-4.753807259863856771e+00,1.129859663231763633e+01,-4.118992392402503810e+00,8.631500911132804488e-01,3.107082953822082327e-01,-3.980330078723860465e-01,6.467409287698892513e+02
-4.611338892958041669e+00,1.156038507958130879e+01,-4.104560993920907563e+00,8.922317191297902683e-01,2.626693452672695939e-01,-3.673218948478845225e-01,6.509656526502867564e+02
-4.467097992925307182e+00,1.181699887856805198e+01,-4.088266077638074592e+00,9.176581714601238504e-01,2.135543348004004804e-01,-3.351059928434937940e-01,6.551903765306842615e+02
-4.321163633131940074e+00,1.206825153164871445e+01,-4.070090344907066005e+00,9.393252870500656826e-01,1.635644697959902083e-01,-3.015172786557235307e-01,6.594151004110817667e+02
-4.173618330137925270e+00,1.231395772537583788e+01,-4.050016587662189416e+00,9.571443049849011064e-01,1.129045397019539237e-01,-2.666933526524072895e-01,6.636398242914792718e+02
-4.024545095035072961e+00,1.255393413761902899e+01,-4.028032625329402983e+00,9.710422280419388485e-01,6.178207876461779685e-02,-2.307768751460605172e-01,6.678645481718767769e+02
-3.874024464322459949e+00,1.278800016648886562e+01,-4.004136241489065995e+00,9.809621216765282981e-01,1.040651595266925931e-02,-1.939149820433307969e-01,6.720892720522742820e+02
-3.722137404708057762e+00,1.301597710812974285e+01,-3.978330247951495036e+00,9.868633472339590762e-01,-4.101168287656251771e-02,-1.562586821682925009e-01,6.763139959326717872e+02
-3.568989187618708758e+00,1.323770462793684821e+01,-3.950617699102944691e+00,9.887217284329817835e-01,-9.226187705901642278e-02,-1.179622387251616222e-01,6.805387198130692923e+02
-3.506526268266847435e+00,1.332540530480512331e+01,-3.938594851065887248e+00,9.865296504389254872e-01,-1.431341139271023188e-01,-7.918253743077839635e-02,6.822554503958920122e+02
-3.352373347481614640e+00,1.353525555895642718e+01,-3.907135526829710770e+00,9.304023972249026997e-01,2.754466967412679823e-01,2.418232753336989893e-01,6.864801742762895174e+02
-3.328405627335814465e+00,1.356695210296356180e+01,-3.901959057572077061e+00,6.124548777601034333e-01,6.165152740991861613e-01,4.947786772999402394e-01,6.871365691795111843e+02
-3.174141951637232228e+00,1.376506591017146874e+01,-3.866786785497086321e+00,6.147167862852702669e-01,6.047124762952289512e-01,5.064030940319745877e-01,6.913612930599086894e+02
-3.019262518609391766e+00,1.395656864824753463e+01,-3.829722776127807649e+00,6.168068502900839745e-01,5.927406343157409774e-01,5.178859428865474346e-01,6.955860169403061946e+02
-2.863920454730544130e+00,1.414137445704489515e+01,-3.790772333961760054e+00,6.187244860802812996e-01,5.806030919559899139e-01,5.292240167537846096e-01,6.998107408207036997e+02
-2.846442379672699641e+00,1.416153119940597982e+01,-3.786172082073341993e+00,6.204691580001507889e-01,5.683032391754797574e-01,5.404141488581232222e-01,7.002871871487596991e+02
-2.691915682078574346e+00,1.433415580726236982e+01,-3.743542936439571367e+00,5.890660000399715601e-01,6.248147188423123222e-01,5.124507924788078705e-01,7.045119110291572042e+02
-2.537274200447251715e+00,1.449993354492339570e+01,-3.699038390184528513e+00,5.547401025491018878e-01,6.782260648399305314e-01,4.819448345951689028e-01,7.087366349095547093e+02
-2.382654487426087986e+00,1.465879561634049644e+01,-3.652662520255884449e+00,5.176617751621042096e-01,7.282722778825325705e-01,4.490476319960099438e-01,7.129613587899522145e+02
-2.228182145601711905e+00,1.481068075938421202e+01,-3.604416974668689821e+00,4.780149822928942971e-01,7.747050534415030887e-01,4.139224044105254685e-01,7.171860826703497196e+02
-2.115695125451698466e+00,1.491661604657303997e+01,-3.567828349392247134e+00,4.359964307413857210e-01,8.172940132513858424e-01,3.767434250005999852e-01,7.202712785080751701e+02
-1.962208500987153492e+00,1.505481146695585437e+01,-3.515868757379462917e+00,4.076523623193412660e-01,8.395144346305286609e-01,3.592117280004134550e-01,7.244960023884726752e+02
-1.809216662632431527e+00,1.518588410042811354e+01,-3.462041026130646237e+00,3.786542241245670071e-01,8.603878527049370062e-01,3.411036813948653545e-01,7.287207262688701803e+02
-1.656838193423173067e+00,1.530978792340090600e+01,-3.406345222940746265e+00,3.490485365921426331e-01,8.798807818275077297e-01,3.224483351857939106e-01,7.329454501492676854e+02
-1.607329869752336604e+00,1.534814079798358932e+01,-3.387519376885624212e+00,3.188827943670584086e-01,8.979619499712243602e-01,3.032756169736532392e-01,7.343277757035457398e+02
-1.457170174518489958e+00,1.545865626885747801e+01,-3.328141039084886454e+00,2.702049560327472455e-01,9.172316830715426805e-01,2.927000534656068464e-01,7.385524995839432449e+02
-1.307908394808840136e+00,1.556194726120865646e+01,-3.266891163887678307e+00,2.207563151844359195e-01,9.338848231019372115e-01,2.812895065228210867e-01,7.427772234643407501e+02
-1.159645840101730885e+00,1.565799550021434072e+01,-3.203769129888053069e+00,1.706779220787449369e-01,9.478738686512374612e-01,2.690765244994171579e-01,7.470019473447382552e+02
-1.047504398458456221e+00,1.572583766265115912e+01,-3.154220242997568313e+00,1.201126228550133401e-01,9.591589155384264709e-01,2.560959440665309672e-01,7.502232324820287204e+02
-9.017045112844239707e-01,1.580774343529306236e+01,-3.087377400087956580e+00,1.217298550900555443e-01,9.568732139056557173e-01,2.637678806644506158e-01,7.544479563624262255e+02
-7.571743730902582570e-01,1.588241011718783824e+01,-3.018668382205648815e+00,1.233389678666173828e-01,9.545236905248510872e-01,2.714222231379612160e-01,7.586726802428237306e+02
-6.140062812953478444e-01,1.594984186788611780e+01,-2.948095889401176617e+00,1.249398539147167503e-01,9.521105020485763903e-01,2.790584612109417995e-01,7.628974041232212357e+02
-4.722928236855538642e-01,1.601004407649689298e+01,-2.875662712103709051e+00,1.265324065128867193e-01,9.496338093733697194e-01,2.866760858146226165e-01,7.671221280036187409e+02
-3.321268722540872687e-01,1.606302336689728349e+01,-2.801371731026430556e+00,1.281165194944741403e-01,9.470937776229033656e-01,2.942745891196711927e-01,7.713468518840162460e+02
-1.936014214432159042e-01,1.610879297717205816e+01,-2.725228011353438173e+00,1.296920872546744041e-01,9.444905761370325781e-01,3.018534645698437435e-01,7.755715757644137511e+02
-5.680928376118295903e-02,1.614737813426515345e+01,-2.647240896820076017e+00,1.312590047575289132e-01,9.418243784605694335e-01,3.094122069155527677e-01,7.797962996448112563e+02
7.815697475885656498e-02,1.617881067506242942e+01,-2.567421915013897493e+00,1.328171675428858611e-01,9.390953623317812582e-01,3.169503122473493750e-01,7.840210235252087614e+02
2.112049564780693334e-01,1.620312366904900259e+01,-2.485782682571318514e+00,1.343664717333231118e-01,9.363037096706153806e-01,3.244672780293182957e-01,7.882457474056062665e+02
3.422424383607775011e-01,1.622035141677865866e+01,-2.402334904705328178e+00,1.359068140410331915e-01,9.334496065666502140e-01,3.319626031323830162e-01,7.924704712860037716e+02
3.849183019214675872e-01,1.622386292432952715e+01,-2.374116778493031710e+00,1.374380917746694242e-01,9.305332432667737796e-01,3.394357878675184903e-01,7.938692576050638081e+02
5.116045852860074961e-01,1.622787328881966573e+01,-2.287136082420896166e+00,8.812393939580481783e-02,9.298720567664048309e-01,3.571696086580443685e-01,7.980939814854613132e+02
6.360846556819659270e-01,1.622488426852827459e+01,-2.198456339543664928e+00,3.856773479748870637e-02,9.266566829081814838e-01,3.739223473569042167e-01,8.023187053658588184e+02
7.583472091446997743e-01,1.621491409160886121e+01,-2.108198073544849116e+00,-1.109440240302706111e-02,9.208959546700390408e-01,3.896479884542878858e-01,8.065434292462563235e+02
8.783925920430543099e-01,1.619797799994103826e+01,-2.016495217158971176e+00,-6.072606177602664357e-02,9.126056961634618769e-01,4.043033375449939237e-01,8.107681531266538286e+02
9.962218578488251097e-01,1.617410086910822287e+01,-1.923479550265946969e+00,-1.101909166908426052e-01,9.018086791675721248e-01,4.178481399452625977e-01,8.149928770070513337e+02
1.111834537284360103e+00,1.614333553014241929e+01,-1.829272243750057703e+00,-1.593530986964075413e-01,8.885345605841732386e-01,4.302451912365108933e-01,8.192176008874488389e+02
1.225224853502633549e+00,1.610576068747750611e+01,-1.733979850010922252e+00,-2.080775706433901640e-01,8.728198009937394586e-01,4.414604394360831519e-01,8.234423247678463440e+02
1.336384667178036834e+00,1.606146268863121662e+01,-1.637702747420898941e+00,-2.562304975251452621e-01,8.547075645356019269e-01,4.514630785149578718e-01,8.276670486482438491e+02
1.443344433943086091e+00,1.601145608639169993e+01,-1.542294865856206121e+00,-3.036796140209166994e-01,8.342476003865684220e-01,4.602256330059671385e-01,8.318155236432169204e+02
1.550029944022971007e+00,1.595398742996350627e+01,-1.444348563164233212e+00,-3.094723603638326881e-01,8.212562291156125793e-01,4.793360661394853173e-01,8.360402475236144255e+02
1.654466705717831720e+00,1.589005081361747074e+01,-1.345717139394841277e+00,-3.150894673476133945e-01,8.077987633286994873e-01,4.981744529015925682e-01,8.402649714040119306e+02
1.756651263909005278e+00,1.581973077419034546e+01,-1.246501133945289164e+00,-3.205277474553200889e-01,7.938828400616938508e-01,5.167301030126474348e-01,8.444896952844094358e+02
1.856581323829438190e+00,1.574311135016177232e+01,-1.146801114320856740e+00,-3.257841146215755268e-01,7.795163564251380572e-01,5.349924866001377621e-01,8.487144191648069409e+02
1.954255744536822048e+00,1.566027606528428784e+01,-1.046717671218285739e+00,-3.308555859803820054e-01,7.647074651255245659e-01,5.529512401645533259e-01,8.529391430452044460e+02
2.049674532297860452e+00,1.557130791229187139e+01,-9.463514136083950312e-01,-3.357392835555537691e-01,7.494645698447290894e-01,5.705961724526383838e-01,8.571638669256019512e+02
2.142838833883990102e+00,1.547628933668803342e+01,-8.458029638180447618e-01,-3.404324358918813798e-01,7.337963204776234427e-01,5.879172702333205214e-01,8.613885908059994563e+02
2.224448562433832599e+00,1.538571716302708658e+01,-7.555094465877124632e-01,-3.449323796261140607e-01,7.177116082305357025e-01,6.049047039730777175e-01,8.651793028177307860e+02
2.313192824202711328e+00,1.527892893012451125e+01,-6.548902053952252444e-01,-3.597048333845718204e-01,7.062039630649266098e-01,6.098248891110465975e-01,8.694040266981282912e+02
2.399687166396293758e+00,1.516632742013327118e+01,-5.543803320984717065e-01,-3.743424454446233063e-01,6.944315922674391128e-01,6.145164743013168396e-01,8.736287505785257963e+02
2.483935026013199820e+00,1.504799709428640675e+01,-4.540738328875909002e-01,-3.888397299947473629e-01,6.823989079849532846e-01,6.189777013325180599e-01,8.778534744589233014e+02
2.565936873607530533e+00,1.492403034455498378e+01,-3.540514609645490363e-01,-4.031912537866897406e-01,6.701104198583639482e-01,6.232068982733389717e-01,8.820781983393208066e+02
2.645692468453104684e+00,1.479452330791954218e+01,-2.543873338996603950e-01,-4.173916381656090913e-01,6.575707333351821227e-01,6.272024800960764868e-01,8.863029222197183117e+02
2.723203001486135033e+00,1.465957162323301688e+01,-1.551555513163397071e-01,-4.314355610806640540e-01,6.447845479480612818e-01,6.309629492691724018e-01,8.905276461001158168e+02
2.746001419202277916e+00,1.461737732010683466e+01,-1.254083541912143496e-01,-4.453177590745762693e-01,6.317566555583518095e-01,6.344868963172402010e-01,8.918004599719630505e+02
2.819827889458500714e+00,1.447228878355396731e+01,-2.721415451389737686e-02,-4.529210699329440093e-01,5.451127946980500738e-01,7.054874523813092768e-01,8.960251838523605556e+02
2.891385636560289907e+00,1.432198147276607436e+01,7.037727503017805752e-02,-4.548148248209412658e-01,4.515972183255688721e-01,7.675945723648951446e-01,9.002499077327580608e+02
2.960680552837697821e+00,1.416654955250796810e+01,1.672919286737037381e-01,-4.509751535565658109e-01,3.523887894283308508e-01,8.200253361697525945e-01,9.044746316131555659e+02
3.027719935565235332e+00,1.400608660107020675e+01,2.634558341009880511e-01,-4.414504609315891837e-01,2.487381331196389656e-01,8.621188036900434559e-01,9.086993554935530710e+02
3.092512723536302133e+00,1.384068774417166736e+01,3.587995607749580596e-01,-4.263608163441461318e-01,1.419518717279944497e-01,8.933443459270269393e-01,9.129240793739505762e+02
3.155069790685321340e+00,1.367045178225115087e+01,4.532627280398428549e-01,-4.058964401617918827e-01,3.337615419008373857e-02,9.133083335850694651e-01,9.171488032543480813e+02
3.215403781569229125e+00,1.349547900508039966e+01,5.467895033257901272e-01,-3.803153059023386962e-01,-7.562031270761102042e-02,9.217590988988351164e-01,9.213735271347455864e+02
3.265931611241609911e+00,1.333964377773912169e+01,6.270937268166253409e-01,-3.499398884465815818e-01,-1.836635174317653441e-01,9.185901081760172726e-01,9.250397566458357232e+02
3.322060474459292312e+00,1.315555991693535098e+01,7.185896945246704748e-01,-4.251206215935493526e-01,-2.818111287437582435e-01,8.601470483657579491e-01,9.292644805262332284e+02
3.376005810999626711e+00,1.296702388712776965e+01,8.089894229176309848e-01,-4.923512825060203935e-01,-3.746886556125264556e-01,7.856186262877722370e-01,9.334892044066307335e+02
3.427786217046978834e+00,1.277413323520248412e+01,8.982372758654958433e-01,-5.503746177776226434e-01,-4.605592314530672082e-01,6.963985744024910884e-01,9.377139282870282386e+02
3.477422115486095588e+00,1.257698369287201245e+01,9.862851988335364917e-01,-5.981055546255779065e-01,-5.378170227202314635e-01,5.941553631825615689e-01,9.419386521674257438e+02
3.524936027406478711e+00,1.237566810845656562e+01,1.073100246288464454e+00,-6.346514912460601288e-01,-6.050172572290425377e-01,4.808010015736621234e-01,9.461633760478232489e+02
3.552879963906041105e+00,1.225028067268272380e+01,1.125356520514413150e+00,-6.593289886055812010e-01,-6.609032412206414797e-01,3.584552838614170067e-01,9.487435166074565132e+02
3.596892833912328502e+00,1.204104863312450391e+01,1.209650231778182761e+00,-7.814402461123336474e-01,-6.063517299312575215e-01,1.472641211083395296e-01,9.529682404878540183e+02
3.638836124526246163e+00,1.182788762732268850e+01,1.292645005090270471e+00,-8.547201924725544853e-01,-5.139099955493434679e-01,-7.312939938724681566e-02,9.571929643682515234e+02
3.678737774517589099e+00,1.161088645884550985e+01,1.374315655726559449e+00,-8.745896541015831804e-01,-3.893546199183322010e-01,-2.889531396045792455e-01,9.614176882486490285e+02
3.716625962713854037e+00,1.139013327935782804e+01,1.454640473281159974e+00,-8.398070165229060136e-01,-2.404689262566683805e-01,-4.867205260768198705e-01,9.656424121290465337e+02
3.752527258529060994e+00,1.116571596563791502e+01,1.533604108845816993e+00,-7.525458085038811973e-01,-7.655660800218923312e-02,-6.540733077225140413e-01,9.698671360094440388e+02
3.772134269492616543e+00,1.103564900774618884e+01,1.577885840974429632e+00,-6.182588798906563099e-01,9.213964664848886543e-02,-7.805538052898406409e-01,9.722779632674273671e+02
3.804967267367995287e+00,1.080427475351701005e+01,1.654110165423769319e+00,-6.640343090377386348e-01,2.851870382282876704e-01,-6.911763809968551886e-01,9.765026871478248722e+02
3.835866724337988920e+00,1.056945974675432076e+01,1.728939427696289721e+00,-6.783669808529179113e-01,4.647304809326162078e-01,-5.690710143570085755e-01,9.807274110282223774e+02
3.864860933324096859e+00,1.033128950530348433e+01,1.802360372547852529e+00,-6.605782399297228658e-01,6.222684198603775085e-01,-4.200195264228911984e-01,9.849521349086198825e+02
3.891980272784185679e+00,1.008985216228921367e+01,1.874359541111656702e+00,-6.115104017118080382e-01,7.503412803623574767e-01,-2.510796518697533397e-01,9.891768587890173876e+02
3.898900241196519900e+00,1.002489732984757786e+01,1.893108462315492568e+00,-5.334868685880704842e-01,8.428846766822147840e-01,-7.025085664119364026e-02,9.902990691568544435e+02
3.923898508814619657e+00,9.777328366649047808e+00,1.962266682823951003e+00,-5.680764132933301402e-01,8.228856973020601817e-01,-1.209619089472730759e-02,9.945237930372519486e+02
3.947079240374910203e+00,9.526706853338550829e+00,2.029971341822233821e+00,-5.998378571251175018e-01,7.987900927229980574e-01,4.611868304667214591e-02,9.987485169176494537e+02
3.968480050957593708e+00,9.273128454052148584e+00,2.096208417517361422e+00,-6.286130835987577825e-01,7.707178198279370784e-01,1.041039544255615984e-01,1.002973240798046959e+03
3.988140172884605317e+00,9.016687792125864576e+00,2.160963959506356780e+00,-6.542588419740263950e-01,7.388086314814105160e-01,1.615709557633382976e-01,1.007197964678444464e+03
4.006096951000054140e+00,8.757484268435947072e+00,2.224225726829302197e+00,-6.766474602350376344e-01,7.032213808856955239e-01,2.182335996621945773e-01,1.011422688558841969e+03
4.022382492677705201e+00,8.495627971945127754e+00,2.285984825938703224e+00,-6.956674805598587197e-01,6.641332309104325260e-01,2.738098027657995814e-01,1.015647412439239474e+03
4.035349189520083257e+00,8.263776332791207935e+00,2.338822816299543028e+00,-7.112242141216650326e-01,6.217387723238129160e-01,3.280228898030577156e-01,1.019352225004376919e+03
4.048665947133260445e+00,7.996962033527636571e+00,2.397563018132346624e+00,-6.863988699039542674e-01,6.761606531788509900e-01,2.676963998379114362e-01,1.023576948884774424e+03
4.060402122373170997e+00,7.727822752741734469e+00,2.454780090921264257e+00,-6.566195601502121670e-01,7.257024425753627606e-01,2.054378691170016535e-01,1.027801672765172043e+03
4.070594169828182451e+00,7.456470983310340195e+00,2.510467067762532256e+00,-6.221012118252733369e-01,7.700065885610311023e-01,1.416966330483955261e-01,1.032026396645569548e+03
4.079280568172407584e+00,7.183018261673553617e+00,2.564617055976116777e+00,-5.830929529024865277e-01,8.087533392699806090e-01,7.693272706861103982e-02,1.036251120525967053e+03
4.086494290134397467e+00,6.907583136451961536e+00,2.617224863405672064e+00,-5.398763145865258517e-01,8.416630501623967309e-01,1.161356701329058216e-02,1.040475844406364558e+03
4.090935054738453758e+00,6.705429434699467173e+00,2.654459129784341176e+00,-4.927631998108038536e-01,8.684982019582120349e-01,-5.378942374028235218e-02,1.043555864160539841e+03
4.095914967605084556e+00,6.426413682805328875e+00,2.703996394672919301e+00,-5.363731946386994798e-01,8.422794841466373361e-01,-5.354499655499330574e-02,1.047780588040937346e+03
4.099465525045102865e+00,6.145790395977165588e+00,2.751989389418194154e+00,-5.785943413325125295e-01,8.138798424614356319e-01,-5.316192444231631481e-02,1.052005311921334851e+03
4.101606424740358747e+00,5.863699916555716207e+00,2.798438088629282117e+00,-6.193173198829339254e-01,7.833728112617039940e-01,-5.264119932603295027e-02,1.056230035801732356e+03
4.102359987835989763e+00,5.580282025696394754e+00,2.843342541659799050e+00,-6.584366891390183163e-01,7.508373808710088193e-01,-5.198416951268198388e-02,1.060454759682129861e+03
4.101745390056953156e+00,5.295681213812477139e+00,2.886705058475008467e+00,-6.958511597129094506e-01,7.163577931180147296e-01,-5.119253620111138131e-02,1.064679483562527366e+03
4.099773033244057174e+00,5.010052103416220426e+00,2.928532395408036226e+00,-7.314638561474235967e-01,6.800233232970824826e-01,-5.026834907945219866e-02,1.068904207442924871e+03
4.098882090939198974e+00,4.908166775011578054e+00,2.942870493640573848e+00,-7.651825676697256995e-01,6.419280491105499031e-01,-4.921400102082538336e-02,1.070406437877591088e+03
4.095847921476364561e+00,4.620833356951098203e+00,2.981695545810822967e+00,-7.308513696859764153e-01,6.825290898614818635e-01,2.883907059997751782e-03,1.074631161757988593e+03
4.091473133217594871e+00,4.332839633455146888e+00,3.019006801973250109e+00,-6.924703285348420279e-01,7.193480397270873850e-01,5.496582427971368617e-02,1.078855885638386098e+03
4.085772435583443496e+00,4.044344584993583069e+00,3.054813474662294137e+00,-6.502521232913724969e-01,7.521808792988885495e-01,1.067431542132958183e-01,1.083080609518783604e+03
4.078763560035481461e+00,3.755506815928882247e+00,3.089124849027978570e+00,-6.044306944188861941e-01,7.808456763308071480e-01,1.579289884694657919e-01,1.087305333399181109e+03
4.070463666054243923e+00,3.466487340006990880e+00,3.121952879365617051e+00,-5.552599476230748454e-01,8.051835936444873276e-01,2.082396962409027719e-01,1.091530057279578614e+03
4.060885821817850072e+00,3.177452460844098159e+00,3.153314785514342411e+00,-5.030123471388097123e-01,8.250597691247358867e-01,2.573964956962981332e-01,1.095754781159976119e+03
4.055622168372168268e+00,3.028657700691049559e+00,3.168729577869637826e+00,-4.479774062325255768e-01,8.403640629378061888e-01,3.051269985212999303e-01,1.097930474787374806e+03
4.044769842803565219e+00,2.739960957884953086e+00,3.197247222464308702e+00,-5.733912200555092431e-01,7.729973365712217159e-01,2.714693839418509946e-01,1.102155198667772311e+03
4.032678037647260183e+00,2.451666612370750009e+00,3.224348912684737112e+00,-6.865345805735787454e-01,6.890886457020655165e-01,2.320023880091110768e-01,1.106379922548169816e+03
4.019367546949048631e+00,2.163942729704086076e+00,3.250054725627913754e+00,-7.849862517653954930e-01,5.904336172567856700e-01,1.875705951186950882e-01,1.110604646428567321e+03
4.004862394038656959e+00,1.876956976628407769e+00,3.274384805500654139e+00,-8.666393950599693419e-01,4.791434435132069236e-01,1.391248341209321560e-01,1.114829370308964826e+03
3.989189828646116709e+00,1.590876572551215951e+00,3.297359362606887778e+00,-9.297466539486098913e-01,3.575997039599173033e-01,8.770183122299103629e-02,1.119054094189362331e+03
3.972380323734256091e+00,1.305868241055185175e+00,3.318998672332521327e+00,-9.729575463169595206e-01,2.284034013585604095e-01,3.440202484379530079e-02,1.123278818069759836e+03
3.954467572047429602e+00,1.022098161447373199e+00,3.339323074127920510e+00,-9.953473644490848926e-01,9.431930236724880845e-02,-1.963398293085923119e-02,1.127503541950157341e+03
3.938853206556559794e+00,7.871673051994623194e-01,3.355159879703727199e+00,-9.964369642559611773e-01,-4.178322646903861320e-02,-7.324983447476383913e-02,1.131018260572192730e+03
3.919265930267515241e+00,5.063083409228322784e-01,3.372926214403057621e+00,-9.843583167028175929e-01,-1.575399118843630319e-01,-7.885353828408833698e-02,1.135242984452590235e+03
3.898690398800477297e+00,2.271523793107358413e-01,3.389435587066322420e+00,-9.589151103421945654e-01,-2.711576615743889751e-01,-8.338665196245136080e-02,1.139467708332987741e+03
3.877168954281956736e+00,-5.013664641114646409e-02,3.404711603895126171e+00,-9.204527845923278218e-01,-3.810939233334414422e-01,-8.678763122139011854e-02,1.143692432213385246e+03
3.862898343063964290e+00,-2.287249534556199393e-01,3.413847763249091560e+00,-8.694935262356735528e-01,-4.858561248340794170e-01,-8.901030161493563020e-02,1.146432912737599963e+03
3.840453477498078527e+00,-5.019285377441061735e-01,3.426767414585653704e+00,-8.741937520013841612e-01,-4.544805339506367003e-01,-1.709699629190818970e-01,1.150657636617997468e+03
3.817171534866379279e+00,-7.728374471310678340e-01,3.438537545733197920e+00,-8.721417752057042394e-01,-4.195945794359150494e-01,-2.516090476276297561e-01,1.154882360498394974e+03
3.793095628941784536e+00,-1.041289141862546730e+00,3.449191057347664735e+00,-8.633534485021028271e-01,-3.814677158442915106e-01,-3.303047149635961466e-01,1.159107084378792479e+03
3.768268813126831152e+00,-1.307122931039473412e+00,3.458763858791559453e+00,-8.478966527582884050e-01,-3.403944286046837187e-01,-4.064491348437918594e-01,1.163331808259189984e+03
3.742730775108611851e+00,-1.570181118870411785e+00,3.467297821898970067e+00,-8.258907727389895870e-01,-2.966919597876988002e-01,-4.794541818577447989e-01,1.167556532139587489e+03
3.734947308073765626e+00,-1.649900444048425063e+00,3.469614249694176422e+00,-7.975057751915888282e-01,-2.506978582007226564e-01,-5.487559771231182992e-01,1.168850675330724926e+03
3.709700420346862870e+00,-1.907234616795392412e+00,3.476233585652256153e+00,-8.141937421916417561e-01,-3.048412251785448390e-01,-4.941238484483366777e-01,1.173075399211122431e+03
3.683856760810957365e+00,-2.161445941023975248e+00,3.481917671958689287e+00,-8.258380420301751901e-01,-3.570961881782499514e-01,-4.364307971743826009e-01,1.177300123091519936e+03
3.657458769538672438e+00,-2.412382326293378121e+00,3.486711547070584949e+00,-8.323665462314353558e-01,-4.071390537796918396e-01,-3.760342053591226863e-01,1.181524846971917441e+03
3.630543465877136722e+00,-2.659896947297152980e+00,3.490660373584414167e+00,-8.337388138867104503e-01,-4.546598306420546742e-01,-3.133082006860073432e-01,1.185749570852314946e+03
3.606760993035563079e+00,-2.872752250567919496e+00,3.493411320498867489e+00,-8.299463420901093125e-01,-4.993641491775588914e-01,-2.486413396137081289e-01,1.189435480108141292e+03
3.579195585968568238e+00,-3.113046670944911387e+00,3.495811062530965518e+00,-8.252910656838398085e-01,-5.176372503377864032e-01,-2.257085154481669742e-01,1.193660203988538797e+03
3.551220176048433874e+00,-3.349511520021681399e+00,3.497496117295280538e+00,-8.199083013716504942e-01,-5.354540536338157075e-01,-2.025767355093062994e-01,1.197884927868936302e+03
3.539719775293285409e+00,-3.445880119718256918e+00,3.497924981689711554e+00,-8.138027916121979288e-01,-5.527988615462811062e-01,-1.792663800535778951e-01,1.199635257361118420e+03
3.512197462367848910e+00,-3.674532460840432613e+00,3.498343140406062979e+00,-7.938301242543754910e-01,-5.851066854212955137e-01,-1.657766584539771271e-01,1.203859981241515925e+03
3.484327382430366882e+00,-3.899045616878292986e+00,3.498160282202891658e+00,-7.725677438654122708e-01,-6.164638905494911336e-01,-1.520176067892113625e-01,1.208084705121913430e+03
3.465288160359451197e+00,-4.049360330074912362e+00,3.497666915181713687e+00,-7.500501857501636893e-01,-6.468195455839297336e-01,-1.380115730400060525e-01,1.210967255010378949e+03
3.437352034105491505e+00,-4.265356700238626786e+00,3.496447995793310781e+00,-7.713173080579736052e-01,-6.217013649374626416e-01,-1.362168238436747003e-01,1.215191978890776454e+03
