3.489179558443055829e+00,-7.345445627643298891e+00,2.864606587657172021e+00,2.458663527626211986e-01,-8.824724102166122686e-01,-4.009865107285685570e-01,2.133174155364807802e+02
3.113250336900331483e+00,-8.067061831181854714e+00,4.008195048017903162e+00,2.769903783450893830e-01,-7.930486266398929507e-01,-5.425386678288248721e-01,2.175421394168783422e+02
2.618955012221395595e+00,-8.735549267293249542e+00,5.042930715646589235e+00,3.000810202976363916e-01,-6.806245437752895810e-01,-6.683559019478189089e-01,2.217668632972759042e+02
2.077284406700499630e+00,-9.282139673309483641e+00,5.862523928589954636e+00,3.144685965282473794e-01,-5.484607243905793572e-01,-7.747892201103225851e-01,2.259915871776734662e+02
1.531110576256817346e+00,-9.715655521389839677e+00,6.448577531914258643e+00,3.197358329423379275e-01,-4.003902270332416191e-01,-8.587518053719077615e-01,2.302163110580710281e+02
1.150651546091755684e+00,-9.980769200760763127e+00,6.745355501253858854e+00,3.157299653192483513e-01,-2.407074408746951444e-01,-9.178085404415899928e-01,2.332426390315659148e+02
6.581555473624813857e-01,-1.032898711886713983e+01,7.009839220683376837e+00,2.689841462483154033e-01,-1.556915865390408604e-01,-9.504765430810956373e-01,2.374673629119634768e+02
2.358225603930212133e-01,-1.069573228883010785e+01,7.110222874459829256e+00,2.194193591318371050e-01,-6.904408646075406442e-02,-9.731834662397794711e-01,2.416920867923610388e+02
-9.019727239656120943e-02,-1.113099015251753343e+01,7.072086308756594164e+00,1.675550431618173242e-01,1.832699443982590409e-02,-9.856913455972767801e-01,2.459168106727586007e+02
-2.944785594114857630e-01,-1.168554738485097566e+01,6.921016221711066230e+00,1.139347354844663096e-01,1.055060089884359426e-01,-9.878690996872349084e-01,2.501415345531561627e+02
-3.709540256559432092e-01,-1.238937629862684631e+01,6.682066342462458231e+00,5.912037558487608091e-02,1.915793226128233717e-01,-9.796939033888043546e-01,2.543662584335537247e+02
-3.740448174425972661e-01,-1.258688139254724270e+01,6.612438143020436421e+00,3.686416877276810309e-03,2.756448871322980110e-01,-9.612514273214057825e-01,2.554184293606945744e+02
-3.533675334357003761e-01,-1.344679935112810831e+01,6.306880108391361262e+00,1.724173405189440011e-02,3.574315779474577792e-01,-9.337790904125160552e-01,2.596431532410921363e+02
-2.984136780686565404e-01,-1.439750337636634470e+01,5.966708057537415399e+00,3.066553603799265088e-02,4.364919230613867884e-01,-8.991843114737918530e-01,2.638678771214896983e+02
-2.582889224511248916e-01,-1.540119789296486452e+01,5.615369640727511324e+00,4.385543354198207650e-02,5.122228951362957083e-01,-8.577309640242828381e-01,2.680926010018872603e+02
-2.815321510543526973e-01,-1.641860877847762623e+01,5.276313057847583643e+00,5.671082140073761824e-02,5.840468610599438559e-01,-8.097352325427316089e-01,2.723173248822848223e+02
-3.944647045460651924e-01,-1.740984849975142978e+01,4.961798807118116272e+00,6.913364581329074776e-02,6.514159870444693468e-01,-7.555632010879377303e-01,2.765420487626823842e+02
-5.772765196406595134e-01,-1.832638008911406047e+01,4.665029529058715596e+00,8.102915212158347258e-02,7.138164165481408752e-01,-6.956280615180758797e-01,2.807204880425874762e+02
-7.945205986119145969e-01,-1.915155842329906832e+01,4.358244548849459221e+00,8.380528786398262764e-02,7.718959751014370374e-01,-6.301993949120716643e-01,2.849452119229850382e+02
-1.004394794067065666e+00,-1.983909829120061019e+01,4.023515295764638289e+00,8.593931823810936621e-02,8.240613597144152980e-01,-5.599422372047424545e-01,2.891699358033826002e+02
-1.166128849050439564e+00,-2.035424372786642522e+01,3.639540770656657376e+00,8.741489303096171282e-02,8.699128926427153186e-01,-4.853948863450249229e-01,2.933946596837801621e+02
-1.238438404460258768e+00,-2.066345532617759062e+01,3.185022409383738040e+00,8.822070685033882309e-02,9.090992705698508480e-01,-4.071285093575777170e-01,2.976193835641777241e+02
-1.179535055868000448e+00,-2.073441880197394127e+01,2.638665137102212732e+00,8.835058572404387578e-02,9.413202558081034121e-01,-3.257427666227487584e-01,3.018441074445752861e+02
-9.471364617384577800e-01,-2.053605343881391221e+01,1.979178422434608509e+00,8.780353439785956726e-02,9.663289763852732639e-01,-2.418612179427363507e-01,3.060688313249728481e+02
-7.723201987202268359e-01,-2.033605117561971198e+01,1.623818045419851641e+00,8.658374397036341930e-02,9.839338174153281491e-01,-1.561265455509358302e-01,3.080890373362083210e+02
-2.420307269986235188e-01,-1.967603819086976102e+01,7.812905841775124038e-01,-2.185415857540776163e-02,9.983965728005704809e-01,5.219845949416124925e-02,3.123137612166058830e+02
5.322002846368253381e-01,-1.871770259024092553e+01,-1.940633265596813095e-01,-1.290820574325637349e-01,9.575807349526653800e-01,2.576333800131246909e-01,3.165384850970034449e+02
1.483976335850160089e+00,-1.756191844758160059e+01,-1.224394619441943055e+00,-2.291630241804640811e-01,8.637461653485467572e-01,4.488038215018078092e-01,3.207632089774010069e+02
2.508759357663362000e+00,-1.635012704498125302e+01,-2.198812240439968591e+00,-3.165558364826721593e-01,7.220882368440652010e-01,6.151251747414242521e-01,3.249879328577985689e+02
3.517235702777963713e+00,-1.519151798447224344e+01,-3.037110289820780906e+00,-3.864217822910834821e-01,5.404501796467323649e-01,7.473886602640542609e-01,3.292126567381961308e+02
4.453189438331517813e+00,-1.413468053632769639e+01,-3.720454378794491923e+00,-4.348925676235936844e-01,3.288888205278368004e-01,8.382711961877841178e-01,3.334373806185936928e+02
4.941767537555992185e+00,-1.359069566170969345e+01,-4.047916130592864370e+00,-4.592844940712473290e-01,9.911776000739877523e-02,8.827408584388759527e-01,3.358241066674566468e+02
5.704471645882332353e+00,-1.273537264990062390e+01,-4.533129230271127241e+00,-4.588189618959936378e-01,6.213071577579099003e-02,8.863537298149726240e-01,3.400488305478542088e+02
6.292669296861237882e+00,-1.202590640855185278e+01,-4.893810817263952728e+00,-4.577196570605114867e-01,2.505785701145838568e-02,8.887422682294375820e-01,3.442735544282517708e+02
6.666142635971890940e+00,-1.147728385878677848e+01,-5.141833031029418244e+00,-4.559880982673516492e-01,-1.204960997870582057e-02,8.899031751450104943e-01,3.484982783086493328e+02
6.784418702597581508e+00,-1.110329335494337677e+01,-5.289073584217683255e+00,-4.536266773565530430e-01,-4.914043114992886624e-02,8.898348473801981351e-01,3.527230021890468947e+02
6.606779333212590366e+00,-1.091652023195726784e+01,-5.347415174632099699e+00,-4.506386560010126607e-01,-8.616337546427010885e-02,8.885373793158125588e-01,3.569477260694444567e+02
6.092271092451565728e+00,-1.092834247115148294e+01,-5.328744897021255866e+00,-4.470281612044815778e-01,-1.230673056031042628e-01,8.860125627646487922e-01,3.611724499498420187e+02
5.785398984153023783e+00,-1.099377800625625312e+01,-5.303128102041055669e+00,-4.428001796070338836e-01,-1.598012485506734026e-01,8.822638845019296072e-01,3.629244871571564772e+02
4.791027895351495758e+00,-1.130502212653021488e+01,-5.206670235046861883e+00,-3.343129599858278289e-01,-6.863742398669168965e-02,9.399583761074681298e-01,3.671492110375540392e+02
3.359976707191002721e+00,-1.183800066864434797e+01,-5.061918634486658242e+00,-2.179998075533341462e-01,2.413313059958342721e-02,9.756493611512402353e-01,3.713739349179516012e+02
1.535638758147999106e+00,-1.255589695862349409e+01,-4.880557430451629486e+00,-9.658349865024434822e-02,1.163387485438438784e-01,9.885013522380304840e-01,3.755986587983491631e+02
-4.677661849385048587e-01,-1.333604977181896523e+01,-4.673846011737525785e+00,2.709373177722363898e-02,2.058209885452272070e-01,9.782134993820883473e-01,3.798233826787467251e+02
-2.348999197744763734e+00,-1.401920003105099966e+01,-4.452831744135429481e+00,1.501367236318066900e-01,2.904851612057733901e-01,9.450266320781985918e-01,3.840481065591442871e+02
-3.896119305254783338e+00,-1.450614620591116299e+01,-4.224334612277231393e+00,2.696651638779237747e-01,3.683493631418598979e-01,8.897176215318881587e-01,3.882728304395418490e+02
-5.079164413469391626e+00,-1.480490461843830907e+01,-3.986718795296631868e+00,3.828810111669091465e-01,4.375908709350056491e-01,8.135811950646315571e-01,3.924975543199394110e+02
-5.960079423173551660e+00,-1.497428566032194297e+01,-3.734120834756071705e+00,4.871339946736552018e-01,4.965888089831236307e-01,7.183996283591792542e-01,3.967222782003369730e+02
-5.972464692095791783e+00,-1.497626740391958577e+01,-3.729774542337613408e+00,5.799836540013147967e-01,5.439620925069417190e-01,6.064010249062017355e-01,3.967924797770085661e+02
-6.614446877534896352e+00,-1.507340790944660291e+01,-3.456272694084812525e+00,5.875761396350954735e-01,5.925070010880318927e-01,5.510787001798835849e-01,4.010172036574061281e+02
-7.081628254245309506e+00,-1.515385689093995758e+01,-3.155966893762118364e+00,5.919517484699243770e-01,6.378080294909892478e-01,4.927393276359612329e-01,4.052419275378036900e+02
-7.438301394185002025e+00,-1.527057412737969067e+01,-2.822996788848553429e+00,5.930865266306859507e-01,6.796171675082721686e-01,4.317023020047247028e-01,4.094666514182012520e+02
-7.749504513830683727e+00,-1.547455484152941807e+01,-2.451503641887161855e+00,5.909742622565568038e-01,7.177055216113106262e-01,3.683017860368764107e-01,4.136913752985988140e+02
-8.062110103226187263e+00,-1.578103587588861600e+01,-2.042036748440525962e+00,5.856265194657883644e-01,7.518645678335915683e-01,3.028848813224508940e-01,4.179160991789963759e+02
-8.385249040673629750e+00,-1.613647191867424269e+01,-1.607959537926459070e+00,5.770725750551956024e-01,7.819072931930566295e-01,2.358097283180735082e-01,4.221408230593939379e+02
-8.568032950870875908e+00,-1.632669542481344394e+01,-1.360148981395830736e+00,5.653592582797670740e-01,8.076692194147953030e-01,1.674435459663743964e-01,4.245132310070253538e+02
-8.886781730804862889e+00,-1.658071197131255659e+01,-9.270722716403126951e-01,6.070565412424561158e-01,7.815950893228955643e-01,1.434903204978298652e-01,4.287379548874229158e+02
-9.185995287971154610e+00,-1.666050548936556908e+01,-5.200292685350763611e-01,6.469373280877087629e-01,7.531822094487495844e-01,1.191077364921201004e-01,4.329626787678204778e+02
-9.451659073646844433e+00,-1.647959836552674062e+01,-1.587894038789997575e-01,6.848822912065201107e-01,7.225155958302349468e-01,9.436874996216604305e-02,4.371874026482180398e+02
-9.668477986336121432e+00,-1.595190714558131084e+01,1.368801576922001328e-01,7.207778943872208410e-01,6.896870068475510207e-01,6.934738310751258072e-02,4.414121265286156017e+02
-9.754391982578464848e+00,-1.554251664948255929e+01,2.554770421780362399e-01,7.545167323164179152e-01,6.547946688431457440e-01,4.411850296984699132e-02,4.434706400513396716e+02
-9.877677897987751976e+00,-1.432619632989836411e+01,4.319103168470463383e-01,8.918362198103992888e-01,4.449229931583387754e-01,8.166815287321800565e-02,4.476953639317372335e+02
-9.917163824980377740e+00,-1.264468842191015518e+01,4.997505080145060452e-01,9.717991678872882622e-01,2.064370214696046313e-01,1.139654924117859680e-01,4.519200878121347955e+02
-9.881257645255697497e+00,-1.069497305036140489e+01,4.576277586633571426e-01,9.892629134400354740e-01,-4.532552133542964296e-02,1.389333840662967112e-01,4.561448116925323575e+02
-9.790486280281221809e+00,-8.767543800652104480e+00,3.103051270665187489e-01,9.431043080971109882e-01,-2.941730469162690542e-01,1.549660689216019738e-01,4.603695355729299195e+02
-9.663471343517848311e+00,-7.073744296503789997e+00,6.526316469784866625e-02,8.362919538858269997e-01,-5.241014419544011149e-01,1.610324389915771537e-01,4.645942594533274814e+02
-9.509198737142909863e+00,-5.667488559458424113e+00,-2.645881670103747973e-01,6.756952782544335401e-01,-7.203233485010489545e-01,1.567423508482806982e-01,4.688189833337250434e+02
-9.344673339672425527e+00,-4.602052365025361524e+00,-6.322354878624206753e-01,4.716427305467419395e-01,-8.702191846321053470e-01,1.423717156646762960e-01,4.727377794290534894e+02
-9.146945441669179999e+00,-3.687224679218436219e+00,-1.080017260493633557e+00,4.879156356404057426e-01,-8.479173062464174793e-01,2.072982736672235038e-01,4.769625033094510513e+02
-8.930384950283057677e+00,-2.987486894311125685e+00,-1.566851694201408352e+00,5.017598664523627017e-01,-8.213947963321612811e-01,2.711929663103946897e-01,4.811872271898486133e+02
-8.697121162413358419e+00,-2.478030333249086503e+00,-2.077104535862202450e+00,5.131065123779124937e-01,-7.907836752268520009e-01,3.337377502624497283e-01,4.854119510702461753e+02
-8.448914034673153495e+00,-2.134025568777069282e+00,-2.595140372121495176e+00,5.218990947025453631e-01,-7.562363143965946666e-01,3.946213016763303050e-01,4.896366749506437372e+02
-8.187154138824009664e+00,-1.930628588697741899e+00,-3.105323402614397210e+00,5.280938476873409115e-01,-7.179246779957624280e-01,4.535405657266881607e-01,4.938613988310412992e+02
-7.912862653797861689e+00,-1.842986961286291026e+00,-3.592018213935843640e+00,5.316599363864463745e-01,-6.760394669270206602e-01,5.102022649879220939e-01,4.980861227114388612e+02
-7.626691393295025989e+00,-1.846246000506528873e+00,-4.039590554433164726e+00,5.325796101137151295e-01,-6.307891696601762854e-01,5.643243591505939794e-01,5.023108465918364232e+02
-7.328922870537607714e+00,-1.915554930673062151e+00,-4.432408107730511304e+00,5.308482907954600316e-01,-5.823990245317314240e-01,6.156374488155683666e-01,5.065355704722339851e+02
-7.019470400699163726e+00,-2.026073049969705497e+00,-4.754841265535746153e+00,5.264745957697196665e-01,-5.311098986866931160e-01,6.638861163830320766e-01,5.107602943526315471e+02
-6.697878240192496335e+00,-2.152975892220428733e+00,-4.991263900861236280e+00,5.194802949180464813e-01,-4.771770892383437324e-01,7.088301973659056898e-01,5.149850182330291091e+02
-6.426600349563101666e+00,-2.251376819315009659e+00,-5.112646609994905056e+00,5.099002023420459162e-01,-4.208690526082729533e-01,7.502459758025523673e-01,5.184288607475059507e+02
-6.081565354423571712e+00,-2.343399800779097042e+00,-5.159861838231369013e+00,5.770248844109693298e-01,-5.759598385130189069e-01,5.790600549088240623e-01,5.226535846279034558e+02
-5.704821231505706081e+00,-2.190225434017762041e+00,-5.066165596036440455e+00,6.107608207734831485e-01,-6.977234911937150175e-01,3.743676663990678777e-01,5.268783085083009610e+02
-5.271922483101137757e+00,-1.654054003232362513e+00,-4.801233666363744490e+00,6.091559430485571358e-01,-7.791143585629412005e-01,1.480130174346110383e-01,5.311030323886984661e+02
-5.027534244097322969e+00,-1.258929331489529346e+00,-4.572667678570278227e+00,5.723031038711435814e-01,-8.154228732898426424e-01,-8.690624267182305018e-02,5.335538792580680365e+02
-4.807390337499961142e+00,-5.302290763127199824e-01,-4.099674414106849518e+00,4.993847925413328892e-01,-8.635826645825140924e-01,-6.955437015903376263e-02,5.377786031384655416e+02
-4.778362048453008271e+00,3.123032533708267056e-01,-3.629644614531720936e+00,4.225026089583949762e-01,-9.048877170590312602e-01,-5.165041080543360946e-02,5.420033270188630468e+02
-4.691613392330536314e+00,1.247728418064062872e+00,-3.333855952478560702e+00,3.422667917553604555e-01,-9.390101824593277691e-01,-3.333647396464791551e-02,5.462280508992605519e+02
-4.416115980844267597e+00,2.160039286667967851e+00,-3.304331528108594096e+00,2.593141959520327555e-01,-9.656792176954536178e-01,-1.475792281073365873e-02,5.500948565851313106e+02
-3.883599018449294782e+00,3.178610656422943048e+00,-3.509603316933076034e+00,1.624651551104891734e-01,-9.801244587287848420e-01,1.138381253233034379e-01,5.543195804655288157e+02
-3.166502666301022284e+00,4.176906962315715788e+00,-3.874116977980031074e+00,6.137165082511011199e-02,-9.689635594069239133e-01,2.394601031844083294e-01,5.585443043459263208e+02
-2.329202434176518288e+00,5.112699617709596467e+00,-4.300605122463637464e+00,-4.132520957124896643e-02,-9.324881047464180783e-01,3.588260881833537641e-01,5.627690282263238259e+02
-1.436659957869516058e+00,5.945721140601808230e+00,-4.691797293016958470e+00,-1.429424310721916502e-01,-8.716510315120450381e-01,4.688175985005375579e-01,5.669937521067213311e+02
-5.544066741806484844e-01,6.637674683285717414e+00,-4.950424777052084835e+00,-2.408252249648989984e-01,-7.880417321486644644e-01,5.665610641523004531e-01,5.712184759871188362e+02
2.639179051015286270e-01,7.169312213466753292e+00,-5.021582824969898162e+00,-3.324163658286500289e-01,-6.838445313620186150e-01,6.495028996518558140e-01,5.754431998675163413e+02
9.893636071457020398e-01,7.557005637945178655e+00,-4.935090772028689621e+00,-4.153229996814239433e-01,-5.617816201445754443e-01,7.154762170778072861e-01,5.796679237479138465e+02
1.605738735802721084e+00,7.834920102667258135e+00,-4.763133157885074631e+00,-4.873791579750329506e-01,-4.250419380296087679e-01,7.627574367308123104e-01,5.838926476283113516e+02
1.939406735175743357e+00,7.967977063691277451e+00,-4.639708488518728302e+00,-5.467023442983838244e-01,-2.771978614186701995e-01,7.901113164384545584e-01,5.865778203509069044e+02
2.360505952876698732e+00,8.137151326988549371e+00,-4.482320843317090464e+00,-5.087733076969553903e-01,-2.338978547677282860e-01,8.285164542162831713e-01,5.908025442313044095e+02
2.632159998947392499e+00,8.288632686555919449e+00,-4.429727171781920880e+00,-4.684080368626631907e-01,-1.894778465985659799e-01,8.629542610405041003e-01,5.950272681117019147e+02
2.739962477448113276e+00,8.458239149125947876e+00,-4.554110296410006420e+00,-4.257998143428176063e-01,-1.441505341744482860e-01,8.932598399122012589e-01,5.992519919920994198e+02
2.681386354973944730e+00,8.672869468599074594e+00,-4.896191147265927412e+00,-3.811526614453041306e-01,-9.813295863611848358e-02,9.192880784060331045e-01,6.034767158724969249e+02
2.601600917409637503e+00,8.798820846623701897e+00,-5.134345219688408513e+00,-3.346803617002132025e-01,-5.164546614554858112e-02,9.409143432403875851e-01,6.055587724482752492e+02
2.360209347131545066e+00,9.093760958739343536e+00,-5.718697990248395868e+00,-2.998592875154559856e-01,-5.866578441661421395e-02,9.521768393669015618e-01,6.097834963286727543e+02
2.020713466106395906e+00,9.438406309611627520e+00,-6.418447044584409511e+00,-2.646218223481084930e-01,-6.560463609475337965e-02,9.621171045446627046e-01,6.140082202090702594e+02
1.614994066839021913e+00,9.829383310896275816e+00,-7.179924695513403954e+00,-2.290168971113292484e-01,-7.245238592023589552e-02,9.707213362285896929e-01,6.182329440894677646e+02
1.174861735768073512e+00,1.026235583564473508e+01,-7.949460197217688595e+00,-1.930939528828670981e-01,-7.919952513637139313e-02,9.779775869495930252e-01,6.224576679698652697e+02
7.320488679221279771e-01,1.073202651807684127e+01,-8.673382401052048607e+00,-1.569028722728575687e-01,-8.583668468867612644e-02,9.838757808949784023e-01,6.266823918502627748e+02
3.182016897064178784e-01,1.123213814877902195e+01,-9.298022411547799848e+00,-1.204939101795004519e-01,-9.235464823017359992e-02,9.884077278924059407e-01,6.309071157306602800e+02
-3.512770993741237691e-02,1.175547516535588244e+01,-9.769716242410357410e+00,-8.391762402852401270e-02,-9.874436491484329947e-02,9.915671347782759604e-01,6.351318396110577851e+02
-2.964893392126276006e-01,1.229386523823366772e+01,-1.003480747201772694e+01,-4.722480359298073666e-02,-1.049969619615131744e-01,9.933496141348127084e-01,6.393565634914552902e+02
-4.345432535514598960e-01,1.283818095140823168e+01,-1.003964989850647882e+01,-1.046640049049813760e-02,-1.111037569708064610e-01,9.937526903837430314e-01,6.435812873718527953e+02
-4.510191843410069623e-01,1.298992405544795403e+01,-9.995849133413241105e+00,2.630654254444705908e-02,-1.170562699780926391e-01,9.927758032280890044e-01,6.447593772604591322e+02
-4.599783624646673341e-01,1.324363563647963105e+01,-9.889839082050830399e+00,-4.625706060805126474e-02,-1.189003148233691159e-01,9.918271015926772849e-01,6.467409287698892513e+02
-3.435023060200175227e-01,1.377166256325665294e+01,-9.463813943269025586e+00,-1.408227439232506983e-01,-2.545912292494739160e-01,9.567393902122310889e-01,6.509656526502867564e+02
-4.279710544734741107e-02,1.427361081393312858e+01,-8.781806728404356832e+00,-2.313628811126096640e-01,-3.830044226396063234e-01,8.943024261860730295e-01,6.551903765306842615e+02
3.901997627662048274e-01,1.473968954103628626e+01,-7.929643004580201548e+00,-3.152893014930951976e-01,-5.004690892619723108e-01,8.063010275683816230e-01,6.594151004110817667e+02
9.034435408698268111e-01,1.516168709957545957e+01,-6.993156755538532998e+00,-3.902028937770591344e-01,-6.036273973525293490e-01,6.952507942131209706e-01,6.636398242914792718e+02
1.444795324599768671e+00,1.553297260239275346e+01,-6.058186133894967185e+00,-4.539621866518706028e-01,-6.895304754905079436e-01,5.643261968583870303e-01,6.678645481718767769e+02
1.962035206198574411e+00,1.584849731828873409e+01,-5.210569213284184542e+00,-5.047445644374686236e-01,-7.557227084084112700e-01,4.172698319639876474e-01,6.720892720522742820e+02
2.402875425108894625e+00,1.610479591290714652e+01,-4.536139740637727513e+00,-5.410983679733518681e-01,-8.003119326481759055e-01,2.582854363646605034e-01,6.763139959326717872e+02
2.757589750048857979e+00,1.630988463571857494e+01,-4.061975633258957608e+00,-5.619843914389349715e-01,-8.220235255352933423e-01,9.191771997876746481e-02,6.805387198130692923e+02
2.888271550247604402e+00,1.638343241244474058e+01,-3.910519613318614418e+00,-5.668055889233153399e-01,-8.202368413431773142e-01,-7.707754841201162888e-02,6.822554503958920122e+02
3.260134761506455092e+00,1.656559517236228984e+01,-3.534343280708254653e+00,-8.256976780034229746e-01,-3.839183293384334505e-01,4.133135141008110192e-01,6.864801742762895174e+02
3.325941200418408794e+00,1.659469198740357143e+01,-3.473609215024328734e+00,-6.734886325141317132e-01,2.435467442888717415e-01,6.979226642121726387e-01,6.871365691795111843e+02
3.805012259872025293e+00,1.683467396532054394e+01,-3.050900475652885913e+00,-7.004904181747744207e-01,1.985480023472469269e-01,6.854851309859117947e-01,6.913612930599086894e+02
4.319416192957762135e+00,1.725258805989447097e+01,-2.632254577681824248e+00,-7.254546945925715029e-01,1.529717588483939794e-01,6.710537438104910990e-01,6.955860169403061946e+02
4.731289221369270770e+00,1.799988261769518871e+01,-2.344871254287675733e+00,-7.483088555963536281e-01,1.069505694434926962e-01,6.546704761368974390e-01,6.998107408207036997e+02
4.767942793171132010e+00,1.810819914556487120e+01,-2.323727068316159272e+00,-7.689864305831911606e-01,6.061828355136500424e-02,6.363829768868444203e-01,7.002871871487596991e+02
4.986846890304651225e+00,1.922783362617030178e+01,-2.249993694573868108e+00,-7.588985747513141700e-01,8.983492226433312244e-03,6.511453371584895455e-01,7.045119110291572042e+02
5.021529245343869796e+00,2.049481739171282868e+01,-2.369570484987800096e+00,-7.465447650290467640e-01,-4.267811004431432131e-02,6.639634724337887262e-01,7.087366349095547093e+02
4.916992751522541560e+00,2.160522334006178014e+01,-2.623903884527373886e+00,-7.319618871816702121e-01,-9.421227764681142092e-02,6.747991126621438740e-01,7.129613587899522145e+02
4.698788024214458403e+00,2.235405049192640803e+01,-2.963740952569505094e+00,-7.151934812029080435e-01,-1.454651455033431906e-01,6.836199060033089081e-01,7.171860826703497196e+02
4.469627088444147134e+00,2.265275846204804466e+01,-3.246772146296017958e+00,-6.962896113999156311e-01,-1.962836881759339736e-01,6.903995153588353695e-01,7.202712785080751701e+02
4.041671603050092543e+00,2.280430523164080370e+01,-3.663615332569342353e+00,-6.243718113963235838e-01,-1.463448984560851152e-01,7.672946056293958872e-01,7.244960023884726752e+02
3.456807093008783749e+00,2.275447115429289369e+01,-4.098398012641372823e+00,-5.439757268802480894e-01,-9.441891314393460743e-02,8.337706383678650246e-01,7.287207262688701803e+02
2.696035736716719811e+00,2.259965225649007436e+01,-4.529780053891237834e+00,-4.561930344477839183e-01,-4.121081990378755444e-02,8.889249595115380487e-01,7.329454501492676854e+02
2.412646029056846331e+00,2.254026818055909231e+01,-4.667563249733276187e+00,-3.622157060182547017e-01,1.255688512305805707e-02,9.320086410263348498e-01,7.343277757035457398e+02
1.513035533640131991e+00,2.239940916394518311e+01,-5.030006508811013965e+00,-2.749547075436860055e-01,-1.667610174292172981e-02,9.613115085276808802e-01,7.385524995839432449e+02
6.647907287117486019e-01,2.238712468157556401e+01,-5.229602777453243867e+00,-1.851290275160178689e-01,-4.575353193006617691e-02,9.816475220182366845e-01,7.427772234643407501e+02
5.413828439484270200e-02,2.260078455425215793e+01,-5.162302268529432858e+00,-9.357651410842121598e-02,-7.440418630034006942e-02,9.928270005725124969e-01,7.470019473447382552e+02
-1.837246249196242132e-01,2.295882019895298143e+01,-4.901008307949060061e+00,-1.151121366034695134e-03,-1.023608261183361207e-01,9.947456640735411471e-01,7.502232324820287204e+02
-2.066284695326524312e-01,2.365848032150866942e+01,-4.306576772276894616e+00,-1.673194503285802600e-03,-2.675840796551693379e-01,9.635320237208037097e-01,7.544479563624262255e+02
3.724451568920188194e-02,2.454185870611048870e+01,-3.479850877935414033e+00,-2.147960880366644142e-03,-4.252418513254130339e-01,9.050761040628357845e-01,7.586726802428237306e+02
4.566461952023245785e-01,2.553584875871982973e+01,-2.499508819753596622e+00,-2.561997237368795512e-03,-5.708766219120167129e-01,8.210306442055549381e-01,7.628974041232212357e+02
9.593036138466388696e-01,2.657016614887206529e+01,-1.444236393907836202e+00,-2.903597353686493670e-03,-7.003708011743676742e-01,7.137718893209955562e-01,7.671221280036187409e+02
1.451942611803991534e+00,2.757736553633631260e+01,-3.927231040442127341e-01,-3.163103029605401472e-03,-8.100631481458722138e-01,5.863324064004261649e-01,7.713468518840162460e+02
1.840311538047677331e+00,2.849285701313131725e+01,5.763417329317956916e-01,-3.333177161864476785e-03,-8.968522886951738604e-01,4.423153424790662314e-01,7.755715757644137511e+02
2.058656997058849303e+00,2.927208188396980404e+01,1.407774481439796110e+00,-3.409011190933254436e-03,-9.582844030505331956e-01,2.857925497856746433e-01,7.797962996448112563e+02
2.099536582754985226e+00,2.990648961221409508e+01,2.093401518382795867e+00,-3.388461054059629333e-03,-9.926226037375924793e-01,1.211894586224398079e-01,7.840210235252087614e+02
1.984883379095693234e+00,3.040458944962855981e+01,2.648558036580886288e+00,-3.272107800486857582e-03,-9.988960423193574689e-01,-4.684004643132396589e-02,7.882457474056062665e+02
1.736719979825374294e+00,3.077419228738633450e+01,3.088585684798748510e+00,-3.063241156192409234e-03,-9.769273567434110239e-01,-2.135452087977665336e-01,7.924704712860037716e+02
1.631513624754780567e+00,3.086999756005485551e+01,3.213933273093114718e+00,-2.767766504590998822e-03,-9.273376837124265304e-01,-3.742127200351068605e-01,7.938692576050638081e+02
1.259122540859854977e+00,3.108326953285133243e+01,3.541292747689968490e+00,2.460041403709631314e-02,-9.290149320387544041e-01,-3.692209036241990705e-01,7.980939814854613132e+02
8.049109391939777147e-01,3.118334308360953600e+01,3.789306531036497283e+00,5.194948171039803775e-02,-9.299705676869355342e-01,-3.639422956747926929e-01,8.023187053658588184e+02
2.911565271073743300e-01,3.117569369789499234e+01,3.973331881612647276e+00,7.925819445684925690e-02,-9.302038487138482026e-01,-3.583809962099759328e-01,8.065434292462563235e+02
-2.597990660240659389e-01,3.106509354179309312e+01,4.108729222510913104e+00,1.065053415780169710e-01,-9.297145941287643378e-01,-3.525413247754797252e-01,8.107681531266538286e+02
-8.255562121448833945e-01,3.085561050445717868e+01,4.210861381114627378e+00,1.336697601974387584e-01,-9.285031840296595895e-01,-3.464278170855382144e-01,8.149928770070513337e+02
-1.383663213148967452e+00,3.055060731154009801e+01,4.295092828686729369e+00,1.607303516854101944e-01,-9.265705593075591606e-01,-3.400452215023971880e-01,8.192176008874488389e+02
-1.911622234509964713e+00,3.015274070956833441e+01,4.376788919897326657e+00,1.876660980339700246e-01,-9.239182209163847581e-01,-3.333984953510690796e-01,8.234423247678463440e+02
-2.386895243637883191e+00,2.966396072131540862e+01,4.471315132318862240e+00,2.144560781694582197e-01,-9.205482287088599946e-01,-3.264928010721739882e-01,8.276670486482438491e+02
-2.780817367570184828e+00,2.909639552387940498e+01,4.591337651405481779e+00,2.410794841900733565e-01,-9.164631998393711898e-01,-3.193335022158311221e-01,8.318155236432169204e+02
-3.085471853884011129e+00,2.842972620387396532e+01,4.756493339469016313e+00,2.489419868514257950e-01,-8.711987881587870408e-01,-4.231294821841071752e-01,8.360402475236144255e+02
-3.270059866631587209e+00,2.767376159128481561e+01,4.980291501759709583e+00,2.535970416293820695e-01,-8.147095826581681743e-01,-5.214737159264558608e-01,8.402649714040119306e+02
-3.311942279131062872e+00,2.682763165781882009e+01,5.278090567189763327e+00,2.549846725257032265e-01,-7.477234087571855703e-01,-6.130991117053717909e-01,8.444896952844094358e+02
-3.188469411738304338e+00,2.588975700129893909e+01,5.665245299318849348e+00,2.530870014653733846e-01,-6.711033355687703317e-01,-6.968251449812651321e-01,8.487144191648069409e+02
-2.884548266068178268e+00,2.486239565395631601e+01,6.128938850021655504e+00,2.479284785721292406e-01,-5.858365562086637057e-01,-7.715730677796239778e-01,8.529391430452044460e+02
-2.400120011409124565e+00,2.375649730742465593e+01,6.600016207340353880e+00,2.395755671573816803e-01,-4.930216691228300196e-01,-8.363798069040401240e-01,8.571638669256019512e+02
-1.742466743466134949e+00,2.258761527743196851e+01,6.981154804088025578e+00,2.281358874804632619e-01,-3.938545242315231176e-01,-8.904103720116948173e-01,8.613885908059994563e+02
-1.013303154480035717e+00,2.149736717592391955e+01,7.171510831445616851e+00,2.137568303012525039e-01,-2.896128161545961643e-01,-9.329686137371038246e-01,8.651793028177307860e+02
-5.207177533229415123e-02,2.025132325568059599e+01,7.122362247817052072e+00,6.680502946643453177e-02,-1.741097509240714936e-01,-9.824565551064817770e-01,8.694040266981282912e+02
1.034221281142725823e+00,1.899586686550225068e+01,6.784564766509505240e+00,-8.264425880195687413e-02,-5.209761748707304047e-02,-9.952154363452562214e-01,8.736287505785257963e+02
2.153800799486011108e+00,1.777039679113030601e+01,6.310488500276727919e+00,-2.290038878305560577e-01,7.186217167328748379e-02,-9.707682770061997202e-01,8.778534744589233014e+02
3.186976699482089614e+00,1.662470255955999932e+01,5.935727792509694289e+00,-3.668022209295936364e-01,1.931353942748695873e-01,-9.100290381082016822e-01,8.820781983393208066e+02
4.048012880619342724e+00,1.559702710486644328e+01,5.823054061693229144e+00,-4.908876859462478204e-01,3.071882667248755916e-01,-8.152684518449327955e-01,8.863029222197183117e+02
4.718065273813330407e+00,1.469749995652057173e+01,5.989589739818032221e+00,-5.966213638498811811e-01,4.097569371877585187e-01,-6.900291302728513987e-01,8.905276461001158168e+02
4.888613958736375942e+00,1.445020262310336001e+01,6.081917105008255220e+00,-6.800504122720441025e-01,4.970068874288375294e-01,-5.389931266885957806e-01,8.918004599719630505e+02
5.359837164694117639e+00,1.370434892255347847e+01,6.492037095501325794e+00,-7.413402062707137308e-01,4.470996290694503328e-01,-5.005143556904410040e-01,8.960251838523605556e+02
5.673008010606384488e+00,1.307467490310198244e+01,7.053148571100714470e+00,-7.969010599002744888e-01,3.937372806754705357e-01,-4.581677144190722251e-01,9.002499077327580608e+02
5.842277243090710392e+00,1.255542519406709090e+01,7.709521700656212673e+00,-8.463036150061473695e-01,3.373322144608447148e-01,-4.122804486201568364e-01,9.044746316131555659e+02
5.881679757108827289e+00,1.214043747778934801e+01,8.405421934266597006e+00,-8.891661026194082051e-01,2.783203151248473950e-01,-3.632071642209269147e-01,9.086993554935530710e+02
5.805131279052893056e+00,1.182314460510252374e+01,9.085112761271391335e+00,-9.251572928226293735e-01,2.171576116827193537e-01,-3.113270872014117230e-01,9.129240793739505762e+02
5.626425063377635816e+00,1.159657675031047930e+01,9.692858468323192866e+00,-9.539990541603042828e-01,1.543167536829949948e-01,-2.570411332721893594e-01,9.171488032543480813e+02
5.359228602924789087e+00,1.145336360548072818e+01,1.017292689744839151e+01,-9.754685028340043251e-01,9.028335901953864207e-02,-2.007688099846616503e-01,9.213735271347455864e+02
5.067241614792058257e+00,1.139215200468829359e+01,1.044786178639407126e+01,-9.893997250845165681e-01,2.555226153641944678e-02,-1.429449751918161204e-01,9.250397566458357232e+02
4.674024579376134803e+00,1.138664393851298584e+01,1.054939296416422856e+01,-9.520625946044259935e-01,-6.866674482937450141e-02,-2.980934318467633459e-01,9.292644805262332284e+02
4.230817358142323847e+00,1.144112211120566869e+01,1.036346218053083668e+01,-8.820293661761223758e-01,-1.605275586941607990e-01,-4.430046276319250520e-01,9.334892044066307335e+02
3.750770233656266051e+00,1.154668829412340259e+01,9.834376761966565184e+00,-7.817051532931851288e-01,-2.468754673909281938e-01,-5.727019791445490116e-01,9.377139282870282386e+02
3.262425832291406369e+00,1.168273696016257368e+01,8.940121938773426535e+00,-6.545353241275265743e-01,-3.247450849639545445e-01,-6.827313814829980565e-01,9.419386521674257438e+02
2.825026545116612109e+00,1.180500831831410657e+01,7.726022861552772625e+00,-5.048871816228518439e-01,-3.914621876788377253e-01,-7.693141682376443136e-01,9.461633760478232489e+02
2.606278254106233927e+00,1.184846306635979296e+01,6.867397269936354576e+00,-3.378999847134875889e-01,-4.447355511612844370e-01,-8.294768772330406437e-01,9.487435166074565132e+02
2.386484715016601310e+00,1.182096352753798740e+01,5.333297507277708682e+00,-4.111508569271953850e-01,-4.087276365682871448e-01,-8.147973318267586196e-01,9.529682404878540183e+02
2.382225357244245334e+00,1.168606960599273847e+01,3.726778501269826460e+00,-4.815739174423511182e-01,-3.699085980566509946e-01,-7.945138080120486279e-01,9.571929643682515234e+02
2.585727331459588996e+00,1.156490118456093441e+01,2.250313309405850948e+00,-5.486848218625993701e-01,-3.285454208663255993e-01,-7.687658113393399661e-01,9.614176882486490285e+02
2.964415520879914112e+00,1.164020843142253270e+01,1.147518892158684745e+00,-6.120220050263629474e-01,-2.849225869241860387e-01,-7.377304282884994402e-01,9.656424121290465337e+02
3.463323358426117604e+00,1.201528943509550906e+01,5.691026443819031666e-01,-6.711498548863693570e-01,-2.393401186138609249e-01,-7.016211085098081890e-01,9.698671360094440388e+02
3.768950489909272950e+00,1.235495259144000890e+01,4.517848011828922705e-01,-7.256617080016564136e-01,-1.921115157255685324e-01,-6.606861971194033512e-01,9.722779632674273671e+02
4.238973361526386263e+00,1.306548622625397371e+01,5.184958090809529407e-01,-7.983267152772904884e-01,-1.584592799583626199e-01,-5.810018177843486731e-01,9.765026871478248722e+02
4.519602026661024397e+00,1.381371893613575175e+01,8.734099021311687583e-01,-8.608032251628079390e-01,-1.227847458268680469e-01,-4.939025346571144226e-01,9.807274110282223774e+02
4.477402244712375357e+00,1.447342596671819770e+01,1.388487483993261051e+00,-9.122939065439430451e-01,-8.554319776197939762e-02,-4.004999243428061240e-01,9.849521349086198825e+02
4.038654464678438138e+00,1.496707661788657617e+01,1.960539872995418431e+00,-9.521416264887827552e-01,-4.720991780387582409e-02,-3.019860042571680947e-01,9.891768587890173876e+02
3.864035724219454071e+00,1.507021248819435577e+01,2.114853475599296484e+00,-9.798378356540521361e-01,-8.274120835289822812e-03,-1.996180220917620207e-01,9.902990691568544435e+02
3.058031523742685387e+00,1.538837393898897865e+01,2.686566994600453562e+00,-9.286774211048859362e-01,-2.864306188253160634e-01,-2.356135567602257730e-01,9.945237930372519486e+02
2.044016277147478355e+00,1.562324895099976985e+01,3.225565464202117649e+00,-8.020301002210099561e-01,-5.413048774870180546e-01,-2.524574180884623931e-01,9.987485169176494537e+02
9.333994565446029901e-01,1.582629973870062123e+01,3.703235541913977968e+00,-6.101902805250359885e-01,-7.521795724253398374e-01,-2.487804501530907764e-01,1.002973240798046959e+03
-1.616939900784437056e-01,1.604557095448438631e+01,4.090966918804860519e+00,-3.687515479169626853e-01,-9.019138507136742477e-01,-2.248815283639803153e-01,1.007197964678444464e+03
-1.157719676554875399e+00,1.630924318266636774e+01,4.371635131221274229e+00,-9.733913363760647586e-02,-9.783366540925806376e-01,-1.827032685024544967e-01,1.011422688558841969e+03
-2.029332514076770178e+00,1.661037779523054425e+01,4.551083804115716447e+00,1.819853520259874791e-01,-9.752360474446042371e-01,-1.256741159219432191e-01,1.015647412439239474e+03
-2.696532330852527526e+00,1.688676869230265254e+01,4.639902348733293103e+00,4.465172188074957305e-01,-8.928641266726405901e-01,-5.842965522705598214e-02,1.019352225004376919e+03
-3.350704650041331778e+00,1.719380726182471975e+01,4.679286730565964447e+00,5.541291021525674987e-01,-8.123600014103271594e-01,-1.816870007918410246e-01,1.023576948884774424e+03
-3.893106020080026486e+00,1.747012479520856232e+01,4.667319378412231323e+00,6.433141491839622361e-01,-7.048419376949217607e-01,-2.989025733024031628e-01,1.027801672765172043e+03
-4.328762340707645428e+00,1.769227195126813257e+01,4.621339864915491091e+00,7.111066412797687475e-01,-5.738853039268680956e-01,-4.061785354560195627e-01,1.032026396645569548e+03
-4.663023864059684165e+00,1.783694582648165294e+01,4.558689443535905106e+00,7.552522355078069571e-01,-4.238448784185139262e-01,-4.999475770512466499e-01,1.036251120525967053e+03
-4.901563993329253854e+00,1.788099522412072417e+01,4.496710190278802699e+00,7.742829274688416419e-01,-2.597100410533582093e-01,-5.770915376322593993e-01,1.040475844406364558e+03
-5.021500650807807276e+00,1.783380056596126195e+01,4.460554414304497506e+00,7.675658679014716324e-01,-8.693886358687878679e-02,-6.350450948012433816e-01,1.043555864160539841e+03
-5.117359713000886323e+00,1.764064372855919061e+01,4.438339117977993631e+00,7.501292268330153057e-01,-1.848303796375240504e-01,-6.349345429361564763e-01,1.047780588040937346e+03
-5.134705287219244241e+00,1.728458074661678978e+01,4.464119711530432077e+00,7.252762006700378405e-01,-2.808944929430861603e-01,-6.285465110679078204e-01,1.052005311921334851e+03
-5.080404498256164025e+00,1.674307325770045907e+01,4.555233827995155416e+00,6.932525085720214753e-01,-3.741814429280478360e-01,-6.159441590978326220e-01,1.056230035801732356e+03
-4.948137534607926824e+00,1.599526794890795145e+01,4.719089829657850288e+00,6.543747624458543521e-01,-4.637689266313227421e-01,-5.972520849398826881e-01,1.060454759682129861e+03
-4.704863004960109230e+00,1.502296107777410761e+01,4.943240406541759668e+00,6.090273367779979186e-01,-5.487712164193372377e-01,-5.726550926051059420e-01,1.064679483562527366e+03
-4.304282511961140756e+00,1.380827051878080169e+01,5.205309227184059750e+00,5.576585687209957287e-01,-6.283479161488526588e-01,-5.423963652193328766e-01,1.068904207442924871e+03
-4.123471334255722098e+00,1.331578181211710721e+01,5.303616564486473450e+00,5.007763259732738170e-01,-7.017122692873581924e-01,-5.067750610239262210e-01,1.070406437877591088e+03
-3.475551616128051524e+00,1.174716851082605373e+01,5.579320120364380742e+00,5.713016933348685766e-01,-4.264922750580980582e-01,-7.012251525059735036e-01,1.074631161757988593e+03
-2.586188864961217693e+00,1.003865369894167436e+01,5.835679747962330133e+00,5.741100931193501289e-01,-1.007193605804028308e-01,-8.125584356710385814e-01,1.078855885638386098e+03
-1.533565429643769962e+00,8.461176696659672203e+00,6.048903198255383806e+00,5.088684307608646318e-01,2.369922635792844068e-01,-8.275781456607105291e-01,1.083080609518783604e+03
-5.250080082274597437e-01,7.124444966611918950e+00,6.215109389401861861e+00,3.833098044002707927e-01,5.466129532478776198e-01,-7.445037764773089206e-01,1.087305333399181109e+03
2.533451976262249827e-01,5.991876017656347919e+00,6.342170858620048257e+00,2.123169607204874465e-01,7.914426886338274958e-01,-5.731823259626609435e-01,1.091530057279578614e+03
7.646008654487652656e-01,5.039806736782836083e+00,6.437008119557482644e+00,1.615808754078976520e-02,9.424614935844840558e-01,-3.339210225729755677e-01,1.095754781159976119e+03
9.436011824239517454e-01,4.616029998178563076e+00,6.476164308511086709e+00,-1.819158069007331680e-01,9.817692366915211633e-01,-5.507998806705687034e-02,1.097930474787374806e+03
1.155650709150267019e+00,3.906628356132685109e+00,6.538275775170411919e+00,-2.006838865061186805e-01,9.444422680711581641e-01,-2.602936418317652323e-01,1.102155198667772311e+03
1.194624523224458557e+00,3.326790505227155581e+00,6.584374673134521849e+00,-2.106503173700554343e-01,8.656936853937114984e-01,-4.540912759147933131e-01,1.106379922548169816e+03
1.097271902727554593e+00,2.854459076432595666e+00,6.620908627097773724e+00,-2.113779874477544896e-01,7.489772585404222971e-01,-6.279732578799231968e-01,1.110604646428567321e+03
8.999819788935333742e-01,2.466483106835252403e+00,6.654325731705974079e+00,-2.028349807145830297e-01,5.994119639929534893e-01,-7.743134171774935792e-01,1.114829370308964826e+03
6.387747110575714427e-01,2.138624248596399102e+00,6.691074232379037312e+00,-1.853959775861444281e-01,4.235574774566562839e-01,-8.866935179563797398e-01,1.119054094189362331e+03
3.492918996192511116e-01,1.845563085560876226e+00,6.737602206144733152e+00,-1.598258225349289130e-01,2.291264782445616710e-01,-9.601847548355982864e-01,1.123278818069759836e+03
6.678823746068235367e-02,1.560905557063089422e+00,6.800357242502331978e+00,-1.272459794248533838e-01,2.464638306787558450e-02,-9.915639245768871346e-01,1.127503541950157341e+03
-1.399964387338338279e-01,1.310620656857914623e+00,6.868823990418785996e+00,-8.908534573686963109e-02,-1.809146544790134203e-01,-9.794547916928886266e-01,1.131018260572192730e+03
-3.230114229334155596e-01,9.675936874603476845e-01,6.976568525007217580e+00,-5.832661708731583239e-02,-2.476039691068147308e-01,-9.671030349542742988e-01,1.135242984452590235e+03
-4.014039863871974312e-01,5.524847090693930651e-01,7.118793932239035449e+00,-2.724440919126618066e-02,-3.129200198217918505e-01,-9.493875938513011148e-01,1.139467708332987741e+03
-3.665748451053162382e-01,4.503603053959150809e-02,7.276235138924755042e+00,3.988899185644264461e-03,-3.765005713497042161e-01,-9.264067187001341352e-01,1.143692432213385246e+03
-3.017622106118188485e-01,-3.364452048602895040e-01,7.361190296056468796e+00,3.520009143926821488e-02,-4.379930121198394866e-01,-8.982878574781205661e-01,1.146432912737599963e+03
-1.918237118160319998e-01,-9.956472986074219600e-01,7.386226775049726356e+00,1.302029303421478081e-02,-3.337791598134298710e-01,-9.425603134246828274e-01,1.150657636617997468e+03
-1.205997526979092627e-01,-1.726464249611372459e+00,7.196890216445185118e+00,-9.332834333648964281e-03,-2.251218778826702405e-01,-9.742848855964667543e-01,1.154882360498394974e+03
-1.545898205081503718e-01,-2.513758494421835632e+00,6.696808574637191924e+00,-3.156171577123421945e-02,-1.134676625445563553e-01,-9.930392477914150584e-01,1.159107084378792479e+03
-3.532755221010502877e-01,-3.327975898833104740e+00,5.878331725856455137e+00,-5.337043062701372909e-02,-3.029043789697969486e-04,-9.985737355766286516e-01,1.163331808259189984e+03
-7.620602998295769037e-01,-4.113023557362021521e+00,4.911238393498097210e+00,-7.446865156672836938e-02,1.128658974603148485e-01,-9.908146694130043342e-01,1.167556532139587489e+03
-9.278620697318400445e-01,-4.339212132029658164e+00,4.615154256648811071e+00,-9.457550920993962329e-02,2.245321886539318468e-01,-9.698653356602700004e-01,1.168850675330724926e+03
-1.626010120387935354e+00,-4.985468738821189127e+00,3.817951184979060830e+00,1.112047971039324123e-01,2.040092772353120365e-01,-9.726313319564838800e-01,1.173075399211122431e+03
-2.550411331592189246e+00,-5.471001212176144435e+00,3.385766133634976693e+00,3.122283516134259362e-01,1.747599835291828163e-01,-9.337935556675094340e-01,1.177300123091519936e+03
-3.528772655658681145e+00,-5.818469225440073167e+00,3.329491158349305202e+00,4.998965060871233268e-01,1.380354287757057374e-01,-8.550132768589541188e-01,1.181524846971917441e+03
-4.319888658172908791e+00,-6.087221746263494104e+00,3.577475222285938727e+00,6.661818779703867488e-01,9.540648077136225369e-02,-7.396602658592790203e-01,1.185749570852314946e+03
-4.683388185485934052e+00,-6.308574801158323808e+00,3.983808242909816055e+00,8.039717065142243380e-01,4.869656334411821136e-02,-5.926686594069177083e-01,1.189435480108141292e+03
-4.672762340597160780e+00,-6.619857918703002220e+00,4.563349322560624977e+00,7.807589294675403302e-01,7.734733939017587878e-02,-6.200249052532554872e-01,1.193660203988538797e+03
-4.472794637045241828e+00,-7.072951124012208268e+00,5.093935035655269061e+00,7.559002656425677369e-01,1.058350548370723815e-01,-6.460740898360698425e-01,1.197884927868936302e+03
-4.409858324254572359e+00,-7.315184721832483028e+00,5.268291396393181891e+00,7.294481079383601241e-01,1.340996682580712362e-01,-6.707613113367418833e-01,1.199635257361118420e+03
-4.399885299681255191e+00,-7.970938989096383764e+00,5.556738396726607299e+00,5.615297331978481576e-01,-8.265782202412812196e-02,-8.233164902960250497e-01,1.203859981241515925e+03
-4.591830176094986449e+00,-8.602626719748801776e+00,5.676546864552721949e+00,3.383267359632172733e-01,-2.912773136824960973e-01,-8.948131348313820288e-01,1.208084705121913430e+03
-4.812748717792723951e+00,-8.929593628934483718e+00,5.698229017694992571e+00,8.181419565024820872e-02,-4.712195215848922203e-01,-8.782121610792354982e-01,1.210967255010378949e+03
-5.134537044995881594e+00,-9.255655672766383901e+00,5.686565174729982353e+00,3.255316562782049894e-02,-4.279137704668429798e-01,-9.032320280200285545e-01,1.215191978890776454e+03
-5.242296323829112481e+00,-9.445721527926117744e+00,5.663236254385356716e+00,-1.686828838080553158e-02,-3.824992422308792217e-01,-9.238007309631826036e-01,1.217587369489866660e+03
-5.125329745387790403e+00,-9.998859108338026047e+00,5.583619960338543464e+00,2.211218405887921956e-01,-2.038421725388663286e-01,-9.537040947326351770e-01,1.221812093370264165e+03
-4.676241946668157290e+00,-1.083139254163902976e+01,5.410625226637545637e+00,4.393321438005964308e-01,-6.951030478044200982e-03,-8.982966940824528290e-01,1.226036817250661670e+03
-4.104598876343533043e+00,-1.188800264795311890e+01,5.082142372814183240e+00,6.182433019996741441e-01,1.905618971190013722e-01,-7.625348404495780885e-01,1.230261541131059175e+03
-3.636534476335506305e+00,-1.290996186739037555e+01,4.654781419797246578e+00,7.418513619568868345e-01,3.710287023852807953e-01,-5.585626721947364315e-01,1.233855742262691592e+03
-3.141892910372124259e+00,-1.414783600217199577e+01,3.988871481032601807e+00,7.270386476325039204e-01,5.514214459764877896e-01,-4.090809134707935057e-01,1.238080466143089097e+03
-2.682966580328189021e+00,-1.529657474278241303e+01,3.176066326446412180e+00,6.721618291329984896e-01,7.014276529751161116e-01,-2.370563711408735785e-01,1.242305190023486603e+03
-2.229737056193157319e+00,-1.622081840939008757e+01,2.254574897877124506e+00,5.802449311840252033e-01,8.127810795283293421e-01,-5.196861164233072816e-02,1.246529913903884108e+03
-1.750194272156650355e+00,-1.678610679994043409e+01,1.262611515250706251e+00,4.563531171842862277e-01,8.793454814996934932e-01,1.359829276133664999e-01,1.250754637784281613e+03
-1.223156274439349156e+00,-1.696917141362207815e+01,2.691418961787697128e-01,3.073135670020887278e-01,8.974527662967468622e-01,3.164409957684219954e-01,1.254979361664679118e+03
-6.494091862154799388e-01,-1.690141048684308700e+01,-6.369445665821108493e-01,1.413392518870128511e-01,8.661051283532444911e-01,4.794612836470941719e-01,1.259204085545076623e+03
-3.699730644133182589e-02,-1.669170012915873613e+01,-1.419159335085409923e+00,-3.242365770719728840e-02,7.870300284096999333e-01,6.160604197664156789e-01,1.263428809425474128e+03
2.123159874549130910e-01,-1.657859392933109532e+01,-1.697714211116713834e+00,-2.043998064241709656e-01,6.645849896106372778e-01,7.187110063986791308e-01,1.265089389682868614e+03
