-6.371823299556490738e+00,-2.402301608353073270e+00,2.095079524888806333e+00,5.989585562461439139e-01,4.577151367467270637e-02,-7.994695844345740543e-01,1.626792162691508992e+01
-6.667852472050225465e+00,-2.602475149703196600e+00,1.693667360404014222e+00,8.647969307037868258e-01,5.905481783723456890e-02,-4.986349337302089513e-01,2.049264550731264478e+01
-6.877824129304240586e+00,-2.755413270137115678e+00,1.395236594089498627e+00,9.911017951166366524e-01,6.280972763407388637e-02,-1.173463669295005118e-01,2.338662019232396005e+01
-7.145446003867038876e+00,-2.949507774199648047e+00,1.024346339327453892e+00,9.994800914183339380e-01,-2.500478984078532974e-02,2.030535234213262999e-02,2.675442975422766168e+01
-7.513014921002344693e+00,-3.207234491795085241e+00,5.270179812704071098e-01,9.994386532739856221e-01,-2.826391832874488100e-02,1.793123438326724509e-02,3.097915363462521654e+01
-7.896621900194029209e+00,-3.473937840959261614e+00,-7.327475504241489669e-03,9.993809642097152279e-01,-3.152258657489426935e-02,1.555682534880090291e-02,3.520387751502276785e+01
-8.272707072585856025e+00,-3.746129032849775609e+00,-5.831997318582711198e-01,9.993070251171064511e-01,-3.478074211339644145e-02,1.318216346621598443e-02,3.942860139542032272e+01
-8.617643724438385888e+00,-4.020789594532737432e+00,-1.205106433420372714e+00,9.992168371848919595e-01,-3.803833248752830354e-02,1.080728696780877338e-02,4.365332527581787758e+01
-8.758712896883171339e+00,-4.153225750305095332e+00,-1.525810534924639583e+00,9.991104018556147270e-01,-4.129530524933996971e-02,8.432234089267772251e-03,4.567463819784687473e+01
-8.996268055625677107e+00,-4.435016848647174825e+00,-2.241432690258032157e+00,9.995714247399445362e-01,2.478886345567982499e-02,1.550738814646961637e-02,4.989936207824442960e+01
-9.175189877488723056e+00,-4.727123481010286454e+00,-2.994902274629559713e+00,9.956169458346084689e-01,9.076351277049901634e-02,2.251403810639116335e-02,5.412408595864198446e+01
-9.293027205422868420e+00,-5.036480048210765226e+00,-3.777631850253551971e+00,9.872644345295467083e-01,1.563372228994361901e-01,2.942123458266432054e-02,5.834880983903953933e+01
-9.317882060056989602e+00,-5.186512098624659117e+00,-4.143049381220180294e+00,9.745507836935375368e-01,2.212203448003878248e-01,3.619846742029089737e-02,6.026810067994223630e+01
-9.312047524312596636e+00,-5.531734632616975844e+00,-4.961758762180713767e+00,9.532332875182888410e-01,2.872461138187791252e-01,9.398919971314845245e-02,6.449282456033978406e+01
-9.252247478052991525e+00,-5.877734306972346445e+00,-5.785524089432593442e+00,9.241434917063146015e-01,3.509297767055961637e-01,1.510135707742359390e-01,6.871754844073734603e+01
-9.144533611702211573e+00,-6.208003959719203380e+00,-6.603607685721349263e+00,8.875185849223435897e-01,4.117520852538466558e-01,2.068066287776857692e-01,7.294227232113490800e+01
-8.994615817017736603e+00,-6.505917785677736376e+00,-7.405272151448943241e+00,8.436571924394300481e-01,4.692171215274368312e-01,2.609134617274266321e-01,7.716699620153246997e+01
-8.807861308694114655e+00,-6.754736467625289009e+00,-8.179780895583677491e+00,7.929169413469722150e-01,5.228563409909224857e-01,3.128929062960321694e-01,8.139172008193003194e+01
-8.589293775922648422e+00,-6.937612317497384495e+00,-8.916398666540093387e+00,7.357115448170034044e-01,5.722323924901046022e-01,3.623211445772553385e-01,8.561644396232759391e+01
-8.342520148492036824e+00,-7.045091710272006758e+00,-9.604812759020127544e+00,6.725074291880016597e-01,6.169426839638918469e-01,4.087951594502771679e-01,8.984116784272515588e+01
-8.181611805677388105e+00,-7.066054962377086746e+00,-9.975801991546212832e+00,6.038199313419152503e-01,6.566226648353662432e-01,4.519360204035113293e-01,9.232219487953710768e+01
-7.880569548328901774e+00,-7.040281334861258955e+00,-1.054366078595997358e+01,5.531915210552333928e-01,6.285687698611081009e-01,5.466977616450225952e-01,9.654691875993466965e+01
-7.553098671344667281e+00,-6.965232672952258675e+00,-1.103949171049127997e+01,4.957422312079953208e-01,5.927645850890992385e-01,6.347186674905590520e-01,1.007716426403322316e+02
-7.199992272600386656e+00,-6.853824750562731438e+00,-1.145425536973222869e+01,4.321804142719403163e-01,5.496515792408258605e-01,7.149134429829907544e-01,1.049963665207297936e+02
-6.822293912347388911e+00,-6.718951216664292403e+00,-1.177891637366341193e+01,3.632897882588368432e-01,4.997613368810195356e-01,7.862932887324795006e-01,1.092210904011273556e+02
-6.421297418196270534e+00,-6.573479871037499755e+00,-1.200444378457606476e+01,2.899197739925729600e-01,4.437090042574593496e-01,8.479780918094937947e-01,1.134458142815249175e+02
-5.998546668571836271e+00,-6.430248942421304292e+00,-1.212181156382862035e+01,2.129750224706722095e-01,3.821857050704275949e-01,8.992072767961892810e-01,1.176705381619224795e+02
-5.838464900362055232e+00,-6.382667508417195990e+00,-1.212243709975369477e+01,1.334042613555752044e-01,3.159500196220619839e-01,9.393491832926531560e-01,1.191981349072222258e+02
-5.377133767791923091e+00,-6.271454764330094633e+00,-1.200239133136784986e+01,1.247917600227113344e-01,2.987888533002626135e-01,9.461237962140944813e-01,1.234228587876197878e+02
-4.898656890387409923e+00,-6.187678115910168586e+00,-1.175943382663588821e+01,1.161275248658278220e-01,2.815038199228233062e-01,9.525061665554731549e-01,1.276475826680173498e+02
-4.404946986481265370e+00,-6.128745955593271511e+00,-1.140417811284170035e+01,1.074151472018512604e-01,2.641020841302983979e-01,9.584936490653187535e-01,1.318723065484149117e+02
-3.897715675827878368e+00,-6.086930161388933058e+00,-1.095378269339272670e+01,9.865823828688059793e-02,2.465908588998386997e-01,9.640837620840349009e-01,1.360970304288124737e+02
-3.378517160239574935e+00,-6.054471442132359549e+00,-1.042541077332950472e+01,8.986042782205280743e-02,2.289774025605655627e-01,9.692741885643783029e-01,1.403217543092100357e+02
-2.848748004453067306e+00,-6.023581694639270623e+00,-9.836229410166980713e+00,8.102536245257824232e-02,2.112690157920797673e-01,9.740627770294967291e-01,1.445464781896075976e+02
-2.668880344601943122e+00,-6.011041842988819717e+00,-9.624224246584486053e+00,7.215670425980465208e-02,1.934730386055474038e-01,9.784475424628654716e-01,1.459556462470970075e+02
-2.120878639310892044e+00,-5.961540218653706091e+00,-8.953658763282975386e+00,6.412017956064978985e-02,7.486961650856623074e-02,9.951287068000659319e-01,1.501803701274945695e+02
-1.566175170128139449e+00,-5.899119509215752011e+00,-8.258475588130425038e+00,5.515970567557901966e-02,-4.481265035785606671e-02,9.974704172246355860e-01,1.544050940078921315e+02
-1.009666735106639290e+00,-5.827050971552814040e+00,-7.544210892115372324e+00,4.540439985517153582e-02,-1.638491829520849208e-01,9.854389304874875410e-01,1.586298178882896934e+02
-4.576478773092529373e-01,-5.752221871148960552e+00,-6.812522300832050348e+00,3.499483259366116539e-02,-2.805247070029439627e-01,9.592076159274627312e-01,1.628545417686872554e+02
8.344992373412955800e-02,-5.681392170753086113e+00,-6.065068297593910529e+00,2.408100206232562795e-02,-3.931579694659710356e-01,9.191544573060914658e-01,1.670792656490848174e+02
6.070592112861359357e-01,-5.621192489867544495e+00,-5.303508141800304720e+00,1.282017269297553060e-02,-5.001259647567597444e-01,8.658566062280875775e-01,1.713039895294823793e+02
1.106477522507825606e+00,-5.578122075439007510e+00,-4.529501787274551106e+00,1.374609056663258881e-03,-5.998873216728404234e-01,8.000820656324563185e-01,1.755287134098799413e+02
1.574868371367302844e+00,-5.558546783886916032e+00,-3.744709800576704328e+00,-1.009076230887709716e-02,-6.910045140091037874e-01,7.227786231866781819e-01,1.797534372902775033e+02
2.005262243307416536e+00,-5.568697074604043173e+00,-2.950793279293826732e+00,-2.141072943118450464e-02,-7.721645748198545656e-01,6.350601940438811432e-01,1.839781611706750653e+02
2.390557601627485429e+00,-5.614666015062335980e+00,-2.149413770317160743e+00,-3.242217554962063819e-02,-8.421980158403628014e-01,5.381907697533764301e-01,1.882028850510726272e+02
2.723521905539907806e+00,-5.702407297657146934e+00,-1.342233188098637786e+00,-4.296642957222324144e-02,-9.000956794419432416e-01,4.335662046104395984e-01,1.924276089314701892e+02
2.996792639849315876e+00,-5.837733268422531374e+00,-5.309137328796823541e-01,-5.289155247339209082e-02,-9.450232802846385560e-01,3.226941018945814199e-01,1.966523328118677512e+02
3.042648416670570288e+00,-5.878817155759370472e+00,-3.515713376203006280e-01,-6.205452668583315984e-02,-9.763334271215087234e-01,2.071720898275110634e-01,1.975830039243116971e+02
3.180946096055933037e+00,-6.119722015423768369e+00,4.643254164182145649e-01,9.693551331250903347e-02,-9.947168319228593125e-01,3.376285750316656425e-02,2.018077278047092591e+02
3.224113713366858480e+00,-6.336588654821623479e+00,1.056040032724146593e+00,2.505275424008252538e-01,-9.577077814871661765e-01,-1.415265196902216471e-01,2.048679677756856563e+02
3.197322487114266032e+00,-6.695046992456708423e+00,1.869303274843338469e+00,2.662733260870106533e-01,-9.237951770456641620e-01,-2.751344883542690689e-01,2.090926916560832183e+02
3.086985511932144988e+00,-7.107928204229160052e+00,2.665868336200657662e+00,2.768935807749726696e-01,-8.721003353621714638e-01,-4.034463409019367064e-01,2.133174155364807802e+02
2.902989316111836970e+00,-7.568499096377347968e+00,3.428141056023676025e+00,2.821838784263003830e-01,-8.036183401769915191e-01,-5.239921965906514378e-01,2.175421394168783422e+02
2.655334466687958361e+00,-8.070229175408286437e+00,4.138528969091217924e+00,2.820423868951495994e-01,-7.196674083241595410e-01,-6.344516635575221386e-01,2.217668632972759042e+02
2.354134028168162196e+00,-8.606792306293355566e+00,4.779442175945565197e+00,2.764718298449319600e-01,-6.218635156810349285e-01,-7.326985022281632398e-01,2.259915871776734662e+02
2.011388037680770680e+00,-9.173683312184270022e+00,5.336752700819446638e+00,2.655794343076948727e-01,-5.120892923195432545e-01,-8.168415518108353979e-01,2.302163110580710281e+02
1.746977772768176784e+00,-9.601074811067997317e+00,5.671129162878303376e+00,2.495748668980033724e-01,-3.924577853790288118e-01,-8.852611323831662826e-01,2.332426390315659148e+02
1.366394364020162344e+00,-1.022819065997746080e+01,6.044178860620407434e+00,2.005012427549397458e-01,-2.591875060667604980e-01,-9.447852075222324952e-01,2.374673629119634768e+02
9.896322605016438789e-01,-1.088636696509365542e+01,6.319996976420522827e+00,1.466732719553111297e-01,-1.197713048922397910e-01,-9.819062001121442451e-01,2.416920867923610388e+02
6.340448669455595043e-01,-1.157712198527583602e+01,6.494848408819409613e+00,8.936733915568323416e-02,2.248494251818535655e-02,-9.957438958148649988e-01,2.459168106727586007e+02
3.169576426531913738e-01,-1.230232251908912211e+01,6.565003049489759768e+00,2.994229750650809901e-02,1.642080198103803013e-01,-9.859701745237101633e-01,2.501415345531561627e+02
5.007621202152255646e-02,-1.305871893836858177e+01,6.529679624370440472e+00,-3.019275150610610178e-02,3.020373530588938982e-01,-9.528167898992256912e-01,2.543662584335537247e+02
-2.812027109462609913e-03,-1.325252825228086984e+01,6.495527888279348794e+00,-8.961186956143972482e-02,4.327046942054587064e-01,-8.970698748961852820e-01,2.554184293606945744e+02
-1.636738628837759724e-01,-1.404053688737669070e+01,6.261628684032213066e+00,-6.754397470451310725e-02,4.831445089420124961e-01,-8.729302348741188045e-01,2.596431532410921363e+02
-2.795327119491681223e-01,-1.482186837512606203e+01,5.937432664961759698e+00,-4.523198744881475053e-02,5.318382798620927554e-01,-8.456359212935528058e-01,2.638678771214896983e+02
-3.545128489130774385e-01,-1.557694956434662181e+01,5.531007188389010842e+00,-2.275653868520205805e-02,5.786100387977187731e-01,-8.152855714084774608e-01,2.680926010018872603e+02
-3.923375935295910777e-01,-1.628612669452696693e+01,5.050423677666004529e+00,-1.988498981797422443e-04,6.232907628516053400e-01,-7.819888652658619765e-01,2.723173248822848223e+02
-3.947871162146145974e-01,-1.693079175473724618e+01,4.505311912905304084e+00,2.235956024680900781e-02,6.657189849826118389e-01,-7.458661294738647696e-01,2.765420487626823842e+02
-3.605411658109349826e-01,-1.748841420738880359e+01,3.914915511980341822e+00,4.483717038896423146e-02,7.057413773190147621e-01,-7.070479025413516361e-01,2.807204880425874762e+02
-2.853137873476341291e-01,-1.795619669564474208e+01,3.280376036839605991e+00,-4.214981009233552400e-02,8.100928009946494202e-01,-5.847829061166637254e-01,2.849452119229850382e+02
-1.656667132386783758e-01,-1.831283511080943782e+01,2.622495041883508904e+00,-1.277287799110555788e-01,8.873832716554928002e-01,-4.429833946875655903e-01,2.891699358033826002e+02
2.567263042636910245e-03,-1.854322575509572957e+01,1.955575129482663099e+00,-2.090409987217123344e-01,9.350309287410065728e-01,-2.863861434351874791e-01,2.933946596837801621e+02
2.238673930815012203e-01,-1.863233835608348343e+01,1.293919347752820137e+00,-2.833702564189169437e-01,9.514441188275286621e-01,-1.202222380680486591e-01,2.976193835641777241e+02
4.980380214859435606e-01,-1.857447259669354978e+01,6.485231623127057921e-01,-3.482336059526811578e-01,9.360745628957266584e-01,4.995766593045722348e-02,3.018441074445752861e+02
8.149759700205470025e-01,-1.838238131971909439e+01,2.376659173607089184e-02,-4.014643043703323144e-01,8.894356715512032885e-01,2.184687586110912461e-01,3.060688313249728481e+02
9.803075170082373724e-01,-1.823500048024849463e+01,-2.646685914752574531e-01,-4.412841918160388399e-01,8.130853963573727583e-01,3.796819725558461811e-01,3.080890373362083210e+02
1.343448392291833882e+00,-1.782661374428614565e+01,-8.454935891374756318e-01,-3.983834617182496762e-01,7.797820624321006866e-01,4.829374209339536428e-01,3.123137612166058830e+02
1.711012091596741058e+00,-1.733743700218445483e+01,-1.403025493202150864e+00,-3.500602244392612139e-01,7.358648903971979349e-01,5.796194461422311539e-01,3.165384850970034449e+02
2.066562394037207540e+00,-1.678842124319947615e+01,-1.936195670595162177e+00,-2.969722213353086504e-01,6.819316520552268779e-01,6.684120897174650189e-01,3.207632089774010069e+02
2.393246185571685558e+00,-1.620018004704667192e+01,-2.443936693084046041e+00,-2.398420464203299129e-01,6.187164475692206178e-01,7.481067773228126105e-01,3.249879328577985689e+02
2.675247688258487244e+00,-1.559382924558978800e+01,-2.924030548938220786e+00,-1.794473113916776053e-01,5.470797137070533278e-01,8.176187676934492110e-01,3.292126567381961308e+02
2.899220341006893076e+00,-1.499186503748449262e+01,-3.371956911548934954e+00,-1.166100619900844043e-01,4.679965128717090694e-01,8.760019163121298691e-01,3.334373806185936928e+02
2.986024087628619039e+00,-1.466565388588562868e+01,-3.603992300810840987e+00,-5.218558966794180354e-02,3.825432622322952336e-01,9.224615529936429636e-01,3.358241066674566468e+02
3.059344403897445108e+00,-1.413055811177962973e+01,-3.973079119825706496e+00,2.191691494364707282e-02,3.659344893895763451e-01,9.303814262512732913e-01,3.400488305478542088e+02
3.041841827042266910e+00,-1.365820425362418788e+01,-4.295458140145652415e+00,9.589163450126843291e-02,3.471924070495175374e-01,9.328773911499883553e-01,3.442735544282517708e+02
2.919943127554210704e+00,-1.327102206744732271e+01,-4.565464568686284252e+00,1.693073192189282761e-01,3.264262768076152676e-01,9.299348995857050770e-01,3.484982783086493328e+02
2.679605248158842823e+00,-1.299117501874960823e+01,-4.777436201736510846e+00,2.417359786616431472e-01,3.037571592553694466e-01,9.215711067631580100e-01,3.527230021890468947e+02
2.314502166924287341e+00,-1.283039147772689503e+01,-4.928072183218687563e+00,3.127553763992521607e-01,2.793172083175923248e-01,9.078347711285501553e-01,3.569477260694444567e+02
1.834481700211417987e+00,-1.278001421922848735e+01,-5.018791646117429117e+00,3.819514911237400501e-01,2.532489009549772629e-01,8.888059701601370710e-01,3.611724499498420187e+02
1.594169255631061155e+00,-1.279893731983568017e+01,-5.032920398748873758e+00,4.489209299051565294e-01,2.257042067153873510e-01,8.645956336708544576e-01,3.629244871571564772e+02
9.281405901831744076e-01,-1.292745439342973768e+01,-5.013014870292515468e+00,4.443247412979289268e-01,2.696909289159242218e-01,8.543069279414197137e-01,3.671492110375540392e+02
1.912828767728363688e-01,-1.312166732854129769e+01,-4.942327477936455438e+00,4.388124367575278462e-01,3.131215906712462860e-01,8.422567986073337121e-01,3.713739349179516012e+02
-5.973410887400584235e-01,-1.336393111126324840e+01,-4.824645976316944918e+00,4.323953817604687666e-01,3.559066481252912695e-01,8.284700909811838487e-01,3.755986587983491631e+02
-1.418333918737238131e+00,-1.363698871496819365e+01,-4.663760442858274402e+00,4.250868070324810843e-01,3.979578885078497441e-01,8.129752305324412509e-01,3.798233826787467251e+02
-2.251966569754164205e+00,-1.392397605198026156e+01,-4.463463090267955735e+00,4.169017812726862893e-01,4.391886119557118495e-01,7.958041642879482014e-01,3.840481065591442871e+02
-3.081648896216800715e+00,-1.420992281239502653e+01,-4.227337666774196201e+00,4.078571800920924861e-01,4.795138102165473759e-01,7.769922949790702971e-01,3.882728304395418490e+02
-3.897440051695337360e+00,-1.448316110066317108e+01,-3.958548866704799440e+00,3.979716512300551234e-01,5.188503418679991652e-01,7.565784080704969217e-01,3.924975543199394110e+02
-4.692642779538938491e+00,-1.473369540315584381e+01,-3.660052586184475931e+00,3.872655761202150604e-01,5.571171036917267338e-01,7.346045918207110281e-01,3.967222782003369730e+02
-4.705488731916758205e+00,-1.473744994145869391e+01,-3.654651531175513224e+00,3.757610278848864116e-01,5.942351978499811338e-01,7.111161505383951642e-01,3.967924797770085661e+02
-5.452802070111564703e+00,-1.493388686894426876e+01,-3.304580334840141909e+00,4.456287425411715741e-01,6.227380665062635101e-01,6.431254343787442540e-01,4.010172036574061281e+02
-6.165196623612658300e+00,-1.508807116811352422e+01,-2.930767491063320573e+00,5.108990418802467071e-01,6.448163492448812928e-01,5.684998194829313789e-01,4.052419275378036900e+02
-6.835366700174549059e+00,-1.519042174329890393e+01,-2.536173483129227968e+00,5.708985604756370291e-01,6.602422760470110230e-01,4.880091910681164102e-01,4.094666514182012520e+02
-7.455806804762483253e+00,-1.523150024496273502e+01,-2.123759821021127259e+00,6.250083089475789722e-01,6.688567053709409960e-01,4.024839393400282406e-01,4.136913752985988140e+02
-8.020720353608687958e+00,-1.520354443032104896e+01,-1.699398033648900075e+00,6.726700591894403392e-01,6.705707656817947449e-01,3.128063932894966648e-01,4.179160991789963759e+02
-8.527969078594002994e+00,-1.510195072868930488e+01,-1.274778517066160077e+00,7.133921028959890887e-01,6.653667722256525474e-01,2.199017188275014245e-01,4.221408230593939379e+02
-8.780358689939202321e+00,-1.500262380038072685e+01,-1.043490712439318235e+00,7.467543240349685529e-01,6.532984095985724382e-01,1.247283750815390835e-01,4.245132310070253538e+02
-9.171603253885407980e+00,-1.474816181213166644e+01,-6.557647222648845808e-01,8.167295932896974087e-01,5.665142047921055690e-01,1.096012190289994692e-01,4.287379548874229158e+02
-9.503880650704537913e+00,-1.441250476332188590e+01,-3.051765834047905912e-01,8.763675920562231658e-01,4.725597114326592352e-01,9.308685580376803437e-02,4.329626787678204778e+02
-9.776673418858411679e+00,-1.399260890131527368e+01,-6.322377116691736687e-03,9.249135020728884715e-01,3.726240902114323905e-01,7.539430400590212134e-02,4.371874026482180398e+02
-9.990496589208094136e+00,-1.348952003511710807e+01,2.300238609943837664e-01,9.617528902952527936e-01,2.679722000074176158e-01,5.674749360918766167e-02,4.414121265286156017e+02
-1.006761523878178366e+01,-1.320774901260060474e+01,3.131597911209177965e-01,9.864194845512527232e-01,1.599285911400331328e-01,3.738243213492681988e-02,4.434706400513396716e+02
-1.017319597970406697e+01,-1.256419025499736541e+01,4.185701460602392898e-01,9.968948498703815719e-01,5.809090367529029519e-02,5.314231093737172007e-02,4.476953639317372335e+02
-1.022835804497901258e+01,-1.186650579562430252e+01,4.593700992489136437e-01,9.966744884069971278e-01,-4.437002463113572798e-02,6.833202084457330738e-02,4.519200878121347955e+02
-1.023753961650215949e+01,-1.112777358862472354e+01,4.362560107721948355e-01,9.857607692988069603e-01,-1.463548930584698815e-01,8.278859214392843280e-02,4.561448116925323575e+02
-1.020542725460171596e+01,-1.036097675998623124e+01,3.499274036406362365e-01,9.642707881697549777e-01,-2.467695095920196258e-01,9.635692096633355352e-02,4.603695355729299195e+02
-1.013695515971877725e+01,-9.578999925341044275e+00,2.010869291838084938e-01,9.324351106546994172e-01,-3.445365295361678126e-01,1.088914332415127501e-01,4.645942594533274814e+02
-1.003730441286086439e+01,-8.794625516470885529e+00,-9.559667672060656249e-03,8.905952988279808302e-01,-4.386070133738553256e-01,1.202576464283893198e-01,4.688189833337250434e+02
-9.919207609711540030e+00,-8.075206006071999454e+00,-2.592825308608252000e-01,8.392002470577459849e-01,-5.279716799679780026e-01,1.303336122784306828e-01,4.727377794290534894e+02
-9.763294675744157658e+00,-7.316836948657003958e+00,-5.785713712514689577e-01,8.253668643702155583e-01,-5.339138723384662111e-01,1.835851740294415779e-01,4.769625033094510513e+02
-9.575467138774818920e+00,-6.583003595487829429e+00,-9.364799267414868345e-01,8.090058746794138722e-01,-5.382210026257420177e-01,2.362745163280497163e-01,4.811872271898486133e+02
-9.352737672239918254e+00,-5.881172563568068945e+00,-1.321344105340846120e+00,7.901673824171691063e-01,-5.408798813479190892e-01,2.882402846870413815e-01,4.854119510702461753e+02
-9.092259968957328908e+00,-5.218871529212016469e+00,-1.721498480409486165e+00,7.689090788028524193e-01,-5.418823664618015457e-01,3.393233405643851230e-01,4.896366749506437372e+02
-8.791329205732630214e+00,-4.603687135593651725e+00,-2.125276867761963118e+00,7.452960651727966734e-01,-5.412253882816948636e-01,3.893672486442228409e-01,4.938613988310412992e+02
-8.447382495914650846e+00,-4.043262894957326381e+00,-2.521012902800048305e+00,7.194006536269844654e-01,-5.389109588705867093e-01,4.382187558397623306e-01,4.980861227114388612e+02
-8.057999329880777495e+00,-3.545297085627129530e+00,-2.897040617651346128e+00,6.913021456029129208e-01,-5.349461658750691573e-01,4.857282605529942288e-01,5.023108465918364232e+02
-7.620902004103476735e+00,-3.117540644375199843e+00,-3.244478148291990660e+00,6.610865890540801315e-01,-5.293431508229775595e-01,5.317502707559709219e-01,5.065355704722339851e+02
-7.133956038115057297e+00,-2.767795053843756570e+00,-3.560011303893867662e+00,6.288465149758080130e-01,-5.221190719501208610e-01,5.761438494925018583e-01,5.107602943526315471e+02
-6.607587739135295735e+00,-2.486180170242425547e+00,-3.838778952593552951e+00,5.946806540841522715e-01,-5.132960516696933873e-01,6.187730464374981976e-01,5.149850182330291091e+02
-6.173268797523222773e+00,-2.276980740240607037e+00,-4.025707114499605943e+00,5.586936345142324845e-01,-5.029011088448223088e-01,6.595073141936886874e-01,5.184288607475059507e+02
-5.676176563161395627e+00,-1.987199547291052415e+00,-4.189364853092037322e+00,5.846376813033430375e-01,-6.495970549787207782e-01,4.860251513692852576e-01,5.226535846279034558e+02
-5.241579222850366371e+00,-1.623720086752184377e+00,-4.278132790306401034e+00,5.800116360834239870e-01,-7.623262278662842339e-01,2.871292815360654838e-01,5.268783085083009610e+02
-4.869308931741676005e+00,-1.180063276232293346e+00,-4.297567588684399809e+00,5.450573988308236029e-01,-8.351941709781919299e-01,7.321972920030100918e-02,5.311030323886984661e+02
-4.682974122173478193e+00,-8.804929020423092334e-01,-4.276726024582393038e+00,4.816026757053126772e-01,-8.643906999111383715e-01,-1.445184440155848904e-01,5.335538792580680365e+02
-4.394746032574408545e+00,-2.999918542887948791e-01,-4.203398640977034084e+00,3.862851713957399236e-01,-9.197604689493089625e-01,-6.944383426118296010e-02,5.377786031384655416e+02
-4.110889361912903439e+00,3.305598186780708270e-01,-4.116872919379503948e+00,2.840966531151024599e-01,-9.587700192828693124e-01,6.865989528274198984e-03,5.420033270188630468e+02
-3.800942762002931019e+00,9.956020840400107152e-01,-4.044216482661624923e+00,1.768547736345985333e-01,-9.807254836092387240e-01,8.305368649866495812e-02,5.462280508992605519e+02
-3.474687509958875875e+00,1.623292730652310167e+00,-4.008093061853516659e+00,6.646706792227670413e-02,-9.852363277410559617e-01,1.577640877376939588e-01,5.500948565851313106e+02
-3.070391510478048147e+00,2.319986976007327506e+00,-4.005536511496790020e+00,1.880384533797473459e-02,-9.558534987564434315e-01,2.932379653388694773e-01,5.543195804655288157e+02
-2.626643841734881413e+00,3.019562894369729467e+00,-4.035672442258343651e+00,-2.926343773716080093e-02,-9.059309610813391922e-01,4.224106354799920249e-01,5.585443043459263208e+02
-2.152450527891957677e+00,3.714166228074014864e+00,-4.094194184155115934e+00,-7.670189565607408999e-02,-8.365414701016555821e-01,5.425063944356159906e-01,5.627690282263238259e+02
-1.656965047961738380e+00,4.396123247724599281e+00,-4.176793659877418463e+00,-1.224921555860854910e-01,-7.491760919230318061e-01,6.509445868209007280e-01,5.669937521067213311e+02
-1.149486983181096322e+00,5.057942932445239848e+00,-4.279161597966713693e+00,-1.656502618693367346e-01,-6.457121627694858423e-01,7.453950587405288042e-01,5.712184759871188362e+02
-6.394606518311852783e-01,5.692319134359256516e+00,-4.396987746037174460e+00,-2.052488193046025367e-01,-5.283729484701693568e-01,8.238282281517211869e-01,5.754431998675163413e+02
-1.364737315645560833e-01,6.292132727158108452e+00,-4.525961084033152559e+00,-2.404369210741363894e-01,-3.996798708196698802e-01,8.845586966654696015e-01,5.796679237479138465e+02
3.466500550068488118e-01,6.853587973032029268e+00,-4.666520851570013839e+00,-2.704584331483779747e-01,-2.623983272589442417e-01,9.262814657495439530e-01,5.838926476283113516e+02
6.296203196419146719e-01,7.187991315038466666e+00,-4.768703174210470408e+00,-2.946682423013084473e-01,-1.194782679546090992e-01,9.480999791509558960e-01,5.865778203509069044e+02
1.018801273070647717e+00,7.683940124622498757e+00,-4.961695028167720345e+00,-2.585479772182657787e-01,-1.222333149120110873e-01,9.582327275740984973e-01,5.908025442313044095e+02
1.332866235149651857e+00,8.154955670191073480e+00,-5.200239224979714692e+00,-2.220618922061084743e-01,-1.248154084908597444e-01,9.670096327469659414e-01,5.950272681117019147e+02
1.549909089910720184e+00,8.608027371830365482e+00,-5.499022250316240701e+00,-1.852616072528870117e-01,-1.272208956931737689e-01,9.744182780353883855e-01,5.992519919920994198e+02
1.658355736389189872e+00,9.049135223374110026e+00,-5.863965547407758550e+00,-1.481991866720685780e-01,-1.294463733000731365e-01,9.804481819562992362e-01,6.034767158724969249e+02
1.660938368457783643e+00,9.262224016763180856e+00,-6.071995430963811557e+00,-1.109270655405357742e-01,-1.314886926793969180e-01,9.850908129811977165e-01,6.055587724482752492e+02
1.577272524935405595e+00,9.687291757722631402e+00,-6.536080071596869878e+00,-1.085826671461309900e-01,-1.326924024250408229e-01,9.851906062590882751e-01,6.097834963286727543e+02
1.422539680239746529e+00,1.010634988123079303e+01,-7.024307612510197529e+00,-1.062375138779869665e-01,-1.338951891201470012e-01,9.852835474637083868e-01,6.140082202090702594e+02
1.215928093879233396e+00,1.052039397136058874e+01,-7.516304557840324030e+00,-1.038916219497352245e-01,-1.350970444433774176e-01,9.853696359227643864e-01,6.182329440894677646e+02
9.766288766776988206e-01,1.093003711937313049e+01,-7.991697220869808937e+00,-1.015450075836195482e-01,-1.362979600840062422e-01,9.854488710425639564e-01,6.224576679698652697e+02
7.238331335744340178e-01,1.133550992486536302e+01,-8.430112732051943780e+00,-9.919768700678406603e-02,-1.374979277376972564e-01,9.855212522759843052e-01,6.266823918502627748e+02
4.767291066431617597e-01,1.173666053008365218e+01,-8.811180047005816363e+00,-9.684967645116898671e-02,-1.386969391065574209e-01,9.855867791224757202e-01,6.309071157306602800e+02
2.544993184579526502e-01,1.213295468740076544e+01,-9.114530954443774036e+00,-9.450099215340614089e-02,-1.398949858991901107e-01,9.856454511280644537e-01,6.351318396110577851e+02
7.631771593901973127e-02,1.252347585995017276e+01,-9.319801083992572899e+00,-9.215165035471453714e-02,-1.410920598307484619e-01,9.856972678853564984e-01,6.393565634914552902e+02
-3.865318519113437878e-02,1.290692535541113806e+01,-9.406630913871634192e+00,-8.980166730079579274e-02,-1.422881526229888283e-01,9.857422290335391413e-01,6.435812873718527953e+02
-4.930419123011892113e-02,1.301147519271524189e+01,-9.393586764024250968e+00,-8.745105924172981438e-02,-1.434832560043239613e-01,9.857803342583844053e-01,6.447593772604591322e+02
-2.835464892139127543e-02,1.318311501995297519e+01,-9.306623669578048208e+00,-1.816036969848585092e-01,-1.197951145389833938e-01,9.760467344117855770e-01,6.467409287698892513e+02
1.004774098428045104e-01,1.354080382358596246e+01,-8.988150328273725620e+00,-2.564045987091185808e-01,-2.372464105504625553e-01,9.369999052519440985e-01,6.509656526502867564e+02
3.070826558631215564e-01,1.389226715209325391e+01,-8.553547392645569403e+00,-3.258428754607927136e-01,-3.497357655560195955e-01,8.783560296388226440e-01,6.551903765306842615e+02
5.802833297675921154e-01,1.424061758496203645e+01,-8.025488464841036063e+00,-3.884662503379246457e-01,-4.549105038241549326e-01,8.013416286824209811e-01,6.594151004110817667e+02
9.089820298338195936e-01,1.458918920176671818e+01,-7.426651767055059139e+00,-4.429649783225823034e-01,-5.505709333840055342e-01,7.075674351557792452e-01,6.636398242914792718e+02
1.282163360467949209e+00,1.494153634185084734e+01,-6.779719019472207009e+00,-4.881992386454310218e-01,-6.347163511162459137e-01,5.989947053291091450e-01,6.678645481718767769e+02
1.688895573256835148e+00,1.530143234491629656e+01,-6.107374318079349607e+00,-5.232229732648796539e-01,-7.055868860322288549e-01,4.778942001194417810e-01,6.720892720522742820e+02
2.118332200519373654e+00,1.567286827260538473e+01,-5.432303012390164554e+00,-5.473036729826942226e-01,-7.617003057499639462e-01,3.467986934240567254e-01,6.763139959326717872e+02
2.559713681282753228e+00,1.606005161116170399e+01,-4.777190583123153367e+00,-5.599376974475270830e-01,-8.018830164945363048e-01,2.084500008042756147e-01,6.805387198130692923e+02
2.739733716893451465e+00,1.622583462871857307e+01,-4.526957144634855545e+00,-5.608608086691372341e-01,-8.252946083452473713e-01,6.574163624154590047e-02,6.822554503958920122e+02
3.175401742886264422e+00,1.665698686273566054e+01,-3.964792878591802072e+00,-7.510645517546491456e-01,-3.987832692646200439e-01,5.261862248794294539e-01,6.864801742762895174e+02
3.240286614196423720e+00,1.672783889335061502e+01,-3.887495213911268621e+00,-6.182358325045096414e-01,1.992445407444005667e-01,7.603183993508748628e-01,6.871365691795111843e+02
3.629029089892275906e+00,1.720899680018982991e+01,-3.462555683509402904e+00,-6.263961622923723827e-01,1.528003948676233403e-01,7.643807213594208116e-01,6.913612930599086894e+02
3.974104534692963764e+00,1.771299257888641776e+01,-3.118610958840377201e+00,-6.331532651215513452e-01,1.060139634888885296e-01,7.667307104868531509e-01,6.955860169403061946e+02
4.253941235139169663e+00,1.823920816676828949e+01,-2.866071237232439728e+00,-6.384920061949479475e-01,5.899004401898034350e-02,7.673631035722512372e-01,6.998107408207036997e+02
4.276088476876358513e+00,1.830110982558911559e+01,-2.848735112941159997e+00,-6.424004266634406601e-01,1.183396565108973258e-02,7.662764834388879898e-01,7.002871871487596991e+02
4.383554855169530917e+00,1.886852010194162332e+01,-2.792665530803402962e+00,-6.413845130915746262e-01,5.687083363755922327e-02,7.651075837040901551e-01,7.045119110291572042e+02
4.403801917665457033e+00,1.944270265979794488e+01,-2.824729029669331926e+00,-6.390661266087053205e-01,1.017922022548766320e-01,7.623849640276643136e-01,7.087366349095547093e+02
4.336016284200842286e+00,2.000929523139726385e+01,-2.932629446096656878e+00,-6.354499754534709277e-01,1.465068558866211845e-01,7.581141535866560144e-01,7.129613587899522145e+02
4.179076746786403618e+00,2.055395402860993315e+01,-3.104066861625262241e+00,-6.305434024375914381e-01,1.909239986289525126e-01,7.523038245176004724e-01,7.171860826703497196e+02
3.997852753177457252e+00,2.092575002933140027e+01,-3.267290698192077070e+00,-6.243563700504630720e-01,2.349534384852536573e-01,7.449657743244978425e-01,7.202712785080751701e+02
3.664205397027807010e+00,2.139405971031525056e+01,-3.527150867121685796e+00,-5.910449442364323902e-01,1.920410020324339051e-01,7.834437614954724571e-01,7.244960023884726752e+02
3.265799245760272917e+00,2.182949676892109636e+01,-3.796634645910326622e+00,-5.551141976689343283e-01,1.482775093036413916e-01,8.184497588590524675e-01,7.287207262688701803e+02
2.829969807026450290e+00,2.224517471726082363e+01,-4.043117570913500991e+00,-5.167233563654408668e-01,1.038568960999849550e-01,8.498286404411978801e-01,7.329454501492676854e+02
2.682144758075867053e+00,2.237767993297970293e+01,-4.107374309553784464e+00,-4.760425463228781240e-01,5.897600974954528286e-02,8.774413509513321330e-01,7.343277757035457398e+02
2.234364225916879221e+00,2.278193289004959254e+01,-4.234927239012876043e+00,-4.746192708772127844e-01,-6.463427033117091769e-02,8.778137381069608391e-01,7.385524995839432449e+02
1.820033332634938494e+00,2.320232194728523467e+01,-4.275220359601037856e+00,-4.659430106768843172e-01,-1.872568014184731178e-01,8.647716468077402130e-01,7.427772234643407501e+02
1.473790407405825897e+00,2.365745830778965697e+01,-4.207296016358671231e+00,-4.501463539978380890e-01,-3.070177331200520943e-01,8.385143836159513198e-01,7.470019473447382552e+02
1.278306479533897644e+00,2.403817685302641749e+01,-4.063354770299007157e+00,-4.274706941745888833e-01,-4.220869423255034225e-01,7.994431929401909498e-01,7.502232324820287204e+02
1.107796277568003473e+00,2.457364630038518527e+01,-3.758632924703295242e+00,-3.661628990256924898e-01,-5.461825972824236874e-01,7.533971740080612767e-01,7.544479563624262255e+02
1.004486104535111446e+00,2.512727611808561790e+01,-3.353084859368582915e+00,-2.970636491232926391e-01,-6.586562214783707736e-01,6.913198755119016603e-01,7.586726802428237306e+02
9.475104272702848940e-01,2.568007284336721341e+01,-2.862799482008037355e+00,-2.216432838594394050e-01,-7.571145266802952190e-01,6.145322190170986465e-01,7.628974041232212357e+02
9.156409965051427458e-01,2.621346169205041576e+01,-2.303869892065497638e+00,-1.415066476098539305e-01,-8.394624520285715041e-01,5.246681430359642073e-01,7.671221280036187409e+02
8.872899858694495157e-01,2.670929193270504243e+01,-1.692392584542770528e+00,-5.835894070451913551e-02,-9.039477442401868679e-01,4.236398349109084527e-01,7.713468518840162460e+02
8.405131619075891791e-01,2.714984222421128734e+01,-1.044466653700602432e+00,2.603056505259652292e-02,-9.491982432555056137e-01,3.135970418931514070e-01,7.755715757644137511e+02
7.530130849666407666e-01,2.751782591636126796e+01,-3.761929966633127953e-01,1.098661742079944242e-01,-9.742510799301435931e-01,1.968813272514523538e-01,7.797962996448112563e+02
6.021423408112015485e-01,2.779639631315109227e+01,2.963264830432879027e-01,1.913639777129156616e-01,-9.785731644894452019e-01,7.597624481024550791e-02,7.840210235252087614e+02
3.760894790520747932e-01,2.797511198358710516e+01,9.599955490838486538e-01,2.687898121352216840e-01,-9.620725297985933677e-01,-4.654550783615237636e-02,7.882457474056062665e+02
8.522352892115568623e-02,2.805560467684263770e+01,1.607730157147602146e+00,3.404961603024806993e-01,-9.251002881095280461e-01,-1.680768329051584298e-01,7.924704712860037716e+02
-2.663717620791741791e-02,2.805143372766047705e+01,1.815796801593173582e+00,4.049572081840420723e-01,-8.684431596835877620e-01,-2.860317079260230599e-01,7.938692576050638081e+02
-3.972417160675631442e-01,2.795050056122034121e+01,2.422189651323747750e+00,3.987521469479852754e-01,-8.325045157589483491e-01,-3.846179358083867683e-01,7.980939814854613132e+02
-7.827114540598226755e-01,2.776795216643964537e+01,3.003145248792660649e+00,3.881411330487506972e-01,-7.873672394401749486e-01,-4.789543726622246256e-01,8.023187053658588184e+02
-1.161142261248509389e+00,2.751006612863254475e+01,3.554589175300487014e+00,3.732414122930279854e-01,-7.335300696595641323e-01,-5.679986664201621682e-01,8.065434292462563235e+02
-1.510507613698170104e+00,2.718267519636157914e+01,4.072448470888070382e+00,3.542176172215052432e-01,-6.715878719228439708e-01,-6.507669397998299132e-01,8.107681531266538286e+02
-1.808661955617453687e+00,2.679116547006321980e+01,4.552651835576070560e+00,3.312799480205446123e-01,-6.022250655446280687e-01,-7.263446609355880268e-01,8.149928770070513337e+02
-2.033344073003874097e+00,2.634047462980089804e+01,4.991129830542917034e+00,3.046818500166091348e-01,-5.262080615325840371e-01,-7.938967478513112574e-01,8.192176008874488389e+02
-2.162180477636563847e+00,2.583509020226408026e+01,5.383815079233816192e+00,2.747172134082784822e-01,-4.443767946485138176e-01,-8.526767951781784038e-01,8.234423247678463440e+02
-2.181434937580108979e+00,2.527962306981414642e+01,5.728168686206079663e+00,2.417171261629308954e-01,-3.576354431703377412e-01,-9.020353212086530403e-01,8.276670486482438491e+02
-2.096202006292640974e+00,2.469041588095170070e+01,6.019346815189311251e+00,2.060462159369909618e-01,-2.669424388452957819e-01,-9.414269441870329880e-01,8.318155236432169204e+02
-1.915482073344161762e+00,2.405198386524058662e+01,6.270079255803970852e+00,1.462905033991623860e-01,-1.969059290485465630e-01,-9.694457920484708113e-01,8.360402475236144255e+02
-1.652936606246367290e+00,2.338158851769673419e+01,6.477050335678678827e+00,8.518001438259657776e-02,-1.250458985165208980e-01,-9.884866657744321161e-01,8.402649714040119306e+02
-1.320506507701898924e+00,2.268593971570215118e+01,6.642308968991955886e+00,2.328068635694117636e-02,-5.202783512726086995e-02,-9.983732338232461645e-01,8.444896952844094358e+02
-9.299790333069218873e-01,2.197198114433034988e+01,6.767906130371371454e+00,-3.883423856195022256e-02,2.147204969336879987e-02,-9.990139403418151209e-01,8.487144191648069409e+02
-4.929860651326986587e-01,2.124688795634591543e+01,6.855894753286366772e+00,-1.005895219943198221e-01,9.477308288356040000e-02,-9.904028527956092454e-01,8.529391430452044460e+02
-2.100239915288779416e-02,2.051806441225175703e+01,6.908329628368427677e+00,-1.614132561355200723e-01,1.671964329358205936e-01,-9.726197168252216363e-01,8.571638669256019512e+02
4.735538116345128778e-01,1.979103015600045268e+01,6.931448427694765435e+00,-2.207421597546920244e-01,2.380713960327890122e-01,-9.458292178282586837e-01,8.613885908059994563e+02
9.252216270673518927e-01,1.914191597721322324e+01,6.938564227507166393e+00,-2.780267943412979004e-01,3.067416069536784140e-01,-9.102794560965263848e-01,8.651793028177307860e+02
1.422633782906967737e+00,1.842181243972885341e+01,6.949124878858817134e+00,-3.000134108866470140e-01,3.282587354096172527e-01,-8.956763678414886298e-01,8.694040266981282912e+02
1.898512345694136183e+00,1.770480437559443132e+01,6.980607521473182864e+00,-3.216521117786668160e-01,3.493951936226405430e-01,-8.800346116239937677e-01,8.736287505785257963e+02
2.337254757430684560e+00,1.699121797790508026e+01,7.051794210395765816e+00,-3.429178056236925065e-01,3.701264726031656682e-01,-8.633723257431583642e-01,8.778534744589233014e+02
2.723259374510928588e+00,1.628169058854713924e+01,7.181465031382541220e+00,-3.637858335003181787e-01,3.904285331313105956e-01,-8.457088316057845834e-01,8.820781983393208066e+02
3.045765116261555328e+00,1.557978087986016291e+01,7.375940638376129677e+00,-3.842319975272596166e-01,4.102778336065781573e-01,-8.270646113344843897e-01,8.863029222197183117e+02
3.303760546103691631e+00,1.489445037690882323e+01,7.616625407583020646e+00,-4.042325888986774141e-01,4.296513573227840332e-01,-8.074612840361982125e-01,8.905276461001158168e+02
3.363735082076273031e+00,1.469609406381366945e+01,7.695357902336947831e+00,-4.237644153539501524e-01,4.485266391360122618e-01,-7.869215807558521680e-01,8.918004599719630505e+02
3.506647392155643583e+00,1.407225772175583245e+01,7.957126091779065824e+00,-5.889947392222525391e-01,4.447278476287859772e-01,-6.747594673012301536e-01,8.960251838523605556e+02
3.594813815395580647e+00,1.349185326113270200e+01,8.193637414468177838e+00,-7.307265848589549195e-01,4.231862331247024933e-01,-5.356772071637232457e-01,9.002499077327580608e+02
3.632734711870381439e+00,1.296625205971502837e+01,8.373837802054591606e+00,-8.433054300395417258e-01,3.847612163491881954e-01,-3.752236107441992985e-01,9.044746316131555659e+02
3.625123807394318831e+00,1.250673928976788574e+01,8.466675968088786419e+00,-9.222398359496293274e-01,3.309857966894333425e-01,-1.998001185635852051e-01,9.086993554935530710e+02
3.576907568385515823e+00,1.212451076022624896e+01,8.441104944688012424e+00,-9.643806381598858390e-01,2.640053924372557370e-01,-1.640541090344328767e-02,9.129240793739505762e+02
3.495089038155657413e+00,1.182569774952813368e+01,8.278636198092407028e+00,-9.680465868081342684e-01,1.864922478385239168e-01,1.676438106992410026e-01,9.171488032543480813e+02
3.390479822966971923e+00,1.160634292382538746e+01,7.985893122756973384e+00,-9.330914229772016011e-01,1.015388215924332288e-01,3.450047305132193931e-01,9.213735271347455864e+02
3.290560468207340605e+00,1.147720741683536083e+01,7.634905022940599473e+00,-8.609097147148063733e-01,1.253441011768188958e-02,5.086013681393082297e-01,9.250397566458357232e+02
3.176480968502630731e+00,1.139019434031065714e+01,7.136655565549509639e+00,-9.257789621691161486e-01,-1.197834467568779926e-01,3.585850514015218038e-01,9.292644805262332284e+02
3.075205142250388324e+00,1.135576428708232477e+01,6.563157642215171172e+00,-9.497093209914263534e-01,-2.468043469831886771e-01,1.927117534889450923e-01,9.334892044066307335e+02
2.998749275621793497e+00,1.136408430501963096e+01,5.933607215021077685e+00,-9.316425752407934135e-01,-3.629113058015924764e-01,1.831655318747476419e-02,9.377139282870282386e+02
2.958937814080339734e+00,1.140508840041765382e+01,5.267203016159376361e+00,-8.723776542773923337e-01,-4.629699631972963303e-01,-1.568886276793190204e-01,9.419386521674257438e+02
2.961882230475416211e+00,1.147282889322020516e+01,4.584882784814044321e+00,-7.745353036145341541e-01,-5.425556267203267558e-01,-3.251560477206055233e-01,9.461633760478232489e+02
2.987236170644796740e+00,1.153175283984628408e+01,4.171821657794267502e+00,-6.424421969870215410e-01,-5.981489339884087375e-01,-4.790447539628385210e-01,9.487435166074565132e+02
3.058934792259411672e+00,1.166266353431471181e+01,3.522507106731953996e+00,-6.384906826440314154e-01,-5.498260069904663538e-01,-5.385341309628097761e-01,9.529682404878540183e+02
3.151771894529654894e+00,1.183447565783138522e+01,2.923808357587378115e+00,-6.307786409107827286e-01,-4.982647731778644951e-01,-5.948516806558948877e-01,9.571929643682515234e+02
3.255556770835922098e+00,1.205467971747106581e+01,2.401871508818235412e+00,-6.193514949038833040e-01,-4.437689100512706153e-01,-6.476657164237648034e-01,9.614176882486490285e+02
3.360252358956972163e+00,1.233097234360761973e+01,1.982838858025493867e+00,-6.042765470272056794e-01,-3.866593776205593525e-01,-6.966651853002410189e-01,9.656424121290465337e+02
3.451923585828452268e+00,1.266440555873094276e+01,1.683223078039159271e+00,-5.856425826185207573e-01,-3.272725284400525014e-01,-7.415614995067514315e-01,9.698671360094440388e+02
3.485371618107990344e+00,1.288149708643928015e+01,1.579589747609599693e+00,-5.635593471606454852e-01,-2.659581270575814838e-01,-7.820902357643920721e-01,9.722779632674273671e+02
3.490306409114825481e+00,1.329421137978969725e+01,1.506275695029238415e+00,-6.918871275234315110e-01,-1.836856576601466340e-01,-6.982476508642797564e-01,9.765026871478248722e+02
3.418661274325421662e+00,1.372277815850763538e+01,1.530199306665908088e+00,-7.992739545435944004e-01,-9.585368916570467801e-02,-5.932716206441515094e-01,9.807274110282223774e+02
3.243422555639274396e+00,1.414932360510687204e+01,1.638978940252171501e+00,-8.824696297096018549e-01,-5.120568717601773831e-03,-4.703393800398355529e-01,9.849521349086198825e+02
2.949259618752681611e+00,1.455976437888121033e+01,1.818864204473271018e+00,-9.389561198574835066e-01,8.576754941154007827e-02,-3.331716261177210536e-01,9.891768587890173876e+02
2.840407212295189332e+00,1.466244445627911297e+01,1.882029398348935345e+00,-9.670237672449296662e-01,1.740598154222719185e-01,-1.859199135059526331e-01,9.902990691568544435e+02
2.327860652919858886e+00,1.502272676461842948e+01,2.166438429973763125e+00,-9.761938562157843613e-01,-1.215961584346787472e-01,-1.796049257116424103e-01,9.945237930372519486e+02
1.730501926667158408e+00,1.535477866157172500e+01,2.482876842741030821e+00,-8.999112131459090502e-01,-4.066081136177935318e-01,-1.575679231111193901e-01,9.987485169176494537e+02
1.068596282892756211e+00,1.565372729428779053e+01,2.813491268902917675e+00,-7.448533120489078119e-01,-6.560269939461716993e-01,-1.217379429050800682e-01,1.002973240798046959e+03
3.622917574344321490e-01,1.591429396793808593e+01,3.140427637599363386e+00,-5.245934260381170944e-01,-8.480194337066913057e-01,-7.525142797696715569e-02,1.007197964678444464e+03
-3.681131610196287096e-01,1.613074771941009544e+01,3.446029924517474807e+00,-2.584124432483412837e-01,-9.657790431950781240e-01,-2.217766667536456501e-02,1.011422688558841969e+03
-1.101040801009678605e+00,1.629590298261081216e+01,3.718731055985895040e+00,3.038898426565806582e-02,-9.989976039449059986e-01,3.283743211010563962e-02,1.015647412439239474e+03
-1.726172522728245173e+00,1.638725979424554424e+01,3.928885998778675059e+00,3.165301593327209950e-01,-9.447673743512535749e-01,8.497803595352690365e-02,1.019352225004376919e+03
-2.396378682297105378e+00,1.642015463947065967e+01,4.140837885156786413e+00,5.221656354415984413e-01,-8.406717507795180566e-01,-1.435689959751100531e-01,1.023576948884774424e+03
-3.000748508552378180e+00,1.637110186360650843e+01,4.330624924849399093e+00,6.727879624580238582e-01,-6.480064167285661814e-01,-3.569902539987273027e-01,1.027801672765172043e+03
-3.515599783351718965e+00,1.622819757637573090e+01,4.503960033756045256e+00,7.525281419428976326e-01,-3.870697589905936487e-01,-5.328005229527520425e-01,1.032026396645569548e+03
-3.917469676752087349e+00,1.597905910448304390e+01,4.666556939358149414e+00,7.529850436588535478e-01,-8.535301657099760020e-02,-6.524771157582294201e-01,1.036251120525967053e+03
-4.192349586185902588e+00,1.561726309903202115e+01,4.822918058509475969e+00,6.741105477337854257e-01,2.253561211476149129e-01,-7.034113932084530285e-01,1.040475844406364558e+03
-4.302369906457004234e+00,1.527503905290054931e+01,4.933851116270339787e+00,5.242145990268329836e-01,5.123225999876290793e-01,-6.802371701909801782e-01,1.043555864160539841e+03
-4.341145169007922355e+00,1.470892459565794930e+01,5.082563898398953839e+00,5.355706459815422482e-01,4.104827897722863050e-01,-7.380148795679342122e-01,1.047780588040937346e+03
-4.280958433506251382e+00,1.405832522581835953e+01,5.228619863515811872e+00,5.395151459659371929e-01,3.029624903364803168e-01,-7.855794910272257958e-01,1.052005311921334851e+03
-4.134860789140872406e+00,1.333647774959436205e+01,5.372886693076945441e+00,5.359935156651725041e-01,1.912496266087694574e-01,-8.222727841094329415e-01,1.056230035801732356e+03
-3.915615662153616228e+00,1.255686884269740311e+01,5.516232153885208156e+00,5.250544905620770919e-01,7.689014036353805648e-02,-8.475869797582114007e-01,1.060454759682129861e+03
-3.635696998785483025e+00,1.173323070180474836e+01,5.659524055055014102e+00,5.068494503863905098e-01,-3.853340216873794161e-02,-8.611717665834215385e-01,1.064679483562527366e+03
-3.300946501923482934e+00,1.088106443462950601e+01,5.802080487859653246e+00,4.816303243927832489e-01,-1.534237093798969387e-01,-8.628391484079562801e-01,1.068904207442924871e+03
