3.756913194174568371e+00,9.153820190736366769e+00,-5.445877745032256634e+00,-4.244774691273385248e-01,-6.652478293919200647e-01,6.142167399977773723e-01,6.498259394517633325e+01
4.720300260394578729e+00,1.028494556335951060e+01,-6.094851240505785306e+00,-4.660236999704428507e-01,-4.632665196184472811e-01,7.537931034889726600e-01,7.365925802896140340e+01
5.252061971279607278e+00,1.179089784197647717e+01,-6.562345658022275430e+00,-4.786744931382801438e-01,-2.325607537446734430e-01,8.466311035141764751e-01,8.233592211274645933e+01
5.320614409238318743e+00,1.375267418494982508e+01,-6.802144511489666812e+00,-4.575477207284288084e-01,-3.411882747234236679e-01,8.211203592948460583e-01,9.101258619653151527e+01
4.999627371471373039e+00,1.604409247239251002e+01,-6.816472704913022262e+00,-4.305199082446257708e-01,-4.454154559402854763e-01,7.850195412953411278e-01,9.968925028031657121e+01
4.985774258401684200e+00,1.611231641936444703e+01,-6.813832123348547931e+00,-3.979396348253724236e-01,-5.438980720636336086e-01,7.387942435086072290e-01,9.993573440844978961e+01
4.389590868851211525e+00,1.850176313438388220e+01,-6.627218287087433879e+00,-3.602270896427633429e-01,-6.353659847508134062e-01,6.830406351821153299e-01,1.086123984922348598e+02
3.634264835176460373e+00,2.074204901727211237e+01,-6.268866288063764891e+00,-3.178686529652077208e-01,-7.186395233327731447e-01,6.184777724113176278e-01,1.172890625760199157e+02
2.818392594962265019e+00,2.259039971147838699e+01,-5.765322986891733059e+00,-2.714106235953647195e-01,-7.926446989337557758e-01,5.459383249529097260e-01,1.259657266598049716e+02
2.030600819271966007e+00,2.379999856175052741e+01,-5.143165485461711484e+00,-2.214521735417887827e-01,-8.564270558347816253e-01,4.663578377900708394e-01,1.346423907435900276e+02
1.349484333780503587e+00,2.412029450014463094e+01,-4.428995584337255487e+00,-1.686376207480811407e-01,-9.091639814383015716e-01,3.807626658746461890e-01,1.433190548273750835e+02
1.042460770597132269e+00,2.365462562981448968e+01,-3.967345305212393924e+00,-1.136481195019360124e-01,-9.501753160439910806e-01,2.902567375867492472e-01,1.484612551881487548e+02
7.325057507043789551e-01,2.155820760831783645e+01,-3.144789080133945536e+00,-5.719287566449159088e-02,-9.789321255492866580e-01,1.960073175694252989e-01,1.571379192719338107e+02
6.761806618040446804e-01,1.790650526921464802e+01,-2.299267376814838393e+00,-0.000000000000000000e+00,-9.950635238631806434e-01,9.922995251857512355e-02,1.658145833557188666e+02
9.767826124212996008e-01,1.334836519057398974e+01,-1.722112275885368415e+00,-1.372848541750568696e-01,-9.887334834682912632e-01,-5.964031758232857250e-02,1.744912474395039226e+02
9.817520504185758279e-01,1.330441307454001354e+01,-1.719225615901589288e+00,-2.685116056350345115e-01,-9.387736212162941518e-01,-2.158786829373943172e-01,1.745738424909750393e+02
1.380206890355023974e+00,9.427173363756518043e+00,-1.604264135764418953e+00,-2.685116054458850376e-01,-9.387736205549874757e-01,-2.158786827853214352e-01,1.832505065747600952e+02
1.337891356998151426e+00,6.837748210821089856e+00,-1.552654039928117902e+00,-2.685116054458850376e-01,-9.387736205549874757e-01,-2.158786827853214352e-01,1.919271706585451511e+02
1.099974010210721609e+00,5.101173016769647184e+00,-1.353317722619937324e+00,-2.685116054458253632e-01,-9.387736205547787538e-01,-2.158786827852734458e-01,2.006038347423302071e+02
1.290090815244853362e+00,3.811578494362369618e+00,-1.149681875086781879e+00,-4.223146706145559093e-01,-8.832675140692349824e-01,-2.036831303165826113e-01,2.092804988261152630e+02
1.688852905695768847e+00,3.253532889061159228e+00,-1.051910932309406688e+00,-5.647637663298410438e-01,-8.040146742095575227e-01,-1.860115370037118687e-01,2.140452653255603650e+02
2.833551701842309534e+00,2.466942819037005741e+00,-8.757983126266200014e-01,-6.920291413274577419e-01,-7.031458151330030049e-01,-1.633390039650282066e-01,2.227219294093454209e+02
4.275157244690919178e+00,1.865282469664449883e+00,-6.755045490326374580e-01,-8.006892548187188874e-01,-5.833727960662762335e-01,-1.362750822024591801e-01,2.313985934931304769e+02
5.858171791476600276e+00,1.404988022201070441e+00,-4.204840478984622765e-01,-8.878227641258723546e-01,-4.479157162886323595e-01,-1.055473855810845213e-01,2.400752575769155328e+02
7.425618140007058443e+00,1.049024538613182234e+00,-8.020263262777227453e-02,-9.510870658218474327e-01,-3.004163455071376942e-01,-7.198202956165759836e-02,2.487519216607005887e+02
8.819141028756174450e+00,7.669296170279231717e-01,3.758560793540291489e-01,-9.887812788619029236e-01,-1.448402169746988155e-01,-3.648142157406530917e-02,2.574285857444856447e+02
9.749149452094647117e+00,5.665995741061921054e-01,8.982714053749144556e-01,-9.998919759351018177e-01,1.462998501632728661e-02,-0.000000000000000000e+00,2.649877709955470095e+02
1.009457939247904079e+01,2.765297691445320338e-01,1.268572774360826161e+00,-9.998919679150287676e-01,1.463048489846496304e-02,-0.000000000000000000e+00,2.713461404703121502e+02
9.341220361837194730e+00,-9.834180239553607095e-01,7.827043212650760529e-01,-9.998919606002018012e-01,1.463098479091418103e-02,-0.000000000000000000e+00,2.800228045540972062e+02
7.566919771335008704e+00,-3.310379684510429410e+00,-9.568373887478109907e-01,-9.789433609053522778e-01,-2.146098598938219609e-02,-2.029958674759157755e-01,2.886994686378822621e+02
6.894289722781773655e+00,-4.553579005011719083e+00,-1.891743645836051924e+00,-9.994734697618637975e-01,1.965528193409895458e-02,2.577698847079469904e-02,2.929048761537363816e+02
6.513260989881415775e+00,-6.745101184296404817e+00,-3.322309829682076998e+00,-9.655831159626707683e-01,5.970131734665728995e-02,2.531462005949740024e-01,3.015815402375214376e+02
6.715631341323823555e+00,-8.420923731549724067e+00,-4.311441493637883760e+00,-8.791176594108421893e-01,9.649665775379426269e-02,4.667317601742526634e-01,3.102582043213064935e+02
6.959035708602829828e+00,-9.409137852662041723e+00,-4.987737866920542551e+00,-7.447850786012693014e-01,1.280378416000694519e-01,6.549041897959472225e-01,3.189348684050915494e+02
6.830243363262974654e+00,-9.632299334741283303e+00,-5.523358284306214117e+00,-7.159432701968800883e-01,1.123736965406986477e-01,6.890539791472011233e-01,3.276115324888766054e+02
6.790560680584841968e+00,-9.607419538869264031e+00,-5.571001426162776937e+00,-6.854952957433279037e-01,9.645744975067196969e-02,7.216579244311597252e-01,3.283969988504130129e+02
6.015602433643516100e+00,-8.974004460228023561e+00,-6.253008751640293461e+00,-6.535094550883364661e-01,8.032480416534724943e-02,7.526428887185023786e-01,3.370736629341980688e+02
5.141589734561839542e+00,-8.328524499689450522e+00,-6.949910067594352370e+00,-6.200574967865772891e-01,6.401194805050879066e-02,7.819393654098425461e-01,3.426735174398660888e+02
3.272409310555886464e+00,-7.159158557316803062e+00,-8.504983650324319910e+00,-5.440934846859657448e-01,1.108354042195011518e-01,8.316704834811404767e-01,3.513501815236511447e+02
1.160799445303868138e+00,-6.023091091919009266e+00,-1.032046975755711671e+01,-4.624512511705530238e-01,1.565021460263756881e-01,8.727221313684311310e-01,3.600268456074362007e+02
-8.092201813204478178e-01,-5.159372508031427884e+00,-1.201290774698131969e+01,-3.759828297056721502e-01,2.005355914990202826e-01,9.046658987213365144e-01,3.687035096912212566e+02
-2.263470707338166132e+00,-4.822854236138771178e+00,-1.319886255150070653e+01,-2.855906169936776040e-01,2.424762050297097071e-01,9.271684256274177471e-01,3.773801737750063126e+02
-2.837856653073681734e+00,-5.283883620876657083e+00,-1.349500470485431514e+01,-1.922179557698740493e-01,2.818862926419102855e-01,9.399948805718414402e-01,3.860568378587913685e+02
-2.804305629883368844e+00,-5.484048841351148340e+00,-1.343101776701325356e+01,-9.683929059190536648e-02,3.183545692721505560e-01,9.430114103351520116e-01,3.873951322043604932e+02
-1.596570841895559312e+00,-7.787635310511534570e+00,-1.208412749046361157e+01,-4.499992964603603558e-04,3.515004504558069121e-01,9.361865363436262522e-01,3.960717962881455492e+02
2.447472801353830774e-01,-1.071193355935450953e+01,-9.813261583895453555e+00,-6.074690999519222201e-01,7.795978449197799032e-01,1.523367742923535106e-01,4.047484603719306051e+02
1.054135182414183802e+00,-1.265305962269383677e+01,-8.079752310385426739e+00,-4.750683848472044835e-01,8.600920755090900593e-01,1.858753651398880880e-01,4.124121790381846040e+02
5.781062950422093394e-01,-1.358464392199536164e+01,-6.952937316277870039e+00,-3.307272325621861131e-01,9.189686139930205444e-01,2.147421340542721158e-01,4.210888431219696599e+02
-7.168720253847304935e-01,-1.356194438910952371e+01,-6.435589776096652948e+00,-1.780735009617349096e-01,9.547476568429873467e-01,2.382115446581711815e-01,4.297655072057547159e+02
-1.676911290878017047e+00,-1.316446565075494668e+01,-6.349448599313808117e+00,-2.094397647220330033e-02,9.665299142310507241e-01,2.556937127618195693e-01,4.350274833273855393e+02
-3.252171407667193481e+00,-1.211466964852448847e+01,-6.386222693413453833e+00,2.739875347888599544e-01,8.130576413732636398e-01,5.136789878771056417e-01,4.437041474111705952e+02
-4.809709987445607737e+00,-1.083244647426543317e+01,-6.393736145095875401e+00,5.203971143375245578e-01,5.155969956190622483e-01,6.806941908814079234e-01,4.523808114949556511e+02
-6.459129211442988350e+00,-9.470904749076895612e+00,-6.123085443687728002e+00,6.746469744003802393e-01,1.268268071976453026e-01,7.271618945670981216e-01,4.610574755787407071e+02
-7.266101215540543556e+00,-8.877147778510350307e+00,-5.824432839256725281e+00,8.077815046440450786e-01,1.081234692092996053e-01,5.794793837255493019e-01,4.649508163910221015e+02
-9.138571336534958789e+00,-7.622397256170432733e+00,-4.773265941350754105e+00,9.086978079204235392e-01,8.510764760043708355e-02,4.086844530959478639e-01,4.736274804748071574e+02
-1.089945684377373070e+01,-6.421188721926805343e+00,-3.413629126571689376e+00,9.733708687796730485e-01,5.869732137132332994e-02,2.215892061374117039e-01,4.823041445585922133e+02
-1.232802633003152515e+01,-5.273478370483543287e+00,-1.896460152623637541e+00,9.992212075264467197e-01,2.994585760051283324e-02,2.565587736558997203e-02,4.909808086423772693e+02
-1.320339437270275695e+01,-4.188383541136817101e+00,-3.727296258970086429e-01,9.852177632737224577e-01,0.000000000000000000e+00,-1.713007849691814133e-01,4.996574727261623252e+02
-1.339898679298309325e+01,-3.177223269957335727e+00,1.054912410423177738e+00,9.412827112319718248e-01,2.485111187312669680e-06,-3.376164355160241048e-01,5.083341368099473812e+02
-1.298597608443689566e+01,-2.262657623596411760e+00,2.350242892577000031e+00,8.694939315277796510e-01,4.896684889824882808e-06,-4.939415987879771652e-01,5.168135734390102698e+02
-1.209883628584351811e+01,-1.392975758710679912e+00,3.615395917271432502e+00,7.719757252521629587e-01,7.163359964826712552e-06,-6.356504381896357359e-01,5.254902375227953826e+02
-1.090017666871069757e+01,-5.740409555736613045e-01,4.862237941838753130e+00,6.516137487405884166e-01,9.218062815924029293e-06,-7.585496176042126892e-01,5.341669016065804954e+02
-9.543392608115045306e+00,2.161447456965656100e-01,6.133142225413269699e+00,5.119696326534545205e-01,1.099999210732660065e-05,-8.590023836518065892e-01,5.428435656903656081e+02
-8.178604674059986479e+00,1.002432115863576723e+00,7.415394829842345992e+00,5.075412139229181774e-01,6.629455065188536236e-03,-8.616008161847767965e-01,5.515202297741507209e+02
-6.965998858644419478e+00,1.798606119290332650e+00,8.571786180582229520e+00,5.030771840271827111e-01,1.324744292923872753e-02,-8.641387921638686853e-01,5.600851580535378389e+02
-6.014859198515477345e+00,2.651836645507121393e+00,9.455694697605773413e+00,4.985778554918791627e-01,1.986450027995303319e-02,-8.666161339353937176e-01,5.687618221373229517e+02
-5.481499410006199113e+00,3.583905585987669173e+00,9.874542629114962722e+00,4.940435433079764516e-01,2.648016387834342678e-02,-8.690326680809909998e-01,5.774384862211080645e+02
-5.505877321050974160e+00,4.633041114193254373e+00,9.650546973187598354e+00,4.894745648987840481e-01,3.309397058227765698e-02,-8.713882254100546731e-01,5.861151503048931772e+02
-6.125666750403501837e+00,5.808786716892960555e+00,8.701950991007155523e+00,6.350126994351561471e-01,1.366653104152221535e-02,-7.723795035383708152e-01,5.947918143886782900e+02
-6.144026200128466009e+00,5.833879069273296913e+00,8.675357444008319874e+00,7.606358057586176669e-01,-6.189505862635049857e-03,-6.491477959727236513e-01,5.949680667067356126e+02
-7.197367735693961599e+00,7.077921843827688519e+00,7.110768761429959284e+00,8.624041727641009736e-01,-2.585142454941337029e-02,-5.055578568761787128e-01,6.036447307905207253e+02
-8.414967018491312345e+00,8.285258502863330321e+00,5.142146368746990603e+00,9.371262156633992646e-01,-4.470259885802064376e-02,-3.461128913711962740e-01,6.123213948743058381e+02
-9.539624362100996180e+00,9.343097678192457067e+00,2.975774885223865240e+00,9.824585608820066707e-01,-6.215182979163335480e-02,-1.758133277225957525e-01,6.209980589580909509e+02
-1.031882327858236437e+01,1.012804106831147699e+01,8.179801555447592243e-01,9.969795307178351829e-01,-7.765188556181246149e-02,-0.000000000000000000e+00,6.296747230418760637e+02
-1.059087951627631696e+01,1.055786567575655077e+01,-1.175921151455508129e+00,9.848896877147136353e-01,-6.537706492768109723e-02,1.603625343291227023e-01,6.383513871256611765e+02
-1.036831966129827798e+01,1.064802558370439556e+01,-2.952661295710479639e+00,9.471798814793425114e-01,-5.140158925058702782e-02,3.165535479900630778e-01,6.470280512094462892e+02
-9.967811122739295371e+00,1.052938545439702267e+01,-3.963727847078209354e+00,8.848310558812244597e-01,-3.608900206810867345e-02,4.645100499231253899e-01,6.526254349302826085e+02
-9.026524286143239095e+00,1.012975780422816285e+01,-5.319781213866169089e+00,7.994650843517199235e-01,-1.983762900307772109e-02,6.003832504156387806e-01,6.613020990140677213e+02
-7.840839918736542735e+00,9.577915707045109528e+00,-6.452922191397521878e+00,6.933025823881638905e-01,-3.070216475057450153e-03,7.206386771650141743e-01,6.699787630978528341e+02
-6.498680510936576837e+00,8.952380590039615171e+00,-7.361063828171561241e+00,5.691051459498468468e-01,1.377706487124013071e-02,8.221481164231774219e-01,6.786554271816379469e+02
-5.084557039015692226e+00,8.335214734377593970e+00,-8.042166072430147139e+00,4.301035175188639981e-01,3.026596604827190215e-02,9.022709878512649162e-01,6.873320912654230597e+02
-3.682742347734046628e+00,7.760857245480279332e+00,-8.507024392769748644e+00,3.620936210792603527e-01,2.800493288861682917e-02,9.317198792052757694e-01,6.960087553492081724e+02
-2.383197055721200108e+00,7.165159871847705197e+00,-8.792055721676661051e+00,2.920930421852076520e-01,2.558993689787549333e-02,9.560464475302475895e-01,7.046854194329932852e+02
-2.354021931828585767e+00,7.149961744453670498e+00,-8.796990960515968183e+00,2.204866156156566059e-01,2.303425473712938931e-02,9.751169547503389934e-01,7.048924042306986166e+02
-1.257808121306839277e+00,6.414795709552143066e+00,-8.950944059124495311e+00,1.476680042147909544e-01,2.035193646738437875e-02,9.888265566880370949e-01,7.135690683144837294e+02
-4.639851849143185047e-01,5.437018868417427875e+00,-9.024757891593042203e+00,7.403753522896741601e-02,1.755772832881560483e-02,9.970998794258661979e-01,7.222457323982688422e+02
-7.833461854450012030e-02,4.113562824257729567e+00,-9.067719152039389385e+00,0.000000000000000000e+00,1.466699169439458252e-02,9.998914337827495835e-01,7.309223964820539550e+02
-1.392573346125724199e-01,2.796761479152409358e+00,-9.101301534724427711e+00,-0.000000000000000000e+00,9.777854151386740703e-03,9.999511955267309515e-01,7.379002473021155311e+02
-6.288815275551571382e-01,1.162271154706355780e+00,-9.130415239860985466e+00,-0.000000000000000000e+00,4.888485347683178828e-03,9.999870512053840033e-01,7.465769113859006438e+02
-1.416436096439239289e+00,2.447770795432463453e-02,-9.112219742986289006e+00,-0.000000000000000000e+00,-9.999989999326389967e-07,9.999989999326391876e-01,7.552535754696857566e+02
-1.963617884136470204e+00,-1.603904430164070916e-01,-9.075161891444595952e+00,3.333330244558467605e-07,-9.999989992935611084e-07,9.999989992935611749e-01,7.600325983300808730e+02
-3.229822544537758411e+00,1.869373733630136647e-01,-9.036678840920592037e+00,6.666659748376030689e-07,-9.999989992933944546e-07,9.999989992933945304e-01,7.687092624138659858e+02
-4.967105922704959653e+00,8.203178275413597342e-01,-9.171214580131069383e+00,9.999989992928942817e-07,-9.999989992928942817e-07,9.999989992928942639e-01,7.773859264976510985e+02
-5.085090413299222512e+00,8.570363308927302359e-01,-9.186681260780172664e+00,2.136536391130217372e-01,-2.736271494305166363e-01,9.378050466857821288e-01,7.778831474013238676e+02
-7.318003533623815393e+00,1.425328679513763630e+00,-9.521040653137083254e+00,4.007305300104290202e-01,-5.132176219660787853e-01,7.589602854049946057e-01,7.865598114851089804e+02
-9.468277473102228114e+00,1.947692579514683553e+00,-9.767897958776719847e+00,5.379617392347881832e-01,-6.889704772059251914e-01,4.857106635220103108e-01,7.952364755688940932e+02
-1.079043214642804926e+01,2.517741544834589895e+00,-9.524312622506496240e+00,6.082774653435700785e-01,-7.790243152625521139e-01,1.520448663574272274e-01,8.039131396526792059e+02
-1.082797766128354411e+01,2.902160892003562420e+00,-8.964019745792212390e+00,5.495679387846780228e-01,-8.320559301229025762e-01,7.520644790477032382e-02,8.090429698217538999e+02
-9.767097594001711514e+00,3.589373162136946682e+00,-7.368374075219854547e+00,4.841738487722463957e-01,-8.749669698854695143e-01,-2.546718237980990715e-03,8.177196339055390126e+02
-8.068994809117313594e+00,4.234950076161178245e+00,-5.336949068686694275e+00,4.128905968790096415e-01,-9.072355028656561293e-01,-8.026890648445932086e-02,8.263962979893241254e+02
-6.327569703995624018e+00,4.775487245162703509e+00,-3.157397797080275570e+00,3.365852128305096835e-01,-9.284690393758897597e-01,-1.570147681693106201e-01,8.350729620731092382e+02
-5.138747125950080985e+00,5.172139375419679830e+00,-1.117404195665374855e+00,2.561858103071208981e-01,-9.384093051544788455e-01,-2.318508283259674008e-01,8.437496261568943510e+02
-4.575967095943578755e+00,5.459184597564638253e+00,5.827222993378817772e-01,1.283283239993097680e-01,-9.079911778301084091e-01,-3.988506766232678968e-01,8.524262902406794637e+02
-4.025019580516692841e+00,5.745876729658054849e+00,1.903522477087018716e+00,-5.324672082127412422e-03,-8.365665217215753069e-01,-5.478376608109032375e-01,8.611029543244645765e+02
-3.897520527335127660e+00,5.800685676141090319e+00,2.073190981324149806e+00,-1.387371622425130346e-01,-7.273610345909399255e-01,-6.720832724988929918e-01,8.624486719149061855e+02
-2.825552634355829262e+00,6.253355949304338246e+00,2.995859079230750233e+00,-2.658840059116727716e-01,-5.853066539432054682e-01,-7.659763810010675744e-01,8.711253359986912983e+02
-1.471844413482759517e+00,6.855844854391270893e+00,3.749693045654393764e+00,-3.810230403300212121e-01,-4.168188139263647729e-01,-8.252766318611660656e-01,8.798020000824764111e+02
5.705865569255267472e-02,7.662062576314399465e+00,4.499524018850329377e+00,-4.789543995528241505e-01,-2.295067122760384437e-01,-8.473059377643092915e-01,8.884786641662615239e+02
1.648193284363369093e+00,8.670247269344146801e+00,5.343998712539944407e+00,-4.789543992147112794e-01,-2.295067121140205724e-01,-8.473059371661625372e-01,8.971553282500466366e+02
2.499922851118813849e+00,9.289713848639422622e+00,5.850388213368361789e+00,-4.789543992147503593e-01,-2.295067121140393629e-01,-8.473059371662318151e-01,9.019605574474145442e+02
3.872841860076638998e+00,1.038464913832586056e+01,6.757024484017777333e+00,-4.789543992147700102e-01,-2.295067121140486888e-01,-8.473059371662663430e-01,9.106372215311996570e+02
4.947602271451722267e+00,1.130151387621275916e+01,7.569271128408792570e+00,-4.789543992147700657e-01,-2.295067121140487165e-01,-8.473059371662663430e-01,9.193138856149847697e+02
5.567526369372655104e+00,1.187840071284798782e+01,8.187207048085019423e+00,-4.789543992147504148e-01,-2.295067121140393629e-01,-8.473059371662318151e-01,9.279905496987698825e+02
5.569047860119975546e+00,1.195988180746031482e+01,8.510951625796012721e+00,-4.789543992147113349e-01,-2.295067121140205724e-01,-8.473059371661625372e-01,9.366672137825549953e+02
5.227565318864638932e+00,1.170797752361010602e+01,8.502906735749862221e+00,-4.789543992146525486e-01,-2.295067121139924560e-01,-8.473059371660587313e-01,9.407814125213211582e+02
3.793052643018295367e+00,1.055707634695765762e+01,8.140006167863392150e+00,-3.675564515657073761e-01,-3.068156286042169612e-01,-8.779319022319553856e-01,9.494580766051062710e+02
1.859738460788531444e+00,8.943184041283132046e+00,7.509323430174874581e+00,-2.490558033441299390e-01,-3.781955798932375434e-01,-8.915925696022065639e-01,9.581347406888913838e+02
-1.860185252601098405e-01,7.096278253188275542e+00,6.784443374030400875e+00,-1.257423532217308015e-01,-4.422672261940993055e-01,-8.880239643391869553e-01,9.668114047726764966e+02
-1.948998979395229370e+00,5.230069506090653242e+00,6.138970433615890343e+00,9.999988887663479212e-07,-4.977924468356665910e-01,-8.672950362314982842e-01,9.754880688564616094e+02
-3.172506355899185060e+00,3.480031050037039719e+00,5.694145541181990566e+00,3.514015290458252089e-02,-4.215131910517246894e-01,-9.061400550813538679e-01,9.841647329402467221e+02
-3.734025119981721375e+00,2.187720491744542528e+00,5.512019607553311218e+00,6.997842319652719523e-02,-3.416248492725804109e-01,-9.372264841787657508e-01,9.910435143258105199e+02
-4.087997370086598359e+00,6.271235164141055751e-01,5.465221048227430600e+00,1.042175211117799816e-01,-2.588114367014032746e-01,-9.602881591092922164e-01,9.997201784095956327e+02
-4.258321441543515107e+00,-9.087758364996573190e-01,5.571205596065182064e+00,1.375642869419407277e-01,-1.737820123452249732e-01,-9.751276219771970455e-01,1.008396842493380746e+03
-4.427810218238708018e+00,-2.461398885630190048e+00,5.794020095514072821e+00,1.697332007446092084e-01,-8.726460886427001018e-02,-9.816178118820082510e-01,1.017073506577165858e+03
-4.780786328707536725e+00,-4.064586817501163019e+00,6.097686942293189638e+00,2.004488266898622750e-01,-0.000000000000000000e+00,-9.797031529384774284e-01,1.025750170660950971e+03
-5.404464680816726485e+00,-5.694488440858553879e+00,6.445333533648290647e+00,3.056611618144532971e-01,1.657757933984467871e-02,-9.519949779391456701e-01,1.034426834744735970e+03
-5.857628915716865059e+00,-6.578342484786340982e+00,6.648833206973442600e+00,4.071712243722767632e-01,3.295436125402968069e-02,-9.127560485243285671e-01,1.039362803459668157e+03
-6.659098863122897782e+00,-7.920695405215722573e+00,6.985632661475928096e+00,5.037495157227999121e-01,4.893198834348876786e-02,-8.624616431623362001e-01,1.048039467543453156e+03
-7.278215810608439362e+00,-8.899971976701300136e+00,7.265778897547662041e+00,5.942262733102727790e-01,6.431693823503058238e-02,-8.017209412036631067e-01,1.056716131627238155e+03
-7.489179843229914368e+00,-9.360046689021366717e+00,7.449769631385984248e+00,6.775056371875519678e-01,7.892286728681477403e-02,-7.312696442482701231e-01,1.065392795711023155e+03
-7.315871637294183216e+00,-9.277312235545950969e+00,7.481890335169425477e+00,7.525789214881516420e-01,9.257286733493137743e-02,-6.519610656823969785e-01,1.069527337095564462e+03
-6.274573142439961337e+00,-8.511921472755940243e+00,7.438105785546004434e+00,5.180755565873944590e-01,2.416166281999151677e-01,-8.204980942364191732e-01,1.078204001179349461e+03
-4.535986370231626097e+00,-7.457186728305676304e+00,7.338526215153938104e+00,2.288578106117855893e-01,3.651430610599828985e-01,-9.023816528959226480e-01,1.086880665263134460e+03
-2.176356468196647409e+00,-6.549573356839696991e+00,7.281809279711962901e+00,-8.452989841296686124e-02,4.501064590673757859e-01,-8.889639316536507296e-01,1.095557329346919460e+03
-1.138080808337313954e+00,-6.371208234306867446e+00,7.296376930153547491e+00,-2.525507088746741791e-01,3.671836851625728815e-01,-8.952051612888420884e-01,1.098758131633647281e+03
1.829584699133954606e+00,-6.351007615754987512e+00,7.461725426817523044e+00,-4.116952776148754545e-01,2.713558278645691879e-01,-8.699833406879575737e-01,1.107434795717432280e+03
4.455377341916018530e+00,-6.683888994995839106e+00,7.784296536211111395e+00,-5.563703187369850589e-01,1.659908573385144304e-01,-8.141849321312262244e-01,1.116111459801217279e+03
6.113549913203617514e+00,-7.173287563660279531e+00,8.275528321288277311e+00,-6.814910863539269670e-01,5.479192654279781138e-02,-7.297710216270740791e-01,1.124788123885002278e+03
6.440378733527089672e+00,-7.642977391365154638e+00,8.914843238601347863e+00,-5.646393260534413594e-01,4.716349500984133580e-02,-8.239878859627867147e-01,1.133464787968787277e+03
5.672836781829576402e+00,-7.960500931549281844e+00,9.544898852957071966e+00,-4.350327400933866606e-01,3.846967108914055300e-02,-8.995913513670295014e-01,1.141209167397182000e+03
4.011556172115563257e+00,-8.163083223646538045e+00,1.020709138506790836e+01,-2.955990500638104868e-01,2.890684225427228582e-02,-9.548736021450807687e-01,1.149885831480966999e+03
1.941167489819922487e+00,-8.186961770247119574e+00,1.071220473815269436e+01,-1.494879576067057458e-01,1.869102560032454702e-02,-9.885858567133879449e-01,1.158562495564751998e+03
-1.303882349397004203e-01,-8.024011031815209805e+00,1.094371725848484189e+01,-0.000000000000000000e+00,8.052988517099743740e-03,-9.999665741297896204e-01,1.167239159648536997e+03
-1.930540628828066430e+00,-7.724033095941458704e+00,1.083943841414800424e+01,2.522642347650952757e-02,-8.197163859895817417e-02,-9.963143469927271401e-01,1.175915823732321996e+03
-1.946839940052115692e+00,-7.720600805852894766e+00,1.083669462792584248e+01,5.023200919067417197e-02,-1.712786671229315494e-01,-9.839402235099464766e-01,1.176002597172595415e+03
-3.476116972906509339e+00,-7.425844482625577392e+00,1.044312687149584740e+01,7.479785807258813868e-02,-2.590863027140812846e-01,-9.629525264378679950e-01,1.184679261256380414e+03
-4.878081904056086771e+00,-7.317689150802785925e+00,9.861965230776416291e+00,9.870892012822064798e-02,-3.446258753909626771e-01,-9.335349779720014674e-01,1.193355925340165413e+03
-6.301832904828340354e+00,-7.570661199876471237e+00,9.194011097918071584e+00,1.217558766212737814e-01,-4.271485671580905197e-01,-8.959450921131094647e-01,1.202032589423950412e+03
-7.348769340831362129e+00,-8.044492372500545940e+00,8.726790473919104230e+00,3.136711860113177708e-01,-3.682942701586291445e-01,-8.751958167379476627e-01,1.207929869767793889e+03
-8.985387367989009277e+00,-9.068897318943438535e+00,8.015531866896465019e+00,4.928118871344079333e-01,-2.944408746081474404e-01,-8.188034045241580072e-01,1.216606533851578888e+03
-1.062340628883325699e+01,-1.017397561317980248e+01,7.234100245215961955e+00,6.518823414405642280e-01,-2.085961333910409943e-01,-7.290645143290308550e-01,1.225283197935363887e+03
-1.214346313004891975e+01,-1.109816733150329604e+01,6.332383238076555898e+00,7.844042972156781701e-01,-1.142561456077224175e-01,-6.096338505218306114e-01,1.233959862019148886e+03
-1.341559688585358856e+01,-1.158499894369074035e+01,5.260293506567818689e+00,8.849807075426920910e-01,-1.526297770940438295e-02,-4.653753203493267154e-01,1.242636526102933885e+03
-1.432774777727347981e+01,-1.156758230968721790e+01,4.005659679704723253e+00,9.343647041290175093e-01,-2.846673670068930462e-02,-3.551763570108807944e-01,1.251313190186718884e+03
-1.447159715779838685e+01,-1.149369366264099490e+01,3.660830508435724884e+00,9.699603113204490201e-01,-4.125040997248095864e-02,-2.397361010369448153e-01,1.253503822420338793e+03
-1.468595495370703219e+01,-1.123391703652177753e+01,2.247422516541535131e+00,9.912422606451662954e-01,-5.342535265000009775e-02,-1.207580738722864311e-01,1.262180486504123792e+03
-1.447006979178240016e+01,-1.139439927353640769e+01,8.422699871704310004e-01,9.978964962917117321e-01,-6.481190233636946463e-02,1.999996986248517972e-06,1.270857150587908791e+03
-1.408147897776659718e+01,-1.195473803457547568e+01,-2.280651481482798097e-04,9.842838733157226461e-01,1.297267356343901890e-01,1.198091431993938277e-01,1.276364922682093948e+03
-1.315330340432804768e+01,-1.347363909327686748e+01,-1.229768820708522670e+00,9.191100942929432138e-01,3.174697010911591843e-01,2.333401454097311090e-01,1.285041586765878947e+03
-1.201636721736584157e+01,-1.530004923790495930e+01,-2.365679252392562937e+00,8.057892435783569063e-01,4.885822047769387555e-01,3.346477612513469868e-01,1.293718250849663946e+03
-1.077904277357190033e+01,-1.705694231231725411e+01,-3.417872508688872379e+00,6.502575451219111402e-01,6.341006231837181817e-01,4.184250526577707463e-01,1.302394914933448945e+03
-9.534263147946884231e+00,-1.836309387998808873e+01,-4.396279188749360856e+00,4.606624106662593476e-01,7.464020451143851265e-01,4.802833855647918315e-01,1.311071579017233944e+03
-8.335917152120771334e+00,-1.897121236343544126e+01,-5.306296697301275067e+00,3.805832495055258002e-01,7.097300036650328048e-01,5.928218215401718227e-01,1.319748243101018943e+03
-7.395077668150817018e+00,-1.891270537103369165e+01,-5.991165001663512513e+00,2.927316625650895343e-01,6.585635467734259896e-01,6.932533653679321395e-01,1.326825654046477666e+03
-6.265329922576793997e+00,-1.830969728701231602e+01,-6.752940234633040717e+00,1.989017844505161503e-01,5.939476165056397639e-01,7.795269777182354254e-01,1.335502318130262665e+03
-5.143475931988458427e+00,-1.733228560697925857e+01,-7.427731522755195215e+00,1.010098369689698267e-01,5.172018180642133922e-01,8.498807517688982127e-01,1.344178982214047664e+03
-4.019660350694350903e+00,-1.614506793033000065e+01,-8.007352559349243393e+00,1.054998706094199953e-03,4.298934727560758673e-01,9.028778926631518820e-01,1.352855646297832664e+03
-2.901817263851347306e+00,-1.487219395631904639e+01,-8.454287207617115385e+00,8.523254725032466212e-04,3.558622050868928688e-01,9.345369786853804372e-01,1.361532310381617663e+03
-2.890632902103447588e+00,-1.485913801928278311e+01,-8.457953873053527971e+00,6.441266267421644253e-04,2.795238886763748432e-01,9.601374801341986398e-01,1.361619784419703819e+03
-1.813604569820195023e+00,-1.354258519569979136e+01,-8.675035535865948333e+00,4.317518835647992542e-04,2.013734106848819871e-01,9.795134317902535193e-01,1.370296448503488818e+03
-8.246676943883679556e-01,-1.218267365184899376e+01,-8.536488351229058580e+00,2.165780294865493909e-04,1.219174061234336998e-01,9.925392179535067472e-01,1.378973112587273818e+03
2.914127582299791408e-02,-1.077743158295544568e+01,-7.916897185656042168e+00,0.000000000000000000e+00,4.167097442637810595e-02,9.991303868302074953e-01,1.387649776671058817e+03
6.357527831234188742e-01,-9.524822344258467410e+00,-6.906028980345369384e+00,1.032406556290913251e-05,-2.779750678761719329e-01,9.605872482661308442e-01,1.395205345963566742e+03
1.206975834794357549e+00,-8.101941132994088690e+00,-5.260225830732736974e+00,1.957795075190678791e-05,-5.688065725834510200e-01,8.224701104604750235e-01,1.403882010047351741e+03
1.713098126007766453e+00,-6.767756716950718676e+00,-3.247357654915262515e+00,2.680239705031068863e-05,-8.006759287588272045e-01,5.990960326909358091e-01,1.412558674131136740e+03
2.212440268209306282e+00,-5.599483848703392219e+00,-9.954572050040975117e-01,3.124851756664310414e-05,-9.495475352928711699e-01,3.136199567013510103e-01,1.421235338214921740e+03
2.760138208220672684e+00,-4.676749910277004929e+00,1.367392901763677893e+00,3.245543101655662686e-05,-9.999894700321844132e-01,-4.365635202180351108e-03,1.429912002298706739e+03
3.408106023662107464e+00,-4.081496370931364304e+00,3.713086897500854189e+00,3.029803583939320408e-05,-9.467731442714601986e-01,-3.218984503977175282e-01,1.438588666382491738e+03
4.204999896582044094e+00,-3.897879369448425724e+00,5.913522581495977981e+00,2.499997267778497785e-05,-7.954151306989206693e-01,-6.060633376395629934e-01,1.447265330466276737e+03
5.158582352636976509e+00,-4.168353061980323737e+00,7.871612886519135266e+00,6.594276699033897867e-04,-7.279391461337054725e-01,-6.856399672438280302e-01,1.455941994550061736e+03
6.200442523226490366e+00,-4.847699702626852236e+00,9.552290972041387107e+00,1.286676850517918082e-03,-6.525389176860599827e-01,-7.577527996442661173e-01,1.464618658633846735e+03
7.227136645992364272e+00,-5.843752155923141345e+00,1.095153267340481484e+01,1.899919385305095902e-03,-5.700352421367644862e-01,-8.216168285943317162e-01,1.473295322717631734e+03
7.453899902428475777e+00,-6.130715975014411789e+00,1.123374059945049019e+01,2.492479622424557777e-03,-4.813262418474493765e-01,-8.765368426115152101e-01,1.475350588592802978e+03
8.281079726731579882e+00,-7.496491663732490096e+00,1.221487091203670694e+01,3.057907054187384947e-03,-3.873775882268054027e-01,-9.219149924722115363e-01,1.484027252676587977e+03
8.873251906735248440e+00,-8.957342314655420523e+00,1.290578435313664052e+01,3.590046533035761312e-03,-2.892119900033395252e-01,-9.572572989563206125e-01,1.492703916760372977e+03
9.139483000282536906e+00,-1.040831012986899573e+01,1.330265625644729255e+01,4.083105272705793778e-03,-1.878980606891937077e-01,-9.821790300354782399e-01,1.501380580844157976e+03
8.992827212536113279e+00,-1.174075366401619824e+01,1.340172319822361580e+01,4.531715905505841711e-03,-8.453868636852077123e-02,-9.964088889902448232e-01,1.510057244927942975e+03
8.350382415809129100e+00,-1.284246983831824629e+01,1.319928377855683266e+01,4.930994909503488323e-03,1.974097962046407820e-02,-9.997919678680230460e-01,1.518733909011727974e+03
7.202174676703515743e+00,-1.364869181908924034e+01,1.272064632927796879e+01,4.238150800463905653e-03,5.518605183787778784e-02,-9.984660924415885708e-01,1.527410573095512973e+03
5.677311049942471932e+00,-1.419685862767936690e+01,1.204907056923307351e+01,3.539972769390534960e-03,9.056165778173984326e-02,-9.958835548035114282e-01,1.536087237179297972e+03
5.540742214786583908e+00,-1.423087342938388922e+01,1.198854857453475198e+01,2.837339486337213043e-03,1.258232768249264721e-01,-9.920476059692343584e-01,1.536793681076719395e+03
3.815150844874267921e+00,-1.457210886087376345e+01,1.123412953315004792e+01,2.131135225806050221e-03,1.609265318424786817e-01,-9.869630740850851014e-01,1.545470345160504394e+03
2.115294636025515818e+00,-1.486053883947294807e+01,1.052042300347839543e+01,1.422248754692138082e-03,1.958272450174003143e-01,-9.806363583474979606e-01,1.554147009244289393e+03
6.276159113104149423e-01,-1.520697871442534677e+01,9.959684257091016235e+00,7.115722146123264419e-04,2.304814933958156675e-01,-9.730754209528632570e-01,1.562823673328074392e+03
-4.658550011625594012e-01,-1.572989507102381346e+01,9.664136518604619752e+00,0.000000000000000000e+00,2.648456641220581220e-01,-9.642897770852628669e-01,1.571500337411859391e+03
-1.052620954675676623e+00,-1.647035275691036205e+01,9.620095447082743334e+00,-0.000000000000000000e+00,2.840838736695950328e-01,-9.587983900172106777e-01,1.580177001495644390e+03
-1.124925353359303326e+00,-1.710158756127706781e+01,9.598695024807854637e+00,-0.000000000000000000e+00,3.032083730870910876e-01,-9.529232301022695362e-01,1.586639509500936583e+03
-7.995437605398471037e-01,-1.787282337414903566e+01,9.243899900046820051e+00,-0.000000000000000000e+00,3.222115122643331997e-01,-9.466666474227826145e-01,1.595316173584721582e+03
-4.842927468842046501e-01,-1.811812607413483533e+01,8.817474100063618536e+00,-0.000000000000000000e+00,3.410856895361299435e-01,-9.400311443624989050e-01,1.599338965808190324e+03
5.039114288926274110e-01,-1.829287830531118431e+01,7.223489624644842344e+00,-3.230183608123804451e-01,4.467920794801609752e-01,-8.342865073179728252e-01,1.608015629891975323e+03
1.764184946381609942e+00,-1.805632087533091124e+01,5.068401144593746466e+00,-6.051112637003469574e-01,4.958913024062636676e-01,-6.228404087259294952e-01,1.616692293975760322e+03
3.234797538928040783e+00,-1.736709795904076614e+01,2.669170399962983442e+00,-8.105384596092877203e-01,4.821626669404919241e-01,-3.324824327753394537e-01,1.625368958059545321e+03
4.855959713160596714e+00,-1.618113973099722713e+01,3.428100419225655893e-01,-9.132730123892983665e-01,4.073455594977313243e-01,-0.000000000000000000e+00,1.634045622143330320e+03
6.575696092020314687e+00,-1.451113986874186601e+01,-1.669505671984449213e+00,-9.254906391312097691e-01,3.769718122377380132e-01,-3.684195513810738926e-02,1.642722286227115319e+03
8.203624799617653451e+00,-1.265061232160370430e+01,-3.146809721826667072e+00,-9.354600913199165868e-01,3.456823400673623703e-01,-7.359441088209089932e-02,1.650675198696688540e+03
9.996651622087890487e+00,-1.043992870639070780e+01,-4.344997811412707023e+00,-9.431571523763687681e-01,3.135531499058278881e-01,-1.101680902317116045e-01,1.659351862780473539e+03
1.176095306081156089e+01,-8.230626520760482734e+00,-5.113780249946159984e+00,-9.485631255377811044e-01,2.806622883475725638e-01,-1.464741505161173962e-01,1.668028526864258538e+03
1.344057558616517056e+01,-6.205497497542792118e+00,-5.439774286418134430e+00,-9.516648792574649018e-01,2.470896520949456554e-01,-1.824243991778918272e-01,1.676705190948043537e+03
1.497212411051199510e+01,-4.544933927814676089e+00,-5.309689548798658620e+00,-9.524548790919360464e-01,2.129167938998093312e-01,-2.179315079774601926e-01,1.685381855031828536e+03
1.628479959365357743e+01,-3.426699630409105968e+00,-4.710330814812099476e+00,-9.509312059973832332e-01,1.782267244845792964e-01,-2.529092250981945234e-01,1.694058519115613535e+03
1.730043938632764622e+01,-3.025701849066679827e+00,-3.628600767879921474e+00,-9.470975609911816973e-01,1.431037109232746185e-01,-2.872725846376523173e-01,1.702735183199398534e+03
1.793356030413648128e+01,-3.513764141156118459e+00,-2.051502737740977800e+00,-9.409632561671334994e-01,1.076330719717113610e-01,-3.209381129767113205e-01,1.711411847283183533e+03
1.807749196624498467e+01,-4.862208746545585214e+00,-2.279399277184429584e-01,-9.325431920861364521e-01,7.190097084336118105e-02,-3.538240315259149060e-01,1.719019715874761914e+03
1.767837724019422296e+01,-7.604589539805175491e+00,2.366467749980353030e+00,-9.218578215969528422e-01,3.599420593359192733e-02,-3.858504553570895057e-01,1.727696379958546913e+03
1.660768542144984039e+01,-1.170987805177830943e+01,5.493038689244664319e+00,-9.089331001745973859e-01,0.000000000000000000e+00,-4.169395872382335444e-01,1.736373044042331912e+03
1.502887013254162518e+01,-1.641482601610367809e+01,8.376614597398608808e+00,-6.783331045798046688e-01,5.390142884848517779e-01,-4.993253408754618761e-01,1.745049708126116911e+03
1.382517577253678986e+01,-1.916608730439957853e+01,9.321078366805929605e+00,-5.797667082547859341e-01,6.949124157761270570e-01,-4.254001626715967488e-01,1.751545912523394691e+03
1.242536443722685213e+01,-2.119500640302150885e+01,8.599645319257712472e+00,-4.583084864830279104e-01,8.233722115256502105e-01,-3.346782522161718676e-01,1.760222576607179690e+03
1.118354384921409661e+01,-2.195862931583715039e+01,6.471698902745419701e+00,-3.187541529508309823e-01,9.193215163416461611e-01,-2.307417161444746678e-01,1.768899240690964689e+03
1.003317039455181359e+01,-2.187343433774114843e+01,3.616523425078143283e+00,-1.666139303281501671e-01,9.789718175841777281e-01,-1.176944289155398005e-01,1.777575904774749688e+03
8.891033428696436758e+00,-2.135244973540672930e+01,7.135549365535683863e-01,-7.894990794486694483e-03,9.999678340433270085e-01,-0.000000000000000000e+00,1.786252568858534687e+03
7.688677735967754501e+00,-2.070758890536538388e+01,-1.742946265022124352e+00,4.049498108585679323e-02,9.915157264317248087e-01,1.235100026162675863e-01,1.794929232942319686e+03
6.409071062551630504e+00,-2.005375986580912695e+01,-3.629184472424025643e+00,8.816949826877300278e-02,9.655457321741832688e-01,2.448378619740283202e-01,1.803605897026104685e+03
5.912491401735412211e+00,-1.981707762210617929e+01,-4.161959307005671072e+00,1.342862614991624237e-01,9.225166769406917266e-01,3.618399932835948962e-01,1.806808658367369162e+03
4.508467784694449421e+00,-1.920040359396698548e+01,-5.204608563776599972e+00,1.780304921275838170e-01,8.631887772659047053e-01,4.724492339663061147e-01,1.815485322451154161e+03
3.051358993278276088e+00,-1.861595757210155710e+01,-5.822907159086034845e+00,2.186293267797353723e-01,7.886102112906043793e-01,5.747113641821213204e-01,1.824161986534939160e+03
1.550219935770604351e+00,-1.808214965801890983e+01,-6.078611704584525377e+00,2.553654718238480004e-01,7.000986024120889883e-01,6.668196328097543146e-01,1.832838650618724159e+03
1.330416123917625877e-02,-1.761777901677670144e+01,-6.033554442162569309e+00,2.875898764463321600e-01,5.992177425655212941e-01,7.471466790126489732e-01,1.841515314702509158e+03
-1.548555687993765639e+00,-1.722833429416901652e+01,-5.744960145746112801e+00,3.869276113645260806e-01,5.457762759294846333e-01,7.432451010239847777e-01,1.850191978786294158e+03
-3.117829878100851548e+00,-1.689248677361526063e+01,-5.260763988198162266e+00,4.813361869272757554e-01,4.853820445656363836e-01,7.298751577958347836e-01,1.858868642870079157e+03
-4.295551303364801399e+00,-1.665749880014792694e+01,-4.779907639899616534e+00,5.696129095685509292e-01,4.188044261245988387e-01,7.072071732606032279e-01,1.865431305243040697e+03
-5.820213310569062770e+00,-1.634270919362347030e+01,-4.030650737357486690e+00,6.506332017735286799e-01,3.468915700305196248e-01,6.755299219070324268e-01,1.874107969326825696e+03
-7.288688915543432678e+00,-1.598971162436897941e+01,-3.205233346738828093e+00,7.233649285012345720e-01,2.705595923772168288e-01,6.352469497661545894e-01,1.882784633410610695e+03
-8.675287514335526140e+00,-1.556705280911985945e+01,-2.347029565748349533e+00,7.868815458181945832e-01,1.907809049881314667e-01,5.868714332312543469e-01,1.891461297494395694e+03
-9.952985944239090443e+00,-1.504434860485263137e+01,-1.499420301829756719e+00,8.403739042345739207e-01,1.085718273578598070e-01,5.310196412431954505e-01,1.900137961578180693e+03
-1.109344497398081586e+01,-1.439232515125805989e+01,-7.057842254559613115e-01,8.831605563893062394e-01,2.497963932331938655e-02,4.684030841677448431e-01,1.908814625661965692e+03
-1.206702628866036875e+01,-1.358285961424013344e+01,-9.488723747385168633e-03,9.146964377998523243e-01,-5.893076057168184639e-02,3.998194494209308947e-01,1.917491289745750692e+03
-1.284280996616716131e+01,-1.258902051874382089e+01,5.461191441718582507e-01,9.345798101307239980e-01,-1.420904210433455161e-01,3.261424393488086548e-01,1.926167953829535691e+03
-1.338861244160962372e+01,-1.138510765981197359e+01,9.177216885867419682e-01,9.425573785771065305e-01,-2.234399555466112519e-01,2.483106408430922063e-01,1.934844617913320690e+03
-1.367100495643793678e+01,-9.946691580544623434e+00,1.062039625959867450e+00,9.385275182228438595e-01,-3.019430378031448536e-01,1.673155684969687418e-01,1.943521281997105689e+03
-1.365533248886188034e+01,-8.250652605450696342e+00,9.358411096761360959e-01,9.225415683190553162e-01,-3.765996034813366422e-01,8.418903362042653993e-02,1.952197946080890688e+03
-1.345986323778760507e+01,-7.083281948714875931e+00,6.887903851882037909e-01,8.948031780342509123e-01,-4.464585898833639543e-01,-9.999990814013471954e-06,1.957337763481349839e+03
-1.282451299161748359e+01,-4.855368355967874194e+00,-1.556886910083417515e-02,9.568706448729494829e-01,-2.904945599773977594e-01,3.078896656316667483e-03,1.966014427565134838e+03
-1.195107703713836855e+01,-2.449465805192831969e+00,-9.506909642048388953e-01,9.919670379817305816e-01,-1.263424587807273902e-01,6.081008778637854439e-03,1.974691091648919837e+03
-1.096279286079746385e+01,2.701652845577794809e-02,-2.008055947858191637e+00,9.991031164482732096e-01,4.137081104253639147e-02,8.911716885258489859e-03,1.983367755732704836e+03
-9.987029231698164367e+00,2.471885534473960089e+00,-3.079118338543102240e+00,9.780777412370295076e-01,2.079179734076964381e-01,1.149123280912873850e-02,1.992044419816489835e+03
-9.155204847176472427e+00,4.788289950400534956e+00,-4.055329773394586113e+00,9.294835436534595319e-01,3.686046204701880491e-01,1.374684858719667571e-02,2.000721083900274834e+03
-8.602705486185094230e+00,6.884844186150266054e+00,-4.828161656575541194e+00,8.546902225257588803e-01,5.189015279780192502e-01,1.561498579573170238e-02,2.009397747984059833e+03
-8.408504403729368804e+00,8.709415714412713783e+00,-5.329116882175736869e+00,9.104877328356502098e-01,4.131679726262864061e-01,1.738720082429274713e-02,2.018074412067844833e+03
-8.532958244354906796e+00,1.027957187764669378e+01,-5.569733202560993135e+00,9.532688045840809199e-01,3.015277202777888466e-01,1.891084640469913730e-02,2.026751076151629832e+03
-8.875345649763996647e+00,1.164395765891247159e+01,-5.601591736830609847e+00,9.824218347422721820e-01,1.855767929116345361e-01,2.016414032601154815e-02,2.035427740235414831e+03
-8.926699968217397085e+00,1.178631484060268519e+01,-5.593223319869605525e+00,9.975300483158526799e-01,6.697283836882388097e-02,2.112916535560458581e-02,2.036431931246835802e+03
-9.414325115223741491e+00,1.290526445667018685e+01,-5.445561303345503923e+00,9.983774565935160661e-01,-5.258856755863495352e-02,2.179212538559890250e-02,2.045108595330620801e+03
-9.902835970131643961e+00,1.390765720636459868e+01,-5.198404575097331559e+00,9.849519449379061653e-01,-1.713981612567103130e-01,2.214354266332684701e-02,2.053785259414406028e+03
-1.028660404514939586e+01,1.482865030638006409e+01,-4.903435105241436887e+00,9.574454459765983083e-01,-2.877574270991798966e-01,2.217839328624284650e-02,2.062461923498191027e+03
-1.045856634667946139e+01,1.569896719314021638e+01,-4.612344788522053207e+00,9.162511957173816723e-01,-4.000028796039227230e-01,2.189617902424612420e-02,2.071138587581976026e+03
-1.031029422473043944e+01,1.654485380489163404e+01,-4.376824656559327842e+00,8.619581118139137965e-01,-5.065298447978004992e-01,2.130093444263199062e-02,2.079815251665761025e+03
-9.732062746036401535e+00,1.738803651351966906e+01,-4.248554090243713333e+00,7.953423743490031228e-01,-6.058154008111780175e-01,2.040116922381631989e-02,2.088491915749546024e+03
-8.612920577576424819e+00,1.824568171822380336e+01,-4.279190033965896589e+00,7.173563294952479685e-01,-6.964401497421360832e-01,1.920974651236516048e-02,2.097168579833331023e+03
-7.527872155262193665e+00,1.879927993234703365e+01,-4.419565446234611450e+00,6.291148746848450601e-01,-7.771085095378127416e-01,1.774369902246698480e-02,2.102574989166561409e+03
-5.072397693031025057e+00,1.972443671658586339e+01,-4.881369393101299359e+00,5.318795199250159200e-01,-8.466672357973101803e-01,1.602398553673470283e-02,2.111251653250346408e+03
-2.297754217673010579e+00,2.056917932883964539e+01,-5.514343090297274763e+00,2.767570994085543634e-01,-9.605721288744796249e-01,2.654605726954617495e-02,2.119928317334131407e+03
-7.661781820303471546e-01,2.098735218301296968e+01,-5.964055187806081015e+00,0.000000000000000000e+00,-9.993865585864837309e-01,3.499294952972902689e-02,2.127724495732276409e+03
-1.167425531969468189e+00,2.088480989988623193e+01,-6.022629722985307410e+00,1.374376060292885615e-01,-9.899776712778374232e-01,3.245173062388309604e-02,2.136401159816061408e+03
-3.089229522727943600e+00,2.035351625765583350e+01,-5.533583773901229463e+00,2.722660736973150919e-01,-9.617749324252057308e-01,2.929444438976963605e-02,2.145077823899846408e+03
-5.140085911412949571e+00,1.964366569867667067e+01,-4.491797532650196878e+00,4.019258343497603136e-01,-9.153137356531990676e-01,2.558102825720593582e-02,2.153754487983631407e+03
-5.262412551192617194e+00,1.958928448492713059e+01,-4.394088966221140424e+00,5.239554337632462699e-01,-8.514760798128615527e-01,2.138197689257443843e-02,2.154387382205320137e+03
-6.286855715577884141e+00,1.890197509041452406e+01,-2.845244910701772767e+00,6.005803766210718875e-01,-7.923179416914083451e-01,-1.073940896342563678e-01,2.163064046289105136e+03
-6.427964788597617662e+00,1.840991869060560404e+01,-1.097859793829057073e+00,6.616176487355824865e-01,-7.125956216704822932e-01,-2.333828760929364809e-01,2.171740710372890135e+03
