3.681216372230950551e+00,5.877829983307213624e+00,-6.534308220544398083e-01,-1.590354207764884120e-01,9.597399848747004691e-01,-2.315273123682984324e-01,2.398781657771844067e+01
3.906797103089355350e+00,5.520672461918739948e+00,-8.851573288952142571e-01,-1.070738148867481365e-01,9.843987353708335553e-01,-1.396149274515367800e-01,2.566561072686788592e+01
4.102334908278772119e+00,5.171610888115845128e+00,-1.085382621986402230e+00,-5.385345559430819440e-02,9.974849209677071338e-01,-4.606123928052626576e-02,2.717037033555352465e+01
4.290898168878621632e+00,4.797689794325459722e+00,-1.279420676701986670e+00,-0.000000000000000000e+00,9.988447030630863699e-01,4.803393763095841623e-02,2.867512994423916339e+01
4.471408610017505225e+00,4.400002059768991280e+00,-1.467830718181028837e+00,-7.217103253060824786e-01,5.166585169996235072e-01,4.606475693616922662e-01,3.017988955292480213e+01
4.663372707124141314e+00,3.920992793351921968e+00,-1.674971943921027995e+00,-6.830659609706232205e-01,6.550686637882738861e-01,3.229612030662342148e-01,3.188581978371834680e+01
4.838303450550731633e+00,3.413554819141462193e+00,-1.875743253158185020e+00,-6.173665117571922600e-01,7.675325526342523519e-01,1.724829580217883962e-01,3.359175001451188791e+01
4.993073888897598955e+00,2.881185107383542832e+00,-2.071118948148948480e+00,-5.272142253730137673e-01,8.495957517032641793e-01,1.517297770659927804e-02,3.529768024530542903e+01
5.124020926980120905e+00,2.327551403165728505e+00,-2.262014516378399787e+00,-7.764005591134290896e-01,6.301395107777780780e-01,1.115207454677461830e-02,3.700361047609897014e+01
5.228633626020949166e+00,1.737628181975719110e+00,-2.455205636633617683e+00,-9.399722441750043567e-01,3.411969423327132489e-01,5.901417174436181592e-03,3.876497308659306640e+01
5.295846076217968879e+00,1.133467272106876811e+00,-2.645185171574981453e+00,-9.998919759349480518e-01,1.462998501632503667e-02,0.000000000000000000e+00,4.052633569708716266e+01
5.319694265262342014e+00,5.198506786878319685e-01,-2.832792639187421635e+00,-9.998919606002018012e-01,1.463098479091418103e-02,-0.000000000000000000e+00,4.228769830758125892e+01
5.294969839379098708e+00,-9.840745378655019193e-02,-3.018580416083961548e+00,-9.986771916293771811e-01,5.606302119080827304e-03,-5.109242888494943541e-02,4.404906091807535518e+01
5.217916663100980124e+00,-7.164709498438595059e-01,-3.202526571021254043e+00,-9.947726228045428165e-01,-3.433479874166002737e-03,-1.020472445880236667e-01,4.581042352856945143e+01
5.145955592555810476e+00,-1.100529871662216275e+00,-3.316424285637966207e+00,-9.881887697143983962e-01,-1.246401601465950762e-02,-1.527272199324519464e-01,4.690964255100129066e+01
4.978226180037073512e+00,-1.743939768648676392e+00,-3.507124546307513580e+00,-9.789433609053522778e-01,-2.146098598938219609e-02,-2.029958674759157755e-01,4.877315272108899791e+01
4.743029167139943603e+00,-2.371640905452901738e+00,-3.692899448009998586e+00,-9.988709207052820505e-01,-8.229929678315026087e-03,-4.676699720013632877e-02,5.063666289117670516e+01
4.502862740691393029e+00,-2.873700170011768140e+00,-3.841007970641415081e+00,-9.938470090486750674e-01,5.206705430308118839e-03,1.106300719694220114e-01,5.217061025651571526e+01
4.225590363230265822e+00,-3.360671198723784503e+00,-3.983709142741956644e+00,-9.639971323346999688e-01,1.851327705277153179e-02,2.652636187337886753e-01,5.370455762185472537e+01
3.912226220463823179e+00,-3.829879002586286330e+00,-4.119555248339773712e+00,-9.100669368312145346e-01,3.135739220715069026e-02,4.132709576551146236e-01,5.523850498719373547e+01
3.563812811871275965e+00,-4.278653965125724490e+00,-4.247098616147559902e+00,-8.334035814119092889e-01,4.341821006119957194e-02,5.509549251303971218e-01,5.677245235253274558e+01
2.910826450539365062e+00,-4.933634388971292140e+00,-4.422741830070032520e+00,-7.359220860700342870e-01,5.439445618211442846e-02,6.748762304093091080e-01,5.924054120297004289e+01
2.446488023050147564e+00,-5.299098299144604951e+00,-4.512395983932560029e+00,-6.200574967891760991e-01,6.401194805077710381e-02,7.819393654131201465e-01,6.078681339926504990e+01
1.954054246241017090e+00,-5.636276543440899012e+00,-4.588666534490736026e+00,-3.284508388772175436e-01,3.390725810709574461e-02,9.439111951283090107e-01,6.233308559556005690e+01
1.436779804850912390e+00,-5.943804547687162376e+00,-4.650539651978560229e+00,-0.000000000000000000e+00,-9.999989999988958197e-07,9.999989999988958544e-01,6.387935779185506391e+01
8.981915474155255374e-01,-6.220472325603266128e+00,-4.697114261503068100e+00,-2.797990365829549075e-01,3.590803675362809755e-01,8.903773294388233062e-01,6.542562998815007802e+01
3.418288974374195099e-01,-6.465088677132244221e+00,-4.727489389548027887e+00,-4.982536599459315152e-01,6.394353223059802138e-01,5.855456932979067330e-01,6.697190218444508503e+01
-4.630247825268496431e-01,-6.738830081273285089e+00,-4.734204361199441102e+00,-6.074690999519757328e-01,7.795978449198487370e-01,1.523367742923669443e-01,6.913434444845205462e+01
-1.292771861086402074e+00,-6.919475747664172616e+00,-4.692326555454318537e+00,-0.000000000000000000e+00,4.167097442644203398e-02,9.991303868317403802e-01,7.129678671245902422e+01
-2.053692439324430019e+00,-7.003590597451490041e+00,-4.615539528332812225e+00,-4.499992964596048837e-04,3.515004504552168840e-01,9.361865363420546204e-01,7.325162535241493345e+01
-2.814688277333091460e+00,-7.015045628079382034e+00,-4.506992819479400225e+00,1.845799250722167939e-01,3.100861941249249965e-01,9.326171794873652221e-01,7.520646399237084267e+01
-3.479021109997032735e+00,-6.968024235408868172e+00,-4.389109258417160930e+00,3.629715792612213110e-01,2.575200008971569865e-01,8.955071645655010570e-01,7.693082100185546324e+01
-4.130418778679484149e+00,-6.871809312807457104e+00,-4.254728495120864373e+00,5.283093228778772410e-01,1.956923536952051013e-01,8.261911171557204669e-01,7.865517801134008380e+01
-4.762478124333400231e+00,-6.727873014033882271e+00,-4.106640691665691456e+00,6.746469744001066804e-01,1.268268071975938993e-01,7.271618945668033573e-01,8.037953502082470436e+01
-5.392037671643751473e+00,-6.528516398979974156e+00,-3.941095749974038664e+00,7.471428863218195771e-01,4.964028389946702202e-02,6.628056650593480148e-01,8.217271578294187862e+01
-5.986438014756966020e+00,-6.280019005770255625e+00,-3.767240968749358654e+00,8.081662910073870165e-01,-2.830847447880741746e-02,5.882719408179325482e-01,8.396589654505905287e+01
-6.539423209834065887e+00,-5.985114392517679072e+00,-3.589036232132031490e+00,8.567801663128989942e-01,-1.058225563168209565e-01,5.047051943352378611e-01,8.575907730717622712e+01
-7.044770740144829624e+00,-5.646574614193927921e+00,-3.410441462973228699e+00,8.922380370157824148e-01,-1.817117237401516538e-01,4.133886001802777321e-01,8.755225806929340138e+01
-7.496963720752663818e+00,-5.267693924510563619e+00,-3.235293822293880961e+00,9.139954369927520972e-01,-2.548106880556750276e-01,3.157243329397096399e-01,8.934543883141057563e+01
-7.906947414756458237e+00,-4.833762336697868811e+00,-3.060313996708920570e+00,9.217182700583325117e-01,-3.239970023211458661e-01,2.132120379541294630e-01,9.121560967976374457e+01
-8.251210557565554993e+00,-4.365683739288749976e+00,-2.897040445614817994e+00,9.152879410201641974e-01,-3.882082963974073375e-01,1.074258052425088317e-01,9.308578052811691350e+01
-8.529956204869668213e+00,-3.870085243308210465e+00,-2.749023366130915136e+00,8.948031780340768293e-01,-4.464585898832771349e-01,-9.999990814011525472e-06,9.495595137647008244e+01
-8.745486069546814178e+00,-3.353551164282432939e+00,-2.619462159044726679e+00,9.691397582806691169e-01,-2.301467414719018389e-01,-8.830971808899132358e-02,9.682612222482325137e+01
-8.878901682387759564e+00,-2.926907919717878670e+00,-2.529026881481482469e+00,9.852177632728058576e-01,-0.000000000000000000e+00,-1.713007849690220130e-01,9.833373973987664840e+01
-8.982012374078513162e+00,-2.495371950329027033e+00,-2.451152993658329837e+00,9.863095190599172613e-01,-7.600500822147297775e-02,-1.463378670685639427e-01,9.984135725493004543e+01
-9.056368313967750439e+00,-2.061589741446505197e+00,-2.386755008136814737e+00,9.810877962790985896e-01,-1.515234962632968641e-01,-1.204382251344312538e-01,1.013489747699834425e+02
-9.103642543215853422e+00,-1.627978637225896419e+00,-2.336015720991002187e+00,9.695860202968120678e-01,-2.260720636589862720e-01,-9.376764516148687612e-02,1.028565922850368395e+02
-9.125112435055354965e+00,-1.153400542458212330e+00,-2.296518586150706476e+00,9.518778151841050805e-01,-2.991735185161292221e-01,-6.649684789652213213e-02,1.045178692362587043e+02
-9.115537107466890276e+00,-6.855068323913516837e-01,-2.274763754342322031e+00,9.280765324539319572e-01,-3.703599319213058960e-01,-3.880039608884684049e-02,1.061791461874805691e+02
-9.077561541238619469e+00,-2.276520410875703671e-01,-2.270481259791165662e+00,8.983345255365923210e-01,-4.391756330612130443e-01,-1.085557715121686709e-02,1.078404231387024339e+02
-9.013413975991852567e+00,2.171146034092328869e-01,-2.282649482153707332e+00,8.628421746353160948e-01,-5.051801258964653263e-01,1.715873161989795934e-02,1.095017000899242987e+02
-8.924445310471513793e+00,6.463358683194437848e-01,-2.308743633512392091e+00,8.218266681989240263e-01,-5.679509087256513489e-01,4.506320800422924933e-02,1.111629770411461635e+02
-8.811577870462135920e+00,1.057851411801284280e+00,-2.345487298520586794e+00,7.755505488046160467e-01,-6.270861785973430580e-01,7.267923267198866943e-02,1.128242539923680283e+02
-8.690183257455274202e+00,1.414590947919305952e+00,-2.385075237409503224e+00,7.243100327505929137e-01,-6.822074032630326412e-01,9.983003250805402851e-02,1.143302178281148826e+02
-8.552200499264495548e+00,1.755029556213883568e+00,-2.427945758042091118e+00,6.684331141058037495e-01,-7.329617442097775548e-01,1.263418121298217067e-01,1.158361816638617370e+02
-8.398301921224776478e+00,2.077716854804936286e+00,-2.471883854284233628e+00,6.082774653434431800e-01,-7.790243152623896883e-01,1.520448663573955306e-01,1.173421454996085913e+02
-8.229340159857308379e+00,2.381533089238569101e+00,-2.514535319129569402e+00,5.379617392347881832e-01,-6.889704772059251914e-01,4.857106635220103108e-01,1.188481093353554456e+02
-8.047004293276499354e+00,2.666018387075852925e+00,-2.553147468376021578e+00,4.007305300104290202e-01,-5.132176219660787853e-01,7.589602854049946057e-01,1.203540731711023000e+02
-7.854143367964543820e+00,2.931073012936436406e+00,-2.584579726408066325e+00,2.136536391130217372e-01,-2.736271494305166363e-01,9.378050466857821288e-01,1.218600370068491543e+02
-7.600047455588195611e+00,3.234137305133793827e+00,-2.606125643919396495e+00,9.999989999989881463e-07,-9.999989999989881463e-07,9.999989999989882250e-01,1.237621414765324772e+02
-7.339825816686000870e+00,3.498895470887497083e+00,-2.598913174491878753e+00,5.996938583006752310e-01,3.640864109715297725e-01,7.126053337319646630e-01,1.256642459462158001e+02
-7.080293650011374673e+00,3.726967206624068663e+00,-2.556364458754862401e+00,8.546902225259143115e-01,5.189015279781137302e-01,1.561498579573454386e-02,1.275663504158991230e+02
-6.826304670035251654e+00,3.921469297343582294e+00,-2.471739292833762036e+00,9.480767136406852424e-01,3.156526256749163650e-01,-3.888399358887917323e-02,1.294794431795102696e+02
-6.584235114558162572e+00,4.083177903640562434e+00,-2.339668735723996917e+00,9.912138162169631395e-01,9.567366035949337322e-02,-9.132207430011776705e-02,1.313925359431214019e+02
-6.397630553296631994e+00,4.192853181974549592e+00,-2.199530183473843437e+00,9.818151803317659576e-01,-1.293761786085003973e-01,-1.389199628529726727e-01,1.329355150966478618e+02
-6.216420120495388169e+00,4.286667343782183615e+00,-2.032258415186158906e+00,9.203789252031139290e-01,-3.475689227107123247e-01,-1.791548994805190198e-01,1.344784942501743217e+02
-6.009951245413484244e+00,4.374333026633662413e+00,-1.800934237863440979e+00,8.101612482030170481e-01,-5.473400272127806332e-01,-2.098943699125667695e-01,1.362741049894825949e+02
-5.804983650842050480e+00,4.436949490102041871e+00,-1.529041445564776946e+00,6.570038469529267955e-01,-7.181013176383330698e-01,-2.295091342306882498e-01,1.380697157287908681e+02
-5.598203480005119914e+00,4.473679814716075676e+00,-1.219532290292871357e+00,4.690242989945510033e-01,-8.508021885027508002e-01,-2.369595809243950357e-01,1.398653264680991413e+02
-5.418550053601980387e+00,4.485095141282930520e+00,-9.291419488027725659e-01,2.561858103073434978e-01,-9.384093051552941933e-01,-2.318508283261688507e-01,1.414041005170149106e+02
-5.236409331022650271e+00,4.478643033480168789e+00,-6.204796490277263432e-01,4.151670841146004043e-01,-8.425589065556470247e-01,-3.431162794811182803e-01,1.429428745659306799e+02
-5.051430528242689455e+00,4.453601902186638206e+00,-2.962597413516386280e-01,5.547013419104128706e-01,-7.072404867897058578e-01,-4.383096110261477385e-01,1.444816486148464492e+02
-4.863270861836207715e+00,4.409248192538369970e+00,4.080332170071773040e-02,6.682522615639630015e-01,-5.387922450067167413e-01,-5.129715699927076544e-01,1.460204226637622185e+02
-4.671606675171693368e+00,4.344890851661797448e+00,3.879425835528524935e-01,7.505004180209962072e-01,-3.451044807644592094e-01,-5.636044888824071064e-01,1.475591967126779878e+02
-4.476144047801318138e+00,4.259905874830565153e+00,7.422861820103077157e-01,7.975926035964165939e-01,-1.352501264588929220e-01,-5.878362373657560758e-01,1.490979707615937571e+02
-4.254131980069669083e+00,4.139322449029845252e+00,1.140524930884361021e+00,8.073225074665053569e-01,8.094025538793132857e-02,-5.845314738950309064e-01,1.508056497649079972e+02
-4.027590108848825956e+00,3.988757413432868493e+00,1.540473668616888947e+00,7.792342158956470088e-01,2.933391022026242134e-01,-5.538449312536665170e-01,1.525133287682222374e+02
-3.800676874913247794e+00,3.806679325742635012e+00,1.938625584475247132e+00,7.146436237329772956e-01,4.919964758958952356e-01,-4.972141980526483818e-01,1.542210077715364775e+02
-3.579251578243846765e+00,3.591350972203048997e+00,2.331835545379822960e+00,6.165767316930679254e-01,6.676063598850595637e-01,-4.172923221922785197e-01,1.559286867748507177e+02
-3.372706040138042205e+00,3.346042029526627992e+00,2.710430256792888848e+00,4.896277451471233166e-01,8.119426995887577547e-01,-3.178234159965136474e-01,1.576064998735415656e+02
-3.182200892797256930e+00,3.066252023791758319e+00,3.078598126244161293e+00,3.397436844108882581e-01,9.182447127874990844e-01,-2.034671382155684161e-01,1.592843129722324136e+02
-3.011992840154098516e+00,2.751246706886811833e+00,3.433785121830634779e+00,1.739456707598161234e-01,9.815334303552544215e-01,-7.958032869254033637e-02,1.609621260709232615e+02
-2.864806783509861177e+00,2.401141157132960391e+00,3.773886022368923232e+00,0.000000000000000000e+00,9.988447030609716171e-01,4.803393763085671286e-02,1.626399391696141095e+02
-2.737595732523631753e+00,2.002236359712739056e+00,4.108387070671311925e+00,9.999988887670539232e-07,-4.977924468360180876e-01,-8.672950362321107942e-01,1.643777764761805429e+02
-2.635844350985452778e+00,1.567823291036180677e+00,4.423261455666477104e+00,0.000000000000000000e+00,9.988447030629378220e-01,4.803393763095126917e-02,1.661156137827469763e+02
-2.558880554643334637e+00,1.099973300036771073e+00,4.717236994703971398e+00,4.894745649099780382e-01,3.309397058303449601e-02,-8.713882254299828434e-01,1.678534510893134097e+02
-2.505920629904947017e+00,6.010482353855725046e-01,4.989147477595195390e+00,0.000000000000000000e+00,9.978126036217043193e-01,-6.609090750977844597e-02,1.695912883958798432e+02
-2.475977434216322326e+00,7.399450000362250979e-02,5.238038473898394720e+00,-0.000000000000000000e+00,9.968731426564392262e-01,-7.900593205231017102e-02,1.713291257024462766e+02
-2.467532072858423131e+00,-4.558030953927953433e-01,5.455250370769996415e+00,-0.000000000000000000e+00,9.968731420280737554e-01,-7.900593200250984049e-02,1.729997892893018445e+02
-2.477663391174341534e+00,-1.004972307008741517e+00,5.650520325079647854e+00,4.256601917880427355e-02,9.578898509979487663e-01,-2.839597988574142917e-01,1.746704528761574124e+02
-2.505355289131567353e+00,-1.570760375544058896e+00,5.823123610938705674e+00,8.320219003984051509e-02,8.754780001371836873e-01,-4.760395643737437288e-01,1.763411164630129804e+02
-2.549559027643231168e+00,-2.150420655654364133e+00,5.972335677803002341e+00,1.200661610364326670e-01,7.533739595691613111e-01,-6.465367692698108515e-01,1.780117800498685483e+02
-2.609193245072648271e+00,-2.741212785488720272e+00,6.097432156077931431e+00,1.514866037959479439e-01,5.971136503488736480e-01,-7.877214592977661578e-01,1.796824436367241162e+02
-2.686654645708665523e+00,-3.364920790815430163e+00,6.200662102203778225e+00,1.760389870339174323e-01,4.137815592127392916e-01,-8.931926423232136036e-01,1.814207000302306767e+02
-2.779092869263312338e+00,-3.994949394258669351e+00,6.275072843622136354e+00,1.926101613224494025e-01,2.116895451185741572e-01,-9.581684936604758507e-01,1.831589564237372372e+02
-2.886063051742247421e+00,-4.628256007152875995e+00,6.319793272154227814e+00,2.004488266900413818e-01,0.000000000000000000e+00,-9.797031529393527283e-01,1.848972128172437976e+02
-3.003261921554271741e+00,-5.242285409184298750e+00,6.334422635527375611e+00,1.079760946362622320e-01,1.569198861895872432e-01,-9.816900286265829445e-01,1.865816617169487870e+02
-3.134011901424124336e+00,-5.854180544084445437e+00,6.320525109276739606e+00,1.192085831904171785e-02,3.086332520282131231e-01,-9.511053616078374295e-01,1.882661106166537763e+02
-3.279840470313147183e+00,-6.462071089030098747e+00,6.277556919577471639e+00,-8.452989841290621531e-02,4.501064590670528776e-01,-8.889639316530130175e-01,1.899505595163587657e+02
-3.458928087206805557e+00,-7.117399589348543110e+00,6.195665233057794374e+00,-0.000000000000000000e+00,8.052988517093670473e-03,-9.999665741290355570e-01,1.917852667561002704e+02
-3.661995860447059048e+00,-7.763248100203974822e+00,6.075369074094026267e+00,1.217558766212737814e-01,-4.271485671580905197e-01,-8.959450921131094647e-01,1.936199739958417751e+02
-3.891118190197213611e+00,-8.397323337137933663e+00,5.916385985373350920e+00,3.698982379086732664e-01,-2.721274050884779361e-01,-8.883242476668695708e-01,1.954546812355832799e+02
-4.146451822670534249e+00,-9.017214842137848407e+00,5.718653371465356017e+00,5.863533815208138433e-01,-9.379468871456028700e-02,-8.046056601524752550e-01,1.972893884753247846e+02
-4.451890558300148903e+00,-9.674358819259950337e+00,5.456646469560122448e+00,7.525789214884025524e-01,9.257286733496225550e-02,-6.519610656826143602e-01,1.992943888671479442e+02
-4.778468622193287274e+00,-1.030590517745955026e+01,5.145482452288072217e+00,0.000000000000000000e+00,2.648456641227858177e-01,-9.642897770879123032e-01,2.012993892589711038e+02
-5.116973588621092084e+00,-1.090779358052379422e+01,4.786785262112252859e+00,-0.000000000000000000e+00,3.032083730870910876e-01,-9.529232301022695362e-01,2.033043896507942634e+02
-5.428525611095087910e+00,-1.143135455856076099e+01,4.419915396277035669e+00,-0.000000000000000000e+00,3.410856895361299435e-01,-9.400311443624989050e-01,2.051442253461085556e+02
-5.731164277250051065e+00,-1.192494109689178927e+01,4.021522148167093746e+00,2.721122346678713222e-01,2.776854998390133056e-01,-9.213271378420709867e-01,2.069840610414228479e+02
-6.015687305114377104e+00,-1.238483116123250483e+01,3.594895318409543794e+00,5.228867818629204800e-01,1.925107402488664410e-01,-8.303776419457155056e-01,2.088238967367371401e+02
-6.239979432693292694e+00,-1.275068767432272310e+01,3.211321986753029378e+00,7.326593199795663480e-01,9.224036680930239318e-02,-6.743144930814275462e-01,2.103996389417758337e+02
-6.442482232885491378e+00,-1.308982146716440909e+01,2.815222462174647333e+00,8.849807075427553738e-01,-1.526297770940547235e-02,-4.653753203493599666e-01,2.119753811468145273e+02
-6.618300845584790260e+00,-1.339967308852810923e+01,2.409159377307578342e+00,9.343647041290175093e-01,-2.846673670068930462e-02,-3.551763570108807944e-01,2.135511233518532208e+02
-6.763205558011367025e+00,-1.367762296492159635e+01,1.995841238317606070e+00,9.699603113204490201e-01,-4.125040997248095864e-02,-2.397361010369448153e-01,2.151268655568919144e+02
-6.874326384368127485e+00,-1.392089967217565416e+01,1.578268211226167450e+00,9.912422606451662954e-01,-5.342535265000009775e-02,-1.207580738722864311e-01,2.167026077619306079e+02
-6.955001304359740288e+00,-1.416476808734802972e+01,1.053772357225578160e+00,9.978964962917117321e-01,-6.481190233636946463e-02,1.999996986248517972e-06,2.186786926985779189e+02
-6.959244587384934455e+00,-1.432801911318792953e+01,5.348548948254757684e-01,9.842838733157226461e-01,1.297267356343901890e-01,1.198091431993938277e-01,2.206547776352252299e+02
-6.899981592741816883e+00,-1.440358598076860730e+01,8.667297525522339730e-02,9.191100942929432138e-01,3.174697010911591843e-01,2.333401454097311090e-01,2.223994826581620430e+02
-6.785213727450313037e+00,-1.441540120264942360e+01,-3.473734179088653340e-01,8.057892435783569063e-01,4.885822047769387555e-01,3.346477612513469868e-01,2.241441876810988560e+02
-6.616053288164306601e+00,-1.436413071492501636e+01,-7.621187287880590855e-01,6.502575451219111402e-01,6.341006231837181817e-01,4.184250526577707463e-01,2.258888927040356691e+02
-6.393648015551295138e+00,-1.425345941248324522e+01,-1.152329861825752477e+00,4.606624106662593476e-01,7.464020451143851265e-01,4.802833855647918315e-01,2.276335977269724822e+02
-6.119678470462100783e+00,-1.408802896923589110e+01,-1.513051620904640515e+00,3.945158471438137138e-01,7.168725548395641356e-01,5.748469243815452767e-01,2.293783027499092952e+02
-5.846497222340068411e+00,-1.390785834752359129e+01,-1.798769322579388596e+00,3.227712547909927232e-01,6.771709017490963323e-01,6.612535723198923465e-01,2.308820833231763459e+02
-5.543646446209128165e+00,-1.369917792687157565e+01,-2.060437170041131250e+00,2.464466591675598395e-01,6.278604382736283629e-01,7.382772610861598750e-01,2.323858638964433965e+02
-5.212957529944160839e+00,-1.346526045704254315e+01,-2.295886353608117769e+00,1.666250719489444365e-01,5.696408583099646927e-01,8.048250604589254342e-01,2.338896444697104471e+02
-4.856297366126463011e+00,-1.320944613882417329e+01,-2.503001248939446199e+00,8.443912469623178485e-02,5.033382695900919801e-01,8.599526850863593586e-01,2.353934250429774977e+02
-4.357198820920294757e+00,-1.284941544327364760e+01,-2.716850600046202491e+00,1.054998706094199953e-03,4.298934727560758673e-01,9.028778926631518820e-01,2.373288210211753722e+02
-3.812760138049680503e+00,-1.245874592274146941e+01,-2.860822993670967040e+00,1.468217373029374329e-01,5.234665825470752321e-01,8.392997762476974710e-01,2.392642169993732466e+02
-3.228181547142643382e+00,-1.204756327032574070e+01,-2.930966055375245016e+00,2.875898764458944545e-01,5.992177425646092459e-01,7.471466790115117718e-01,2.411996129775711211e+02
-2.739839304080047722e+00,-1.171317880771696096e+01,-2.937263374797252968e+00,-2.094397647220614181e-02,9.665299142311819525e-01,2.556937127618543193e-01,2.427390917806250172e+02
-2.235754951677917379e+00,-1.137853400575513341e+01,-2.904640085347554468e+00,-1.020686084874999622e-01,9.426759607004053798e-01,3.177137584056023978e-01,2.442785705836789134e+02
-1.718131013664339513e+00,-1.104808150370968711e+01,-2.833131799857383282e+00,-1.820708142324287127e-01,9.084556616966573683e-01,3.762399890194046415e-01,2.458180493867328096e+02
-1.189219475696236650e+00,-1.072626205170622171e+01,-2.722774386670672175e+00,-2.600708322622177771e-01,8.642453304169324113e-01,4.306288089066073188e-01,2.473575281897867058e+02
-6.512073755322753676e-01,-1.041750698508494999e+01,-2.573845950029052254e+00,-3.352109191241373076e-01,8.105311371686492183e-01,4.802821206139820109e-01,2.488970069928406019e+02
-1.061024317709504672e-01,-1.012624151410320117e+01,-2.387108808865508358e+00,-4.066647815944496869e-01,7.479037629489226902e-01,5.246539019001402737e-01,2.504364857958944981e+02
4.441525436651779790e-01,-9.856882998715505551e+00,-2.163567511176417657e+00,-4.736466630313736492e-01,6.770519038141220580e-01,5.632562100344845613e-01,2.519759645989483943e+02
9.975652698018850906e-01,-9.613838407966325050e+00,-1.904226846805551432e+00,-5.354199839403480654e-01,5.987546974780814102e-01,5.956645474147004293e-01,2.535154434020022904e+02
1.552097104880618916e+00,-9.400682847458355695e+00,-1.610868482800420054e+00,-5.913054417518408545e-01,5.138731554216083852e-01,6.215225295137847272e-01,2.550549222050561866e+02
2.097796975568650524e+00,-9.221055817127409071e+00,-1.292150049223227626e+00,-6.406884807588282271e-01,4.233406947248344876e-01,6.405458038378974983e-01,2.565723690986664565e+02
2.640640519573373535e+00,-9.071207558247172287e+00,-9.491263172102106793e-01,-6.830260500854554717e-01,3.281528737275575258e-01,6.525251768096591576e-01,2.580898159922767263e+02
3.178676536465391944e+00,-8.950410213193331188e+00,-5.868804647069353342e-01,-7.178525753843013613e-01,2.293564443728414448e-01,6.573289141976040861e-01,2.596072628858869962e+02
3.710051898732632303e+00,-8.857714374328525153e+00,-2.102105280862742176e-01,-7.447850786014121871e-01,1.280378416000940156e-01,6.549041897960727887e-01,2.611247097794972660e+02
4.233104867665339555e+00,-8.791738302751031853e+00,1.766558927855980399e-01,-7.881962130036681557e-01,1.239045198962309136e-01,6.028203710536743642e-01,2.626421566731075359e+02
4.746279652651696601e+00,-8.750880398573915642e+00,5.697763972394112031e-01,-8.279703372849440690e-01,1.191994602542533060e-01,5.479549335964699619e-01,2.641596035667178057e+02
5.248037835985376987e+00,-8.733531053830921209e+00,9.652085446716427430e-01,-8.639239206751041511e-01,1.139443734484831133e-01,4.905610451780413328e-01,2.656770504603280756e+02
5.800914220397540788e+00,-8.741906817473161340e+00,1.411684846195987664e+00,-8.958910615920241405e-01,1.081635082413225230e-01,4.309035405352822923e-01,2.674004949065883352e+02
6.332387586770936494e+00,-8.779301134284516195e+00,1.849225662862957309e+00,-9.237242531367683140e-01,1.018835394926664722e-01,3.692576993764173365e-01,2.691239393528485948e+02
6.840294832086410537e+00,-8.843281467043578203e+00,2.272107848637762384e+00,-9.472950637156175580e-01,9.513344507559340357e-02,3.059079761782356743e-01,2.708473837991088544e+02
7.322022022459611534e+00,-8.932444807363737027e+00,2.676797827476212088e+00,-9.664947296493719975e-01,8.794437216616649011e-02,2.411466876522662950e-01,2.725708282453691140e+02
7.773120472090153221e+00,-9.046603380569884223e+00,3.061659991994782004e+00,-9.812346570362017184e-01,8.034949352417362911e-02,1.752726639348020643e-01,2.742942726916293736e+02
8.285919752747881617e+00,-9.233824081581783361e+00,3.516683285115800306e+00,-9.914468305527235348e-01,7.238385442778352830e-02,1.085898697229422671e-01,2.764897229564932672e+02
8.643955142420477245e+00,-9.418426055750011017e+00,3.854170123620724642e+00,-9.970841273070301103e-01,6.408421096819351404e-02,4.140600171745491970e-02,2.782646988824751020e+02
8.955607711746973010e+00,-9.624047846028549458e+00,4.166546895532126982e+00,-9.981205342951784409e-01,5.548886045019523622e-02,-2.596893115738913710e-02,2.800396748084569367e+02
9.222876518843696303e+00,-9.842882003941822333e+00,4.453611966474151806e+00,-9.945512684570891881e-01,4.663746468100124498e-02,-9.322403820729360802e-02,2.818146507344387715e+02
9.445381367675398820e+00,-1.006809358956814116e+01,4.715666239735676335e+00,-9.863927987769350869e-01,3.757086696249301028e-02,-1.600489814955951828e-01,2.835896266604206062e+02
9.619831649967400367e+00,-1.029449142555029439e+01,4.952719094061801108e+00,-9.736827703248115418e-01,2.833090363111874510e-02,-2.261354078269495194e-01,2.853646025864024409e+02
9.738721353087406385e+00,-1.050675109916685734e+01,5.155209974252214167e+00,-9.564798305887203256e-01,1.896021101484815508e-02,-2.911783715803575312e-01,2.870524924873593022e+02
9.809613666443684821e+00,-1.071211956376843588e+01,5.335634823504529223e+00,-9.348633588966046570e-01,9.502028697770904461e-03,-3.548777418267503037e-01,2.887403823883161635e+02
9.829368206440765476e+00,-1.090669820121896549e+01,5.493724819419103511e+00,-9.089331001752337658e-01,0.000000000000000000e+00,-4.169395872385255331e-01,2.904282722892730249e+02
9.794889914552625143e+00,-1.108657003124591789e+01,5.629211315957363126e+00,-8.656576142462234502e-01,1.896880845669533799e-01,-4.633069452003869548e-01,2.921161621902298862e+02
9.704055650343077488e+00,-1.124782452136519773e+01,5.741800555962569774e+00,-7.877520994571296509e-01,3.717877453540496813e-01,-4.911400026527330542e-01,2.938040520911867475e+02
9.556640395902773477e+00,-1.138658963980662442e+01,5.831148383879346753e+00,-6.783331045798046688e-01,5.390142884848517779e-01,-4.993253408754618761e-01,2.954919419921436088e+02
9.353390152881132735e+00,-1.149901838300198165e+01,5.896885538069730259e+00,-5.007145059823778777e-01,4.071957538119974074e-01,-7.638550920022360025e-01,2.971798318931004701e+02
9.059642560754253893e+00,-1.158615321069516568e+01,5.940139166290692607e+00,-2.635605781151710292e-01,2.269613401143464604e-01,-9.375619295589556756e-01,2.990541810862090415e+02
8.692043654982937184e+00,-1.162631449915209991e+01,5.950045843986078609e+00,4.930994909503877768e-03,1.974097962046563945e-02,-9.997919678681019828e-01,3.009285302793176129e+02
8.253210315746077441e+00,-1.161417773094458283e+01,5.926322414717346554e+00,-7.894990794488210631e-03,9.999678340435189661e-01,-0.000000000000000000e+00,3.028028794724261843e+02
7.831549761572348167e+00,-1.156262260071694037e+01,5.881705538359415897e+00,-2.343655329260029563e-01,9.721475181152287037e-01,-0.000000000000000000e+00,3.043951603683539702e+02
7.372707116615537792e+00,-1.147408757878242369e+01,5.816876279108435632e+00,-4.486342843565908067e-01,8.937143161554481630e-01,-0.000000000000000000e+00,3.059874412642817560e+02
6.880129101956118376e+00,-1.134661480674831147e+01,5.732120436344441572e+00,-6.395458010762574697e-01,7.687516948449848453e-01,-0.000000000000000000e+00,3.075797221602095419e+02
6.357283419013083581e+00,-1.117826529328815255e+01,5.627723949466273190e+00,-7.971606778358586443e-01,6.037655618809711910e-01,-0.000000000000000000e+00,3.091720030561373278e+02
5.807927859231324597e+00,-1.096763317480773914e+01,5.503708950564453417e+00,-9.132730123892169871e-01,4.073455594976950200e-01,-0.000000000000000000e+00,3.107642839520651137e+02
5.236371427931345579e+00,-1.071436194626741312e+01,5.360521064497131505e+00,-6.814910863540341035e-01,5.479192654280642949e-02,-7.297710216271888761e-01,3.123565648479928996e+02
4.610409618453459757e+00,-1.039793351700860491e+01,5.189527271912946382e+00,-6.118170490061275446e-01,-1.175509652144934858e-01,-7.822145927583851188e-01,3.140456542926685870e+02
3.969155134994608147e+00,-1.003126684858910878e+01,5.001991290326850859e+00,-5.193179911140078930e-01,-2.855083807590643175e-01,-8.054761254210165422e-01,3.157347437373442745e+02
3.318389883848550159e+00,-9.614657870610027857e+00,4.801754606898447797e+00,-4.074447634267278073e-01,-4.428143556007214654e-01,-7.986878058613349207e-01,3.174238331820199619e+02
2.663891347681292210e+00,-9.148436064010667224e+00,4.592658809186715096e+00,-2.803710027424674012e-01,-5.836002932636100704e-01,-7.621028792264286089e-01,3.191129226266956493e+02
2.011072953618268322e+00,-8.633506079397937683e+00,4.377831660821835058e+00,-1.428374312845323568e-01,-7.026139000550561953e-01,-6.970862039049932068e-01,3.208020120713713368e+02
1.364615515683759606e+00,-8.071886526418074581e+00,4.158973182824392545e+00,2.499997267779020913e-05,-7.954151306990869807e-01,-6.060633376396897809e-01,3.224911015160470242e+02
7.658671322975085793e-01,-7.504316989183727138e+00,3.950362573274353917e+00,4.717263271343618419e-02,-7.548152653109768684e-01,-6.542374629882459214e-01,3.240799573945994325e+02
1.794636870569348563e-01,-6.901927148292852365e+00,3.739987433445589815e+00,9.402817028169724312e-02,-7.095415803899276508e-01,-6.983605436249704645e-01,3.256688132731518408e+02
-3.912751053346265051e-01,-6.266781013256822241e+00,3.528620486313971405e+00,1.403014838585295854e-01,-6.598744104005925815e-01,-7.381593704116340415e-01,3.272576691517042491e+02
-9.430528596387777185e-01,-5.600960640378257693e+00,3.317034461752592645e+00,1.857060497653520992e-01,-6.061212938843070219e-01,-7.733875097139120136e-01,3.288465250302566574e+02
-1.472596563922349500e+00,-4.906566017413891423e+00,3.106002091125248832e+00,2.299607235428516305e-01,-5.486150692531017725e-01,-8.038268292467947163e-01,3.304353809088090657e+02
-1.976656623156189507e+00,-4.185714948054116036e+00,2.896296101880082130e+00,2.727914807261695440e-01,-4.877118139475507541e-01,-8.292888487011362830e-01,3.320242367873614739e+02
-2.452029913087717450e+00,-3.440543199085669634e+00,2.688741189654394681e+00,3.139331135416632557e-01,-4.237886397136758077e-01,-8.496159067910881157e-01,3.336130926659138822e+02
-2.895582838304267437e+00,-2.673204478070703161e+00,2.484265990015506187e+00,3.531308730230041104e-01,-3.572413576442444727e-01,-8.646821374974711372e-01,3.352019485444662905e+02
-3.304228370725884378e+00,-1.885869800437028010e+00,2.283851094451626373e+00,3.901420463816453466e-01,-2.884820274357059455e-01,-8.743942494620569050e-01,3.367908044230186988e+02
-3.675979075630737558e+00,-1.080986414710353838e+00,2.088393706398601335e+00,4.247374598667411072e-01,-2.179364060288297711e-01,-8.786921037050805516e-01,3.383796603015711071e+02
-3.997747349340739387e+00,-2.978808163630072836e-01,1.906681900915095040e+00,4.567028978099870740e-01,-1.460413114243787613e-01,-8.775490860856505204e-01,3.398989494162532310e+02
-4.288366480846225848e+00,4.953218587629001912e-01,1.730486429845899732e+00,4.858404290687931559e-01,-7.324191799102602873e-02,-8.709722721943968793e-01,3.414182385309353549e+02
-4.548953911291842900e+00,1.295924446750421843e+00,1.560348492669914489e+00,5.119696326535299047e-01,1.099999210732821848e-05,-8.590023836519328215e-01,3.429375276456174788e+02
-4.780655676560007450e+00,2.101235794656009404e+00,1.396809250077100995e+00,5.956896370556957754e-01,2.920263765887917695e-02,-8.026824168116059033e-01,3.444568167602996027e+02
-4.984646392796993730e+00,2.908570895457752492e+00,1.240409820506448213e+00,6.728372947655918423e-01,5.807207328657682660e-02,-7.375063451097836342e-01,3.459761058749817266e+02
-5.162129241669107138e+00,3.715251022944931147e+00,1.091691276684171763e+00,7.425614283300140395e-01,8.630078656641593238e-02,-6.641932696099374089e-01,3.474953949896638505e+02
-5.314335955349064555e+00,4.518603866547842962e+00,9.511946421621468861e-01,8.040927659970493746e-01,1.135773268077517884e-01,-5.835520666634573805e-01,3.490146841043459744e+02
-5.442526801232622446e+00,5.315963666106881647e+00,8.194608878565493582e-01,8.567524286989236515e-01,1.396007491247152066e-01,-4.964724632476649191e-01,3.505339732190280984e+02
-5.547990566385547773e+00,6.104671346579744196e+00,6.970309285867551941e-01,8.999594196863910378e-01,1.640839346776358787e-01,-4.039152204354495290e-01,3.520532623337102223e+02
-5.636792010321604707e+00,6.939397890779018141e+00,5.768368593316622883e-01,9.332370342337380498e-01,1.867567583492452110e-01,-3.069015333075610363e-01,3.536867832669289555e+02
-5.701055644291372460e+00,7.756524054948727098e+00,4.695919606832757998e-01,9.562181187464160459e-01,2.073690689209338467e-01,-2.065017642466611958e-01,3.553203042001476888e+02
-5.742960190441052326e+00,8.552481135437700388e+00,3.757060256991676672e-01,9.686491212909009718e-01,2.256934488836080943e-01,-1.038236338914444862e-01,3.569538251333664221e+02
-5.765407304007182709e+00,9.323618067958971523e+00,2.949642956164629237e-01,9.703928888893302851e-01,2.415277234480655844e-01,0.000000000000000000e+00,3.585873460665851553e+02
-5.771682016787224256e+00,1.006625317433622691e+01,2.268396879263690769e-01,9.969795307158221265e-01,-7.765188556165565636e-02,0.000000000000000000e+00,3.602208669998038886e+02
-5.765112405893525249e+00,1.077672333614948386e+01,1.708050267594712068e-01,9.988611377096775490e-01,-0.000000000000000000e+00,4.769095882966038757e-02,3.618543879330226218e+02
-5.749069546992834567e+00,1.145138421337953716e+01,1.263330467873379492e-01,9.996731843025228326e-01,-0.000000000000000000e+00,-2.552497917253214108e-02,3.634879088662413551e+02
-5.718816747008340862e+00,1.227511782253737849e+01,8.720342162890379334e-02,5.764363129604143099e-01,-1.163998612660052103e-03,-8.171400260718620912e-01,3.656618007839354050e+02
-5.686394877086458521e+00,1.299640243255478467e+01,7.141552641095032239e-02,9.546769266718766467e-01,-0.000000000000000000e+00,-2.976406653673217551e-01,3.678356927016294549e+02
-5.666454155329700093e+00,1.344862102247042479e+01,7.093165208302987246e-02,9.955207354002849618e-01,9.453287991585836159e-02,0.000000000000000000e+00,3.693721637586841666e+02
-5.651067945863661457e+00,1.386073493583935168e+01,7.558149593860560844e-02,9.706551006260414338e-01,0.000000000000000000e+00,-2.404717771875365118e-01,3.709086348157388784e+02
-5.641402010926934274e+00,1.423226760898404386e+01,8.320501891634055069e-02,9.664621381734331829e-01,-7.213593478184240904e-02,-2.464657022600012237e-01,3.724451058727935902e+02
-5.638322720005591648e+00,1.457393907002726507e+01,9.161752542498759200e-02,9.571883769943548836e-01,-1.438926388785480848e-01,-2.511639293840817744e-01,3.740395342029160020e+02
-5.643230680463290128e+00,1.487022220940436945e+01,9.755790009224436787e-02,9.428825706281636077e-01,-2.148928815560642303e-01,-2.545417597612215088e-01,3.756339625330384138e+02
-5.659489510082141628e+00,1.514306720439846998e+01,9.635432366565495343e-02,9.236199260041719761e-01,-2.847634088771276439e-01,-2.565814359085383245e-01,3.773981333598889591e+02
-5.688673442328343377e+00,1.535663137380782040e+01,8.132648680186053969e-02,8.995017080953453537e-01,-3.531369057886887819e-01,-2.572722350034256644e-01,3.791623041867395045e+02
-5.731910370138688648e+00,1.551245683923849050e+01,4.670598501706980932e-02,8.706547076112572947e-01,-4.196539269959829732e-01,-2.566105252542013604e-01,3.809264750135900499e+02
-5.789702580822953415e+00,1.561289771241648161e+01,-1.311382912086807295e-02,8.372305745284972511e-01,-4.839647864793558685e-01,-2.545997850010814356e-01,3.826906458404405953e+02
-5.851420112073401292e+00,1.566037298553990453e+01,-8.930263789406944763e-02,7.994050209582296285e-01,-5.457313957266571869e-01,-2.512505844466774718e-01,3.842474504765693837e+02
-5.921221627577929247e+00,1.567420112194676918e+01,-1.891078275426919808e-01,7.573768975363128764e-01,-6.046290410226281553e-01,-2.465805301112810322e-01,3.858042551126981721e+02
-5.998249927472719456e+00,1.565623236330088197e+01,-3.166896019901030979e-01,7.113671481853447442e-01,-6.603480904558329811e-01,-2.406141723038009994e-01,3.873785761281259283e+02
-6.078784627820854602e+00,1.560882284149666610e+01,-4.729161190768889078e-01,6.616176487367453340e-01,-7.125956216717346248e-01,-2.333828760933466251e-01,3.889528971435536846e+02
-6.159192385974924910e+00,1.553505085578681744e+01,-6.590872122126244514e-01,6.431104653736439136e-01,-7.413373685167607974e-01,-1.919005871896727056e-01,3.905272181589814409e+02
-6.235804509925912953e+00,1.543797457074323098e+01,-8.765025090038001121e-01,6.227450935910017193e-01,-7.679370924848371027e-01,-1.498638395037902027e-01,3.921015391744091971e+02
-6.304897844585252820e+00,1.532044250697689591e+01,-1.126209536758918439e+00,6.005803766210718875e-01,-7.923179416914083451e-01,-1.073940896342563678e-01,3.936758601898369534e+02
-6.362678565817867948e+00,1.518490389714689925e+01,-1.408751829725809479e+00,5.766803557775153077e-01,-8.144094746954468889e-01,-6.461404478536544871e-02,3.952501812052647097e+02
-6.406969698160427384e+00,1.502112131675582063e+01,-1.750772628093533623e+00,5.511140854704611458e-01,-8.341478638903255804e-01,-2.164730838247589523e-02,3.969421508560849929e+02
-6.427277655382983568e+00,1.484071927912252420e+01,-2.134270117705258762e+00,5.239554337625932368e-01,-8.514760798118004015e-01,2.138197689254779307e-02,3.986341205069052762e+02
-6.418721930125978581e+00,1.464642086131547138e+01,-2.558857391189085728e+00,5.318795198762957810e-01,-8.466672357197554399e-01,1.602398553526690819e-02,4.003260901577255595e+02
-6.382617609257775548e+00,1.445684570998266061e+01,-2.984841304021798702e+00,6.183519599116198417e-01,-7.848777499679225889e-01,4.007207602708368760e-02,4.018894274981638546e+02
-6.325016000822422768e+00,1.427570444876293010e+01,-3.401149174536024500e+00,6.974822247562603161e-01,-7.137688295784352377e-01,6.364435614979566114e-02,4.033279978224805404e+02
-6.254827146747053312e+00,1.411022212267745068e+01,-3.787113995874497707e+00,7.683307614089691651e-01,-6.341847892352375782e-01,8.646094016159694418e-02,4.046076431591168330e+02
-6.050941358631329869e+00,1.378577221485135063e+01,-4.547057618593490780e+00,8.300563437177401749e-01,-5.470705674598344004e-01,1.082509144116477473e-01,4.070017554401334792e+02
-5.931855967063976109e+00,1.363713131891132768e+01,-4.893190062012768848e+00,6.874569165599268006e-01,-4.661106818260427054e-01,5.569037799858110871e-01,4.080531984137069799e+02
-5.689682480836601108e+00,1.336769138247627886e+01,-5.501042017415028518e+00,3.879944410393166287e-01,-2.787942452375509750e-01,8.784828299667252205e-01,4.099016829047124020e+02
-5.400559554966090303e+00,1.308490705808492649e+01,-6.094823528780545452e+00,0.000000000000000000e+00,-2.786296520870016821e-02,9.996107518285608506e-01,4.117501673957178241e+02
-5.068670544661420863e+00,1.278692674727791001e+01,-6.655449620438788294e+00,5.048504550711633287e-01,-7.270622152187579124e-01,4.653004977608588000e-01,4.135986518867232462e+02
-4.698854971363624955e+00,1.247226720971516833e+01,-7.163802835875784147e+00,3.794731911047499184e-01,-5.383771387425254629e-01,7.524281717968546168e-01,4.154471363777286683e+02
-4.271076104627398173e+00,1.211889190425547191e+01,-7.621541181784591501e+00,2.033361127284958603e-01,-2.776766396292935091e-01,9.389079342865590538e-01,4.174078258605113092e+02
-3.813863839513969900e+00,1.174434200852254229e+01,-7.969787101249104389e+00,0.000000000000000000e+00,2.016697227948724414e-02,9.997956257308727723e-01,4.193685153432939501e+02
-3.398892700892325536e+00,1.140151781446370016e+01,-8.176251054105780014e+00,2.204818902053456431e-01,2.585319636349858730e-02,9.750473569671325169e-01,4.210780970384075204e+02
-2.976245608569661361e+00,1.104562857055253744e+01,-8.294984653108219419e+00,4.301035175183399728e-01,3.026596604823502540e-02,9.022709878501654623e-01,4.227876787335210906e+02
-2.551954676165010927e+00,1.067820152567365000e+01,-8.327127877592111815e+00,0.000000000000000000e+00,-1.168708951519396300e-01,9.931461090215998322e-01,4.244972604286346609e+02
-2.131761340846873853e+00,1.030100316572557873e+01,-8.274218597157412702e+00,-0.000000000000000000e+00,-0.000000000000000000e+00,9.999989999924441264e-01,4.262068421237482312e+02
-1.725511064973584086e+00,9.920798272897965120e+00,-8.141097996805180870e+00,-1.161848472904061791e-01,1.341998236121057881e-03,9.932256945363709955e-01,4.278964229234440495e+02
-1.389129154146729883e+00,9.593094084142146372e+00,-7.970909488569631662e+00,-9.302458479231964783e-02,4.014339024324637371e-03,9.956547150960320947e-01,4.293354488072124582e+02
-9.791138291616489076e-01,9.174607417642850038e+00,-7.680555934699865972e+00,-6.981320943674672319e-02,6.684474332361906371e-03,9.975366828229664806e-01,4.311642364071363431e+02
-5.932945162540589346e-01,8.757416072860253919e+00,-7.305974431811618430e+00,-4.656347076063446083e-02,9.350937505758039753e-03,9.988705637591858144e-01,4.329930240070602281e+02
-2.345262246159608988e-01,8.345648307696579948e+00,-6.856270550044403223e+00,-2.328813938002751924e-02,1.201226390240998920e-02,9.996556247357402114e-01,4.348218116069841130e+02
9.443814532785668736e-02,7.943293627376329269e+00,-6.340552913071129559e+00,-0.000000000000000000e+00,1.466699169430323718e-02,9.998914337765223426e-01,4.366505992069079980e+02
4.320632048190258256e-01,7.495026766602854273e+00,-5.665504870834035422e+00,-7.217103253061220025e-01,5.166585169996518179e-01,4.606475693617175238e-01,4.387747795449688510e+02
7.159828906497852641e-01,7.074952064787888517e+00,-4.918689242119949512e+00,-4.786744931381528567e-01,-2.325607537446116035e-01,8.466311035139513219e-01,4.408989598830297041e+02
9.358833362749069407e-01,6.708134193093352238e+00,-4.163680661954848539e+00,-5.024135394088078410e-01,7.294793312446252731e-01,4.641535744839032640e-01,4.429084787836207511e+02
1.111444410057051968e+00,6.374604594507534472e+00,-3.378870660006435322e+00,-8.640238959902303284e-01,1.424557520291948147e-02,5.032472262632251558e-01,4.449179976842117981e+02
1.220369528397105441e+00,6.141458980385655408e+00,-2.768476522873556167e+00,-6.693304655660944347e-01,-7.101616072892911191e-01,2.183236574288964782e-01,4.464545876710864150e+02
1.312453049238923919e+00,5.925555261340207380e+00,-2.156963503349201172e+00,-4.368697578786884250e-02,-9.773284583464662001e-01,-2.071678851837208402e-01,4.479911776579610319e+02
1.389681990696409519e+00,5.727540617234699205e+00,-1.549389773456017139e+00,-1.571261495725260748e-01,-9.643530046557341473e-01,-2.129146672417542852e-01,4.495277676448356488e+02
1.454971477941531255e+00,5.545585180779235124e+00,-9.421273495369003603e-01,-2.685116056345077662e-01,-9.387736212144522918e-01,-2.158786829369707672e-01,4.510868644251565343e+02
1.509076698238405401e+00,5.383287198977694921e+00,-3.491624623997919286e-01,-3.072005732340915563e-01,-9.272031328332389633e-01,-2.142898930671469082e-01,4.526459612054774198e+02
1.562580432574179667e+00,5.214188061022414722e+00,3.504630087901988156e-01,-3.453878087530839469e-01,-9.141182992043711542e-01,-2.123511163763922571e-01,4.545652864476153354e+02
1.605694880018143422e+00,5.081872553835957262e+00,1.005631463620002108e+00,-3.830109435068425050e-01,-8.995404908859540027e-01,-2.100655193326373127e-01,4.564846116897532511e+02
1.638333618729198138e+00,4.996504161277413480e+00,1.520388396217850380e+00,-4.200085301013266048e-01,-8.834935167828918967e-01,-2.074368348354171387e-01,4.581012057756331615e+02
1.671034808848601783e+00,4.932258005168613124e+00,2.000304622109323027e+00,-4.563201427876396044e-01,-8.660035852672706147e-01,-2.044693561203978494e-01,4.597177998615130718e+02
1.706564511644176108e+00,4.888644878496516633e+00,2.441844728564840583e+00,-4.918864761474688319e-01,-8.470992613772173607e-01,-2.011679297481444029e-01,4.613343939473929822e+02
1.747448330985091225e+00,4.865085599517942505e+00,2.842010520005652019e+00,-5.266494419492182555e-01,-8.268114201672560615e-01,-1.975379476892979436e-01,4.629509880332728926e+02
1.795735463596400683e+00,4.860838196909127440e+00,3.198877978803460476e+00,-5.605522640167022175e-01,-8.051731962862879177e-01,-1.935853385190786646e-01,4.645675821191528030e+02
1.853231627927266700e+00,4.875075187925336451e+00,3.511060340139263491e+00,-5.935395709555085775e-01,-7.822199298654848310e-01,-1.893165577354814222e-01,4.661841762050327134e+02
1.923763289449228697e+00,4.908199669429810896e+00,3.782614705689430590e+00,-6.255574865856302624e-01,-7.579891088044022895e-01,-1.847385772169632956e-01,4.678412304909839463e+02
2.008109297453586350e+00,4.959395108520647355e+00,4.003035817103075544e+00,-6.565537179327002315e-01,-7.325203075494971516e-01,-1.798588738368246676e-01,4.694982847769351793e+02
2.108230464895558320e+00,5.027714988269750052e+00,4.170794363612735367e+00,-6.864776406341425163e-01,-7.058551224649602940e-01,-1.746854172528621851e-01,4.711553390628864122e+02
2.225758577081893730e+00,5.112593377893300151e+00,4.285328249538044254e+00,-7.152803816207677912e-01,-6.780371039013389778e-01,-1.692266568922189962e-01,4.728123933488376451e+02
2.361349316277303156e+00,5.214141913228765191e+00,4.348464026900338730e+00,-7.429148989387737156e-01,-6.491116850728154697e-01,-1.634915081526704672e-01,4.744694476347888781e+02
2.514673485751818482e+00,5.332667095878299790e+00,4.363904681499181315e+00,-7.693360585817821118e-01,-6.191261078592191769e-01,-1.574893378428637303e-01,4.761265019207401110e+02
