3.270804006297554078e+00,4.498722365264781864e+00,-1.891400631465919080e+00,-8.960948409311474405e-01,1.693476166674281191e-01,4.102845607453231569e-01,2.398781657771844067e+01
3.338356811504506361e+00,4.162088689584478196e+00,-2.051196304276527549e+00,-7.217103253061546431e-01,5.166585169996751326e-01,4.606475693617383960e-01,2.566561072686788592e+01
3.391917398634171299e+00,3.849684083304642623e+00,-2.194993849545725961e+00,-0.000000000000000000e+00,9.988447030629384882e-01,4.803393763095131080e-02,2.717037033555352465e+01
3.437856185971372547e+00,3.527482069313345736e+00,-2.339598882504753785e+00,-4.114745060147212419e-01,8.640462335170727703e-01,2.900186843051864582e-01,2.867512994423916339e+01
3.475483089667652958e+00,3.196352241847936870e+00,-2.485310014264252576e+00,-7.217103253060824786e-01,5.166585169996235072e-01,4.606475693616922662e-01,3.017988955292480213e+01
3.507697357947489269e+00,2.812334382274559452e+00,-2.652062807154170532e+00,-6.193350868973277468e-01,6.304728731552325938e-01,4.678952942165404694e-01,3.188581978371834680e+01
3.528333350161549919e+00,2.421552126262335847e+00,-2.820683611332471141e+00,-5.024135394077114958e-01,7.294793312430333243e-01,4.641535744828904630e-01,3.359175001451188791e+01
3.536326334733249421e+00,2.025933967761074594e+00,-2.991488728185208945e+00,-5.272142253727853944e-01,8.495957517028961403e-01,1.517297770659270517e-02,3.529768024530542903e+01
3.530553127442297878e+00,1.627503246226608802e+00,-3.164745841121948455e+00,-9.998919759349480518e-01,1.462998501632503667e-02,0.000000000000000000e+00,3.700361047609897014e+01
3.509046738396889076e+00,1.215519021407973410e+00,-3.346341237474860009e+00,-9.998919606002018012e-01,1.463098479091418103e-02,-0.000000000000000000e+00,3.876497308659306640e+01
3.470583242597473639e+00,8.053640340133347841e-01,-3.530773741820704359e+00,-9.991355386280089679e-01,7.413225345180318206e-03,-4.088055202706674524e-02,4.052633569708716266e+01
3.413785856168091826e+00,3.995041748237557755e-01,-3.718173193224190598e+00,-9.966567152603466040e-01,1.826868975790085065e-04,-8.169062703575789841e-02,4.228769830758125892e+01
3.337482120701085631e+00,4.187325557377988804e-04,-3.908537065740826488e+00,-9.924597640455352643e-01,-7.048167031046526608e-03,-1.223598793950415875e-01,4.404906091807535518e+01
3.240888550549859914e+00,-3.893997834217197695e-01,-4.101598128987665071e+00,-9.865519186075240032e-01,-1.426687237796965026e-02,-1.628182060994304847e-01,4.581042352856945143e+01
3.167799267652632977e+00,-6.255286977525279513e-01,-4.223541725231210187e+00,-9.789433609053522778e-01,-2.146098598938219609e-02,-2.029958674759157755e-01,4.690964255100129066e+01
3.021859964377975771e+00,-1.011512059993036505e+00,-4.432221332592886753e+00,-9.973413767291617882e-01,2.034512557818173636e-03,-7.282883373199763866e-02,4.877315272108899791e+01
2.853643114702143269e+00,-1.380538930911277218e+00,-4.641915417398036148e+00,-9.979527912158568936e-01,2.549372053073727801e-02,5.863699104151306324e-02,5.063666289117670516e+01
2.697259187762778065e+00,-1.668255014101045042e+00,-4.814378991813729414e+00,-9.807667157096509047e-01,4.849826714213426038e-02,1.890570481124352609e-01,5.217061025651571526e+01
2.523569872890869537e+00,-1.938133540277376943e+00,-4.985645788214352336e+00,-9.460896589015382885e-01,7.063789096413698732e-02,3.161054344369547131e-01,5.370455762185472537e+01
2.333175559544096611e+00,-2.188478376823796978e+00,-5.154628499936600328e+00,-8.945400586715548386e-01,9.151775619692935348e-02,4.375163811031064776e-01,5.523850498719373547e+01
2.126688340475075822e+00,-2.417597522606541371e+00,-5.320239835193330435e+00,-8.270372518246975613e-01,1.107654937451557770e-01,5.511246587575935330e-01,5.677245235253274558e+01
1.769619307590563961e+00,-2.748997023786756699e+00,-5.579237750424778319e+00,-7.447850786012693014e-01,1.280378416000694519e-01,6.549041897959472225e-01,5.924054120297004289e+01
1.531633153002295744e+00,-2.931745921454355752e+00,-5.735360799129034071e+00,-6.854952957433279037e-01,9.645744975067196969e-02,7.216579244311597252e-01,6.078681339926504990e+01
1.280827519049189345e+00,-3.088653060061739009e+00,-5.884046007095934172e+00,-6.200574967865772891e-01,6.401194805050879066e-02,7.819393654098425461e-01,6.233308559556005690e+01
1.018393958875751792e+00,-3.218784492994831492e+00,-6.024182722459212158e+00,-6.712518812307376459e-01,2.381798725189455124e-01,7.019182717893380774e-01,6.387935779185506391e+01
7.457060528736465521e-01,-3.321452591087160400e+00,-6.154706267441315326e+00,-6.960266023595524931e-01,4.029732585776916176e-01,5.942705795175969863e-01,6.542562998815007802e+01
4.642296919882711315e-01,-3.396098478659610453e+00,-6.274574986685815148e+00,-6.934065915919782608e-01,5.519060692898628551e-01,4.632331911890715248e-01,6.697190218444508503e+01
6.049400630770263021e-02,-3.460170859430991008e+00,-6.425701674226650617e+00,-6.634949939576905154e-01,6.791165338788519579e-01,3.139635749685511512e-01,6.913434444845205462e+01
-3.507996746544178035e-01,-3.482842328118781250e+00,-6.558683755674939775e+00,-6.074690999518655987e-01,7.795978449197072946e-01,1.523367742923392998e-01,7.129678671245902422e+01
-7.269588400652046145e-01,-3.465816202150325598e+00,-6.661501235679172517e+00,-0.000000000000000000e+00,4.167097442644203398e-02,9.991303868317403802e-01,7.325162535241493345e+01
-1.104855439102031545e+00,-3.411853063234223438e+00,-6.746592491910390343e+00,-2.278648427078306673e-04,1.990890576380515420e-01,9.799803544988358039e-01,7.520646399237084267e+01
-1.437421729411942017e+00,-3.332684697058533985e+00,-6.806107486067711321e+00,-4.499992964596048837e-04,3.515004504552168840e-01,9.361865363420546204e-01,7.693082100185546324e+01
-1.767085145695627357e+00,-3.223489052149683953e+00,-6.850274802312991795e+00,2.451053988519273918e-01,2.937175330450392252e-01,9.239325485321646658e-01,7.865517801134008380e+01
-2.091802184186998925e+00,-3.085986952945554140e+00,-6.879270204577275116e+00,4.750263206007765970e-01,2.171993842881760339e-01,8.527440543345117252e-01,8.037953502082470436e+01
-2.422192339490290447e+00,-2.915357794789484647e+00,-6.893829572538330730e+00,6.746469744001066804e-01,1.268268071975938993e-01,7.271618945668033573e-01,8.217271578294187862e+01
-2.743246962170493575e+00,-2.719139757569101867e+00,-6.892960998285877494e+00,3.629903610009291293e-01,6.823797821130993257e-02,9.292898235486470870e-01,8.396589654505905287e+01
-3.053172733279726714e+00,-2.499842560263406011e+00,-6.876787305735479805e+00,0.000000000000000000e+00,-9.999989999990432034e-07,9.999989999990431810e-01,8.575907730717622712e+01
-3.350320469680820423e+00,-2.260189279302449616e+00,-6.845408903306736015e+00,1.249999022554045041e-07,-9.999989992934956751e-07,9.999989992934958938e-01,8.755225806929340138e+01
-3.633063486465880398e+00,-2.002916478832149405e+00,-6.798926335061008963e+00,2.499997810733485417e-07,-9.999989992935505205e-07,9.999989992935506278e-01,8.934543883141057563e+01
-3.911208398029413669e+00,-1.719094381843375707e+00,-6.734800831450170833e+00,3.749996442663093178e-07,-9.999989992935583555e-07,9.999989992935585104e-01,9.121560967976374457e+01
-4.170889625705100912e+00,-1.422718413264801862e+00,-6.655135981424212588e+00,4.999994996467595901e-07,-9.999989992935191802e-07,9.999989992935193195e-01,9.308578052811691350e+01
-4.410764770616126818e+00,-1.116828538882230992e+00,-6.560684035856995777e+00,6.249993550271709519e-07,-9.999989992934332064e-07,9.999989992934333882e-01,9.495595137647008244e+01
-4.630287754621821961e+00,-8.042799132586566646e-01,-6.453484732770679244e+00,7.499992182200146256e-07,-9.999989992933006457e-07,9.999989992933006056e-01,9.682612222482325137e+01
-4.790918303709472248e+00,-5.488855599030535437e-01,-6.358854714646424711e+00,8.749990970377632634e-07,-9.999989992931208630e-07,9.999989992931208604e-01,9.833373973987664840e+01
-4.935349039906304469e+00,-2.916243640681366878e-01,-6.257867693169941070e+00,9.999989992928942817e-07,-9.999989992928942817e-07,9.999989992928942639e-01,9.984135725493004543e+01
-5.063719822405285953e+00,-3.389875172658676078e-02,-6.152005143053110636e+00,4.220786009133864480e-01,-9.799451889613630704e-07,9.065581363878000287e-01,1.013489747699834425e+02
-5.176378355658084018e+00,2.229124134082962061e-01,-6.042215546256858083e+00,7.652776940087331337e-01,-7.767581799077699084e-07,6.436987269313890758e-01,1.028565922850368395e+02
-5.283673010951723370e+00,5.033696729449816942e-01,-5.917678261060714817e+00,9.654608560912385506e-01,-4.284098634659827769e-07,2.605443059379131676e-01,1.045178692362587043e+02
-5.374626062763383949e+00,7.797034710450979622e-01,-5.790391213416235416e+00,9.852177632738929880e-01,-0.000000000000000000e+00,-1.713007849692110562e-01,1.061791461874805691e+02
-5.449815437956533337e+00,1.050264556350115397e+00,-5.661182593708733002e+00,8.983345255365923210e-01,-4.391756330612130443e-01,-1.085557715121686709e-02,1.078404231387024339e+02
-5.509831795983306080e+00,1.313501603334991552e+00,-5.530479408258663021e+00,6.082774653434431800e-01,-7.790243152623896883e-01,1.520448663573955306e-01,1.095017000899242987e+02
-5.555277978045487508e+00,1.568054734765336189e+00,-5.397906277342953807e+00,0.000000000000000000e+00,1.466699169441384142e-02,9.998914337840625333e-01,1.111629770411461635e+02
-5.586767094428018332e+00,1.812662143120887137e+00,-5.262686636783964644e+00,5.555043533688857477e-02,1.684348133984912496e-02,9.983127998117928836e-01,1.128242539923680283e+02
-5.603248176681695725e+00,2.024267770109498432e+00,-5.137022978662589168e+00,1.109290311058386269e-01,1.896787198907892713e-02,9.936463001935029737e-01,1.143302178281148826e+02
-5.608233757902302941e+00,2.224680509502003023e+00,-5.007619842191191495e+00,1.659644998151607875e-01,2.103359288349517658e-02,9.859063711985319722e-01,1.158361816638617370e+02
-5.602249573986155973e+00,2.412874835351146885e+00,-4.873839098072043186e+00,2.204866156156566059e-01,2.303425473712938931e-02,9.751169547503389934e-01,1.173421454996085913e+02
-5.585929802385510179e+00,2.587995178545464459e+00,-4.734920659786119757e+00,2.743267406900478100e-01,2.496366949334269392e-02,9.613114243295102224e-01,1.188481093353554456e+02
-5.560116999174309349e+00,2.749523278060095777e+00,-4.589860503643696354e+00,3.273183467256033374e-01,2.681586945926352911e-02,9.445324817287344965e-01,1.203540731711023000e+02
-5.525758208049965425e+00,2.897113287247939262e+00,-4.437532659825760284e+00,3.792975298609594370e-01,2.858512575893290900e-02,9.248320249782608915e-01,1.218600370068491543e+02
-5.472769859962945738e+00,3.065444030275156884e+00,-4.234437949431814729e+00,4.301035175183402504e-01,3.026596604823504968e-02,9.022709878501662395e-01,1.237621414765324772e+02
-5.411542781302946636e+00,3.215347356665618772e+00,-4.019071879689285254e+00,7.685250333186893767e-01,3.284954841025672923e-01,5.490519010875600792e-01,1.256642459462158001e+02
-5.343372350122961301e+00,3.346878406998590183e+00,-3.790203594744800064e+00,8.546902225258377062e-01,5.189015279780672119e-01,1.561498579573314394e-02,1.275663504158991230e+02
-5.268742650356172064e+00,3.461001749950080697e+00,-3.545673363551007373e+00,9.401136454468523862e-01,3.392688881866540718e-01,-3.287788244167411805e-02,1.294794431795102696e+02
-5.188779924426456525e+00,3.557308680400502965e+00,-3.286216082193087473e+00,9.861306207203944796e-01,1.454151948660080684e-01,-7.999262453614679191e-02,1.313925359431214019e+02
-5.120488527167635695e+00,3.620836514582508325e+00,-3.064596945383008642e+00,9.908122531697577395e-01,-5.453385112066600621e-02,-1.237543455841905449e-01,1.329355150966478618e+02
-5.048672192054128871e+00,3.670252216630151221e+00,-2.830611665807006183e+00,9.539622877664766243e-01,-2.521970419573271727e-01,-1.623286960077149343e-01,1.344784942501743217e+02
-4.961146491087816024e+00,3.711117945953159580e+00,-2.544292005693503445e+00,8.771253420181407412e-01,-4.392889764711109257e-01,-1.940987623368390369e-01,1.362741049894825949e+02
-4.869828594232084029e+00,3.734945489927029794e+00,-2.244713954672133305e+00,7.635221649523284970e-01,-6.079673610838275399e-01,-2.177328442918700646e-01,1.380697157287908681e+02
-4.775075630171651042e+00,3.741237255021047758e+00,-1.933067482823345840e+00,6.179146348642486908e-01,-7.511617388536661055e-01,-2.322402766599901969e-01,1.398653264680991413e+02
-4.691525005637601886e+00,3.731157616160899693e+00,-1.657002687362783888e+00,4.464061543351048877e-01,-8.628698651914197271e-01,-2.370129555880060301e-01,1.414041005170149106e+02
-4.606320179853768515e+00,3.705172649007112184e+00,-1.373368010036305042e+00,2.561858103073434978e-01,-9.384093051552941933e-01,-2.318508283261688507e-01,1.429428745659306799e+02
-4.520138199941365897e+00,3.662846692550363326e+00,-1.083530953170964040e+00,-4.368697578779399265e-02,-9.773284583447918727e-01,-2.071678851833659019e-01,1.444816486148464492e+02
-4.433659219737570822e+00,3.603748792443906890e+00,-7.888590598168524481e-01,-1.014775180905012619e-01,-9.039075975890897841e-01,-4.155133792368373991e-01,1.460204226637622185e+02
-4.347578752638904476e+00,3.527488298909217335e+00,-4.907266761430226221e-01,-1.539777343324507386e-01,-7.833569410917031739e-01,-6.021966125291680072e-01,1.475591967126779878e+02
-4.262619580657498908e+00,3.433750582591533984e+00,-1.905217137853731091e-01,-1.984502355019474029e-01,-6.219597502695614066e-01,-7.574837113931309762e-01,1.490979707615937571e+02
-4.170444422275171981e+00,3.309997179115380828e+00,1.433453660340152092e-01,-2.325757922724366600e-01,-4.281295827832137801e-01,-8.732763372101836064e-01,1.508056497649079972e+02
-4.081338619485835650e+00,3.166150846225529225e+00,4.762408827920564525e-01,-2.545744282699681227e-01,-2.119724763438219362e-01,-9.435345937847458009e-01,1.525133287682222374e+02
-3.996352873999810207e+00,3.001811465593665407e+00,8.064286948440833047e-01,-2.632985103955366446e-01,1.523973874058024390e-02,-9.645929943277147256e-01,1.542210077715364775e+02
-3.916586975088611311e+00,2.816561501958764424e+00,1.132166572531570603e+00,-2.582928556388909280e-01,2.416576525464156910e-01,-9.353525429554331305e-01,1.559286867748507177e+02
-3.844416881637825245e+00,2.613609075499738754e+00,1.446131254388538068e+00,-2.398185991087564695e-01,4.554731252096863581e-01,-8.573384813851427921e-01,1.576064998735415656e+02
-3.779409040832029998e+00,2.389462405638057785e+00,1.752411373287332763e+00,-2.088395179855073724e-01,6.455360509085469323e-01,-7.346204888577944070e-01,1.592843129722324136e+02
-3.722320658008432481e+00,2.144143598255119354e+00,2.049567998194168794e+00,-1.669715517102342839e-01,8.019363925002686022e-01,-5.735996193026702272e-01,1.609621260709232615e+02
-3.673563829533303515e+00,1.878069315655148008e+00,2.336415879696840836e+00,-1.163982533831820071e-01,9.165208437051366452e-01,-3.826734765300607299e-01,1.626399391696141095e+02
-3.631634974325613996e+00,1.581948463633117585e+00,2.621972118712038835e+00,-5.975671274514581660e-02,9.833172076913933024e-01,-1.717975678729047329e-01,1.643777764761805429e+02
-3.597958231200787171e+00,1.266555171432098614e+00,2.895265076765446643e+00,-0.000000000000000000e+00,9.988447030581010244e-01,4.803393763071867051e-02,1.661156137827469763e+02
-3.572179268268683039e+00,9.331556910663065807e-01,3.155579262780033645e+00,3.476438112528193458e-01,7.329231412926796585e-01,-5.847781198509935940e-01,1.678534510893134097e+02
-3.553888166610206234e+00,5.831353511973292880e-01,3.402284213803103086e+00,4.894745649099780382e-01,3.309397058303449601e-02,-8.713882254299828434e-01,1.695912883958798432e+02
-3.542572546361426156e+00,2.181203144160289153e-01,3.634919419700831433e+00,0.000000000000000000e+00,9.978126036217043193e-01,-6.609090750977844597e-02,1.713291257024462766e+02
-3.537827476167515695e+00,-1.455397097649464844e-01,3.844679345060045605e+00,-0.000000000000000000e+00,9.973637782895020676e-01,-7.254993870644024789e-02,1.729997892893018445e+02
-3.538640327656347839e+00,-5.203301736238314934e-01,4.040206113153155698e+00,-0.000000000000000000e+00,9.968731426564392262e-01,-7.900593205231017102e-02,1.746704528761574124e+02
-3.544458006328162547e+00,-9.046486194406221371e-01,4.221152970294569151e+00,-0.000000000000000000e+00,9.968731420280737554e-01,-7.900593200250984049e-02,1.763411164630129804e+02
-3.554715002141392688e+00,-1.296897138104724956e+00,4.387173275622657798e+00,5.119696326536163911e-01,1.099999210733007517e-05,-8.590023836520779277e-01,1.780117800498685483e+02
-3.568833403307710928e+00,-1.695482442237788545e+00,4.537920503780271453e+00,4.702064616786145179e-01,9.475964161797569086e-06,-8.825553145851678938e-01,1.796824436367241162e+02
-3.586954141734383317e+00,-2.115116294114872009e+00,4.678511318783290740e+00,4.273623398808744089e-01,7.930152222910507494e-06,-9.040793274848722971e-01,1.814207000302306767e+02
-3.607927174588183572e+00,-2.538028430389276391e+00,4.802515698573814440e+00,3.835357591901290553e-01,6.366109860004792197e-06,-9.235249435607512103e-01,1.831589564237372372e+02
-3.631187001013206572e+00,-2.962675091672829275e+00,4.909680763833802253e+00,3.388274696652445184e-01,4.787432541563091715e-06,-9.408474614805185654e-01,1.848972128172437976e+02
-3.655392693956647232e+00,-3.374432394046843697e+00,4.997006845411447351e+00,2.933402479746103908e-01,3.197749373114226793e-06,-9.560070600706558341e-01,1.865816617169487870e+02
-3.680810440030790165e+00,-3.785206110761070608e+00,5.067677994557504562e+00,2.471786612265816085e-01,1.600714757988780565e-06,-9.689688898145933926e-01,1.882661106166537763e+02
-3.707206817930797982e+00,-4.194089047752498800e+00,5.121696584753263615e+00,2.004488266896339022e-01,0.000000000000000000e+00,-9.797031529373612102e-01,1.899505595163587657e+02
-3.736947647799890415e+00,-4.636550293894003083e+00,5.162472308279099309e+00,1.455706863978342425e-01,9.448718249481539988e-02,-9.848245263015946716e-01,1.917852667561002704e+02
-3.767587986938708777e+00,-5.075244794073368482e+00,5.185266574848865773e+00,8.895071270837603961e-02,1.878437277697962704e-01,-9.781617988072383030e-01,1.936199739958417751e+02
-3.798896542267820919e+00,-5.509335450898103836e+00,5.190228925087084555e+00,3.126639559066735768e-02,2.789525754462974794e-01,-9.597947036519739461e-01,1.954546812355832799e+02
-3.830536213559003311e+00,-5.938078926180745398e+00,5.177642387984110250e+00,-2.679204131823626281e-02,3.667235611943063245e-01,-9.299430177095214800e-01,1.972893884753247846e+02
-3.865131367041862553e+00,-6.399990260148982202e+00,5.145099842894108377e+00,-8.452989841290621531e-02,4.501064590670528776e-01,-8.889639316530130175e-01,1.992943888671479442e+02
-3.898991572197838984e+00,-6.854490272079419633e+00,5.094296343303042818e+00,-0.000000000000000000e+00,8.052988517093670473e-03,-9.999665741290355570e-01,2.012993892589711038e+02
-3.930342215437894193e+00,-7.300900821040903210e+00,5.026230198369711744e+00,1.217558766212737814e-01,-4.271485671580905197e-01,-8.959450921131094647e-01,2.033043896507942634e+02
-3.954528919151456989e+00,-7.702635425518160162e+00,4.949333184059929280e+00,4.796806655689802024e-01,-5.264143113618700021e-01,-7.019917605455111564e-01,2.051442253461085556e+02
-3.971819592110604535e+00,-8.096068391802237585e+00,4.859538556255275310e+00,7.533821139021693591e-01,-5.332511328085866031e-01,-3.847812622928180049e-01,2.069840610414228479e+02
-3.980100056670219377e+00,-8.480805430808930012e+00,4.758490550633236893e+00,8.948031780342079466e-01,-4.464585898833424715e-01,-9.999990814012990839e-06,2.088238967367371401e+02
-3.977741239513830518e+00,-8.802529762362118149e+00,4.663892987093147369e+00,7.525789214884068823e-01,9.257286733496278286e-02,-6.519610656826181350e-01,2.103996389417758337e+02
-3.964375791196542931e+00,-9.116150584592332962e+00,4.562817241275064717e+00,8.025500643387982747e-01,5.694853520637224720e-02,-5.938587867195275205e-01,2.119753811468145273e+02
-3.938607731549393254e+00,-9.421374479434172500e+00,4.456774655601729584e+00,8.467893067807775731e-01,2.091747967948213993e-02,-5.315151258073066431e-01,2.135511233518532208e+02
-3.899038501576433724e+00,-9.717918282465580759e+00,4.347276606673376342e+00,8.849807075402095213e-01,-1.526297770936156650e-02,-4.653753203480212597e-01,2.151268655568919144e+02
-3.844491191275867692e+00,-1.000555372603088244e+01,4.235856249524433181e+00,9.978964962917117321e-01,-6.481190233636946463e-02,1.999996986248517972e-06,2.167026077619306079e+02
-3.756519701752204732e+00,-1.035496027709906208e+01,4.095819323243290455e+00,9.976443440581322930e-01,3.267206285393712412e-02,6.030173363656256280e-02,2.186786926985779189e+02
-3.648397040052465456e+00,-1.069297582405466862e+01,3.957858287791164997e+00,9.842838733157226461e-01,1.297267356343901890e-01,1.198091431993938277e-01,2.206547776352252299e+02
-3.534685308509009971e+00,-1.098124118314600750e+01,3.839949558991789136e+00,9.579906321497921873e-01,2.250768912282820611e-01,1.777423465305787986e-01,2.223994826581620430e+02
-3.402932627466519921e+00,-1.125926223295385142e+01,3.727694619030532674e+00,9.191100942929432138e-01,3.174697010911591843e-01,2.333401454097311090e-01,2.241441876810988560e+02
-3.253761791132904868e+00,-1.152701319906965338e+01,3.622692569625929782e+00,8.681531199210641425e-01,4.056911936903003224e-01,2.858720268500311024e-01,2.258888927040356691e+02
-3.087794610335380163e+00,-1.178446301269646135e+01,3.526542451279293111e+00,8.057892435783569063e-01,4.885822047769387555e-01,3.346477612513469868e-01,2.276335977269724822e+02
-2.905651895843845534e+00,-1.203157531738644792e+01,3.440843229785218060e+00,7.328378773936157220e-01,5.650536076280399111e-01,3.790264713255245277e-01,2.293783027499092952e+02
-2.735173196432633791e+00,-1.223557389397511663e+01,3.377317245953488811e+00,6.502575451219111402e-01,6.341006231837181817e-01,4.184250526577707463e-01,2.308820833231763459e+02
-2.551623824245749628e+00,-1.243049967017513957e+01,3.325366514457827272e+00,5.591332884065390862e-01,6.948160220796398834e-01,4.523258352765255896e-01,2.323858638964433965e+02
-2.355612519725466925e+00,-1.261644274992497827e+01,3.286013217955217502e+00,4.606624106662593476e-01,7.464020451143851265e-01,4.802833855647918315e-01,2.338896444697104471e+02
-2.148048084341239061e+00,-1.279374369600805394e+01,3.259948596238945839e+00,2.464466591675598395e-01,6.278604382736283629e-01,7.382772610861598750e-01,2.353934250429774977e+02
-1.867621007488668550e+00,-1.301158441601467786e+01,3.244228969984776167e+00,1.054998706094199953e-03,4.298934727560758673e-01,9.028778926631518820e-01,2.373288210211753722e+02
-1.575764455662656660e+00,-1.322003296379882897e+01,3.246756607725886035e+00,-2.094397647221116210e-02,9.665299142314137670e-01,2.556937127619156591e-01,2.392642169993732466e+02
-1.274423814094908014e+00,-1.342006623413262112e+01,3.266872417940881679e+00,4.503844625720935385e-02,9.268463267737280242e-01,3.727270112360365761e-01,2.411996129775711211e+02
-1.028558966003343622e+00,-1.357305432453510718e+01,3.295577740855038851e+00,1.101369801406805876e-01,8.689730983303850520e-01,4.824454373124487105e-01,2.427390917806250172e+02
-7.777108408491101299e-01,-1.372034029786741449e+01,3.335604633888904047e+00,1.730740563676120558e-01,7.940459917529953948e-01,5.826957473615023142e-01,2.442785705836789134e+02
-5.230659811329544384e-01,-1.386241925935926034e+01,3.385652304564267467e+00,2.326145216020538697e-01,7.035354498283777902e-01,6.715105026534698984e-01,2.458180493867328096e+02
-2.658143577387021561e-01,-1.399977762100487411e+01,3.444419894627845480e+00,2.875898764462447854e-01,5.992177425653392175e-01,7.471466790124219326e-01,2.473575281897867058e+02
-7.149346147168469251e-03,-1.413289308303441416e+01,3.510606488551469173e+00,3.293612523036120732e-01,7.719239528835327713e-01,5.437394380073142797e-01,2.488970069928406019e+02
2.518271955939831441e-01,-1.426200470800749720e+01,3.582965299309617269e+00,3.471067368402287467e-01,8.883207164996644867e-01,3.006679528586146399e-01,2.504364857958944981e+02
5.102020721066579112e-01,-1.438688391582314274e+01,3.660357853806692763e+00,3.395318230138439919e-01,9.399171497230395245e-01,3.566360632361981892e-02,2.519759645989483943e+02
7.671592079816403897e-01,-1.450706576868524778e+01,3.741699823110305356e+00,3.071890846017150678e-01,9.229494391226966687e-01,-2.319422322986016138e-01,2.535154434020022904e+02
1.021885878427904570e+00,-1.462207935280371984e+01,3.825906852329917562e+00,2.524378628231809252e-01,8.386554103984737996e-01,-4.826284575346456163e-01,2.550549222050561866e+02
1.269976435313532326e+00,-1.472987781104132488e+01,3.910667886824277240e+00,1.792721343471907758e-01,6.931841798395761423e-01,-6.981082972340807435e-01,2.565723690986664565e+02
1.514293175912656997e+00,-1.483162995678416962e+01,3.996130735254712185e+00,9.302913311786049910e-02,4.971475121822269139e-01,-8.626632781817237250e-01,2.580898159922767263e+02
1.754056273035381475e+00,-1.492686108985381210e+01,4.081241827388978116e+00,0.000000000000000000e+00,2.648456641228154607e-01,-9.642897770880202168e-01,2.596072628858869962e+02
1.988489170280016927e+00,-1.501509085675637323e+01,4.164947595224747445e+00,-0.000000000000000000e+00,3.032083730870910876e-01,-9.529232301022695362e-01,2.611247097794972660e+02
2.216818597329301532e+00,-1.509583326814853521e+01,4.246194479714126224e+00,-0.000000000000000000e+00,3.410856895361299435e-01,-9.400311443624989050e-01,2.626421566731075359e+02
2.438274585210705947e+00,-1.516859671636729701e+01,4.323928937488213720e+00,-1.315564533016056470e-01,3.894486881487240759e-01,-9.116033232139917342e-01,2.641596035667178057e+02
2.652090481520718690e+00,-1.523288399302293783e+01,4.397097447581884921e+00,-2.604220092282535370e-01,4.298457992099455338e-01,-8.645293320715016216e-01,2.656770504603280756e+02
2.885343996835398439e+00,-1.529573908410616845e+01,4.473774796945050980e+00,-3.839608182486798915e-01,4.614507310012572749e-01,-7.997720380890964709e-01,2.674004949065883352e+02
3.108044259498925932e+00,-1.534785523213994907e+01,4.542708765207525978e+00,-4.996459869787654995e-01,4.836170298199094497e-01,-7.186560068386149691e-01,2.691239393528485948e+02
3.319364376762671931e+00,-1.538849825324718701e+01,4.602784387350251194e+00,-6.051112637003469574e-01,4.958913024062636676e-01,-6.228404087259294952e-01,2.708473837991088544e+02
3.518672687313199710e+00,-1.541679669319389312e+01,4.653515933510879776e+00,-6.981994378397941015e-01,4.980224894193079899e-01,-5.142850814810087101e-01,2.725708282453691140e+02
3.705278390146675260e+00,-1.543182145853800513e+01,4.694944388086086384e+00,-7.770064635112090556e-01,4.899670003451821465e-01,-3.952104429740105895e-01,2.742942726916293736e+02
3.925733644506353315e+00,-1.543291934096491502e+01,4.736112971928082338e+00,-8.399204047181648702e-01,4.718896048667552412e-01,-2.680520743399453787e-01,2.764897229564932672e+02
4.088955731031628460e+00,-1.541821559672597175e+01,4.760351947356100233e+00,-8.856544057353660238e-01,4.441600625058980123e-01,-1.354109023581953619e-01,2.782646988824751020e+02
4.235887914465983783e+00,-1.538701862379362773e+01,4.776123924033725210e+00,-9.132730123892983665e-01,4.073455594977313243e-01,-0.000000000000000000e+00,2.800396748084569367e+02
4.365185270561512176e+00,-1.533863795974671440e+01,4.784116498531490791e+00,-5.476658540163765743e-01,8.366959497606378804e-01,-0.000000000000000000e+00,2.818146507344387715e+02
4.475522560899549696e+00,-1.527239731641629206e+01,4.784884050820775059e+00,-7.894990794487431740e-03,9.999678340434201562e-01,-0.000000000000000000e+00,2.835896266604206062e+02
4.565608621767959008e+00,-1.518766047815117304e+01,4.778714454938057798e+00,-2.691505401649677554e-01,9.433851173730770645e-01,-1.938569241715240588e-01,2.853646025864024409e+02
4.630811947122624339e+00,-1.508890057928391037e+01,4.766396514605949264e+00,-5.010587216239249519e-01,7.839387708455913817e-01,-3.665762690780370869e-01,2.870524924873593022e+02
4.674380159554098135e+00,-1.497137369941277996e+01,4.747769718034712483e+00,-6.783331045801954673e-01,5.390142884851624183e-01,-4.993253408757495904e-01,2.887403823883161635e+02
4.695170431383824727e+00,-1.483449861304954709e+01,4.722974012488286633e+00,-3.879469427327386088e-01,3.218988955106735217e-01,-8.636412858905593293e-01,2.904282722892730249e+02
4.692043686505317446e+00,-1.467768471713881695e+01,4.692149393911895672e+00,4.930994909503877768e-03,1.974097962046563945e-02,-9.997919678681019828e-01,2.921161621902298862e+02
4.663864628926070566e+00,-1.450033205276521464e+01,4.655435905826998066e+00,-9.089331001752296579e-01,0.000000000000000000e+00,-4.169395872385236457e-01,2.938040520911867475e+02
4.609826539124939337e+00,-1.430174964627069478e+01,4.612989736932120444e+00,-8.960393557458785629e-01,4.324681450530642665e-03,-4.439513149916426982e-01,2.954919419921436088e+02
4.529776938148871501e+00,-1.408107729440195932e+01,4.564999318576402842e+00,-8.823261080616321417e-01,8.645406842160273386e-03,-4.705570060805162047e-01,2.971798318931004701e+02
4.412262018487075110e+00,-1.381040023146988638e+01,4.505783081001595747e+00,-8.678058991895963858e-01,1.295822459144287987e-02,-4.967323280655602802e-01,2.990541810862090415e+02
4.266408436122393510e+00,-1.351294061493452681e+01,4.440887439555670113e+00,-8.524920091472650840e-01,1.725919035200630669e-02,-5.224533421147127266e-01,3.009285302793176129e+02
4.092808604132190275e+00,-1.318764670206925160e+01,4.370705551106739861e+00,-8.363984437562802521e-01,2.154437062085842736e-02,-5.476965248886515036e-01,3.028028794724261843e+02
3.922724352233041500e+00,-1.288702784293433723e+01,4.307142982928739094e+00,-8.195399218345208459e-01,2.580984633474638773e-02,-5.724387900467646784e-01,3.043951603683539702e+02
3.731189026992220104e+00,-1.256164610601672393e+01,4.240254068970262580e+00,-8.019318617368509372e-01,3.005171645328982497e-02,-5.966575093536444774e-01,3.059874412642817560e+02
3.519411512396944275e+00,-1.221099440246826795e+01,4.170627318758055146e+00,-7.835903672568110823e-01,3.426610152562099137e-02,-6.203305333668649446e-01,3.075797221602095419e+02
3.288603737302645325e+00,-1.183457437359567166e+01,4.098851261042647742e+00,-7.645322129021230317e-01,3.844914723727989314e-02,-6.434362116871923387e-01,3.091720030561373278e+02
3.040114891435814037e+00,-1.143212473094192916e+01,4.025431746163929070e+00,-7.447748285574414817e-01,4.259702793413076838e-02,-6.659534127527650949e-01,3.107642839520651137e+02
2.775563359016585352e+00,-1.100385093500926459e+01,3.950709248997983369e+00,-7.243362835483416751e-01,4.670595012008689484e-02,-6.878615431592038920e-01,3.123565648479928996e+02
2.479826382097866322e+00,-1.052259232799568522e+01,3.870338696362288555e+00,-7.032352701210740076e-01,5.077215592545473305e-02,-7.091405664880311432e-01,3.140456542926685870e+02
2.170979541010475078e+00,-1.001486395552056408e+01,3.789148626756510208e+00,-6.814910863531469243e-01,5.479192654273509766e-02,-7.297710216262387473e-01,3.157347437373442745e+02
1.850982783322388414e+00,-9.481198016109011917e+00,3.707429163247166315e+00,-6.118170490061275446e-01,-1.175509652144934858e-01,-7.822145927583851188e-01,3.174238331820199619e+02
1.521791296398764093e+00,-8.922141886147336720e+00,3.625470433069852394e+00,-5.193179911140078930e-01,-2.855083807590643175e-01,-8.054761254210165422e-01,3.191129226266956493e+02
1.185314083718018052e+00,-8.338492960288036215e+00,3.543301473564540061e+00,-4.074447634267278073e-01,-4.428143556007214654e-01,-7.986878058613349207e-01,3.208020120713713368e+02
8.433700496820080161e-01,-7.731533048600143232e+00,3.460429140176309204e+00,-2.803710027424674012e-01,-5.836002932636100704e-01,-7.621028792264286089e-01,3.224911015160470242e+02
5.181437592723381336e-01,-7.140119842058472166e+00,3.381114396241942543e+00,-1.428374312845323568e-01,-7.026139000550561953e-01,-6.970862039049932068e-01,3.240799573945994325e+02
1.908512941654545714e-01,-6.529660565983677500e+00,3.299761928809514799e+00,2.499997267779020913e-05,-7.954151306990869807e-01,-6.060633376396897809e-01,3.256688132731518408e+02
-1.369654440746234658e-01,-5.901532143910613648e+00,3.215704372548164436e+00,3.206548364325029140e-05,-6.504281128206643725e-01,-7.595665007246743539e-01,3.272576691517042491e+02
-4.637749428053148937e-01,-5.257122764646540602e+00,3.128274381078463673e+00,3.770137437772724820e-05,-4.764418687239381778e-01,-8.792048363738423911e-01,3.288465250302566574e+02
-7.880561094126335986e-01,-4.597831823839779730e+00,3.036804631659271170e+00,4.165636643173685738e-05,-2.812134196585309165e-01,-9.596442105620976992e-01,3.304353809088090657e+02
-1.108298302289974613e+00,-3.925069865417050163e+00,2.940627829899571388e+00,4.375412176100564434e-05,-7.344694083127360773e-02,-9.972981224106921561e-01,3.320242367873614739e+02
-1.422980170766860786e+00,-3.240260335588568186e+00,2.839367952079977275e+00,4.390110703770705198e-05,1.375943027925764228e-01,-9.904876606535744088e-01,3.336130926659138822e+02
-1.730548512884720891e+00,-2.544841548107390494e+00,2.733231485420483331e+00,4.209076597801959726e-05,3.425009809163409580e-01,-9.395164055485711874e-01,3.352019485444662905e+02
-2.029439524646173609e+00,-1.840265129560945345e+00,2.622716189086625516e+00,3.840381281736492640e-05,5.321372583697157044e-01,-8.466569179871382689e-01,3.367908044230186988e+02
-2.318374049825882910e+00,-1.128119224080504246e+00,2.508273868812093355e+00,3.300463339496215545e-05,6.980481667413728220e-01,-7.160494087812886432e-01,3.383796603015711071e+02
-2.584509509967581220e+00,-4.416835638358173055e-01,2.395428236955968515e+00,2.613395441996114261e-05,8.328366038698146179e-01,-5.535171095539429542e-01,3.398989494162532310e+02
-2.840193136233897242e+00,2.483732428159523553e-01,2.279556813317459074e+00,1.809810839789200305e-05,9.304931382067649359e-01,-3.663065921069552089e-01,3.414182385309353549e+02
-3.085163623503976105e+00,9.402425071231592657e-01,2.161240045434561274e+00,9.255373752733018935e-06,9.866639111255439687e-01,-1.627646349677209781e-01,3.429375276456174788e+02
-3.319212547866573715e+00,1.632113931660555517e+00,2.041156203299165917e+00,0.000000000000000000e+00,9.988447030623625045e-01,4.803393763092360380e-02,3.444568167602996027e+02
-3.542144118798055796e+00,2.322175764578806589e+00,1.919983568420375653e+00,7.767624510882511706e-07,7.867632162360210790e-01,-6.172533042257010161e-01,3.459761058749817266e+02
-3.753775182953512868e+00,3.008614867206851784e+00,1.798400429377480458e+00,1.174786000726635256e-06,1.910659323804693721e-01,-9.815761862851544173e-01,3.474953949896638505e+02
-3.953935227860105428e+00,3.689616781659051270e+00,1.677085077449351092e+00,9.999988887670539232e-07,-4.977924468360180876e-01,-8.672950362321107942e-01,3.490146841043459744e+02
-4.142466385519782968e+00,4.363365798449198252e+00,1.556715802294109663e+00,1.826145120353125650e-01,-4.548392610523719903e-01,-8.716485453441658038e-01,3.505339732190280984e+02
-4.319223436011421668e+00,5.028045024103917626e+00,1.437970887716300439e+00,3.587978646250787329e-01,-3.958704115053710004e-01,-8.453098305569263227e-01,3.520532623337102223e+02
-4.496408257944362497e+00,5.730979029548808334e+00,1.312810787225150211e+00,5.223473399479614532e-01,-3.229622905689736312e-01,-7.892063198687884196e-01,3.536867832669289555e+02
-4.660610427518425247e+00,6.420142383312841261e+00,1.191004915680797360e+00,6.675040796162747814e-01,-2.386821173635609583e-01,-7.053135122394706968e-01,3.553203042001476888e+02
-4.811852102388370689e+00,7.093421194964141918e+00,1.073432085768558197e+00,7.891568652813529816e-01,-1.459975413621298346e-01,-5.965854171002132889e-01,3.569538251333664221e+02
-4.950266672101503396e+00,7.748696786193086439e+00,9.608215456071386162e-01,8.830220945203162142e-01,-4.817214580834044968e-02,-4.668505381364744244e-01,3.585873460665851553e+02
-5.076194226658615527e+00,8.383841983290762911e+00,8.536034399124007299e-01,9.457946143629322178e-01,5.134946935885605079e-02,-3.206770641000359356e-01,3.602208669998038886e+02
-5.190086208702905601e+00,8.996727454179543670e+00,7.520583401589450157e-01,9.752641011568820018e-01,1.490629784051688278e-01,-1.632120138496813144e-01,3.618543879330226218e+02
-5.292410012040875245e+00,9.585227066916649719e+00,6.564667758524325158e-01,9.703928888894709504e-01,2.415277234481005841e-01,0.000000000000000000e+00,3.634879088662413551e+02
-5.413407955943055683e+00,1.033297478565393490e+01,5.375799838556222232e-01,9.965477758079671622e-01,8.300921954803046343e-02,0.000000000000000000e+00,3.656618007839354050e+02
-5.519586497832898786e+00,1.104227045933467011e+01,4.272442348948460311e-01,9.969795307158221265e-01,-7.765188556165565636e-02,0.000000000000000000e+00,3.678356927016294549e+02
-5.585098492939153836e+00,1.151470376123372930e+01,3.551691023855952367e-01,5.764363129604285207e-01,-1.163998612660080293e-03,-8.171400260718820752e-01,3.693721637586841666e+02
-5.641810168547846338e+00,1.195727562906968267e+01,2.886027909172053096e-01,9.546769266718766467e-01,-0.000000000000000000e+00,-2.976406653673217551e-01,3.709086348157388784e+02
-5.689835352149682279e+00,1.236959618348996237e+01,2.268854202958106581e-01,9.988611377177328832e-01,-0.000000000000000000e+00,4.769095883004498271e-02,3.724451058727935902e+02
-5.730632648989711697e+00,1.276589519679357565e+01,1.670317198087866717e-01,9.955207353940758175e-01,9.453287991526874989e-02,0.000000000000000000e+00,3.740395342029160020e+02
-5.762358753489126073e+00,1.313059735163823660e+01,1.104033305504130563e-01,9.706551006260414338e-01,0.000000000000000000e+00,-2.404717771875365118e-01,3.756339625330384138e+02
-5.787325200811381798e+00,1.349951820998700036e+01,4.995388432365355930e-02,9.674387735634136787e-01,-6.105330188493621885e-02,-2.456271844385015668e-01,3.773981333598889591e+02
-5.802041615370326255e+00,1.383439226143983802e+01,-9.848287047660492580e-03,9.605805854203778305e-01,-1.218767693880325326e-01,-2.498579436342625859e-01,3.791623041867395045e+02
-5.806478762968593443e+00,1.413592145537061562e+01,-7.063343694944931861e-02,9.501063537044264207e-01,-1.822414378177409644e-01,-2.531481285587207641e-01,3.809264750135900499e+02
-5.800635109145560797e+00,1.440507566508456172e+01,-1.340948144410413490e-01,9.360555079612234985e-01,-2.419200696235594417e-01,-2.554853536486305088e-01,3.826906458404405953e+02
-5.786463846222954288e+00,1.461497051649587675e+01,-1.939357030414940730e-01,9.184809413513330689e-01,-3.006880097514298966e-01,-2.568608206135098437e-01,3.842474504765693837e+02
-5.763205742606581694e+00,1.479825815814311696e+01,-2.588981867341259013e-01,8.974488115535561583e-01,-3.583240312792170812e-01,-2.572693515540203091e-01,3.858042551126981721e+02
-5.730117364127562674e+00,1.495794898068709422e+01,-3.308124088727865120e-01,8.730382917462111703e-01,-4.146111681511630565e-01,-2.567094084548195987e-01,3.873785761281259283e+02
-5.686946706664333995e+00,1.509335793133250370e+01,-4.098878393755949201e-01,8.453412726028189939e-01,-4.693375318786451866e-01,-2.551830989784758530e-01,3.889528971435536846e+02
-5.633171249710097861e+00,1.520586251648376752e+01,-4.970674519371420796e-01,8.144620164226977765e-01,-5.222971091347166084e-01,-2.526961685384936929e-01,3.905272181589814409e+02
-5.568131797864475097e+00,1.529694722397151985e+01,-5.930951359682018476e-01,7.805167646968520501e-01,-5.732905372415609824e-01,-2.492579786810478482e-01,3.921015391744091971e+02
-5.490916593943580892e+00,1.536822488100884243e+01,-6.982067504539998248e-01,7.436333005845641164e-01,-6.221258546328864991e-01,-2.448814718564671922e-01,3.936758601898369534e+02
-5.400497994289787052e+00,1.542123507789800030e+01,-8.122192384720552383e-01,7.039504679456488612e-01,-6.686192234671256562e-01,-2.395831227126606622e-01,3.952501812052647097e+02
-5.288001924377432772e+00,1.546013979469339183e+01,-9.439969576192058787e-01,6.616176487367453340e-01,-7.125956216717346248e-01,-2.333828760933466251e-01,3.969421508560849929e+02
-5.159001332470293022e+00,1.548259117929544537e+01,-1.084686987348512988e+00,7.159496683703234776e-01,-6.819584274984586969e-01,-1.494883792201788797e-01,3.986341205069052762e+02
-5.012378061579926936e+00,1.549013456996306815e+01,-1.233668456433142824e+00,7.624571196087690517e-01,-6.438681834087313094e-01,-6.396016846222164765e-02,4.003260901577255595e+02
-4.859765335818192256e+00,1.548456048892594517e+01,-1.377915332434767937e+00,8.006317438343225623e-01,-5.987411706635434872e-01,2.226704549663385130e-02,4.018894274981638546e+02
-4.702966146146170701e+00,1.546881293136794255e+01,-1.515387769065018153e+00,8.300563437176621262e-01,-5.470705674597829971e-01,1.082509144116375471e-01,4.033279978224805404e+02
-4.548637551054854455e+00,1.544592043109928348e+01,-1.640385947974036140e+00,6.974822247562603161e-01,-7.137688295784352377e-01,6.364435614979566114e-02,4.046076431591168330e+02
-4.232316285667597988e+00,1.538650332425924994e+01,-1.874910153186086781e+00,5.318795199242887239e-01,-8.466672357961524398e-01,1.602398553671279327e-02,4.070017554401334792e+02
-4.081571160908243456e+00,1.535312594516553908e+01,-1.975696892944952099e+00,5.239554337157279473e-01,-8.514760797356397681e-01,2.138197689063527085e-02,4.080531984137069799e+02
-3.796673798590833648e+00,1.528131398463567336e+01,-2.144690229605559662e+00,5.286649369446070335e-01,-8.111518968713665734e-01,2.500879538212825159e-01,4.099016829047124020e+02
-3.493436709286970476e+00,1.519519220797455539e+01,-2.300697997049376387e+00,5.048504550706163219e-01,-7.270622152179702091e-01,4.653004977603547032e-01,4.117501673957178241e+02
-3.173606595021446264e+00,1.509366465342999675e+01,-2.438301484016419884e+00,3.760971807791622656e-01,-5.527050284164681804e-01,7.436841145099024608e-01,4.135986518867232462e+02
-2.839106759154199189e+00,1.497569613291646995e+01,-2.552207665672445280e+00,2.005290663810932739e-01,-3.095496683847631658e-01,9.294972277207744771e-01,4.154471363777286683e+02
-2.471409077188601255e+00,1.483198470011081049e+01,-2.642959919613886210e+00,0.000000000000000000e+00,-2.786296520869637611e-02,9.996107518284248483e-01,4.174078258605113092e+02
-2.094325038323718857e+00,1.466827166573399488e+01,-2.700425128251278561e+00,-0.000000000000000000e+00,-9.993865585873608071e-01,3.499294952975973150e-02,4.193685153432939501e+02
-1.760832140261750611e+00,1.450684627569299323e+01,-2.720572377040415102e+00,-0.000000000000000000e+00,2.016697227948966581e-02,9.997956257309926764e-01,4.210780970384075204e+02
-1.426222734945864490e+00,1.432571322909757150e+01,-2.710885852219065306e+00,-0.000000000000000000e+00,-9.950635238632310475e-01,9.922995251858011956e-02,4.227876787335210906e+02
-1.094114387566790914e+00,1.412391891183552595e+01,-2.671692557702813886e+00,-0.000000000000000000e+00,-1.168708951520791295e-01,9.931461090227852173e-01,4.244972604286346609e+02
-7.681197896688783944e-01,1.390052716915147180e+01,-2.603632390308221911e+00,-0.000000000000000000e+00,-0.000000000000000000e+00,9.999989999924441264e-01,4.262068421237482312e+02
-4.555187717885779142e-01,1.365749506964059812e+01,-2.509085458502807509e+00,-1.161848472904061791e-01,1.341998236121057881e-03,9.932256945363709955e-01,4.278964229234440495e+02
-2.000808508633774851e-01,1.343123849617728105e+01,-2.406647784364771780e+00,-2.305751936278662428e-01,-4.047306840167520514e-01,8.848876502134460642e-01,4.293354488072124582e+02
1.085915208194695170e-01,1.312050220609183704e+01,-2.250344934776419947e+00,-3.012213494755952570e-01,-7.340188077966705027e-01,6.086707553533171611e-01,4.311642364071363431e+02
4.005086481534886889e-01,1.278998841762587269e+01,-2.069713061398295029e+00,-3.147204858213986101e-01,-9.240505577592575959e-01,2.169782996312297485e-01,4.329930240070602281e+02
6.756033121381598283e-01,1.244414000681013555e+01,-1.866571686539379549e+00,-2.685116056354184821e-01,-9.387736212176366335e-01,-2.158786829377030148e-01,4.348218116069841130e+02
9.338458035960254255e-01,1.208739999988209490e+01,-1.642740541194316339e+00,-4.786744931382749257e-01,-2.325607537446708895e-01,8.466311035141672603e-01,4.366505992069079980e+02
1.214093662726159595e+00,1.166565426559696306e+01,-1.360922236580857314e+00,-5.709481212609104350e-01,-2.769451328461598472e-01,7.728632713631895523e-01,4.387747795449688510e+02
1.474699710259388397e+00,1.124193051913544394e+01,-1.059986848264968806e+00,-6.541287719794526279e-01,-3.169188557572173437e-01,6.867867125496841529e-01,4.408989598830297041e+02
1.703226133678459098e+00,1.084404952988388615e+01,-7.604679518456554099e-01,-7.268916949318616760e-01,-3.518452935883606414e-01,5.897722892941781314e-01,4.429084787836207511e+02
1.914572190947273933e+00,1.045330154326349792e+01,-4.497643378967114969e-01,-7.880780530034795506e-01,-3.811682007678456885e-01,4.833650640023943179e-01,4.449179976842117981e+02
2.064050562044588588e+00,1.016263360577428898e+01,-2.064718144332718386e-01,-8.367133789728740112e-01,-4.044205742939164239e-01,3.692596925415704834e-01,4.464545876710864150e+02
2.202672617705401237e+00,9.882184503038327961e+00,3.985683434257691199e-02,-8.720230958410772892e-01,-4.212320916890506250e-01,2.492734347083450652e-01,4.479911776579610319e+02
2.331669242262384589e+00,9.613565211105797204e+00,2.866800803441621470e-01,-8.934448535453036744e-01,-4.313350091404717923e-01,1.253172117607378178e-01,4.495277676448356488e+02
2.454060891275264389e+00,9.354490285361352520e+00,5.350259756187101257e-01,-9.006374854807686070e-01,-4.345684258441442349e-01,-6.348279635135624724e-04,4.510868644251565343e+02
2.569187177054348847e+00,9.110229202855313346e+00,7.787442108983063660e-01,-8.934864421216588415e-01,-4.308808466060211617e-01,-1.265767505241452706e-01,4.526459612054774198e+02
2.703307679990313073e+00,8.829065812365501031e+00,1.069972510803798738e+00,-8.721056151819380764e-01,-4.203310018774996659e-01,-2.505027840749179946e-01,4.545652864476153354e+02
2.831134583597552545e+00,8.568480139644066185e+00,1.349289422629118773e+00,-8.368355232881026229e-01,-4.030869121768889118e-01,-3.704392638415185957e-01,4.564846116897532511e+02
2.934617440478097361e+00,8.366987944452647596e+00,1.572226661129991765e+00,-7.882378881263270021e-01,-3.794232118296997358e-01,-4.844760655055518894e-01,4.581012057756331615e+02
3.034865113762422073e+00,8.183936031356935814e+00,1.780912139453461052e+00,-7.270866875459823797e-01,-3.497167746990927917e-01,-5.907970263029233005e-01,4.597177998615130718e+02
3.132717346339192410e+00,8.019710606002384168e+00,1.973503617706095614e+00,-6.543558282293984174e-01,-3.144407116298446048e-01,-6.877088693138833086e-01,4.613343939473929822e+02
3.228929861456103279e+00,7.874579875399703610e+00,2.148406300218880016e+00,-5.712036343772952662e-01,-2.741568352625187721e-01,-7.736681703121728315e-01,4.629509880332728926e+02
3.324086352553596413e+00,7.748583044421360810e+00,2.304520174711102598e+00,-4.789543995527926201e-01,-2.295067122760233724e-01,-8.473059377642536694e-01,4.645675821191528030e+02
3.418683622099015995e+00,7.641643503846109020e+00,2.440992692651689389e+00,-4.789543992146806928e-01,-2.295067121140059174e-01,-8.473059371661083583e-01,4.661841762050327134e+02
3.515582606249295861e+00,7.551474471099240304e+00,2.559868589558533358e+00,-4.789543992147050622e-01,-2.295067121140175748e-01,-8.473059371661515460e-01,4.678412304909839463e+02
3.612929081002504539e+00,7.480660471781842347e+00,2.656842116547939892e+00,-4.789543992147255458e-01,-2.295067121140274280e-01,-8.473059371661878503e-01,4.694982847769351793e+02
3.711243033621183240e+00,7.429109888085786650e+00,2.731017978094899767e+00,-4.789543992147424767e-01,-2.295067121140355326e-01,-8.473059371662177153e-01,4.711553390628864122e+02
3.810935723467898661e+00,7.396836588292281967e+00,2.781942610235316415e+00,-4.789543992147555773e-01,-2.295067121140417776e-01,-8.473059371662409189e-01,4.728123933488376451e+02
3.912091589071417630e+00,7.383968252016848588e+00,2.810274872443092153e+00,-4.789543992147649032e-01,-2.295067121140463018e-01,-8.473059371662574613e-01,4.744694476347888781e+02
4.014465739493317642e+00,7.390537919503151976e+00,2.817573615024375755e+00,-4.789543992147705653e-01,-2.295067121140489941e-01,-8.473059371662673422e-01,4.761265019207401110e+02
