-7.561354862973071356e+00,3.142001504155710112e+00,-2.439381852436331322e+00,1.722260869892181523e-01,-2.205706450712764943e-01,9.600441476798083906e-01,1.218600370068491543e+02
-7.299383338366418172e+00,3.436898912545145013e+00,-2.455163029081744330e+00,9.999989999989881463e-07,-9.999989999989881463e-07,9.999989999989882250e-01,1.237621414765324772e+02
-7.035663392449215792e+00,3.690349184334369870e+00,-2.442160133765453711e+00,5.996938583006752310e-01,3.640864109715297725e-01,7.126053337319646630e-01,1.256642459462158001e+02
-6.776107032176789779e+00,3.904045501089180359e+00,-2.394016372517536517e+00,8.546902225259143115e-01,5.189015279781137302e-01,1.561498579573454386e-02,1.275663504158991230e+02
-6.524779235425984147e+00,4.080962625704130708e+00,-2.304184120837081462e+00,9.573987006129597299e-01,2.849862209017832715e-01,-4.656803583280774705e-02,1.294794431795102696e+02
-6.287375929567577515e+00,4.221894376456451603e+00,-2.167550638549206710e+00,9.939200347515733114e-01,3.136912626881595972e-02,-1.055317129443724966e-01,1.313925359431214019e+02
-6.105650939911328123e+00,4.312681518402280645e+00,-2.024322352064210850e+00,9.617293874735440840e-01,-2.244166309056076780e-01,-1.571997488642800367e-01,1.329355150966478618e+02
-5.930204029470918847e+00,4.385963170491321783e+00,-1.854577572533362195e+00,8.630521442196787962e-01,-4.646879755105973175e-01,-1.980002064994896560e-01,1.344784942501743217e+02
-5.731840312172310270e+00,4.447541839954739729e+00,-1.621319003849860829e+00,7.047100838637948561e-01,-6.728343652528389063e-01,-2.251124488686788994e-01,1.362741049894825949e+02
-5.536883218011905861e+00,4.481675081819036954e+00,-1.348687102483614675e+00,4.976497766034720382e-01,-8.344661352899851448e-01,-2.366621408272976124e-01,1.380697157287908681e+02
-5.342391081288521804e+00,4.487734383437561370e+00,-1.039786941825956212e+00,2.561858103073434978e-01,-9.384093051552941933e-01,-2.318508283261688507e-01,1.398653264680991413e+02
-5.175217351581889780e+00,4.471420289405839910e+00,-7.510342745922693464e-01,2.408126963121948461e-01,-9.252496651945995021e-01,-2.931216511144809078e-01,1.414041005170149106e+02
-5.007443152090390370e+00,4.436197594519064147e+00,-4.450576677705362361e-01,2.244369296859178853e-01,-9.082376300611751940e-01,-3.531720146530732962e-01,1.429428745659306799e+02
-4.838915935908869592e+00,4.381491579289159333e+00,-1.246423243977928669e-01,2.071266932942092964e-01,-8.874440330348285499e-01,-4.117518927170945586e-01,1.444816486148464492e+02
-4.669490014334912509e+00,4.306726641714482717e+00,2.074264576924250147e-01,1.889540606552957414e-01,-8.629554521340160322e-01,-4.686173818739488572e-01,1.460204226637622185e+02
-4.499054137183107649e+00,4.211359993416907699e+00,5.483049400453318123e-01,1.699946958516306283e-01,-8.348738495963621276e-01,-5.235317169407293081e-01,1.475591967126779878e+02
-4.327558535171574405e+00,4.094915545870311036e+00,8.950325981437280420e-01,1.503275384970668982e-01,-8.033161473180969736e-01,-5.762662567146817905e-01,1.490979707615937571e+02
-4.135867866801711479e+00,3.939038895214693081e+00,1.283016781096746550e+00,1.300344750709278852e-01,-7.684137400208467250e-01,-6.266014358751472724e-01,1.508056497649079972e+02
-3.944174615407191276e+00,3.752962013722564993e+00,1.670625761774936713e+00,1.091999979870566240e-01,-7.303119481732659457e-01,-6.743276790964708445e-01,1.525133287682222374e+02
-3.757133713110638151e+00,3.535425400232277582e+00,2.054285839265699298e+00,8.791085381681273958e-02,-6.891694129452955453e-01,-7.192462735687237263e-01,1.542210077715364775e+02
-3.580970992336231618e+00,3.284999507910022931e+00,2.430758368527025759e+00,6.625568212999582984e-02,-6.451574357136514726e-01,-7.611701962961602286e-01,1.559286867748507177e+02
-3.423898806335855749e+00,3.006099699086508537e+00,2.790751560766470352e+00,4.432464645660705305e-02,-5.984592648675032267e-01,-7.999248927314261959e-01,1.576064998735415656e+02
-3.287105450315245481e+00,2.694339765816255117e+00,3.138358760004001269e+00,2.220905890507090044e-02,-5.492693328822478849e-01,-8.353490035058631635e-01,1.592843129722324136e+02
-3.174617558414597696e+00,2.349411351078702914e+00,3.471082912354297001e+00,9.999988887668967986e-07,-4.977924468359398724e-01,-8.672950362319745699e-01,1.609621260709232615e+02
-3.089413915550020651e+00,1.971532667017412255e+00,3.786748176284629341e+00,0.000000000000000000e+00,9.988447030629378220e-01,4.803393763095126917e-02,1.626399391696141095e+02
-3.031346534720757990e+00,1.546150190746161668e+00,4.093713158204159264e+00,4.894745649099780382e-01,3.309397058303449601e-02,-8.713882254299828434e-01,1.643777764761805429e+02
-3.004269218679823883e+00,1.087553936494970452e+00,4.378623672242381915e+00,0.000000000000000000e+00,9.978126036217043193e-01,-6.609090750977844597e-02,1.661156137827469763e+02
-3.007924856417593773e+00,5.977532064253145982e-01,4.640084686150975024e+00,-0.000000000000000000e+00,9.968731426564392262e-01,-7.900593205231017102e-02,1.678534510893134097e+02
-3.041884258118914719e+00,7.904143674282532173e-02,4.876809822130093508e+00,-0.000000000000000000e+00,9.968731420280737554e-01,-7.900593200250984049e-02,1.695912883958798432e+02
-3.105394181523176922e+00,-4.657191518700046218e-01,5.087729825746207801e+00,3.731171639598457324e-02,9.651934423528147899e-01,-2.588579816413845158e-01,1.713291257024462766e+02
-3.192981382153294856e+00,-1.010685783877530719e+00,5.265766441424874600e+00,7.332712594251533655e-02,8.999804175160049935e-01,-4.297166283604745840e-01,1.729997892893018445e+02
-3.305238002809064213e+00,-1.573311882219126767e+00,5.419201281440725992e+00,1.067949601908498303e-01,8.034997398545025149e-01,-5.856458012590586293e-01,1.746704528761574124e+02
-3.441295093646362435e+00,-2.150922217671933367e+00,5.547214231208161372e+00,1.365524602126032272e-01,6.791033989791849246e-01,-7.212281186320967930e-01,1.763411164630129804e+02
-3.600250281366227156e+00,-2.740846657170926015e+00,5.648985372813372763e+00,1.615657736885279805e-01,5.311132455841713895e-01,-8.317531010692185145e-01,1.780117800498685483e+02
-3.781167782831199808e+00,-3.340420334774213629e+00,5.723694991358192041e+00,1.809658734593326546e-01,3.646708395409299919e-01,-9.133808249752054520e-01,1.796824436367241162e+02
-3.992062798372268961e+00,-3.971754935981727463e+00,5.771194585785075049e+00,1.940787496850561733e-01,1.855588195216769654e-01,-9.632753310550196124e-01,1.814207000302306767e+02
-4.225429761346561897e+00,-4.607890705123053543e+00,5.786355501602129969e+00,2.004488266900413818e-01,0.000000000000000000e+00,-9.797031529393527283e-01,1.831589564237372372e+02
-4.480379388088455705e+00,-5.245738271624649229e+00,5.768289545152618381e+00,-8.452989841290621531e-02,4.501064590670528776e-01,-8.889639316530130175e-01,1.848972128172437976e+02
-4.747000627332799816e+00,-5.862606892306452266e+00,5.718772285587873760e+00,-0.000000000000000000e+00,8.052988517093670473e-03,-9.999665741290355570e-01,1.865816617169487870e+02
-5.032162622182954514e+00,-6.475676148685678868e+00,5.637584746067496155e+00,6.258345383470324819e-02,-2.154183380556916605e-01,-9.745133405628270129e-01,1.882661106166537763e+02
-5.335704360493169318e+00,-7.082804612275245049e+00,5.524414754701961527e+00,1.217558766212737814e-01,-4.271485671580905197e-01,-8.959450921131094647e-01,1.899505595163587657e+02
-5.687322603731296944e+00,-7.734612379091812429e+00,5.363096277070107831e+00,3.698982379086732664e-01,-2.721274050884779361e-01,-8.883242476668695708e-01,1.917852667561002704e+02
-6.060349942675103740e+00,-8.373629761563362806e+00,5.160641024618501937e+00,5.863533815208138433e-01,-9.379468871456028700e-02,-8.046056601524752550e-01,1.936199739958417751e+02
-6.453408130692347200e+00,-8.997135405290029198e+00,4.917218231213947632e+00,7.525789214884025524e-01,9.257286733496225550e-02,-6.519610656826143602e-01,1.954546812355832799e+02
-6.862830746272602589e+00,-9.602281522776682010e+00,4.633301767909112634e+00,7.782596069044326326e-01,7.482753227946332963e-02,-6.234667791230743550e-01,1.972893884753247846e+02
-7.319014421023844363e+00,-1.023771410070830790e+01,4.275898648451631701e+00,8.025500643387982747e-01,5.694853520637224720e-02,-5.938587867195275205e-01,1.992943888671479442e+02
-7.770564344688373204e+00,-1.084084016651021720e+01,3.869043472545989015e+00,8.254069065913730574e-01,3.896781187434677357e-02,-5.631899752174216456e-01,2.012993892589711038e+02
-8.200499014863178004e+00,-1.140694195414333301e+01,3.415634223925225310e+00,8.467893067807775731e-01,2.091747967948213993e-02,-5.315151258073066431e-01,2.033043896507942634e+02
-8.560353244360051406e+00,-1.189093640296249177e+01,2.963936964193496504e+00,8.666590712097337335e-01,2.829780328487247441e-03,-4.988908163409978003e-01,2.051442253461085556e+02
-8.871269450335622864e+00,-1.233835164615883961e+01,2.483936184582396844e+00,8.849807075402095213e-01,-1.526297770936156650e-02,-4.653753203480212597e-01,2.069840610414228479e+02
-9.116463260882158082e+00,-1.274516827737919655e+01,1.980598595698735087e+00,9.477921629588134111e-01,-3.278410786887502731e-02,-3.171958670997829244e-01,2.088238967367371401e+02
-9.268445893715705708e+00,-1.306042257912071136e+01,1.536674179210942182e+00,9.857624804107966154e-01,-4.944597999686226736e-02,-1.607029162044775472e-01,2.103996389417758337e+02
-9.368018985419254818e+00,-1.334464142410447884e+01,1.086644263935426569e+00,9.978964962917117321e-01,-6.481190233636946463e-02,1.999996986248517972e-06,2.119753811468145273e+02
-9.415012117862236352e+00,-1.359525346078341457e+01,6.347441970430770519e-01,9.935172226437345433e-01,7.439416267977916331e-02,8.594787298917568041e-02,2.135511233518532208e+02
-9.409608378908298931e+00,-1.380960538633385504e+01,1.854386019217266479e-01,9.625273348547500607e-01,2.116076272205205944e-01,1.695916913102053503e-01,2.151268655568919144e+02
-9.352730865147801609e+00,-1.398487661577191865e+01,-2.563493892037757571e-01,9.057568746903577050e-01,3.431533396295878280e-01,2.486931230535613657e-01,2.167026077619306079e+02
-9.200690351491568109e+00,-1.413597738667921533e+01,-7.883735077742395347e-01,8.247263912785047779e-01,4.655079535854985129e-01,3.211334997772921640e-01,2.186786926985779189e+02
-8.952425276842523871e+00,-1.419693443816908740e+01,-1.282670697327619180e+00,7.216062158873126631e-01,5.753942958522619833e-01,3.849725620030337581e-01,2.206547776352252299e+02
-8.660556246720210183e+00,-1.417724186759893001e+01,-1.681701253067031887e+00,5.991583339605895953e-01,6.698691413752297930e-01,4.385004267732555139e-01,2.223994826581620430e+02
-8.309530827900669436e+00,-1.409590108132560715e+01,-2.043780200966298199e+00,4.606624106662593476e-01,7.464020451143851265e-01,4.802833855647918315e-01,2.241441876810988560e+02
-7.904438553673365675e+00,-1.395813401303571588e+01,-2.366693484076224152e+00,4.043309087378360034e-01,7.217252071257207469e-01,5.618071213853311763e-01,2.258888927040356691e+02
-7.450673676367714826e+00,-1.376941165556209690e+01,-2.648378079861990031e+00,3.437829227874349969e-01,6.895219900147866454e-01,6.374721384394813617e-01,2.276335977269724822e+02
-6.954177551730518658e+00,-1.353573147316294722e+01,-2.887072721475217207e+00,2.796498640660788904e-01,6.501282198924562827e-01,7.064893850782009155e-01,2.293783027499092952e+02
-6.498303328045572869e+00,-1.330486993960740172e+01,-3.059430126585425569e+00,2.126005285787293808e-01,6.039547059486627401e-01,7.681391334982078378e-01,2.308820833231763459e+02
-6.022469560524427834e+00,-1.305286110115159026e+01,-3.202338544928765796e+00,1.433341232323922243e-01,5.514829566724828158e-01,8.217784845186429932e-01,2.323858638964433965e+02
-5.530212192715877606e+00,-1.278311267339289969e+01,-3.314909581098324676e+00,7.257297494837294805e-02,4.932601590076637343e-01,8.668480713732362730e-01,2.338896444697104471e+02
-5.025106225197458976e+00,-1.249901422577034538e+01,-3.396255029887223831e+00,1.054998706094199953e-03,4.298934727560758673e-01,9.028778926631518820e-01,2.353934250429774977e+02
-4.360586992859613709e+00,-1.211574250002699848e+01,-3.446252490739561303e+00,1.468217373029374329e-01,5.234665825470752321e-01,8.392997762476974710e-01,2.373288210211753722e+02
-3.686025863735049146e+00,-1.171878363001348866e+01,-3.427435838966755632e+00,2.875898764458944545e-01,5.992177425646092459e-01,7.471466790115117718e-01,2.392642169993732466e+02
-3.010743690651325633e+00,-1.131865596691872078e+01,-3.339441428515645960e+00,-2.094397647220614181e-02,9.665299142311819525e-01,2.556937127618543193e-01,2.411996129775711211e+02
-2.478228882180993686e+00,-1.100428231685610214e+01,-3.224324119445946657e+00,-1.301019926364900374e-02,6.262848031899089785e-01,7.794844963239286884e-01,2.427390917806250172e+02
-1.953740986143206460e+00,-1.069814086292112165e+01,-3.074057926917801886e+00,-0.000000000000000000e+00,4.167097442644080579e-02,9.991303868317111814e-01,2.442785705836789134e+02
-1.441007093617793444e+00,-1.040437999330628571e+01,-2.888717119805632283e+00,4.581149062024811662e-06,-9.962510487730509567e-02,9.950240391349728375e-01,2.458180493867328096e+02
-9.434532006923659342e-01,-1.012713605607298462e+01,-2.668814228578337833e+00,9.070761502074337244e-06,-2.389305745140883064e-01,9.710356226622307574e-01,2.473575281897867058e+02
-4.643799282126793715e-01,-9.870531403751375166e+00,-2.415081026370529571e+00,1.337912789201451762e-05,-3.734618957355139712e-01,9.276444427976003881e-01,2.488970069928406019e+02
-7.138191277003659053e-03,-9.638671220906463333e+00,-2.128249508613353491e+00,1.742016014915582088e-05,-5.005309173809685541e-01,8.657175061419865036e-01,2.504364857958944981e+02
4.258673839994806531e-01,-9.435648413410291369e+00,-1.809824785371038303e+00,2.111311179669718725e-05,-6.175985918848869716e-01,7.864921988515076734e-01,2.519759645989483943e+02
8.341749782016767423e-01,-9.265555400686789511e+00,-1.462857968597283786e+00,2.438419151352155573e-05,-7.223257127242805886e-01,6.915515628938634363e-01,2.535154434020022904e+02
1.218268958226135901e+00,-9.132489105561850451e+00,-1.091173254943480497e+00,2.716803771177173242e-05,-8.126196588749297067e-01,5.827926640496594590e-01,2.550549222050561866e+02
1.573757979818263486e+00,-9.041255207988024623e+00,-7.044659826631555211e-01,2.940902465713005255e-05,-8.866762116075397326e-01,4.623886837961654894e-01,2.565723690986664565e+02
1.906845423500003411e+00,-8.992458156302262751e+00,-3.015707247831773685e-01,3.106237401607137087e-05,-9.430156075086003620e-01,3.327454928753666441e-01,2.580898159922767263e+02
2.217873568896389536e+00,-8.986506972618348854e+00,1.132064542396279544e-01,3.209504960864221671e-05,-9.805121069691731250e-01,1.964535748099849322e-01,2.596072628858869962e+02
2.507361601711287413e+00,-9.020897742859506963e+00,5.354709040136308440e-01,3.248641748558690675e-05,-9.984164872096839005e-01,5.623626064809851555e-02,2.611247097794972660e+02
2.776195897425342896e+00,-9.091816692476710315e+00,9.612598154096237968e-01,3.222865814667844953e-05,-9.963710105607881395e-01,-8.510469008762595877e-02,2.626421566731075359e+02
3.025472927772858256e+00,-9.195271492489755616e+00,1.386857394533094645e+00,3.132692267747204878e-05,-9.744165693205277812e-01,-2.247450743667208928e-01,2.641596035667178057e+02
3.256335397782650798e+00,-9.327275723158241050e+00,1.808547848701435701e+00,2.979922970388548733e-05,-9.329918650036818084e-01,-3.598946775782190244e-01,2.656770504603280756e+02
3.496347033995564679e+00,-9.508557410616752748e+00,2.277081393085884642e+00,2.767610524473723205e-05,-8.729246390329015171e-01,-4.878530247971525347e-01,2.674004949065883352e+02
3.713273409347277898e+00,-9.719083299734673886e+00,2.728266370644013783e+00,2.499997267778497785e-05,-7.954151306989206693e-01,-6.060633376395629934e-01,2.691239393528485948e+02
3.909906769753737077e+00,-9.952444321328588472e+00,3.156662200889583048e+00,-1.428374312845323013e-01,-7.026139000550563063e-01,-6.970862039049933179e-01,2.708473837991088544e+02
4.090412468215274266e+00,-1.020262837668998657e+01,3.558311366913625928e+00,-2.803710027424674012e-01,-5.836002932636100704e-01,-7.621028792264286089e-01,2.725708282453691140e+02
4.259679218418683355e+00,-1.046383872732383047e+01,3.929998010009194243e+00,-4.074447634267278073e-01,-4.428143556007214654e-01,-7.986878058613349207e-01,2.742942726916293736e+02
4.465027308371370296e+00,-1.080409793514437844e+01,4.348031123914485541e+00,-5.193179911140078930e-01,-2.855083807590643175e-01,-8.054761254210165422e-01,2.764897229564932672e+02
4.626211101387749380e+00,-1.107954683310381760e+01,4.637742000284815980e+00,-6.118170490061275446e-01,-1.175509652144935829e-01,-7.822145927583852298e-01,2.782646988824751020e+02
4.786717688615631516e+00,-1.134943898474537960e+01,4.887174871830125333e+00,-6.814910863541825403e-01,5.479192654281835745e-02,-7.297710216273478601e-01,2.800396748084569367e+02
4.948583898102540957e+00,-1.160921847547148822e+01,5.094843700266081576e+00,-5.988516807582172641e-01,5.131209055709101685e-02,-7.992131967232585232e-01,2.818146507344387715e+02
5.110993390274802373e+00,-1.185516335083804762e+01,5.260421392185335776e+00,-5.092275051156703869e-01,4.723377024908392147e-02,-8.593336482313892466e-01,2.835896266604206062e+02
5.268965937804622968e+00,-1.208389753417270640e+01,5.385415381292800951e+00,-4.136638959910167723e-01,4.260453337782205141e-02,-9.094311600611177937e-01,2.853646025864024409e+02
5.408277397074492399e+00,-1.228292070339211861e+01,5.470104127392254156e+00,-3.132754633419629897e-01,3.747837321360347057e-02,-9.489214169834941925e-01,2.870524924873593022e+02
5.529791795160496903e+00,-1.246158416396805713e+01,5.525256952582306980e+00,-2.092330912361039519e-01,3.191507883635764931e-02,-9.773438193774540705e-01,2.887403823883161635e+02
5.626406830566909711e+00,-1.261713506470499269e+01,5.553685257782364992e+00,-1.027502823065691157e-01,2.597953784745170649e-02,-9.943668553906962471e-01,2.904282722892730249e+02
5.690956343293313680e+00,-1.274697755214049799e+01,5.557859971553931189e+00,4.930994909502411060e-03,1.974097962045976914e-02,-9.997919678678045541e-01,2.921161621902298862e+02
5.716108106618447593e+00,-1.284886970825292529e+01,5.539570847185847136e+00,-6.783331045802174497e-01,5.390142884851797378e-01,-4.993253408757656331e-01,2.938040520911867475e+02
5.695856528127936969e+00,-1.292065009668791475e+01,5.500248398698398766e+00,-9.089331001746200345e-01,0.000000000000000000e+00,-4.169395872382440360e-01,2.954919419921436088e+02
5.627020161346933946e+00,-1.295997566788951616e+01,5.441285839685757963e+00,-7.894990794488210631e-03,9.999678340435190771e-01,-0.000000000000000000e+00,2.971798318931004701e+02
5.487985525189915670e+00,-1.296016943091616369e+01,5.353305002851508121e+00,-2.895278891747618544e-01,9.571685334314539162e-01,-0.000000000000000000e+00,2.990541810862090415e+02
5.277408166533878564e+00,-1.290892323169521383e+01,5.242406474419995632e+00,-5.476658540163765743e-01,8.366959497606378804e-01,-0.000000000000000000e+00,3.009285302793176129e+02
4.994589509392953985e+00,-1.280282549695656336e+01,5.111020026571798880e+00,-7.613612840537885562e-01,6.483263029872992078e-01,-0.000000000000000000e+00,3.028028794724261843e+02
4.703393184885632294e+00,-1.267067188712181824e+01,4.986411247688480763e+00,-9.132730123892169871e-01,4.073455594976950200e-01,-0.000000000000000000e+00,3.043951603683539702e+02
4.372470596797671583e+00,-1.250177506468313027e+01,4.852939856154218745e+00,-0.000000000000000000e+00,3.410856895400514732e-01,-9.400311443733065930e-01,3.059874412642817560e+02
4.004436840722726210e+00,-1.229488581278492099e+01,4.712401575759170846e+00,-0.000000000000000000e+00,3.032083730870910876e-01,-9.529232301022695362e-01,3.075797221602095419e+02
3.601920433294468982e+00,-1.204876877715383010e+01,4.566592179916000305e+00,-0.000000000000000000e+00,2.648456641198230765e-01,-9.642897770771253763e-01,3.091720030561373278e+02
3.168096574075655258e+00,-1.176260902768249039e+01,4.417105935049370657e+00,2.716788357370758869e-02,2.530876866686542215e-01,-9.670607679762609488e-01,3.107642839520651137e+02
2.707213690375822157e+00,-1.143642242954772748e+01,4.265134045402176000e+00,5.431174927678970171e-02,2.411059739624244469e-01,-9.689768538051627411e-01,3.123565648479928996e+02
2.193391484243234046e+00,-1.104587265267808682e+01,4.102287483282987424e+00,8.140760154913695423e-02,2.289111180244469690e-01,-9.700363407908260127e-01,3.140456542926685870e+02
1.658923933745703128e+00,-1.060879493584106825e+01,3.938909395721039708e+00,1.084314872780616223e-01,2.165138992885994595e-01,-9.702382923702608242e-01,3.157347437373442745e+02
1.109842944821114896e+00,-1.012582082213618584e+01,3.776252951037577521e+00,1.353595169703195322e-01,2.039252770733157860e-01,-9.695825300283489323e-01,3.174238331820199619e+02
5.521709826254737052e-01,-9.597615906795022411e+00,3.615571311783208230e+00,1.621678858678984314e-01,1.911563798946774306e-01,-9.680696334555299876e-01,3.191129226266956493e+02
-8.149741562191449920e-03,-9.025323457013511685e+00,3.457487877095085871e+00,1.888328949889319375e-01,1.782184956299984191e-01,-9.657009400355166528e-01,3.208020120713713368e+02
-5.653358720885457434e-01,-8.411007480215682008e+00,3.301366530036232039e+00,2.153309720751641343e-01,1.651230615405859525e-01,-9.624785436634916147e-01,3.224911015160470242e+02
-1.081795365850517276e+00,-7.797985683806775370e+00,3.155176469823956609e+00,2.416386924274707693e-01,1.518816541624845584e-01,-9.584052928958251005e-01,3.240799573945994325e+02
-1.586357475375244963e+00,-7.153997546496490223e+00,3.008574109931662743e+00,2.677327996110420161e-01,1.385059790741288988e-01,-9.534847884329458179e-01,3.256688132731518408e+02
-2.074621771297578743e+00,-6.481080209801758585e+00,2.860568352541253745e+00,2.935902260119466201e-01,1.250078605499363171e-01,-9.477213799375783232e-01,3.272576691517042491e+02
-2.542263315008886249e+00,-5.781294702186716705e+00,2.710286142199977100e+00,3.191881132269261401e-01,1.113992311089736786e-01,-9.411201621911507997e-01,3.288465250302566574e+02
-2.985458833691220448e+00,-5.056727501491262267e+00,2.557474521042371496e+00,3.445038322684169096e-01,9.769212096792376232e-02,-9.336869705917586471e-01,3.304353809088090657e+02
-3.401211004296536000e+00,-4.309488182070705165e+00,2.402766614515215338e+00,3.695150035669555466e-01,8.389864740766200812e-02,-9.254283759976460466e-01,3.320242367873614739e+02
-3.786922441724119182e+00,-3.541703043108850313e+00,2.247179577838797737e+00,3.941995167533040578e-01,7.003100406283147006e-02,-9.163516789207505342e-01,3.336130926659138822e+02
-4.140020603843552749e+00,-2.755512126110874149e+00,2.091730572358069917e+00,4.185355502028237917e-01,5.610145014387055845e-02,-9.064649030754216019e-01,3.352019485444662905e+02
-4.458892755022707099e+00,-1.953255441283783034e+00,1.937365651526144816e+00,4.425015903248343263e-01,4.212229960101016024e-02,-8.957767882879981158e-01,3.367908044230186988e+02
-4.743824022180763045e+00,-1.137652504807534104e+00,1.784888647385585614e+00,4.660764505799168678e-01,2.810591023980708522e-02,-8.842967827734893316e-01,3.383796603015711071e+02
-4.986261847464225738e+00,-3.480953813759337101e-01,1.641464182299405827e+00,4.892392902083623762e-01,1.406467279782474405e-02,-8.720350347861640650e-01,3.398989494162532310e+02
-5.201072992247024018e+00,4.482116202408811256e-01,1.500943338230353197e+00,5.119696326532156005e-01,1.099999210732146763e-05,-8.590023836514056876e-01,3.414182385309353549e+02
-5.389360034631438978e+00,1.248852677162751945e+00,1.363938682048527529e+00,5.883369230451683807e-01,2.655734181836785779e-02,-8.081784286762258018e-01,3.429375276456174788e+02
-5.552252858578324179e+00,2.051417710463232513e+00,1.231062758103198540e+00,6.593387089250972721e-01,5.286148287271335428e-02,-7.499840868591320930e-01,3.444568167602996027e+02
-5.690908640330681223e+00,2.853502512160131399e+00,1.102928084303590683e+00,7.243274739386572625e-01,7.868353596804472661e-02,-6.849500796888770005e-01,3.459761058749817266e+02
-5.806511834584438425e+00,3.652708872151330333e+00,9.801471481997976465e-01,7.827105396909714852e-01,1.037880107500798593e-01,-6.136695037900558036e-01,3.474953949896638505e+02
-5.900274160406523194e+00,4.446644705094881189e+00,8.633324030638459545e-01,8.339554705257479217e-01,1.279459612594963380e-01,-5.367924218712496476e-01,3.490146841043459744e+02
-5.973434586900300047e+00,5.232924177232389340e+00,7.530962639709211093e-01,8.775949288781769164e-01,1.509370737903112936e-01,-4.550199342488850940e-01,3.505339732190280984e+02
-6.027259318618445327e+00,6.009167833154677396e+00,6.500511038807788022e-01,9.132309369495378304e-01,1.725516760098128877e-01,-3.690977850183825848e-01,3.520532623337102223e+02
-6.064421333567258543e+00,6.829233011114349772e+00,5.483427253122534761e-01,9.405385058652591113e-01,1.925926490246018807e-01,-2.798095611795188287e-01,3.536867832669289555e+02
-6.081160300440279443e+00,7.630700377541209889e+00,4.571516027290078443e-01,9.592685992442785414e-01,2.108772249629914108e-01,-1.879695467273383991e-01,3.553203042001476888e+02
-6.079561686611961946e+00,8.410383486465956793e+00,3.769933643902699250e-01,9.692504041732353803e-01,2.272386536880108276e-01,-9.441529685974703323e-02,3.569538251333664221e+02
-6.062311016641324102e+00,9.165037623084675289e+00,3.077785750353581595e-01,9.703928888893302851e-01,2.415277234480655844e-01,0.000000000000000000e+00,3.585873460665851553e+02
-6.032414535912018927e+00,9.891398218197403835e+00,2.491152274860971849e-01,9.969795307158221265e-01,-7.765188556165565636e-02,0.000000000000000000e+00,3.602208669998038886e+02
-5.992919265190805866e+00,1.058621720619076889e+01,2.006112364878749610e-01,9.996731843039505794e-01,-0.000000000000000000e+00,-2.552497917256859802e-02,3.618543879330226218e+02
-5.946912959717936431e+00,1.124626322909453613e+01,1.618744416115631135e-01,9.988611377069980257e-01,-0.000000000000000000e+00,4.769095882953244825e-02,3.634879088662413551e+02
-5.881560064489090855e+00,1.205322868487524701e+01,1.274311057880054832e-01,9.706551006264244608e-01,-0.000000000000000000e+00,-2.404717771876314081e-01,3.656618007839354050e+02
-5.819377268951639870e+00,1.276193412514694714e+01,1.129603588041884626e-01,9.546769266573601476e-01,-0.000000000000000000e+00,-2.976406653627959864e-01,3.678356927016294549e+02
-5.780812821216295916e+00,1.320791929093733330e+01,1.117973291121038409e-01,9.955207354002849618e-01,9.453287991585836159e-02,0.000000000000000000e+00,3.693721637586841666e+02
-5.748051750077106448e+00,1.361586460202448912e+01,1.148403662077781412e-01,5.764363129604290759e-01,-1.163998612660081811e-03,-8.171400260718830744e-01,3.709086348157388784e+02
-5.722027142285141643e+00,1.398535532461990449e+01,1.200744123729108742e-01,6.095053695472040234e-01,-7.692763402973580578e-02,-7.890395070062591332e-01,3.724451058727935902e+02
-5.702829814984014867e+00,1.432721909073686284e+01,1.253315297003579076e-01,6.379279560424991891e-01,-1.521048230865607864e-01,-7.549238674821457940e-01,3.740395342029160020e+02
-5.692262188683603341e+00,1.462608638987934562e+01,1.275911255973733727e-01,6.614873980892412852e-01,-2.261224667376192099e-01,-7.150531813834043460e-01,3.756339625330384138e+02
-5.691850571072047060e+00,1.490463856417045285e+01,1.219152778543910881e-01,6.800040940271082635e-01,-2.984163052391212712e-01,-6.697313945714580274e-01,3.773981333598889591e+02
-5.704500279381640837e+00,1.512691749261268548e+01,1.022380398763576143e-01,6.933368840256238785e-01,-3.684352194580829409e-01,-6.193040079906045881e-01,3.791623041867395045e+02
-5.730925978638988560e+00,1.529433969307791230e+01,6.307839697007350255e-02,7.013841262195784632e-01,-4.356454320454720142e-01,-5.641554440273404136e-01,3.809264750135900499e+02
-5.772031414827089257e+00,1.540875587304376104e+01,-1.227852505194437695e-03,7.040844716414479398e-01,-4.995345764605598204e-01,-5.047061161846176924e-01,3.826906458404405953e+02
-5.820041129235899113e+00,1.546979890842062133e+01,-8.162482902747517088e-02,7.014173320377895537e-01,-5.596156028373511226e-01,-4.414092243918371627e-01,3.842474504765693837e+02
-5.877439143748783401e+00,1.549784798621755222e+01,-1.859220372582414127e-01,6.934030369943414707e-01,-6.154304909233851983e-01,-3.747473003623300047e-01,3.858042551126981721e+02
-5.943127605640718514e+00,1.549470167136403553e+01,-3.181798259171704779e-01,6.801026791601713084e-01,-6.665537417871367776e-01,-3.052285293162322333e-01,3.873785761281259283e+02
-6.013477928041030651e+00,1.546229187763204216e+01,-4.790841252540449235e-01,6.616176487368623516e-01,-7.125956216718607461e-01,-2.333828760933879531e-01,3.889528971435536846e+02
-6.084829556662052497e+00,1.540340682307060227e+01,-6.698111101744554929e-01,6.431104653736439136e-01,-7.413373685167607974e-01,-1.919005871896727056e-01,3.905272181589814409e+02
-6.153487896405897217e+00,1.532081502898077474e+01,-8.915367506185339908e-01,6.227450935910017193e-01,-7.679370924848371027e-01,-1.498638395037902027e-01,3.921015391744091971e+02
-6.215714122148529697e+00,1.521710656956519792e+01,-1.145191555683189089e+00,6.005803766210718875e-01,-7.923179416914083451e-01,-1.073940896342563678e-01,3.936758601898369534e+02
-6.267717584151364818e+00,1.509453425349918376e+01,-1.431215319430935384e+00,5.766803557775153077e-01,-8.144094746954468889e-01,-6.461404478536544871e-02,3.952501812052647097e+02
-6.307061279977754786e+00,1.494348602839136042e+01,-1.776335666360339571e+00,5.511140854704611458e-01,-8.341478638903255804e-01,-2.164730838247589523e-02,3.969421508560849929e+02
-6.323771684550557381e+00,1.477431864340316103e+01,-2.162137244889580590e+00,5.239554337625932368e-01,-8.514760798118004015e-01,2.138197689254779307e-02,3.986341205069052762e+02
-6.312974932800426764e+00,1.458957019863262161e+01,-2.588124193953764252e+00,5.318795198762957810e-01,-8.466672357197554399e-01,1.602398553526690819e-02,4.003260901577255595e+02
-6.275986853431879453e+00,1.440727964773697067e+01,-3.014557430392053039e+00,6.183519599116198417e-01,-7.848777499679225889e-01,4.007207602708368760e-02,4.018894274981638546e+02
-6.218539677768838203e+00,1.423160080879270772e+01,-3.430578573131116915e+00,6.974822247562603161e-01,-7.137688295784352377e-01,6.364435614979566114e-02,4.033279978224805404e+02
-6.149222419629634118e+00,1.407007925199738274e+01,-3.815773256337778641e+00,7.683307614089691651e-01,-6.341847892352375782e-01,8.646094016159694418e-02,4.046076431591168330e+02
-5.948701584371066886e+00,1.374998197319572668e+01,-4.572843082866579145e+00,8.300563437177401749e-01,-5.470705674598344004e-01,1.082509144116477473e-01,4.070017554401334792e+02
-5.831766744621585730e+00,1.360207445636307177e+01,-4.917185007903953853e+00,6.874569165599268006e-01,-4.661106818260427054e-01,5.569037799858110871e-01,4.080531984137069799e+02
-5.594371187058571948e+00,1.333298860019863774e+01,-5.521421551457317278e+00,3.879944410393166287e-01,-2.787942452375509750e-01,8.784828299667252205e-01,4.099016829047124020e+02
-5.311310574322436473e+00,1.304952674824284209e+01,-6.111091757971552241e+00,0.000000000000000000e+00,-2.786296520870016821e-02,9.996107518285608506e-01,4.117501673957178241e+02
-4.986619051855335272e+00,1.275042087704038352e+01,-6.667402984757245576e+00,5.048504550711633287e-01,-7.270622152187579124e-01,4.653004977608588000e-01,4.135986518867232462e+02
-4.624963719574089360e+00,1.243472654399122845e+01,-7.171529889090990650e+00,3.794731911047499184e-01,-5.383771387425254629e-01,7.524281717968546168e-01,4.154471363777286683e+02
-4.206643260845699395e+00,1.208087510467392356e+01,-7.625185320011074630e+00,2.033361127284958603e-01,-2.776766396292935091e-01,9.389079342865590538e-01,4.174078258605113092e+02
-3.759433475828150684e+00,1.170698848002562364e+01,-7.970073048359429535e+00,0.000000000000000000e+00,2.016697227948724414e-02,9.997956257308727723e-01,4.193685153432939501e+02
-3.353419310283443533e+00,1.136592873635707690e+01,-8.174438775223206832e+00,2.204818902053456431e-01,2.585319636349858730e-02,9.750473569671325169e-01,4.210780970384075204e+02
-2.939742443669253191e+00,1.101299457233760926e+01,-8.291945308226507549e+00,4.301035175183399728e-01,3.026596604823502540e-02,9.022709878501654623e-01,4.227876787335210906e+02
-2.524218290119462527e+00,1.064978077269956636e+01,-8.323721952264836688e+00,0.000000000000000000e+00,-1.168708951519396300e-01,9.931461090215998322e-01,4.244972604286346609e+02
-2.112387137959374162e+00,1.027809309794826298e+01,-8.271284853367152579e+00,-0.000000000000000000e+00,-0.000000000000000000e+00,9.999989999924441264e-01,4.262068421237482312e+02
-1.713842001391693959e+00,9.904588163741230744e+00,-8.139413485558456784e+00,-1.161848472904061791e-01,1.341998236121057881e-03,9.932256945363709955e-01,4.278964229234440495e+02
-1.383510462309778255e+00,9.583468702854297305e+00,-7.970859144645864092e+00,-9.302458479231964783e-02,4.014339024324637371e-03,9.956547150960320947e-01,4.293354488072124582e+02
-9.803940991543044214e-01,9.174451471327680352e+00,-7.683239292272273424e+00,-6.981320943674672319e-02,6.684474332361906371e-03,9.975366828229664806e-01,4.311642364071363431e+02
-6.004900732804484553e-01,8.767870354085424367e+00,-7.312031058462971522e+00,-4.656347076063446083e-02,9.350937505758039753e-03,9.988705637591858144e-01,4.329930240070602281e+02
-2.465867894698767493e-01,8.367522255969484846e+00,-6.866262073455954074e+00,-2.328813938002751924e-02,1.201226390240998920e-02,9.996556247357402114e-01,4.348218116069841130e+02
7.864482917429481412e-02,7.977030290405166646e+00,-6.354963884892275594e+00,-0.000000000000000000e+00,1.466699169430323718e-02,9.998914337765223426e-01,4.366505992069079980e+02
4.134719182153824835e-01,7.542614986225077089e+00,-5.685493782153788089e+00,-4.786744931378699164e-01,-2.325607537444741302e-01,8.466311035134508334e-01,4.387747795449688510e+02
6.963079810530027336e-01,7.135952853919738104e+00,-4.944558144486405737e+00,-5.024135394088078410e-01,7.294793312446252731e-01,4.641535744839032640e-01,4.408989598830297041e+02
9.167185432772012588e-01,6.780965083405925853e+00,-4.195266600809418378e+00,-7.217103253045492606e-01,5.166585169985258297e-01,4.606475693607136046e-01,4.429084787836207511e+02
1.094151864516581973e+00,6.458086270567917175e+00,-3.416177329382474426e+00,-8.960948409311474405e-01,1.693476166674280081e-01,4.102845607453231569e-01,4.449179976842117981e+02
1.205295623319274867e+00,6.232214252173463365e+00,-2.810078784267477037e+00,-9.328646678596974606e-01,-2.039703185343650915e-01,2.969134901219681599e-01,4.464545876710864150e+02
1.300142282141145467e+00,6.022834086971036172e+00,-2.202726441168557425e+00,-8.263730147573156160e-01,-5.459641213747822297e-01,1.379449841538840371e-01,4.479911776579610319e+02
1.380565112912515380e+00,5.830562171364841895e+00,-1.599100899578573154e+00,-5.929741491707009038e-01,-8.041132731734486061e-01,-4.220784669915779441e-02,4.495277676448356488e+02
1.449412366524997386e+00,5.653613083801437789e+00,-9.955471424362766220e-01,-2.685116056353999969e-01,-9.387736212175719075e-01,-2.158786829376881378e-01,4.510868644251565343e+02
1.507279804613841590e+00,5.495484140993623257e+00,-4.059149483676847137e-01,-8.331036627168645348e-01,1.863803856925007052e-01,-5.207673559048091594e-01,4.526459612054774198e+02
1.565498707060352102e+00,5.330306790589381727e+00,2.902569469208029496e-01,-0.000000000000000000e+00,9.988447030609834965e-01,4.803393763085728879e-02,4.545652864476153354e+02
1.613204795337089603e+00,5.200579622364615240e+00,9.428063959077346290e-01,-0.000000000000000000e+00,9.988447023579561934e-01,4.803393759704906868e-02,4.564846116897532511e+02
1.649504426567564463e+00,5.116493786742998040e+00,1.456041592170112642e+00,-0.000000000000000000e+00,9.988447023580379058e-01,4.803393759705298915e-02,4.581012057756331615e+02
1.685598950708219634e+00,5.052848646956119794e+00,1.935083344498637059e+00,-0.000000000000000000e+00,9.988447023580786510e-01,4.803393759705495286e-02,4.597177998615130718e+02
1.724160994251168200e+00,5.009237064928239391e+00,2.376432279105427980e+00,-0.000000000000000000e+00,9.988447023580786510e-01,4.803393759705494592e-02,4.613343939473929822e+02
1.767633863021958351e+00,4.985167451185439802e+00,2.777114236167256500e+00,-0.000000000000000000e+00,9.988447023580379058e-01,4.803393759705299609e-02,4.629509880332728926e+02
1.818006088530484288e+00,4.979995411797569993e+00,3.135205232215808380e+00,-0.000000000000000000e+00,9.988447023579561934e-01,4.803393759704906174e-02,4.645675821191528030e+02
1.877033865724446304e+00,4.992996241961233927e+00,3.449306533231494942e+00,-0.000000000000000000e+00,9.988447023578338468e-01,4.803393759704317062e-02,4.661841762050327134e+02
1.948505060869903938e+00,5.024639389419279567e+00,3.723538915737312660e+00,-2.868728255453922293e-01,8.400291281611971250e-01,-4.604921777897290625e-01,4.678412304909839463e+02
2.033096429517009085e+00,5.074248905776225449e+00,3.947346646997740294e+00,-4.687163839134300680e-01,3.736636862885933663e-01,-8.004238883250984760e-01,4.694982847769351793e+02
2.132717375060826370e+00,5.140993268766592017e+00,4.119186762302938121e+00,-4.789543995528269815e-01,-2.295067122760398592e-01,-8.473059377643143986e-01,4.711553390628864122e+02
2.248962686853440029e+00,5.224363083625585880e+00,4.238458832813497779e+00,-4.789543992146844675e-01,-2.295067121140076938e-01,-8.473059371661149086e-01,4.728123933488376451e+02
2.382493296386788639e+00,5.324416370239867469e+00,4.306891488993080941e+00,-4.789543992147112794e-01,-2.295067121140205724e-01,-8.473059371661625372e-01,4.744694476347888781e+02
2.533027703819100918e+00,5.441362011323965575e+00,4.328044645808754254e+00,-4.789543992147332618e-01,-2.295067121140311195e-01,-8.473059371662013950e-01,4.761265019207401110e+02
2.689180000674407545e+00,5.566403379671577056e+00,4.309430414992385217e+00,-4.789543992147503593e-01,-2.295067121140393629e-01,-8.473059371662318151e-01,4.776849414182245255e+02
2.858540960900688876e+00,5.705663286811160972e+00,4.257948638189578361e+00,-4.789543992147626827e-01,-2.295067121140452193e-01,-8.473059371662533534e-01,4.792433809157089399e+02
3.040646116382311970e+00,5.859241824421245859e+00,4.176732976370455930e+00,-4.789543992147700102e-01,-2.295067121140486888e-01,-8.473059371662663430e-01,4.808018204131933544e+02
3.234698809604434899e+00,6.027133047643882691e+00,4.068927121276384895e+00,-4.789543992147724527e-01,-2.295067121140499100e-01,-8.473059371662707839e-01,4.823602599106777689e+02
3.441299748323148666e+00,6.211019506075633245e+00,3.936218262379540533e+00,-4.789543992147700657e-01,-2.295067121140487165e-01,-8.473059371662663430e-01,4.839337802713719157e+02
3.656812110129690652e+00,6.409089997904576563e+00,3.782694395889168781e+00,-4.789543992147626827e-01,-2.295067121140452193e-01,-8.473059371662533534e-01,4.855073006320660625e+02
3.879360366263838955e+00,6.621023743848016174e+00,3.611653805562082820e+00,-4.789543992147504148e-01,-2.295067121140393629e-01,-8.473059371662318151e-01,4.870808209927602093e+02
4.107065475466436411e+00,6.846510019125020108e+00,3.426394895373789051e+00,-4.789543992147333173e-01,-2.295067121140311195e-01,-8.473059371662013950e-01,4.886543413534543561e+02
4.380662711087298433e+00,7.132187706355178847e+00,3.192323256357477046e+00,-4.789543992147113349e-01,-2.295067121140205724e-01,-8.473059371661625372e-01,4.905162175005103791e+02
4.655611423402844729e+00,7.439208567261005989e+00,2.946176446069570964e+00,-4.789543992146844675e-01,-2.295067121140077215e-01,-8.473059371661150196e-01,4.923780936475664021e+02
4.927770907239465537e+00,7.766243234136354090e+00,2.693057166098188571e+00,-4.789543992146525486e-01,-2.295067121139924560e-01,-8.473059371660587313e-01,4.942399697946224251e+02
5.192836293725591190e+00,8.111726460026538632e+00,2.437613890219370472e+00,-4.974120885775761280e-01,-1.918754690961702036e-01,-8.460277882503158819e-01,4.961018459416784481e+02
5.445280914202463407e+00,8.472215473451143453e+00,2.185739606586786010e+00,-5.149951083207114921e-01,-1.539068322304321113e-01,-8.432619553818111457e-01,4.979543546617159109e+02
5.682219168089076788e+00,8.847874935911521632e+00,1.940710505603816083e+00,-5.316725424529628041e-01,-1.156675629567806840e-01,-8.390133029202070380e-01,4.998068633817533737e+02
5.899416998179817462e+00,9.237055214432453809e+00,1.706008103290376443e+00,-5.474150666791127717e-01,-7.722489828515127774e-02,-8.332893014153511801e-01,5.016593721017908365e+02
6.092718806517330776e+00,9.637741223659771705e+00,1.482965690881272058e+00,-5.621950002591552531e-01,-3.864643282069053082e-02,-8.261000150764850058e-01,5.035118808218282993e+02
6.282001199254305668e+00,1.013005892716307343e+01,1.233626065870635280e+00,-5.759863546481792662e-01,0.000000000000000000e+00,-8.174580840962487605e-01,5.057270832796972968e+02
6.415356432718348323e+00,1.063435242704690253e+01,1.004326781481502673e+00,-9.996734394314696903e-01,0.000000000000000000e+00,-2.551498569242968348e-02,5.079422857375662943e+02
6.487713006217370015e+00,1.118908635626661585e+01,7.775046343716458530e-01,-9.988620448979329547e-01,-0.000000000000000000e+00,4.767195441654587668e-02,5.103365104308559239e+02
6.496623538882589699e+00,1.158360435686116929e+01,6.286079185483472997e-01,-9.546707119054288482e-01,-0.000000000000000000e+00,-2.976605983798433774e-01,5.120221874069994783e+02
6.481667014558188278e+00,1.194277706331039468e+01,4.994286834357906102e-01,-9.796745246587165168e-01,-0.000000000000000000e+00,2.005886979233616751e-01,5.135516736204031076e+02
6.446263362324290647e+00,1.230240481057522040e+01,3.764529359483382298e-01,-9.997490736100211883e-01,-0.000000000000000000e+00,-2.235597928444674545e-02,5.150811598338067370e+02
6.381511522047667917e+00,1.270325214052759932e+01,2.487577039213600127e-01,-9.997490729075863003e-01,-0.000000000000000000e+00,-2.235597926873918173e-02,5.167870918690236977e+02
6.288838733223040656e+00,1.310288102197733195e+01,1.337935444474290247e-01,-9.909530590087407553e-01,4.966131286078914742e-02,1.246747321898982741e-01,5.184930239042406583e+02
6.171164521415825277e+00,1.349305106611041438e+01,3.572780209125753226e-02,-9.582139580104870324e-01,9.812270453430434192e-02,2.686930321567311819e-01,5.201680246548465902e+02
6.027866204333125921e+00,1.387985855710430450e+01,-4.520741126665766413e-02,-9.023228240496341535e-01,1.442132737262058761e-01,4.062192177646606894e-01,5.218430254054525221e+02
5.797474277638396956e+00,1.437612263769987564e+01,-1.155762664216464092e-01,-8.246300880931816124e-01,1.868194040866075489e-01,5.339304524648490480e-01,5.240318645899048988e+02
5.516960854899536137e+00,1.485667929875373794e+01,-1.365190598409261324e-01,-7.270129289257940552e-01,2.249116686481391070e-01,6.487410442401074784e-01,5.262207037743572755e+02
5.246971899795958905e+00,1.524966768815973772e+01,-1.152194119253239363e-01,-8.203162417059495226e-01,-3.095213459477167417e-01,4.809114263540644196e-01,5.280771218491685204e+02
4.954878369082900136e+00,1.562776145974194009e+01,-5.958281086292927659e-02,-6.490744455543411284e-01,-7.441363635195958892e-01,1.579918878231157953e-01,5.299335399239797653e+02
4.645046246548184321e+00,1.598856800854527727e+01,3.125965951066268095e-02,-2.685116056354199254e-01,-9.387736212176415185e-01,-2.158786829377041527e-01,5.317899579987910101e+02
4.321805385725053128e+00,1.632966733933301740e+01,1.581765789256072419e-01,-2.166398856265110695e-01,-9.618579310061685650e-01,-1.670164079215979980e-01,5.336463760736022550e+02
3.995647998331794071e+00,1.664321719360693308e+01,3.183698468167808215e-01,-1.635525907453698191e-01,-9.795451623801563201e-01,-1.172169992664201799e-01,5.354688333942036707e+02
3.664118816484457142e+00,1.693360979662725185e+01,5.134762432297732548e-01,-1.095475909811550186e-01,-9.917360757291101558e-01,-6.675987871882835267e-02,5.372912907148050863e+02
3.328953323294045141e+00,1.719875667645743178e+01,7.417655727062668625e-01,-5.492790490210795046e-02,-9.983622684410144998e-01,-1.592815793219920159e-02,5.391137480354065019e+02
3.021622968157644529e+00,1.741759275887853065e+01,9.751975365067744317e-01,-0.000000000000000000e+00,-9.993865585856310796e-01,3.499294952969916883e-02,5.407727398335346152e+02
2.712607548652193667e+00,1.761491192672691497e+01,1.229323523016967457e+00,-0.000000000000000000e+00,-9.977421425580064174e-01,6.714623545744059785e-02,5.424317316316627284e+02
2.401301936534403492e+00,1.779033356164136137e+01,1.500498360587596558e+00,-0.000000000000000000e+00,-9.950635238487695045e-01,9.922995251713799536e-02,5.440907234297908417e+02
2.086682537403028892e+00,1.794381865644745488e+01,1.784451430909562486e+00,-0.000000000000000000e+00,-9.956171299688436616e-01,9.351219426474643992e-02,5.457497152279189550e+02
1.767725088227541264e+00,1.807533378540412983e+01,2.076912018131717996e+00,-0.000000000000000000e+00,-9.961378812625399926e-01,8.779135195262122160e-02,5.474087070260470682e+02
1.443404671002730177e+00,1.818485110761374202e+01,2.373609341449754773e+00,-0.000000000000000000e+00,-9.966257605955015642e-01,8.206761408476483111e-02,5.490676988241751815e+02
1.112695726410877661e+00,1.827234837037280712e+01,2.670272587695476929e+00,-0.000000000000000000e+00,-9.970807519154688547e-01,7.634116926009386350e-02,5.507266906223032947e+02
7.745720674914043924e-01,1.833780891246324529e+01,2.962630943926261473e+00,-0.000000000000000000e+00,-9.975028402490037083e-01,7.061220616595793864e-02,5.523856824204314080e+02
4.280068933179353441e-01,1.838122166738419949e+01,3.246413630014528540e+00,-0.000000000000000000e+00,-9.978920117019677294e-01,6.488091357203389087e-02,5.540446742185595213e+02
7.001066566529320911e-02,1.840252506152303624e+01,3.520763542105549426e+00,-0.000000000000000000e+00,-9.982482534599684820e-01,5.914748032421739826e-02,5.557204815715816721e+02
-2.918077641520109289e-01,1.840091664634741520e+01,3.780756755732575414e+00,-0.000000000000000000e+00,-9.985715537887710491e-01,5.341209533851247471e-02,5.573962889246038230e+02
-6.515117663106859691e-01,1.837620224302356675e+01,4.025277499710412599e+00,-0.000000000000000000e+00,-9.988619020346772848e-01,4.767494759491866518e-02,5.590720962776259739e+02
-1.004025866730461791e+00,1.832867545554048405e+01,4.253326838885772787e+00,0.000000000000000000e+00,-9.999498964259943001e-01,9.909824583016103514e-03,5.607479036306481248e+02
-1.345985294356366824e+00,1.825964565380154880e+01,4.464139397513802621e+00,0.000000000000000000e+00,-9.996105710985341286e-01,-2.786944802730927095e-02,5.624237109836702757e+02
-1.674863924611078358e+00,1.817092610516455053e+01,4.657066649613453180e+00,0.000000000000000000e+00,-9.978444088153478608e-01,-6.560896112919958889e-02,5.640995183366924266e+02
-1.988111264794402366e+00,1.806431558271051330e+01,4.831460208413186130e+00,2.689846326803400078e-01,-9.355905862067327439e-01,-2.287258673240596396e-01,5.657753256897145775e+02
-2.292175802008162844e+00,1.793701936400746177e+01,4.991110051119903801e+00,5.103080567237225917e-01,-7.771247537381827941e-01,-3.683216045388690851e-01,5.675064042357203107e+02
-2.572904613311265187e+00,1.779395041442313286e+01,5.129339266424809196e+00,6.991536932644546454e-01,-5.387427636405884845e-01,-4.700407937817954740e-01,5.692374827817260439e+02
-2.826433862192443858e+00,1.763713016067169903e+01,5.246788735404133597e+00,0.000000000000000000e+00,2.192496970816472032e-02,-9.997586187199435370e-01,5.709685613277317771e+02
-3.027595929291176269e+00,1.748788781408486415e+01,5.335655079738836015e+00,1.073361357507449931e-01,3.466128201750263982e-02,-9.936174059926210500e-01,5.725113390616890001e+02
-3.204198395937624788e+00,1.733167114050813851e+01,5.411469602933499878e+00,2.134141859540350239e-01,4.699132964278883440e-02,-9.758300057758100277e-01,5.740541167956462232e+02
-3.361147430529367597e+00,1.716018831128766919e+01,5.478473426097673737e+00,3.169908213566581257e-01,5.877059338972136920e-02,-9.466048999073018999e-01,5.756848040928169894e+02
-3.484713999819620156e+00,1.698345557046245347e+01,5.533346507620617416e+00,4.168520293716878600e-01,6.986100940979293739e-02,-9.062846269097442065e-01,5.773154913899877556e+02
