5.096396216403997315e+00,2.658367794419418839e+00,-3.080011074553493877e+00,-8.166932672378155456e-01,5.769804208421334124e-01,1.018337934160741878e-02,3.700361047609897014e+01
5.265325116590324761e+00,2.042016056469855290e+00,-3.126878145250931773e+00,-9.151283688151565787e-01,4.030989177726975181e-01,7.023608868600583581e-03,3.876497308659306640e+01
5.388952292610505346e+00,1.407677053494271080e+00,-3.183868638082178126e+00,-9.770184613852409550e-01,2.131198857077700737e-01,3.583354484303811864e-03,4.052633569708716266e+01
5.461378027130912471e+00,7.609624680945693553e-01,-3.251318718866698987e+00,-9.998919759349480518e-01,1.462998501632503667e-02,0.000000000000000000e+00,4.228769830758125892e+01
5.477517787143167283e+00,1.074937604501918081e-01,-3.329248151375091336e+00,-9.998919606002018012e-01,1.463098479091418103e-02,-0.000000000000000000e+00,4.404906091807535518e+01
5.433851924963448710e+00,-5.471316459369612861e-01,-3.417043985148159546e+00,-9.986771916293771811e-01,5.606302119080827304e-03,-5.109242888494943541e-02,4.581042352856945143e+01
5.379620164514345326e+00,-9.543718274482011488e-01,-3.475818501238212122e+00,-9.947726228045428165e-01,-3.433479874166002737e-03,-1.020472445880236667e-01,4.690964255100129066e+01
5.236514599104407530e+00,-1.637049717290273154e+00,-3.581444822043013509e+00,-9.881887697143983962e-01,-1.246401601465950762e-02,-1.527272199324519464e-01,4.877315272108899791e+01
5.018145734739547059e+00,-2.303309940859890492e+00,-3.693996743902133506e+00,-9.789433609053522778e-01,-2.146098598938219609e-02,-2.029958674759157755e-01,5.063666289117670516e+01
4.786874397641656564e+00,-2.836121133436931618e+00,-3.789530165942129436e+00,-9.997280783823800920e-01,1.144607448065188340e-02,-2.026713282898658097e-02,5.217061025651571526e+01
4.514890199496669254e+00,-3.352647921883096238e+00,-3.885451258108412187e+00,-9.856175606623843732e-01,4.395359969035295827e-02,1.631689467662819082e-01,5.370455762185472537e+01
4.203469477359964124e+00,-3.849875738521625568e+00,-3.979944821319191917e+00,-9.371043681428993244e-01,7.492692745287669875e-02,3.409096049554271035e-01,5.523850498719373547e+01
3.853918563337690006e+00,-4.324796987042757834e+00,-4.071195665765439564e+00,-8.558818592031592898e-01,1.032849488068686150e-01,5.067508879498183738e-01,5.677245235253274558e+01
3.190407277053295854e+00,-5.015001362072371904e+00,-4.201395214442882775e+00,-7.447850786012693014e-01,1.280378416000694519e-01,6.549041897959472225e-01,5.924054120297004289e+01
2.714389556186908248e+00,-5.397970690420907935e+00,-4.270271460524846852e+00,-6.200574967865772891e-01,6.401194805050879066e-02,7.819393654098425461e-01,6.078681339926504990e+01
2.208166753398625559e+00,-5.750009993151270038e+00,-4.329673486622930945e+00,-6.712518812307376459e-01,2.381798725189455124e-01,7.019182717893380774e-01,6.233308559556005690e+01
1.675290517407861612e+00,-6.069681610946034311e+00,-4.378267457765743664e+00,-6.960266023595524931e-01,4.029732585776916176e-01,5.942705795175969863e-01,6.387935779185506391e+01
1.119584546189962504e+00,-6.355729127171367843e+00,-4.414841939354642086e+00,-6.934065915919782608e-01,5.519060692898628551e-01,4.632331911890715248e-01,6.542562998815007802e+01
5.448847512303576224e-01,-6.606917121125566617e+00,-4.438185576430953461e+00,-6.634949939576905154e-01,6.791165338788519579e-01,3.139635749685511512e-01,6.697190218444508503e+01
-2.874829281974960460e-01,-6.883759405383748309e+00,-4.440254510996534343e+00,-6.074690999518655987e-01,7.795978449197072946e-01,1.523367742923392998e-01,6.913434444845205462e+01
-1.146483305027546917e+00,-7.059200637573353809e+00,-4.399608361457712391e+00,-0.000000000000000000e+00,4.167097442644203398e-02,9.991303868317403802e-01,7.129678671245902422e+01
-1.934587868851381343e+00,-7.131805544600095637e+00,-4.327992455061257182e+00,-4.499992964596048837e-04,3.515004504552168840e-01,9.361865363420546204e-01,7.325162535241493345e+01
-2.722872627740294593e+00,-7.125843335632675135e+00,-4.227633238280548156e+00,1.845799250722167939e-01,3.100861941249249965e-01,9.326171794873652221e-01,7.520646399237084267e+01
-3.411008310517667841e+00,-7.059120311862239205e+00,-4.118951439398791159e+00,3.629715792612213110e-01,2.575200008971569865e-01,8.955071645655010570e-01,7.693082100185546324e+01
-4.085657980284521429e+00,-6.939878062400994807e+00,-3.995186986900144621e+00,5.283093228778772410e-01,1.956923536952051013e-01,8.261911171557204669e-01,7.865517801134008380e+01
-4.740130744213666425e+00,-6.770082196751562087e+00,-3.858843154562176636e+00,6.746469744001066804e-01,1.268268071975938993e-01,7.271618945668033573e-01,8.037953502082470436e+01
-5.391798267898931130e+00,-6.541356928419039818e+00,-3.706427454572355007e+00,7.471428863218195771e-01,4.964028389946702202e-02,6.628056650593480148e-01,8.217271578294187862e+01
-6.006835980391236340e+00,-6.261607652494667775e+00,-3.546381941862473131e+00,8.081662910073870165e-01,-2.830847447880741746e-02,5.882719408179325482e-01,8.396589654505905287e+01
-6.578810051749000465e+00,-5.934334339052187879e+00,-3.382407397804662263e+00,8.567801663128989942e-01,-1.058225563168209565e-01,5.047051943352378611e-01,8.575907730717622712e+01
-7.101327417652882446e+00,-5.563077740033277152e+00,-3.218204638732923062e+00,8.922380370157824148e-01,-1.817117237401516538e-01,4.133886001802777321e-01,8.755225806929340138e+01
-7.568736987167714148e+00,-5.151972799487128718e+00,-3.057360929747751310e+00,9.139954369927520972e-01,-2.548106880556750276e-01,3.157243329397096399e-01,8.934543883141057563e+01
-7.991570372629062113e+00,-4.685825033645848237e+00,-2.897040458251844086e+00,9.217182700583325117e-01,-3.239970023211458661e-01,2.132120379541294630e-01,9.121560967976374457e+01
-8.343146903504628398e+00,-4.187473116436692955e+00,-2.748366601923193819e+00,9.152879410201641974e-01,-3.882082963974073375e-01,1.074258052425088317e-01,9.308578052811691350e+01
-8.621551187073425382e+00,-3.663866432300840970e+00,-2.615283760950072534e+00,8.948031780340768293e-01,-4.464585898832771349e-01,-9.999990814011525472e-06,9.495595137647008244e+01
-8.829074124468768048e+00,-3.121952691654463319e+00,-2.501029582436565590e+00,9.691397582806691169e-01,-2.301467414719018389e-01,-8.830971808899132358e-02,9.682612222482325137e+01
-8.951601989665878278e+00,-2.676823236699988673e+00,-2.423034748056461574e+00,9.852177632728058576e-01,-0.000000000000000000e+00,-1.713007849690220130e-01,9.833373973987664840e+01
-9.040933138978637373e+00,-2.228547579911434262e+00,-2.357545163568145696e+00,9.863095190599172613e-01,-7.600500822147297775e-02,-1.463378670685639427e-01,9.984135725493004543e+01
-9.099049359492969558e+00,-1.779907187049172723e+00,-2.305383628762417647e+00,9.810877962790985896e-01,-1.515234962632968641e-01,-1.204382251344312538e-01,1.013489747699834425e+02
-9.128054118254461002e+00,-1.333429957278501554e+00,-2.266659710718660126e+00,9.695860202968120678e-01,-2.260720636589862720e-01,-9.376764516148687612e-02,1.028565922850368395e+02
-9.127450638190323318e+00,-8.472300031267401277e-01,-2.240058150770840140e+00,9.518778151841050805e-01,-2.991735185161292221e-01,-6.649684789652213213e-02,1.045178692362587043e+02
-9.094237216729014861e+00,-3.706469501554466306e-01,-2.230741606795079157e+00,9.280765324539319572e-01,-3.703599319213058960e-01,-3.880039608884684049e-02,1.061791461874805691e+02
-9.031695771820627883e+00,9.282642527631719542e-02,-2.238345505749278264e+00,8.983345255365923210e-01,-4.391756330612130443e-01,-1.085557715121686709e-02,1.078404231387024339e+02
-8.942646318848865405e+00,5.400473721237278868e-01,-2.261765739967017463e+00,8.628421746353160948e-01,-5.051801258964653263e-01,1.715873161989795934e-02,1.095017000899242987e+02
-8.828941736236231463e+00,9.685498667932606054e-01,-2.298419270503772260e+00,8.218266681989240263e-01,-5.679509087256513489e-01,4.506320800422924933e-02,1.111629770411461635e+02
-8.691960316233819484e+00,1.376208333753234925e+00,-2.344983552007175565e+00,7.755505488046160467e-01,-6.270861785973430580e-01,7.267923267198866943e-02,1.128242539923680283e+02
-8.549586024098122294e+00,1.726892884387173810e+00,-2.392826228814028067e+00,7.243100327505929137e-01,-6.822074032630326412e-01,9.983003250805402851e-02,1.143302178281148826e+02
-8.391764598455168311e+00,2.059002652637651476e+00,-2.443332188482036038e+00,6.684331141058037495e-01,-7.329617442097775548e-01,1.263418121298217067e-01,1.158361816638617370e+02
-8.219471262090042529e+00,2.371117717685181869e+00,-2.494257609800050179e+00,6.082774653434431800e-01,-7.790243152623896883e-01,1.520448663573955306e-01,1.173421454996085913e+02
-8.034253285651210774e+00,2.662208294527039332e+00,-2.543143514902779678e+00,5.379617392347881832e-01,-6.889704772059251914e-01,4.857106635220103108e-01,1.188481093353554456e+02
-7.838782524360439652e+00,2.932064699977054101e+00,-2.587087412198032954e+00,4.007305300104290202e-01,-5.132176219660787853e-01,7.589602854049946057e-01,1.203540731711023000e+02
-7.636288738261529652e+00,3.180959360717566575e+00,-2.622945250067272749e+00,2.136536391130217372e-01,-2.736271494305166363e-01,9.378050466857821288e-01,1.218600370068491543e+02
-7.375494308748649530e+00,3.461776669825255670e+00,-2.648798199654823105e+00,9.999989999989881463e-07,-9.999989999989881463e-07,9.999989999989882250e-01,1.237621414765324772e+02
-7.115018481245718007e+00,3.702836333552756543e+00,-2.644541953005300705e+00,5.996938583006752310e-01,3.640864109715297725e-01,7.126053337319646630e-01,1.256642459462158001e+02
-6.861373361554043981e+00,3.906910203133748816e+00,-2.603868708510400420e+00,8.546902225259143115e-01,5.189015279781137302e-01,1.561498579573454386e-02,1.275663504158991230e+02
-6.619187896338787347e+00,4.078230173365106737e+00,-2.520297353062753487e+00,9.480767136406852424e-01,3.156526256749163650e-01,-3.888399358887917323e-02,1.294794431795102696e+02
-6.394371614582404106e+00,4.218961507583988357e+00,-2.388690898226232928e+00,9.912138162169631395e-01,9.567366035949337322e-02,-9.132207430011776705e-02,1.313925359431214019e+02
-6.224859869289735670e+00,4.313859622841734520e+00,-2.248693511437092951e+00,9.818151803317659576e-01,-1.293761786085003973e-01,-1.389199628529726727e-01,1.329355150966478618e+02
-6.062694374178501100e+00,4.395057736765659584e+00,-2.081509312214155916e+00,9.203789252031139290e-01,-3.475689227107123247e-01,-1.791548994805190198e-01,1.344784942501743217e+02
-5.880301974722508263e+00,4.471377596348848016e+00,-1.850263280561421197e+00,8.101612482030170481e-01,-5.473400272127806332e-01,-2.098943699125667695e-01,1.362741049894825949e+02
-5.700794387518256734e+00,4.526758764010507363e+00,-1.578461608494835744e+00,6.570038469529267955e-01,-7.181013176383330698e-01,-2.295091342306882498e-01,1.380697157287908681e+02
-5.520054791121903115e+00,4.560586497517365778e+00,-1.269115757785564291e+00,4.690242989945510033e-01,-8.508021885027508002e-01,-2.369595809243950357e-01,1.398653264680991413e+02
-5.362766561277322097e+00,4.572844400752895666e+00,-9.789602482448268583e-01,2.561858103073434978e-01,-9.384093051552941933e-01,-2.318508283261688507e-01,1.414041005170149106e+02
-5.202765957642697003e+00,4.570129342483902235e+00,-6.706439373740241683e-01,2.408126963121948461e-01,-9.252496651945995021e-01,-2.931216511144809078e-01,1.429428745659306799e+02
-5.039459850609084413e+00,4.551764111585827166e+00,-3.468874327415412684e-01,2.244369296859178853e-01,-9.082376300611751940e-01,-3.531720146530732962e-01,1.444816486148464492e+02
-4.872262139239904144e+00,4.517068141990051799e+00,-1.041144328516007550e-02,2.071266932942092964e-01,-8.874440330348285499e-01,-4.117518927170945586e-01,1.460204226637622185e+02
-4.700605186149695136e+00,4.465393713005735066e+00,3.360139069866396322e-01,1.889540606552957414e-01,-8.629554521340160322e-01,-4.686173818739488572e-01,1.475591967126779878e+02
-4.523950742622472987e+00,4.396162232851953178e+00,6.895197656176906831e-01,1.699946958516306283e-01,-8.348738495963621276e-01,-5.235317169407293081e-01,1.490979707615937571e+02
-4.320995447430660441e+00,4.296904764215836892e+00,1.086685777498165084e+00,1.503275384970668982e-01,-8.033161473180969736e-01,-5.762662567146817905e-01,1.508056497649079972e+02
-4.110414378004600522e+00,4.172054145805922154e+00,1.485200506717632374e+00,1.300344750709278852e-01,-7.684137400208467250e-01,-6.266014358751472724e-01,1.525133287682222374e+02
-3.894662481424121303e+00,4.020328616225206986e+00,1.881186552259438871e+00,1.091999979870566240e-01,-7.303119481732659457e-01,-6.743276790964708445e-01,1.542210077715364775e+02
-3.678950833694371703e+00,3.840098526182647909e+00,2.271435163536815516e+00,8.791085381681273958e-02,-6.891694129452955453e-01,-7.192462735687237263e-01,1.559286867748507177e+02
-3.472993791879274372e+00,3.633848315870886303e+00,2.646539556105860669e+00,6.625568212999582984e-02,-6.451574357136514726e-01,-7.611701962961602286e-01,1.576064998735415656e+02
-3.278821485382188428e+00,3.397338791367402244e+00,3.010716801670818565e+00,4.432464645660705305e-02,-5.984592648675032267e-01,-7.999248927314261959e-01,1.592843129722324136e+02
-3.101788720799737664e+00,3.129354211741075087e+00,3.361343319591685752e+00,2.220905890507090044e-02,-5.492693328822478849e-01,-8.353490035058631635e-01,1.609621260709232615e+02
-2.946288137774841775e+00,2.829354489321250110e+00,3.695985213599759511e+00,9.999988887668967986e-07,-4.977924468359398724e-01,-8.672950362319745699e-01,1.626399391696141095e+02
-2.811240865730676664e+00,2.484829865915942015e+00,4.023220403268110701e+00,0.000000000000000000e+00,9.988447030629378220e-01,4.803393763095126917e-02,1.643777764761805429e+02
-2.703376666311512633e+00,2.107441823454529128e+00,4.328837649707337754e+00,3.476438112528193458e-01,7.329231412926796585e-01,-5.847781198509935940e-01,1.661156137827469763e+02
-2.621628654104727563e+00,1.700093109141386005e+00,4.611579933021456412e+00,4.894745649099780382e-01,3.309397058303449601e-02,-8.713882254299828434e-01,1.678534510893134097e+02
-2.564789829650485409e+00,1.265986890084684457e+00,4.870302704735957278e+00,0.000000000000000000e+00,9.978126036217043193e-01,-6.609090750977844597e-02,1.695912883958798432e+02
-2.531401234106009923e+00,8.089330999666636268e-01,5.104086177311075723e+00,-0.000000000000000000e+00,9.968731426564392262e-01,-7.900593205231017102e-02,1.713291257024462766e+02
-2.519581824498652534e+00,3.520102887494853672e-01,5.305041091147900012e+00,-0.000000000000000000e+00,9.968731420280737554e-01,-7.900593200250984049e-02,1.729997892893018445e+02
-2.525819531130926165e+00,-1.181541401716869888e-01,5.482430812664453867e+00,1.466117055273721537e-05,8.865372112924352344e-01,-4.626551337414309129e-01,1.746704528761574124e+02
-2.548658918655867911e+00,-5.980687655694006954e-01,5.635566137865075653e+00,2.698593504396311501e-05,6.349213832685433045e-01,-7.725754567273102058e-01,1.763411164630129804e+02
-2.586605380447067670e+00,-1.084251074716833907e+00,5.763758050389118814e+00,3.501018573176461563e-05,2.821232798859937274e-01,-9.593771175703994514e-01,1.780117800498685483e+02
-2.638125162609763041e+00,-1.573227670061888128e+00,5.866317726841309366e+00,3.745515451550963980e-05,-1.156343574850347000e-01,-9.932908405718491318e-01,1.796824436367241162e+02
-2.704635189432913478e+00,-2.081153900679360014e+00,5.944488614354304090e+00,3.393121709900379042e-05,-4.949639338762473750e-01,-8.689123678539394380e-01,1.814207000302306767e+02
-2.783030476651408236e+00,-2.584459903458889318e+00,5.992218701493149169e+00,2.499997267777999052e-05,-7.954151306987617964e-01,-6.060633376394419791e-01,1.831589564237372372e+02
-2.872411022727613172e+00,-3.079622582851207380e+00,6.008735607618167052e+00,5.772616529653712414e-02,-6.378149999818046867e-01,-7.680219499722915621e-01,1.848972128172437976e+02
-2.968828838709104190e+00,-3.548729890749461990e+00,5.994717479075023725e+00,1.122871430989938191e-01,-4.455190708781650577e-01,-8.882017535331525604e-01,1.865816617169487870e+02
-3.074850631978502946e+00,-4.004867729876042226e+00,5.951030450718215903e+00,1.607399398219624131e-01,-2.289878023307753974e-01,-9.600652363930128885e-01,1.882661106166537763e+02
-3.191838631537071702e+00,-4.446421215567710306e+00,5.877298789186085948e+00,2.004488266899933369e-01,-0.000000000000000000e+00,-9.797031529391179161e-01,1.899505595163587657e+02
-3.334761863859513120e+00,-4.908525541288201843e+00,5.760865204022970865e+00,0.000000000000000000e+00,8.052988517071386215e-03,-9.999665741262685481e-01,1.917852667561002704e+02
-3.497035830322806405e+00,-5.348634108196291592e+00,5.604862896310627285e+00,-8.452989841288123529e-02,4.501064590669198728e-01,-8.889639316527502277e-01,1.936199739958417751e+02
-3.681162737254743078e+00,-5.765177995244577858e+00,5.409056437349389235e+00,2.084966276596523713e-02,1.285839353626575324e-02,-9.996989313184814208e-01,1.954546812355832799e+02
-3.887033820976241838e+00,-6.156984839075080096e+00,5.173782721550493235e+00,1.217558766213923671e-01,-4.271485671585065758e-01,-8.959450921139819890e-01,1.972893884753247846e+02
-4.132041803332863417e+00,-6.554643492653675629e+00,4.870681850388314693e+00,3.698982379086732664e-01,-2.721274050884779361e-01,-8.883242476668695708e-01,1.992943888671479442e+02
-4.389983618288463063e+00,-6.918431362599028134e+00,4.519234630385736473e+00,5.863533815208138433e-01,-9.379468871456028700e-02,-8.046056601524752550e-01,2.012993892589711038e+02
-4.650220612151713340e+00,-7.247841583710450841e+00,4.122118728279968281e+00,7.525789214884025524e-01,9.257286733496225550e-02,-6.519610656826143602e-01,2.033043896507942634e+02
-4.880644701448651368e+00,-7.520948432717879051e+00,3.722542310136593091e+00,7.832303412777787965e-01,7.126140695835685157e-02,-6.176326127856507364e-01,2.051442253461085556e+02
-5.092567592579884561e+00,-7.767485421426986392e+00,3.294759313329893136e+00,8.118671795231259258e-01,4.976665790402647060e-02,-5.817155340633572980e-01,2.069840610414228479e+02
-5.276023685674386066e+00,-7.987631560360213712e+00,2.843022261823034746e+00,8.384157839488102226e-01,2.814390426676509349e-02,-5.443022082212463086e-01,2.088238967367371401e+02
-5.405770228186757898e+00,-8.156678782094386904e+00,2.441848596595200593e+00,8.628078722419457725e-01,6.448759261190866766e-03,-5.054888614970366456e-01,2.103996389417758337e+02
-5.506833037612391735e+00,-8.309309466363371754e+00,2.032162246466504119e+00,8.849807075402095213e-01,-1.526297770936156650e-02,-4.653753203480212597e-01,2.119753811468145273e+02
-5.574255774986208500e+00,-8.445671673280173763e+00,1.617138780249972818e+00,9.477921629588134111e-01,-3.278410786887502731e-02,-3.171958670997829244e-01,2.135511233518532208e+02
-5.603974302785666772e+00,-8.566128715547911554e+00,1.200137331922894512e+00,9.857624804107966154e-01,-4.944597999686226736e-02,-1.607029162044775472e-01,2.151268655568919144e+02
-5.593711508310239999e+00,-8.671439823674230496e+00,7.848841059461391101e-01,9.978964962917117321e-01,-6.481190233636946463e-02,1.999996986248517972e-06,2.167026077619306079e+02
-5.513628649544893179e+00,-8.780875193542316381e+00,2.744479896599954505e-01,9.727361971522692219e-01,1.776938996456160769e-01,1.490206991676493176e-01,2.186786926985779189e+02
-5.348430010116394406e+00,-8.864675571105847141e+00,-2.151597029891806623e-01,8.681531199210641425e-01,4.056911936903003224e-01,2.858720268500311024e-01,2.206547776352252299e+02
-5.134875201574995884e+00,-8.920524601998874203e+00,-6.240669859958725141e-01,6.926863227971112869e-01,6.005642983262308165e-01,3.993822502157638454e-01,2.223994826581620430e+02
-4.864674996400379925e+00,-8.961837745535973454e+00,-1.005968132201554788e+00,4.606624106662593476e-01,7.464020451143851265e-01,4.802833855647918315e-01,2.241441876810988560e+02
-4.542043990231810824e+00,-8.988004230970711106e+00,-1.355200031395347171e+00,3.945158471438137138e-01,7.168725548395641356e-01,5.748469243815452767e-01,2.258888927040356691e+02
-4.172033982147031139e+00,-8.998248451701398309e+00,-1.666505516196512326e+00,3.227712547909927232e-01,6.771709017490963323e-01,6.612535723198923465e-01,2.276335977269724822e+02
-3.761396117980072340e+00,-8.993433642814022022e+00,-1.935086562254658027e+00,2.464466591675598395e-01,6.278604382736283629e-01,7.382772610861598750e-01,2.293783027499092952e+02
-3.382074333958977164e+00,-8.979184047395465385e+00,-2.131410897434907969e+00,1.666250719489444365e-01,5.696408583099646927e-01,8.048250604589254342e-01,2.308820833231763459e+02
-2.985826362585259464e+00,-8.957422845093361730e+00,-2.294930953141440355e+00,8.443912469623178485e-02,5.033382695900919801e-01,8.599526850863593586e-01,2.323858638964433965e+02
-2.576873319606259649e+00,-8.929016231081641664e+00,-2.423125842652081641e+00,1.054998706094199953e-03,4.298934727560758673e-01,9.028778926631518820e-01,2.338896444697104471e+02
-2.159582059258273734e+00,-8.895161218698810046e+00,-2.513707125051008351e+00,-1.096067013345032939e-02,7.695587405653061541e-01,6.384803900911029118e-01,2.353934250429774977e+02
-1.618002059842640339e+00,-8.845940660115502396e+00,-2.562295409438081872e+00,-2.094397647221116210e-02,9.665299142314137670e-01,2.556937127619156591e-01,2.373288210211753722e+02
-1.081838670655227208e+00,-8.794449656398407811e+00,-2.522450337108315566e+00,2.875898764462447854e-01,5.992177425653392175e-01,7.471466790124219326e-01,2.392642169993732466e+02
-5.640957938170250152e-01,-8.746914123720243239e+00,-2.390425855237953812e+00,2.059703879281635786e-01,6.749340025649153141e-01,7.085466050140947214e-01,2.411996129775711211e+02
-1.706806365332820263e-01,-8.715474481203447255e+00,-2.224707371798386291e+00,1.214910272751981296e-01,7.412790427622842904e-01,6.601085600499301265e-01,2.427390917806250172e+02
2.050393997426894210e-01,-8.692466488886886111e+00,-2.013837352963455007e+00,3.532476468753802112e-02,7.973316676221827715e-01,6.025050811440140208e-01,2.442785705836789134e+02
5.628437635541420070e-01,-8.680677167863166233e+00,-1.762053301024101293e+00,-5.133200288666883715e-02,8.423135874108866883e-01,5.365359689154854950e-01,2.458180493867328096e+02
9.034632084914552275e-01,-8.682902790319701580e+00,-1.474458592144227254e+00,-1.372760640518938813e-01,8.756002265843868537e-01,4.631171832711285519e-01,2.473575281897867058e+02
1.227598116025542252e+00,-8.701943665011372175e+00,-1.156156837808557603e+00,-2.213141003702452925e-01,8.967293977847169417e-01,3.832681256288045790e-01,2.488970069928406019e+02
1.535918485571968306e+00,-8.740603989209477120e+00,-8.122518512858082351e-01,-3.022792567457390223e-01,9.054077207657844628e-01,2.980974842496337263e-01,2.504364857958944981e+02
1.829063924858436163e+00,-8.801691700610611235e+00,-4.478476140909684600e-01,-3.790473445230942429e-01,9.015146969257388232e-01,2.087878392865833710e-01,2.519759645989483943e+02
2.107643640595599610e+00,-8.888018329206651913e+00,-6.804824244677173950e-02,-4.505524521174302799e-01,8.851043827434386113e-01,1.165792414479192296e-01,2.535154434020022904e+02
2.372236429451241246e+00,-9.002398849117108526e+00,3.220420462554925978e-01,-5.158017462248146723e-01,8.564046388403485643e-01,2.275199247695152555e-02,2.550549222050561866e+02
2.619975557981411463e+00,-9.145117332856727899e+00,7.116426284480824593e-01,-5.738892579343873868e-01,8.158139651415819982e-01,-7.139113324031098884e-02,2.565723690986664565e+02
2.855330644102408666e+00,-9.319295371862594379e+00,1.101606211592679685e+00,-6.240084622103090339e-01,7.638959662109184867e-01,-1.645429788683231143e-01,2.580898159922767263e+02
3.078783521603686513e+00,-9.524675781993051871e+00,1.488004161248410506e+00,-6.654634760330062626e-01,7.013715238074298419e-01,-2.554101557432661429e-01,2.596072628858869962e+02
3.290939496641136497e+00,-9.758782362520815212e+00,1.867807628993191527e+00,-6.976787197422277265e-01,6.291087855895267644e-01,-3.427310022627889641e-01,2.611247097794972660e+02
3.492653966433655111e+00,-1.001799239583003143e+01,2.238617873781266088e+00,-7.202069075327947045e-01,5.481111092277939356e-01,-4.252931016166438538e-01,2.626421566731075359e+02
3.684930516523105659e+00,-1.029840126725302696e+01,2.598227749790168684e+00,-7.327352563117301987e-01,4.595031295580110919e-01,-5.019501151351200008e-01,2.641596035667178057e+02
3.868813011143618752e+00,-1.059611006574738390e+01,2.944430182689252717e+00,-7.350898269024407350e-01,3.645151424186763300e-01,-5.716376976130608245e-01,2.656770504603280756e+02
4.068393968820837259e+00,-1.095109938347277279e+01,3.317035229748369396e+00,-7.272379375289245163e-01,2.644660221179022663e-01,-6.333882737818936626e-01,2.674004949065883352e+02
4.259328807224195934e+00,-1.131915195082854275e+01,3.663094600023863556e+00,-7.092886162683871287e-01,1.607449097481164491e-01,-6.863444709640489361e-01,2.691239393528485948e+02
4.444236680512466897e+00,-1.169394539533051258e+01,3.979622598386093557e+00,-6.814910863539600516e-01,5.479192654280048286e-02,-7.297710216271096062e-01,2.708473837991088544e+02
4.627145967533270898e+00,-1.206943854847507502e+01,4.265005591582520239e+00,-6.178549074621443316e-01,5.213865010663890770e-02,-7.845603064716389907e-01,2.725708282453691140e+02
4.812823468504337399e+00,-1.243974839917415842e+01,4.518316112167028109e+00,-5.498576158895129851e-01,4.911735415473501842e-02,-8.338117819808423814e-01,2.742942726916293736e+02
5.061375999737048659e+00,-1.289168157681760718e+01,4.786563244863717870e+00,-4.779791670314582630e-01,4.574936438039807485e-02,-8.771778106767440519e-01,2.764897229564932672e+02
5.273145670064579349e+00,-1.323516971305450340e+01,4.958894198183015689e+00,-4.027269105070265254e-01,4.205845353974885237e-02,-9.143522964592052382e-01,2.782646988824751020e+02
5.490350225319287958e+00,-1.355685391141639151e+01,5.097321214002161760e+00,-3.246320093265671058e-01,3.807067366509427064e-02,-9.450728449850402946e-01,2.800396748084569367e+02
5.707780311129749151e+00,-1.385383925909740555e+01,5.203475063881791485e+00,-2.442456910131781123e-01,3.381417219403527047e-02,-9.691226156586409957e-01,2.818146507344387715e+02
5.918071995973531507e+00,-1.412406286051571236e+01,5.279597096256248179e+00,-1.621353571180444153e-01,2.931899331105386128e-02,-9.863318521694373064e-01,2.835896266604206062e+02
6.112790445533004657e+00,-1.436584628826706300e+01,5.328234069336977186e+00,-7.888057856809960189e-02,2.461686590252179160e-02,-9.965790807749628222e-01,2.853646025864024409e+02
6.276497593161489696e+00,-1.456852298859522321e+01,5.351819784200147367e+00,4.930994909502411060e-03,1.974097962045976914e-02,-9.997919678678045541e-01,2.870524924873593022e+02
6.412672526076727664e+00,-1.474382922895212644e+01,5.356042650680320705e+00,-3.681009158294855088e-01,1.498837432553385036e-02,-9.296639524052076053e-01,2.887403823883161635e+02
6.514465658041448393e+00,-1.489026375750072795e+01,5.342985745100567563e+00,-6.880918042969800252e-01,8.076040703087450714e-03,-7.255773193994932146e-01,2.904282722892730249e+02
6.574795144402268754e+00,-1.500638518246636721e+01,5.314400175851454300e+00,-9.089331001752296579e-01,0.000000000000000000e+00,-4.169395872385236457e-01,2.921161621902298862e+02
6.587610104571344216e+00,-1.509063675372165569e+01,5.271368824097448780e+00,-6.783331045798046688e-01,5.390142884848517779e-01,-4.993253408754618761e-01,2.938040520911867475e+02
6.549653458703597053e+00,-1.514097938401153520e+01,5.214634298478639352e+00,-3.904632593411468400e-01,8.756795599047484391e-01,-2.841157360498864359e-01,2.954919419921436088e+02
6.459202952284130106e+00,-1.515508234641517404e+01,5.144935174704987624e+00,-7.894990794486694483e-03,9.999678340433270085e-01,-0.000000000000000000e+00,2.971798318931004701e+02
6.291384532525944984e+00,-1.512270461732450144e+01,5.052454588962239868e+00,-1.971539855655708440e-01,9.803715142622613232e-01,-0.000000000000000000e+00,2.990541810862090415e+02
6.046805657101092635e+00,-1.503398197952585491e+01,4.944358645588076584e+00,-3.792753852188076036e-01,9.252827579548139614e-01,-0.000000000000000000e+00,3.009285302793176129e+02
5.724986816159381320e+00,-1.488552153393456479e+01,4.822145273114400332e+00,-5.476658540163765743e-01,8.366959497606378804e-01,-0.000000000000000000e+00,3.028028794724261843e+02
5.397337904420851373e+00,-1.471366372374287579e+01,4.709426109137519134e+00,-6.962291560581238548e-01,7.178181958238901705e-01,-0.000000000000000000e+00,3.043951603683539702e+02
5.027582298240043102e+00,-1.450173814574020881e+01,4.590792167211293240e+00,-8.195868520933227153e-01,5.729532196234682351e-01,-0.000000000000000000e+00,3.059874412642817560e+02
4.618679494449489553e+00,-1.424832360034237411e+01,4.467608846491157415e+00,-9.132730123892169871e-01,4.073455594976950200e-01,-0.000000000000000000e+00,3.075797221602095419e+02
4.173602556787528783e+00,-1.395201551479050472e+01,4.341241578059398698e+00,-6.051112637003469574e-01,4.958913024062636676e-01,-6.228404087259294952e-01,3.091720030561373278e+02
3.695896036882246438e+00,-1.361188226939803059e+01,4.212862907416813130e+00,-0.000000000000000000e+00,3.410856895400514732e-01,-9.400311443733065930e-01,3.107642839520651137e+02
3.190227247399893162e+00,-1.322792575684780125e+01,4.083259578330460826e+00,-0.000000000000000000e+00,2.648456641198230765e-01,-9.642897770771253763e-01,3.123565648479928996e+02
2.628392825928258958e+00,-1.277186669590155255e+01,3.945096438372447611e+00,3.018549385660538112e-02,2.517672418586683336e-01,-9.673159214483735280e-01,3.140456542926685870e+02
2.045910967346150411e+00,-1.226486189732944254e+01,3.806933220531307782e+00,6.033804324452656659e-02,2.384140490861887951e-01,-9.692863672495244387e-01,3.157347437373442745e+02
1.449376545825788565e+00,-1.170760372240227376e+01,3.669521868364037154e+00,9.042474098152028517e-02,2.248006589219669338e-01,-9.701989641134018960e-01,3.174238331820199619e+02
8.453753857156766083e-01,-1.110082401710936750e+01,3.533614319419956740e+00,1.204127517563816502e-01,2.109419284387569760e-01,-9.700527161144590904e-01,3.191129226266956493e+02
2.403575743594393022e-01,-1.044580303105257890e+01,3.399328294643181092e+00,1.502693479591214742e-01,1.968529824530416694e-01,-9.688477828654595836e-01,3.208020120713713368e+02
-3.594971028542754410e-01,-9.744877300484423799e+00,3.265513092792466487e+00,1.799619453936331104e-01,1.825491970206837011e-01,-9.665854793432671066e-01,3.224911015160470242e+02
-9.139968287801865099e-01,-9.047230187260726808e+00,3.138543836548530308e+00,2.094581388339264993e-01,1.680461826584985496e-01,-9.632682744542713227e-01,3.240799573945994325e+02
-1.454341977321365498e+00,-8.315933347191553082e+00,3.009082688596299349e+00,2.387257373851761344e-01,1.533597673100351166e-01,-9.588997883410151912e-01,3.256688132731518408e+02
-1.975865384876725583e+00,-7.553297723616540615e+00,2.875732215301372463e+00,2.677327996110420161e-01,1.385059790741288988e-01,-9.534847884329458179e-01,3.272576691517042491e+02
-2.474194224267646458e+00,-6.761663960928859574e+00,2.737636335487287464e+00,2.964476683889761266e-01,1.235010287150484637e-01,-9.470291842455873521e-01,3.288465250302566574e+02
-2.945627694477888525e+00,-5.943404205975149068e+00,2.595117176726549069e+00,3.248390054555204132e-01,1.083612919732976354e-01,-9.395400209337877451e-01,3.304353809088090657e+02
-3.386975069094865454e+00,-5.100915228480657149e+00,2.449229272846146888e+00,3.528758256039394858e-01,9.310329169634930235e-02,-9.310254716060490932e-01,3.320242367873614739e+02
-3.795178215114678455e+00,-4.236612073243576582e+00,2.301122706250693373e+00,3.805275304969046868e-01,7.774367980878703344e-02,-9.214948284082968843e-01,3.336130926659138822e+02
-4.167203905925398466e+00,-3.352926973114299880e+00,2.151947574845728184e+00,4.077639420573669349e-01,6.229921914150348544e-02,-9.109584923867840578e-01,3.352019485444662905e+02
-4.501136901078912622e+00,-2.452536101767064824e+00,2.002778635449793843e+00,4.345553354012072766e-01,4.678676513976108564e-02,-8.994279621411520598e-01,3.367908044230186988e+02
-4.797276343678142929e+00,-1.538578024109386488e+00,1.854539947733941263e+00,4.608724712757535369e-01,3.122324747005243706e-02,-8.869158212799884700e-01,3.383796603015711071e+02
-5.047051147282122230e+00,-6.551757227195086353e-01,1.714394371204381207e+00,4.866866279687844243e-01,1.562565154581046709e-02,-8.734357246925246177e-01,3.398989494162532310e+02
-5.266112574088356091e+00,2.343870776689920277e-01,1.576513469304157589e+00,5.119696326532156005e-01,1.099999210732146763e-05,-8.590023836514056876e-01,3.414182385309353549e+02
-5.455708853936024560e+00,1.127313089353418452e+00,1.441606786342211066e+00,5.956896370556957754e-01,2.920263765887917695e-02,-8.026824168116059033e-01,3.429375276456174788e+02
-5.617116123019096463e+00,2.020811914221718908e+00,1.310383847574764893e+00,6.728372947655918423e-01,5.807207328657682660e-02,-7.375063451097836342e-01,3.444568167602996027e+02
-5.751638407148293552e+00,2.912100177507180199e+00,1.183554154665359182e+00,7.425614283300140395e-01,8.630078656641593238e-02,-6.641932696099374089e-01,3.459761058749817266e+02
-5.860607604744173749e+00,3.798401661475042435e+00,1.061827181145003074e+00,8.040927659970493746e-01,1.135773268077517884e-01,-5.835520666634573805e-01,3.474953949896638505e+02
-5.945383469561437373e+00,4.676947439039977006e+00,9.459123678724618012e-01,8.567524286989236515e-01,1.396007491247152066e-01,-4.964724632476649191e-01,3.490146841043459744e+02
-6.007353593144530102e+00,5.544976007313346500e+00,8.365191184947008418e-01,8.999594196863910378e-01,1.640839346776358787e-01,-4.039152204354495290e-01,3.505339732190280984e+02
-6.047933387014664319e+00,6.399733421079189633e+00,7.343567949075092693e-01,9.332370342337380498e-01,1.867567583492452110e-01,-3.069015333075610363e-01,3.520532623337102223e+02
-6.068668013542396267e+00,7.300010963588658974e+00,6.337627654859663284e-01,9.562181187464160459e-01,2.073690689209338467e-01,-2.065017642466611958e-01,3.536867832669289555e+02
-6.067166562771456384e+00,8.176685472245649677e+00,5.436684994007564553e-01,9.686491212909009718e-01,2.256934488836080943e-01,-1.038236338914444862e-01,3.553203042001476888e+02
-6.046426968390849588e+00,9.026031555110543891e+00,4.640692944324009139e-01,9.703928888893302851e-01,2.415277234480655844e-01,0.000000000000000000e+00,3.569538251333664221e+02
-6.009818184091388460e+00,9.844314850161774544e+00,3.946428883625154316e-01,9.969795307158221265e-01,-7.765188556165565636e-02,0.000000000000000000e+00,3.585873460665851553e+02
-5.960750200255183096e+00,1.062782059453252437e+01,3.350669436957942060e-01,9.988611377096775490e-01,-0.000000000000000000e+00,4.769095882966038757e-02,3.602208669998038886e+02
-5.902673993851234258e+00,1.137285383619645529e+01,2.850190500460004217e-01,9.996731843025228326e-01,-0.000000000000000000e+00,-2.552497917253214108e-02,3.618543879330226218e+02
-5.839081477872603898e+00,1.207573964543532696e+01,2.441767265223606098e-01,9.706551006253109071e-01,-0.000000000000000000e+00,-2.404717771873555177e-01,3.634879088662413551e+02
-5.753126904171151246e+00,1.292512615925043917e+01,2.060567321041821831e-01,9.955207353996179398e-01,9.453287991579502336e-02,0.000000000000000000e+00,3.656618007839354050e+02
-5.675010422121063769e+00,1.365679228767163345e+01,1.869420220100867780e-01,9.546769266703760692e-01,0.000000000000000000e+00,-2.976406653668539071e-01,3.678356927016294549e+02
-5.628197830749980035e+00,1.410845593821810340e+01,1.820425286918831431e-01,5.764363129601857150e-01,-1.163998612659590233e-03,-8.171400260715380170e-01,3.693721637586841666e+02
-5.589550226312596237e+00,1.451505991531870166e+01,1.810729326613517154e-01,6.095053695472040234e-01,-7.692763402973580578e-02,-7.890395070062591332e-01,3.709086348157388784e+02
-5.560134210075680983e+00,1.487636862901010559e+01,1.820221028949426667e-01,6.379279560424991891e-01,-1.521048230865607864e-01,-7.549238674821457940e-01,3.724451058727935902e+02
-5.540179484660530562e+00,1.520265148776244324e+01,1.825354179399455712e-01,6.614873980892412852e-01,-2.261224667376192099e-01,-7.150531813834043460e-01,3.740395342029160020e+02
-5.531804546047922599e+00,1.547891322134405812e+01,1.797321974647219378e-01,6.800040940271082635e-01,-2.984163052391212712e-01,-6.697313945714580274e-01,3.756339625330384138e+02
-5.537593812688597517e+00,1.572436768282784847e+01,1.680289977857555017e-01,6.933368840256238785e-01,-3.684352194580829409e-01,-6.193040079906045881e-01,3.773981333598889591e+02
-5.560766455334288594e+00,1.590528756904789098e+01,1.418127299810137687e-01,7.013841262195784632e-01,-4.356454320454720142e-01,-5.641554440273404136e-01,3.791623041867395045e+02
-5.602259647660314812e+00,1.602379666052904028e+01,9.555129295541414658e-02,7.040844716414479398e-01,-4.995345764605598204e-01,-5.047061161846176924e-01,3.809264750135900499e+02
-5.662380165641675234e+00,1.608285829263728317e+01,2.385889209690683632e-02,7.014173320377895537e-01,-5.596156028373511226e-01,-4.414092243918371627e-01,3.826906458404405953e+02
-5.729129515796589800e+00,1.609112908494035565e+01,-6.282820260458348016e-02,6.934030369943414707e-01,-6.154304909233851983e-01,-3.747473003623300047e-01,3.842474504765693837e+02
-5.806311275188154930e+00,1.606388549488388051e+01,-1.730015144961080387e-01,6.801026791601713084e-01,-6.665537417871367776e-01,-3.052285293162322333e-01,3.858042551126981721e+02
-5.892915961408236925e+00,1.600292096989748103e+01,-3.108186135417941864e-01,6.616176487368623516e-01,-7.125956216718607461e-01,-2.333828760933879531e-01,3.873785761281259283e+02
-5.984770481067776871e+00,1.591152995599826347e+01,-4.769245305890049691e-01,6.431104653736439136e-01,-7.413373685167607974e-01,-1.919005871896727056e-01,3.889528971435536846e+02
-6.077791865937922644e+00,1.579330859565493839e+01,-6.725195782769620712e-01,6.227450935910017193e-01,-7.679370924848371027e-01,-1.498638395037902027e-01,3.905272181589814409e+02
-6.167858423798112888e+00,1.565182969687266912e+01,-8.988038665718481868e-01,6.005803766210718875e-01,-7.923179416914083451e-01,-1.073940896342563678e-01,3.921015391744091971e+02
-6.250796284117542179e+00,1.549039905111917115e+01,-1.156727835020817663e+00,5.766803557775153077e-01,-8.144094746954468889e-01,-6.461404478536544871e-02,3.936758601898369534e+02
-6.322369455763849899e+00,1.531181165566010449e+01,-1.446742786721533225e+00,5.511140854704611458e-01,-8.341478638903255804e-01,-2.164730838247589523e-02,3.952501812052647097e+02
-6.380862397048440826e+00,1.510309064251007527e+01,-1.795839913850727276e+00,5.239554337625932368e-01,-8.514760798118004015e-01,2.138197689254779307e-02,3.969421508560849929e+02
-6.414122121236725427e+00,1.487952585267428240e+01,-2.185292635823389507e+00,5.318795198762957810e-01,-8.466672357197554399e-01,1.602398553526690819e-02,3.986341205069052762e+02
-6.416707067515956986e+00,1.464417090532680632e+01,-2.614601442896383077e+00,6.016131716185189049e-01,-7.980063318028489672e-01,3.529144564901447872e-02,4.003260901577255595e+02
-6.388978793457893879e+00,1.441865826184059429e+01,-3.043797814739150898e+00,6.667733989857611565e-01,-7.432790613335081842e-01,5.429061969245913000e-02,4.018894274981638546e+02
-6.337374659895171902e+00,1.420610965552437577e+01,-3.462087675521047903e+00,7.268648710793390588e-01,-6.829014499281863548e-01,7.287708058908495823e-02,4.033279978224805404e+02
-6.271183217273323507e+00,1.401392449621321390e+01,-3.849063684341040847e+00,7.814307862221128165e-01,-6.173324729510828446e-01,9.090953845765292751e-02,4.046076431591168330e+02
-6.068488849377839500e+00,1.364366746017709353e+01,-4.608233391238222509e+00,8.300563437177401749e-01,-5.470705674598344004e-01,1.082509144116477473e-01,4.070017554401334792e+02
-5.947333825258719564e+00,1.347652309508254120e+01,-4.952941157619725310e+00,6.874569165599268006e-01,-4.661106818260427054e-01,5.569037799858110871e-01,4.080531984137069799e+02
-5.699012084339056372e+00,1.317605230259035665e+01,-5.556894110322267544e+00,3.879944410393166287e-01,-2.787942452375509750e-01,8.784828299667252205e-01,4.099016829047124020e+02
-5.400073706579957111e+00,1.286409940544520047e+01,-6.144635350670522911e+00,0.000000000000000000e+00,-2.786296520870016821e-02,9.996107518285608506e-01,4.117501673957178241e+02
-5.055136396271332266e+00,1.253823607217576885e+01,-6.697013197505250481e+00,5.048504550711633287e-01,-7.270622152187579124e-01,4.653004977608588000e-01,4.135986518867232462e+02
-4.669555156605714075e+00,1.219650960782187354e+01,-7.194839953550873801e+00,2.964027901947418053e-01,-4.150253179205393161e-01,8.601728730035907988e-01,4.154471363777286683e+02
-4.222748981302698823e+00,1.181504035036802591e+01,-7.638709592649135516e+00,0.000000000000000000e+00,2.016697227948724414e-02,9.997956257308727723e-01,4.174078258605113092e+02
-3.744949311174780693e+00,1.141286355719427092e+01,-7.970073634621426706e+00,-0.000000000000000000e+00,-2.559783184275926660e-02,9.996713214823221838e-01,4.193685153432939501e+02
-3.311574325528431118e+00,1.104630735509059924e+01,-8.159696910219063071e+00,-0.000000000000000000e+00,-7.130902736876293391e-02,9.974532683813635003e-01,4.210780970384075204e+02
-2.870913669558894377e+00,1.066725665154131342e+01,-8.260374888620244604e+00,-0.000000000000000000e+00,-1.168708951513450084e-01,9.931461090165466521e-01,4.227876787335210906e+02
-2.429710391567827532e+00,1.027760958409946745e+01,-8.273938104486195044e+00,4.301035175183857140e-01,3.026596604823824505e-02,9.022709878502616077e-01,4.244972604286346609e+02
-1.994402355579615760e+00,9.879586837918497011e+00,-8.202613474382074443e+00,0.000000000000000000e+00,0.000000000000000000e+00,9.999989999986806932e-01,4.262068421237482312e+02
-1.575617575521139235e+00,9.480759407175249009e+00,-8.052123755771512847e+00,-1.161848472904061791e-01,1.341998236121057881e-03,9.932256945363709955e-01,4.278964229234440495e+02
-1.230703889126791406e+00,9.139086482081722806e+00,-7.868219624678167712e+00,-8.722603518090864261e-02,4.682136933138279257e-03,9.961765387554982754e-01,4.293354488072124582e+02
-8.133908970604375455e-01,8.706012921054567144e+00,-7.562381964416180935e+00,-5.819233776242925538e-02,8.018256532587940411e-03,9.982721870182488244e-01,4.311642364071363431e+02
-4.249268780848615701e-01,8.278067033734373581e+00,-7.174636626165227682e+00,-2.910867255269037820e-02,1.134749387540628235e-02,9.995108401366866735e-01,4.329930240070602281e+02
-6.841991115787482425e-02,7.859231953177034491e+00,-6.713911202056218386e+00,-0.000000000000000000e+00,1.466699169430323718e-02,9.998914337765223426e-01,4.348218116069841130e+02
2.530701023266383465e-01,7.453511120279403102e+00,-6.189133960874969809e+00,-4.786744931378699164e-01,-2.325607537444741302e-01,8.466311035134508334e-01,4.366505992069079980e+02
5.759399637702656838e-01,7.005971972434501538e+00,-5.506405725470568946e+00,-5.024135394088078410e-01,7.294793312446252731e-01,4.641535744839032640e-01,4.387747795449688510e+02
8.407597119593863688e-01,6.591065255718828730e+00,-4.755727121302105509e+00,-0.000000000000000000e+00,-9.999989999993710052e-07,9.999989999993709189e-01,4.408989598830297041e+02
1.040272646554000424e+00,6.232502306980455486e+00,-4.000507037474245742e+00,-7.217103253061255552e-01,5.166585169996543714e-01,4.606475693617197997e-01,4.429084787836207511e+02
1.193631493892763240e+00,5.910115318421315322e+00,-3.218219866915257743e+00,-9.187891588802874487e-01,7.621728537608270238e-02,3.873182243766322697e-01,4.449179976842117981e+02
1.284768200433828333e+00,5.687065503012537881e+00,-2.611175123481817906e+00,-8.970066972457932941e-01,-3.823794024321847673e-01,2.217272596962054088e-01,4.464545876710864150e+02
1.358771963010080519e+00,5.482250356978870975e+00,-2.003873549881353799e+00,-6.615518139976631629e-01,-7.498907771584664150e-01,3.319597920272221361e-03,4.479911776579610319e+02
1.417823921479920202e+00,5.296194852757306393e+00,-1.401222508772817177e+00,-2.685116056353999969e-01,-9.387736212175719075e-01,-2.158786829376881378e-01,4.495277676448356488e+02
1.464777120447198211e+00,5.127140906165602807e+00,-7.995400872010354210e-01,-8.331036627168645348e-01,1.863803856925007052e-01,-5.207673559048091594e-01,4.510868644251565343e+02
1.500842184481044006e+00,4.978390589106812314e+00,-2.126113685109705387e-01,-0.000000000000000000e+00,9.988447030609834965e-01,4.803393763085728879e-02,4.526459612054774198e+02
1.532856525683010229e+00,4.826751678403747192e+00,4.790474768412578133e-01,-0.000000000000000000e+00,9.988447023579432038e-01,4.803393759704844418e-02,4.545652864476153354e+02
1.555639632345354961e+00,4.712580402182506845e+00,1.125768758545583337e+00,-0.000000000000000000e+00,9.988447023580213635e-01,4.803393759705219118e-02,4.564846116897532511e+02
1.572209152896997253e+00,4.642754514573559810e+00,1.633228377709500245e+00,-0.000000000000000000e+00,9.988447023580682149e-01,4.803393759705444632e-02,4.581012057756331615e+02
1.589880172521519919e+00,4.594052813941028823e+00,2.105842269997824978e+00,-0.000000000000000000e+00,9.988447023580838691e-01,4.803393759705520266e-02,4.597177998615130718e+02
1.611546205872137039e+00,4.565816279582776360e+00,2.540169352401056013e+00,-0.000000000000000000e+00,9.988447023580682149e-01,4.803393759705444632e-02,4.613343939473929822e+02
1.639844863615944615e+00,4.557299429351414410e+00,2.933292891030609528e+00,-0.000000000000000000e+00,9.988447023580213635e-01,4.803393759705219118e-02,4.629509880332728926e+02
1.676908081057486566e+00,4.567602401472631968e+00,3.283344593947081336e+00,-0.000000000000000000e+00,9.988447023579432038e-01,4.803393759704844418e-02,4.645675821191528030e+02
1.724609215580758859e+00,4.595743759227124414e+00,3.588980552996530182e+00,-0.000000000000000000e+00,9.988447023578338468e-01,4.803393759704317062e-02,4.661841762050327134e+02
1.786676677090677456e+00,4.642278160002080156e+00,3.854146527174272308e+00,-1.793301169722471555e-01,9.466965979198279646e-01,-2.675897244571461275e-01,4.678412304909839463e+02
1.864247753433961874e+00,4.705853727044480017e+00,4.068548333220176616e+00,-3.345408477525913526e-01,7.672203277818665512e-01,-5.472233454672822406e-01,4.694982847769351793e+02
1.959355415455735772e+00,4.785351393237136541e+00,4.230703530392793787e+00,-4.447567351577867978e-01,4.845549356418604181e-01,-7.532569023102323458e-01,4.711553390628864122e+02
2.073687741077643754e+00,4.880135592247786924e+00,4.340080160464504289e+00,-4.951540145088959566e-01,1.367181991144536535e-01,-8.579793913304963882e-01,4.728123933488376451e+02
2.207911266210357049e+00,4.990450473384482777e+00,4.398491951816850154e+00,-4.789543995528269815e-01,-2.295067122760398592e-01,-8.473059377643143986e-01,4.744694476347888781e+02
2.361662536133771528e+00,5.116829347768428349e+00,4.409593336135125163e+00,-4.789543992146891860e-01,-2.295067121140099975e-01,-8.473059371661235684e-01,4.761265019207401110e+02
2.522984919332561748e+00,5.250272750294336710e+00,4.381579001460975675e+00,-4.789543992147192175e-01,-2.295067121140243749e-01,-8.473059371661764150e-01,4.776849414182245255e+02
2.699442984254710520e+00,5.397750337731028303e+00,4.320825571959408862e+00,-4.789543992147424767e-01,-2.295067121140355326e-01,-8.473059371662177153e-01,4.792433809157089399e+02
2.890491754287666915e+00,5.559608302910274524e+00,4.230541194095827962e+00,-4.789543992147591300e-01,-2.295067121140435262e-01,-8.473059371662472472e-01,4.808018204131933544e+02
3.095215257943780607e+00,5.736059512272774441e+00,4.113941612654472557e+00,-4.789543992147691220e-01,-2.295067121140483279e-01,-8.473059371662648998e-01,4.823602599106777689e+02
3.314145705914602225e+00,5.929043324585332897e+00,3.972703239305629186e+00,-4.789543992147724527e-01,-2.295067121140499100e-01,-8.473059371662707839e-01,4.839337802713719157e+02
3.543311384121221153e+00,6.136812565382760987e+00,3.811069327722566680e+00,-4.789543992147690665e-01,-2.295067121140483002e-01,-8.473059371662648998e-01,4.855073006320660625e+02
3.780590535105142092e+00,6.359191789029650543e+00,3.632405463366386478e+00,-4.789543992147590745e-01,-2.295067121140434985e-01,-8.473059371662472472e-01,4.870808209927602093e+02
4.023859941989795352e+00,6.596017625522157424e+00,3.440077348574559490e+00,-4.789543992147424767e-01,-2.295067121140355326e-01,-8.473059371662177153e-01,4.886543413534543561e+02
