4.203669169898731184e+00,-7.532175457324266632e-02,-2.957249679911315265e+00,-9.986771916293771811e-01,5.606302119080827304e-03,-5.109242888494943541e-02,4.404906091807535518e+01
4.059807969551923357e+00,-7.805231970889968673e-01,-3.050037835664430652e+00,-9.947726228045428165e-01,-3.433479874166002737e-03,-1.020472445880236667e-01,4.581042352856945143e+01
3.950173993907680092e+00,-1.216253933805019116e+00,-3.108034277434501558e+00,-9.881887697143983962e-01,-1.246401601465950762e-02,-1.527272199324519464e-01,4.690964255100129066e+01
3.726623291443939223e+00,-1.942179153194433017e+00,-3.205470154036412556e+00,-9.789433609053522778e-01,-2.146098598938219609e-02,-2.029958674759157755e-01,4.877315272108899791e+01
3.447652512575687389e+00,-2.644776857945403847e+00,-3.300094746050701744e+00,-7.753758227629558020e-01,-1.699904785987610759e-02,6.312696459096401869e-01,5.063666289117670516e+01
3.179895489790583785e+00,-3.203122291078116746e+00,-3.374604900635048921e+00,-0.000000000000000000e+00,-9.999989999994787901e-07,9.999989999994787215e-01,5.217061025651571526e+01
2.881885971109349853e+00,-3.741947097900816921e+00,-3.444929674049927115e+00,-1.665777887292572146e-01,1.719596612710206154e-02,9.858773448310166332e-01,5.370455762185472537e+01
2.554543464365574668e+00,-4.258487357867661416e+00,-3.509720458018515732e+00,-3.284508388772175436e-01,3.390725810709574461e-02,9.439111951283090107e-01,5.523850498719373547e+01
2.198806109961207067e+00,-4.749985706034181021e+00,-3.567628680334614888e+00,-4.810473465813659422e-01,4.966089651542442140e-02,8.752858080102411398e-01,5.677245235253274558e+01
1.551404720638247525e+00,-5.459847069284495369e+00,-3.635678836308438910e+00,-6.200574967888745626e-01,6.401194805074594818e-02,7.819393654127396731e-01,5.924054120297004289e+01
1.101246164628601143e+00,-5.851149516850353116e+00,-3.661054926501472018e+00,-5.099300506530843879e-01,6.160766586337849959e-02,8.580057336331819995e-01,6.078681339926504990e+01
6.291363998706169802e-01,-6.209926170762032349e+00,-3.675433731241781743e+00,-3.906646932564875052e-01,5.809937711270244526e-02,9.186966636608614456e-01,6.233308559556005690e+01
1.378919319739553562e-01,-6.535065680509108077e+00,-3.678127912372862962e+00,-2.643986392930322560e-01,5.354994988217567226e-02,9.629245881205816815e-01,6.387935779185506391e+01
-3.696634827868877093e-01,-6.825477204837222089e+00,-3.668450209165774467e+00,-1.333945518570484046e-01,4.804090882320515010e-02,9.898969464614254532e-01,6.542562998815007802e+01
-8.906988931089885320e-01,-7.080090451034570798e+00,-3.645713442875584853e+00,-0.000000000000000000e+00,4.167097442641731070e-02,9.991303868311476322e-01,6.697190218444508503e+01
-1.639317142175766850e+00,-7.360136603285382328e+00,-3.585093685002775921e+00,-6.074690999519724022e-01,7.795978449198442961e-01,1.523367742923661117e-01,6.913434444845205462e+01
-2.405526086711417211e+00,-7.537027997687801850e+00,-3.485512980150321738e+00,-4.499992964605512838e-04,3.515004504559560705e-01,9.361865363440234900e-01,7.129678671245902422e+01
-3.104029158294008717e+00,-7.609721844418769088e+00,-3.364867101455943477e+00,1.227443464545014268e-01,3.558814978879433211e-01,9.264341233334154602e-01,7.325162535241493345e+01
-3.798851479672709530e+00,-7.602753058356959137e+00,-3.220212096105139032e+00,2.440617918830261523e-01,3.548206969054408799e-01,9.025154374260809798e-01,7.520646399237084267e+01
-4.402402757498038000e+00,-7.534211002944568136e+00,-3.076778730549550644e+00,3.616472513542351441e-01,3.483342674925295479e-01,8.647962208984876220e-01,7.693082100185546324e+01
-4.991398028315267688e+00,-7.412197040876495890e+00,-2.922675372836484708e+00,4.737027044692421196e-01,3.365213936301219566e-01,8.138532419359291170e-01,7.865517801134008380e+01
-5.559978141778139538e+00,-7.238669881182095978e+00,-2.761198849663951016e+00,5.785146897694199986e-01,3.195627068244967783e-01,7.504654756414589345e-01,8.037953502082470436e+01
-6.122931479540031141e+00,-7.005146411684711971e+00,-2.589396950341008363e+00,6.744805056298404100e-01,2.977175242266298927e-01,6.756021930806347386e-01,8.217271578294187862e+01
-6.650259658246713279e+00,-6.719451528229286374e+00,-2.417946714812824194e+00,7.601327176951844233e-01,2.713198835489084582e-01,5.904081404265533184e-01,8.396589654505905287e+01
-7.135591648009968146e+00,-6.384651682466322420e+00,-2.251361646704658437e+00,8.341615980802293828e-01,2.407734353849227960e-01,4.961860347719489472e-01,8.575907730717622712e+01
-7.572580209099520232e+00,-6.003867241966537094e+00,-2.094155206214538989e+00,8.954351531607080972e-01,2.065452710138682979e-01,3.943766442214082235e-01,8.755225806929340138e+01
-7.954904206944823919e+00,-5.581049600515876286e+00,-1.950639740794059662e+00,9.430164336386772650e-01,1.691587800558227161e-01,2.865367568373197726e-01,8.934543883141057563e+01
-8.289399452692334691e+00,-5.100618700134241124e+00,-1.819468519719840804e+00,9.761778621179454385e-01,1.291856471878256030e-01,1.743153753198910805e-01,9.121560967976374457e+01
-8.556602224734668027e+00,-4.586388473493180129e+00,-1.709508734500715832e+00,9.944123590350222308e-01,8.723711030508483899e-02,5.942850145710582704e-02,9.308578052811691350e+01
-8.758870768442635679e+00,-4.045813352005548147e+00,-1.621895690107290289e+00,9.974410967614784074e-01,4.395461381400143919e-02,-5.636710403383780876e-02,9.495595137647008244e+01
-8.899686629683914774e+00,-3.486226489459404831e+00,-1.557547402478975496e+00,9.852177632738948754e-01,0.000000000000000000e+00,-1.713007849692113893e-01,9.682612222482325137e+01
-8.974500276710486446e+00,-3.026584633979796379e+00,-1.521605055350798263e+00,9.825610976006454722e-01,-4.629421887842073008e-02,-1.800792458382760863e-01,9.833373973987664840e+01
-9.020696416011947605e+00,-2.563770036712307743e+00,-1.498615292519588582e+00,9.777159948647915488e-01,-9.248532725059689652e-02,-1.884566200225855359e-01,9.984135725493004543e+01
-9.040062856059350338e+00,-2.100680179194617470e+00,-1.488661484801938828e+00,9.706932464695616769e-01,-1.384704449183130071e-01,-1.964142488312495549e-01,1.013489747699834425e+02
-9.034455860794365023e+00,-1.639921771790057159e+00,-1.491310426243904308e+00,9.615084939925652163e-01,-1.841471504801504011e-01,-2.039344084543393831e-01,1.028565922850368395e+02
-9.000399300909817768e+00,-1.138261384561142453e+00,-1.508696407476921353e+00,9.501821943487200883e-01,-2.294137094450603709e-01,-2.110003494374566579e-01,1.045178692362587043e+02
-8.938483619616677700e+00,-6.465924207029133397e-01,-1.541000366017591272e+00,9.367395742291739769e-01,-2.741693008161960043e-01,-2.175963339863701551e-01,1.061791461874805691e+02
-8.851558959680016159e+00,-1.684888917641375605e-01,-1.587202507607380797e+00,9.212105739176222885e-01,-3.183142416404874386e-01,-2.237076710186503836e-01,1.078404231387024339e+02
-8.742262107238705227e+00,2.928500403632863791e-01,-1.645719568096367880e+00,9.036297806090931584e-01,-3.617502090239685941e-01,-2.293207488842489428e-01,1.095017000899242987e+02
-8.612773053083044417e+00,7.349498640255290871e-01,-1.713841462049905395e+00,8.840363513796344330e-01,-4.043804591184977926e-01,-2.344230656821564562e-01,1.111629770411461635e+02
-8.465049297139300322e+00,1.155704806874077839e+00,-1.788294666996498528e+00,8.624739259783668066e-01,-4.461100425922449597e-01,-2.390032571056218136e-01,1.128242539923680283e+02
-8.317537829299469720e+00,1.517867685304116421e+00,-1.858501027283263829e+00,8.389905296360246068e-01,-4.868460161041422429e-01,-2.430511217539140789e-01,1.143302178281148826e+02
-8.159138693815664922e+00,1.861123388761432018e+00,-1.928774030553910279e+00,8.136384661063235102e-01,-5.264976493113672218e-01,-2.465576438542453896e-01,1.158361816638617370e+02
-7.991203526491985620e+00,2.184079315209293881e+00,-1.996903031639649884e+00,7.864742011782441811e-01,-5.649766269488702974e-01,-2.495150133432366413e-01,1.173421454996085913e+02
-7.815204858302202240e+00,2.485748407262683202e+00,-2.060582882020093098e+00,7.575582369185297482e-01,-6.021972455309011485e-01,-2.519166432631815278e-01,1.188481093353554456e+02
-7.632843946768377741e+00,2.765946262015072765e+00,-2.117319427503387086e+00,7.269549769243442983e-01,-6.380766042364600654e-01,-2.537571844343429750e-01,1.203540731711023000e+02
-7.445933711835250435e+00,3.024896774453760262e+00,-2.164524040726246934e+00,6.947325828860552166e-01,-6.725347895535161991e-01,-2.550325373705756293e-01,1.218600370068491543e+02
-7.206111604429555229e+00,3.317748471666844612e+00,-2.203452275742465716e+00,6.609628227794586142e-01,-7.054950532707300326e-01,-2.557398614117055713e-01,1.237621414765324772e+02
-6.965456367210760114e+00,3.569821944301394989e+00,-2.211876027449974913e+00,6.257209110254219331e-01,-7.368839834202013384e-01,-2.558775810522929683e-01,1.256642459462158001e+02
-6.727779450430901420e+00,3.783692963045568458e+00,-2.184714296311013104e+00,5.890853409728050716e-01,-7.666316677904463361e-01,-2.554453894526462765e-01,1.275663504158991230e+02
-6.495327942939345789e+00,3.963449891378366452e+00,-2.116745487990426167e+00,5.511377100776404525e-01,-7.946718496453391012e-01,-2.544442491242289162e-01,1.294794431795102696e+02
-6.272279691034831295e+00,4.111014155369967504e+00,-2.003838323138578570e+00,5.119625381678249987e-01,-8.209420753020912898e-01,-2.528763897878911204e-01,1.313925359431214019e+02
-6.099094023227243255e+00,4.210271076748326458e+00,-1.881444535785057992e+00,4.716470791979987531e-01,-8.453838332394583155e-01,-2.507453034096599476e-01,1.329355150966478618e+02
-5.930505853163800190e+00,4.294870737119061310e+00,-1.734087726778557714e+00,4.302811269137985506e-01,-8.679426844262143614e-01,-2.480557364250995933e-01,1.344784942501743217e+02
-5.739179589637949164e+00,4.373803462812744236e+00,-1.529085684272181611e+00,3.879568148582576703e-01,-8.885683835794810914e-01,-2.448136791695259551e-01,1.362741049894825949e+02
-5.551741508052496776e+00,4.430237478459257972e+00,-1.287143706466549409e+00,3.447684111657509098e-01,-9.072149910826867725e-01,-2.410263525375767324e-01,1.380697157287908681e+02
-5.366692198044468398e+00,4.463570497288666949e+00,-1.011051786357278326e+00,3.008121086005085543e-01,-9.238409753137312164e-01,-2.367021919018172105e-01,1.398653264680991413e+02
-5.209540562712871470e+00,4.474280546755194266e+00,-7.516301663954162438e-01,2.561858103073418325e-01,-9.384093051552879761e-01,-2.318508283261673519e-01,1.414041005170149106e+02
-5.053633226443425386e+00,4.469099066205345139e+00,-4.756046240241250667e-01,2.408126963121948461e-01,-9.252496651945995021e-01,-2.931216511144809078e-01,1.429428745659306799e+02
-4.899008600686030945e+00,4.447382847006113415e+00,-1.853957434330070486e-01,2.244369296859178853e-01,-9.082376300611751940e-01,-3.531720146530732962e-01,1.444816486148464492e+02
-4.745709707869255389e+00,4.408488761436520242e+00,1.165757980690505929e-01,2.071266932942092964e-01,-8.874440330348285499e-01,-4.117518927170945586e-01,1.460204226637622185e+02
-4.593796500077646172e+00,4.351816080073231952e+00,4.278448139367005965e-01,1.889540606552957414e-01,-8.629554521340160322e-01,-4.686173818739488572e-01,1.475591967126779878e+02
-4.443357777019392607e+00,4.276848910032678752e+00,7.458571925630714805e-01,1.699946958516306283e-01,-8.348738495963621276e-01,-5.235317169407293081e-01,1.490979707615937571e+02
-4.278346554481722741e+00,4.170401905371889484e+00,1.103644630299450702e+00,1.503275384970668982e-01,-8.033161473180969736e-01,-5.762662567146817905e-01,1.508056497649079972e+02
-4.116540222710395547e+00,4.037370738994692232e+00,1.463419554245471321e+00,1.300344750709278852e-01,-7.684137400208467250e-01,-6.266014358751472724e-01,1.525133287682222374e+02
-3.960899539553751847e+00,3.876180877428378135e+00,1.822031398518876966e+00,1.091999979870566240e-01,-7.303119481732659457e-01,-6.743276790964708445e-01,1.542210077715364775e+02
-3.815327829450864794e+00,3.684994661763079549e+00,2.176593222176136155e+00,8.791085381681273958e-02,-6.891694129452955453e-01,-7.192462735687237263e-01,1.559286867748507177e+02
-3.685764431605702551e+00,3.466465702597927301e+00,2.518293073288639050e+00,6.625568212999582984e-02,-6.451574357136514726e-01,-7.611701962961602286e-01,1.576064998735415656e+02
-3.572870166813514547e+00,3.216429931693820965e+00,2.850825335521802284e+00,4.432464645660705305e-02,-5.984592648675032267e-01,-7.999248927314261959e-01,1.592843129722324136e+02
-3.479491132237420903e+00,2.934217813911232930e+00,3.171805957512311203e+00,2.220905890507090044e-02,-5.492693328822478849e-01,-8.353490035058631635e-01,1.609621260709232615e+02
-3.407556500379068876e+00,2.620173453278428433e+00,3.479231409441196021e+00,9.999988887668967986e-07,-4.977924468359398724e-01,-8.672950362319745699e-01,1.626399391696141095e+02
-3.356721935498572229e+00,2.262622312438391958e+00,3.781517447702557710e+00,0.000000000000000000e+00,9.988447030629378220e-01,4.803393763095126917e-02,1.643777764761805429e+02
-3.330339334017579311e+00,1.874336753557566571e+00,4.065789557056414871e+00,-0.000000000000000000e+00,9.988447023578338468e-01,4.803393759704317062e-02,1.661156137827469763e+02
-3.328357641254293675e+00,1.458052682608647510e+00,4.330703554900958707e+00,4.894745649099780382e-01,3.309397058303449601e-02,-8.713882254299828434e-01,1.678534510893134097e+02
-3.350590731649741194e+00,1.016835652981225913e+00,4.575022730288824668e+00,0.000000000000000000e+00,9.978126036217043193e-01,-6.609090750977844597e-02,1.695912883958798432e+02
-3.396599771788331168e+00,5.544101088310158243e-01,4.797725163892357259e+00,-0.000000000000000000e+00,9.968731426564392262e-01,-7.900593205231017102e-02,1.713291257024462766e+02
-3.462334032756825941e+00,9.388620036785509659e-02,4.991004284666561652e+00,-0.000000000000000000e+00,9.968731420280737554e-01,-7.900593200250984049e-02,1.729997892893018445e+02
-3.548221335768204643e+00,-3.784178108918065386e-01,5.163483653999256795e+00,1.882960363597710463e-01,9.024538070779593024e-01,-3.874528729825248985e-01,1.746704528761574124e+02
-3.653711614414334008e+00,-8.590508702457906320e-01,5.314382527059702710e+00,3.503228603640040073e-01,6.821329465671234216e-01,-6.418461939706995301e-01,1.763411164630129804e+02
-3.778228918822267968e+00,-1.344566581724775833e+00,5.442920325962274042e+00,4.634760755981825464e-01,3.666475369304529885e-01,-8.066954264227983451e-01,1.780117800498685483e+02
-3.921171429932325925e+00,-1.831523361242752390e+00,5.548316645805492442e+00,5.119696326536163911e-01,1.099999210733007517e-05,-8.590023836520779277e-01,1.796824436367241162e+02
-4.089115030402055595e+00,-2.335920863212171295e+00,5.632035083745021709e+00,4.381693635433830392e-01,8.318453900406032989e-06,-8.988913220070540167e-01,1.814207000302306767e+02
-4.276308819429795349e+00,-2.834227062612737491e+00,5.687923946734444236e+00,3.612854492426289532e-01,5.578374442103478695e-06,-9.324541941197055372e-01,1.831589564237372372e+02
-4.482126330508671153e+00,-3.322880080954120796e+00,5.715153015449946139e+00,2.818589524343347308e-01,2.799036731207811648e-06,-9.594548092128848404e-01,1.848972128172437976e+02
-4.698551484246210386e+00,-3.784198715641195587e+00,5.713876538436283070e+00,2.004488266896339022e-01,0.000000000000000000e+00,-9.797031529373612102e-01,1.865816617169487870e+02
-4.931088367875953615e+00,-4.231039359484690010e+00,5.685176549029637094e+00,1.007376321419742177e-01,4.047114985055142583e-03,-9.949037894814460881e-01,1.882661106166537763e+02
-5.179764325960634963e+00,-4.661695622301469832e+00,5.628628176042518305e+00,0.000000000000000000e+00,8.052988517071386215e-03,-9.999665741262685481e-01,1.899505595163587657e+02
-5.469709850110373139e+00,-5.110133610097862267e+00,5.533580134712655862e+00,-8.452989841288123529e-02,4.501064590669198728e-01,-8.889639316527502277e-01,1.917852667561002704e+02
-5.779647515699731564e+00,-5.535132284018739135e+00,5.402146535274197525e+00,2.084966276596523713e-02,1.285839353626575324e-02,-9.996989313184814208e-01,1.936199739958417751e+02
-6.108613365609847357e+00,-5.935714415362698837e+00,5.234352516778201903e+00,1.217558766213923671e-01,-4.271485671585065758e-01,-8.959450921139819890e-01,1.954546812355832799e+02
-6.454341922096263673e+00,-6.311051561207208671e+00,5.030449041219851480e+00,3.698982379086732664e-01,-2.721274050884779361e-01,-8.883242476668695708e-01,1.972893884753247846e+02
-6.845829610903239271e+00,-6.690388024525440791e+00,4.765246609187175686e+00,5.863533815208138433e-01,-9.379468871456028700e-02,-8.046056601524752550e-01,1.992943888671479442e+02
-7.243887142172160232e+00,-7.035789349744865362e+00,4.455160498357441767e+00,7.525789214884025524e-01,9.257286733496225550e-02,-6.519610656826143602e-01,2.012993892589711038e+02
-7.638668081618555483e+00,-7.347023220037726787e+00,4.102204884259485596e+00,7.782596069044326326e-01,7.482753227946332963e-02,-6.234667791230743550e-01,2.033043896507942634e+02
-7.988771536369177362e+00,-7.603813463639490067e+00,3.744748863106046599e+00,8.025500643387982747e-01,5.694853520637224720e-02,-5.938587867195275205e-01,2.051442253461085556e+02
-8.317959725032089580e+00,-7.834539617469149952e+00,3.359687212992131133e+00,8.254069065913730574e-01,3.896781187434677357e-02,-5.631899752174216456e-01,2.069840610414228479e+02
-8.616778905901325558e+00,-8.039574540816184722e+00,2.950354960162291373e+00,8.467893067807775731e-01,2.091747967948213993e-02,-5.315151258073066431e-01,2.088238967367371401e+02
-8.843674042118788492e+00,-8.196305019026954852e+00,2.584517326758296818e+00,8.666590712097337335e-01,2.829780328487247441e-03,-4.988908163409978003e-01,2.103996389417758337e+02
-9.039946189965043288e+00,-8.337248466229008059e+00,2.208578109911779386e+00,8.849807075402095213e-01,-1.526297770936156650e-02,-4.653753203480212597e-01,2.119753811468145273e+02
-9.200161588918275513e+00,-8.462683000088260243e+00,1.825039160681021233e+00,9.312758388397874842e-01,-1.690395983359965215e-01,-3.227211275827721049e-01,2.135511233518532208e+02
-9.319129758033239952e+00,-8.573116316086274225e+00,1.436541881571914425e+00,9.346011554481568062e-01,-3.150166210017840140e-01,-1.651762959018167054e-01,2.151268655568919144e+02
-9.392147776569665041e+00,-8.669471884448721966e+00,1.046006707505785283e+00,8.948031780336588303e-01,-4.464585898830685240e-01,-9.999990814006853238e-06,2.167026077619306079e+02
-9.400968828977516623e+00,-8.769823911777809400e+00,5.588316924114090645e-01,9.978964962912724168e-01,-6.481190233634093190e-02,1.999996986247637058e-06,2.186786926985779189e+02
-9.299209081663594390e+00,-8.847682849555045692e+00,8.124140865101808773e-02,9.936093437087650804e-01,-5.237197735805900617e-02,9.997823804722556773e-02,2.206547776352252299e+02
-9.115089884886696581e+00,-8.901193650303582672e+00,-3.274282181676990144e-01,9.792187695468753672e-01,-3.939951017339816258e-02,1.989378796653094028e-01,2.223994826581620430e+02
-8.845746648630029796e+00,-8.944137388382708664e+00,-7.195116900541207450e-01,9.548710946871989957e-01,-2.602640907538960463e-02,2.958746669820534470e-01,2.241441876810988560e+02
-8.496128198775737772e+00,-8.978082529484149532e+00,-1.090396947529977956e+00,9.208138865746411383e-01,-1.238865642551210608e-02,3.898029085104067204e-01,2.258888927040356691e+02
-8.074453696343050879e+00,-9.002221388252291234e+00,-1.435808284684056302e+00,8.773934427715192053e-01,1.375073975265829777e-03,4.797675017679389198e-01,2.276335977269724822e+02
-7.588927738572204262e+00,-9.014526359506225717e+00,-1.751638019400483470e+00,8.250512706339963032e-01,1.512482691492668743e-02,5.648536451464312158e-01,2.293783027499092952e+02
-7.128100544052118792e+00,-9.015413399245540305e+00,-1.998957687010689765e+00,7.643195988190953916e-01,2.872078886651553004e-02,6.441961402761915423e-01,2.308820833231763459e+02
-6.636527288565344129e+00,-9.008262000005670345e+00,-2.222793434427859260e+00,6.958159661774478977e-01,4.202470968387500561e-02,7.169881902702766041e-01,2.323858638964433965e+02
-6.119093753718256146e+00,-8.993699355210363677e+00,-2.421233534556075817e+00,6.202369429794780675e-01,5.490130843952605727e-02,7.824896043356275310e-01,2.338896444697104471e+02
-5.580689155328118822e+00,-8.972317225094206705e+00,-2.592366419521771714e+00,5.383510482633320215e-01,6.721964910489888756e-02,8.400343252546129680e-01,2.353934250429774977e+02
-4.862060551893123694e+00,-8.933815538726049610e+00,-2.761976622131511849e+00,4.509909352900136059e-01,7.885447207662511782e-02,8.890372031121984708e-01,2.373288210211753722e+02
-4.122498789304589017e+00,-8.883423209487219196e+00,-2.864539930577060911e+00,3.590449245594685701e-01,8.968746799913465684e-02,9.289999463023006498e-01,2.392642169993732466e+02
-3.375140120677081246e+00,-8.825361784592253400e+00,-2.896260471226031363e+00,2.634479705024195817e-01,9.960848091904808688e-02,9.595161892145421811e-01,2.411996129775711211e+02
-2.782780732985764338e+00,-8.777220383065218456e+00,-2.873664736861745173e+00,1.651721537464539424e-01,1.085166285249912488e-01,9.802756249943139766e-01,2.427390917806250172e+02
-2.198293323365265284e+00,-8.730207468358253564e+00,-2.812419893573173901e+00,6.521679570012138549e-02,1.163213280702328906e-01,9.910671612924868423e-01,2.442785705836789134e+02
-1.626940858877466312e+00,-8.686272599525061366e+00,-2.711200252989890647e+00,-3.540170394560750167e-02,1.229432175363122104e-01,9.917810668779131200e-01,2.458180493867328096e+02
-1.073913873191589152e+00,-8.647440428285062097e+00,-2.568873050952165560e+00,-1.356602033738095459e-01,1.283149626636586604e-01,9.824100872727993261e-01,2.473575281897867058e+02
-5.442448591755216780e-01,-8.615925533401295411e+00,-2.384691116491957086e+00,-2.345392232655625631e-01,1.323819416390155101e-01,9.630495180811287081e-01,2.488970069928406019e+02
-4.267957901424678652e-02,-8.594024412945840297e+00,-2.158563454576733154e+00,-3.310333140128804974e-01,1.351028004771319679e-01,9.338962353043428477e-01,2.504364857958944981e+02
4.277435023175246709e-01,-8.584026638956903099e+00,-1.892711620752300927e+00,-4.241612800379119252e-01,1.364498734526721768e-01,8.952466925660382824e-01,2.519759645989483943e+02
8.667671340943213787e-01,-8.588243730437151058e+00,-1.592592263388922458e+00,-5.129761572099097444e-01,1.364094643138609730e-01,8.474939056885284483e-01,2.535154434020022904e+02
1.275407420240794343e+00,-8.609006483982009073e+00,-1.265048052245857368e+00,-5.965748418872657277e-01,1.349819854277587161e-01,7.911234553702450878e-01,2.550549222050561866e+02
1.649635635297553193e+00,-8.647806586006598906e+00,-9.221208414875864401e-01,-6.741072736811272170e-01,1.321819534535573493e-01,7.267085486985350729e-01,2.565723690986664565e+02
1.996647488698634287e+00,-8.706925927391118591e+00,-5.659422487387212319e-01,-7.447850786010656865e-01,1.280378416000344521e-01,6.549041897957681435e-01,2.580898159922767263e+02
2.317352647673135202e+00,-8.788585985294474767e+00,-2.029719603800976546e-01,-8.464142446110302087e-01,-1.681642758548103078e-01,5.052738889419337021e-01,2.596072628858869962e+02
2.612737376092325370e+00,-8.894764001518645102e+00,1.605435185877414073e-01,-8.460897018391938529e-01,-4.441105088667024470e-01,2.947813975747316517e-01,2.611247097794972660e+02
2.883959874828045500e+00,-9.026942704558118535e+00,5.187841291645713948e-01,-7.438504186146802644e-01,-6.665620308719550913e-01,4.878128459406382011e-02,2.626421566731075359e+02
3.132260767040933036e+00,-9.186362693550920611e+00,8.661430707683394070e-01,-5.520114651413634554e-01,-8.087236025127166883e-01,-2.030947490493395791e-01,2.641596035667178057e+02
3.358871233655789545e+00,-9.374273932653249375e+00,1.197013612291467410e+00,-2.936806487533412113e-01,-8.534712847957598436e-01,-4.305071922480542823e-01,2.656770504603280756e+02
3.589855628256947817e+00,-9.625371451653391475e+00,1.543823686667101791e+00,2.499997267778862348e-05,-7.954151306990366876e-01,-6.060633376396513672e-01,2.674004949065883352e+02
3.793016806191832124e+00,-9.915950696488092575e+00,1.851915655204947164e+00,-2.125979658525083416e-01,-6.461272834673571497e-01,-7.330208990716302608e-01,2.691239393528485948e+02
3.970810740843512932e+00,-1.023905706036214269e+01,2.117597351350599233e+00,-4.074447634267278073e-01,-4.428143556007214654e-01,-7.986878058613349207e-01,2.708473837991088544e+02
4.126504700780384560e+00,-1.058663456335983355e+01,2.339491545368173053e+00,-5.682235629551481981e-01,-2.024761057708653611e-01,-7.975734505962636112e-01,2.725708282453691140e+02
4.263802958574347102e+00,-1.095090784996117250e+01,2.516879073056746297e+00,-6.814910863541825403e-01,5.479192654281835745e-02,-7.297710216273478601e-01,2.742942726916293736e+02
4.414857618580094289e+00,-1.142823187031830834e+01,2.668140325819681635e+00,-5.322324850918742634e-01,4.830697122230637880e-02,-8.452177342822330131e-01,2.764897229564932672e+02
4.520464822044578668e+00,-1.181719244207368469e+01,2.729340874316204424e+00,-3.640007640744199469e-01,4.009995986874612117e-02,-9.305339526167990538e-01,2.782646988824751020e+02
4.615901172625120452e+00,-1.220058500519700395e+01,2.743474228261830739e+00,-1.827930415400305930e-01,3.046345559110806567e-02,-9.826783206312216246e-01,2.800396748084569367e+02
4.702892526719344879e+00,-1.257223832716288747e+01,2.712006483785081468e+00,4.930994909502411060e-03,1.974097962045976914e-02,-9.997919678678045541e-01,2.818146507344387715e+02
4.779952402601700179e+00,-1.292763662464101593e+01,2.637306639205753811e+00,-9.089331001752296579e-01,0.000000000000000000e+00,-4.169395872385236457e-01,2.835896266604206062e+02
4.841941720650604353e+00,-1.326361724647609819e+01,2.522287396894576705e+00,-0.000000000000000000e+00,2.648456641228463249e-01,-9.642897770881325714e-01,2.853646025864024409e+02
4.881560085233862978e+00,-1.356305769305673969e+01,2.378998996385863318e+00,-6.783331045801358483e-01,5.390142884851149008e-01,-4.993253408757056255e-01,2.870524924873593022e+02
4.897299155882974375e+00,-1.384099635686114560e+01,2.206029208961361121e+00,-0.000000000000000000e+00,3.410856895399453914e-01,-9.400311443730142713e-01,2.887403823883161635e+02
4.883891461804599210e+00,-1.409502035550148591e+01,2.005810822835158991e+00,-2.033445359212750735e-03,5.585269066982143649e-01,-8.294827060252772943e-01,2.904282722892730249e+02
4.836084999258620343e+00,-1.432283878503237418e+01,1.780686995284502361e+00,-3.945888334008268786e-03,7.427324447697258858e-01,-6.695751977580763903e-01,2.921161621902298862e+02
4.749533366518433830e+00,-1.452222426305858960e+01,1.533006335306037471e+00,-5.623527537403163329e-03,8.827410244048561339e-01,-4.698240732146006793e-01,2.938040520911867475e+02
4.621692144210978626e+00,-1.469063407041949709e+01,1.265397678558630723e+00,-6.966533874314403442e-03,9.702213463194868659e-01,-2.421156883662560766e-01,2.954919419921436088e+02
4.450929903023084222e+00,-1.482528327899755816e+01,9.806749654356806678e-01,-7.894990794487707561e-03,9.999678340434552393e-01,-0.000000000000000000e+00,2.971798318931004701e+02
4.205946867892542684e+00,-1.492924683062714486e+01,6.470572332266508742e-01,-9.132730123892169871e-01,4.073455594976950200e-01,-0.000000000000000000e+00,2.990541810862090415e+02
3.897622026760293679e+00,-1.497897380011498214e+01,2.981373339210946494e-01,-8.515155288636800934e-01,5.076266152899396866e-01,1.312803243232082140e-01,3.009285302793176129e+02
3.524837762900068672e+00,-1.497037317557993852e+01,-6.112716897054831788e-02,-7.632717635896458797e-01,5.921180210444705327e-01,2.584772022096607502e-01,3.028028794724261843e+02
3.161867791726394650e+00,-1.491790100922117901e+01,-3.698484073771000635e-01,-6.512865127101592488e-01,6.581916824865434723e-01,3.776341979590784326e-01,3.043951603683539702e+02
2.761717144902386512e+00,-1.482541838403409074e+01,-6.773987331114299515e-01,-5.190430467675171133e-01,7.037923795683694861e-01,4.850449484989938775e-01,3.059874412642817560e+02
2.325824563002172773e+00,-1.469113505699094269e+01,-9.801363132974174608e-01,-3.706547693254690912e-01,7.275016953320865287e-01,5.773684484500349878e-01,3.075797221602095419e+02
1.855640670794596270e+00,-1.451327124492105014e+01,-1.274419348885689862e+00,-2.107372744818531152e-01,7.285821388473674443e-01,6.517329730009985278e-01,3.091720030561373278e+02
1.353047575163288885e+00,-1.429048200116817746e+01,-1.556524606254501730e+00,-4.426478166877326897e-02,7.070000889021073043e-01,7.058254057457999942e-01,3.107642839520651137e+02
8.207743048800945074e-01,-1.402228586683077260e+01,-1.822565949383229578e+00,1.235845873371130971e-01,6.634268436588102169e-01,7.379631920939636602e-01,3.123565648479928996e+02
2.263546628789583071e-01,-1.368662903788055196e+01,-2.081998162482789905e+00,2.875898764464029367e-01,5.992177425656688428e-01,7.471466790128329372e-01,3.140456542926685870e+02
-3.958217813002228302e-01,-1.329685243461056388e+01,-2.312495332344196353e+00,1.945416212149591872e-01,5.508379670615830559e-01,8.116212735357506425e-01,3.157347437373442745e+02
-1.040993912079393402e+00,-1.285298542757680273e+01,-2.510645669617969755e+00,9.854504700687125029e-02,4.941099659938912314e-01,8.637952391705732147e-01,3.174238331820199619e+02
-1.702852965158766274e+00,-1.235512313115924599e+01,-2.676261126656524603e+00,1.054998706092888068e-03,4.298934727555412949e-01,9.028778926620291134e-01,3.191129226266956493e+02
-2.374188565416200714e+00,-1.180384017704081145e+01,-2.810944973468219032e+00,-2.094397647221116210e-02,9.665299142314137670e-01,2.556937127619156591e-01,3.208020120713713368e+02
-3.047538976080160555e+00,-1.120059749080570377e+01,-2.916659359500310522e+00,4.606624106659285012e-01,7.464020451138489998e-01,4.802833855644469407e-01,3.224911015160470242e+02
-3.676231121114073908e+00,-1.058865483132741936e+01,-2.992242898293915321e+00,5.419998690073466463e-01,6.161020976129496507e-01,5.715350796879260509e-01,3.240799573945994325e+02
-4.294241442421876442e+00,-9.936483003919562407e+00,-3.047212639735288775e+00,6.060362426637543320e-01,4.661357356541689367e-01,6.445428989022585764e-01,3.256688132731518408e+02
-4.895659138921332421e+00,-9.245675857813539622e+00,-3.083285093813374900e+00,6.507274668824005737e-01,3.012899831490998825e-01,6.969764055547562620e-01,3.272576691517042491e+02
-5.474584722064012254e+00,-8.517871791412966687e+00,-3.102176902762749044e+00,6.746469744000578306e-01,1.268268071975847122e-01,7.271618945667507328e-01,3.288465250302566574e+02
-6.025130140634978204e+00,-7.754753688513337906e+00,-3.105604829046496373e+00,6.186973559245070309e-01,1.163087140349637061e-01,7.769709549350873878e-01,3.304353809088090657e+02
-6.541418905413791229e+00,-6.958048853976524839e+00,-3.095285743338462403e+00,5.592075881606153320e-01,1.051251093629229361e-01,8.223342293290636373e-01,3.320242367873614739e+02
-7.017586213696032971e+00,-6.129528948860619053e+00,-3.072936612504936882e+00,4.965180660803309443e-01,9.333998473734979318e-02,8.629921536759548317e-01,3.336130926659138822e+02
-7.447779073674549721e+00,-5.271009925005768260e+00,-3.040274487585844732e+00,4.309874929720216574e-01,8.102077348389054301e-02,8.987120869148741420e-01,3.352019485444662905e+02
-7.826451528531998214e+00,-4.384551883066753142e+00,-2.998966305745363492e+00,3.629908281509633405e-01,6.823796488407166128e-02,9.292896420534266788e-01,3.367908044230186988e+02
-8.150539878040511610e+00,-3.473033047262034323e+00,-2.950190909987636001e+00,2.929171416719922871e-01,5.506470087884173664e-02,9.545498556035350024e-01,3.383796603015711071e+02
-8.411246675613533341e+00,-2.581863732121768784e+00,-2.897040680498462528e+00,2.211673883085369108e-01,4.157635759510554252e-02,9.743481887080390758e-01,3.398989494162532310e+02
-8.627411393408204177e+00,-1.675629229026633471e+00,-2.837712594475784389e+00,1.481521135237690023e-01,2.785011408758456680e-02,9.885713542300768042e-01,3.414182385309353549e+02
-8.801492623202188170e+00,-7.578354902802223458e-01,-2.772391992889125412e+00,7.428910454896031634e-02,1.396451076152913084e-02,9.971379650704446096e-01,3.429375276456174788e+02
-8.935972196354297736e+00,1.680297136141122027e-01,-2.701335659283180757e+00,9.999989999985432422e-07,-9.999989999985432422e-07,9.999989999985432476e-01,3.444568167602996027e+02
-9.033355134283455712e+00,1.098496918459742844e+00,-2.624800413885990835e+00,4.007305300104290202e-01,-5.132176219660787853e-01,7.589602854049946057e-01,3.459761058749817266e+02
-9.096169598713943927e+00,2.030115090649442511e+00,-2.543043111965889835e+00,6.082774653435700785e-01,-7.790243152625521139e-01,1.520448663574272274e-01,3.474953949896638505e+02
-9.126966841662977004e+00,2.959451751239414286e+00,-2.456320642188276171e+00,8.086152182767397667e-01,-5.701875086871813769e-01,1.450021851876020784e-01,3.490146841043459744e+02
-9.128321155170860735e+00,3.883093099813626825e+00,-2.364889924972227941e+00,9.411927937870143701e-01,-3.135702639555560389e-01,1.258086423386865771e-01,3.505339732190280984e+02
-9.102829820774026359e+00,4.797644138137397540e+00,-2.269007910846962517e+00,9.949004988875450595e-01,-3.067653653300366975e-02,9.607261535181164935e-02,3.520532623337102223e+02
-9.047651772163945338e+00,5.766297232855658095e+00,-2.161072339354553673e+00,9.652377531612574835e-01,2.547878172082398418e-01,5.828591661224116760e-02,3.536867832669289555e+02
-8.966172048827845131e+00,6.714983468142326828e+00,-2.048267517131985294e+00,8.546902225259083163e-01,5.189015279781100665e-01,1.561498579573443457e-02,3.553203042001476888e+02
-8.861931603408343960e+00,7.639258407298391340e+00,-1.931067425240726276e+00,9.025323494255671486e-01,4.304917364537743096e-01,1.049871811541440957e-02,3.569538251333664221e+02
-8.738453505513929187e+00,8.534729723017205671e+00,-1.810207097372901863e+00,9.412305863045108412e-01,3.377205150959005087e-01,5.276086150934267832e-03,3.585873460665851553e+02
-8.599267919624255185e+00,9.397044677654578848e+00,-1.686552104345630188e+00,9.703928888871868885e-01,2.415277234475320944e-01,0.000000000000000000e+00,3.602208669998038886e+02
-8.447937207605132670e+00,1.022187786650368224e+01,-1.560968037629539396e+00,9.969795307158221265e-01,-7.765188556165565636e-02,0.000000000000000000e+00,3.618543879330226218e+02
-8.288055850059116381e+00,1.100493140424337923e+01,-1.434320502945775733e+00,9.918528315965160491e-01,-3.914307165352789303e-02,-1.212179045828460228e-01,3.634879088662413551e+02
-8.068659626276060592e+00,1.196038225709038905e+01,-1.265805170264022728e+00,9.706551006259609427e-01,-0.000000000000000000e+00,-2.404717771875165555e-01,3.656618007839354050e+02
-7.850224351717791649e+00,1.279605847062672730e+01,-1.100065851264442562e+00,9.988611377171598971e-01,-0.000000000000000000e+00,4.769095883001762959e-02,3.678356927016294549e+02
-7.700234666652825410e+00,1.331955510567674672e+01,-9.861169633682913549e-01,9.546769266706609525e-01,-0.000000000000000000e+00,-2.976406653669427804e-01,3.693721637586841666e+02
-7.555435144278177972e+00,1.379652269275706722e+01,-8.760456461366152858e-01,9.955207354002849618e-01,9.453287991585836159e-02,0.000000000000000000e+00,3.709086348157388784e+02
-7.417032401905809813e+00,1.422661337344935539e+01,-7.716029921349082388e-01,9.979367971900037215e-01,6.396702659686565040e-02,5.326192160188436726e-03,3.724451058727935902e+02
-7.281254589853075387e+00,1.462250492642971977e+01,-6.714296318262215069e-01,9.993863781122902523e-01,3.333922353381078146e-02,1.064722584539739419e-02,3.740395342029160020e+02
-7.154470385359565476e+00,1.496651798686022161e+01,-5.821102236318305145e-01,9.998680743727528242e-01,2.679132872511326945e-03,1.595794778900214844e-02,3.756339625330384138e+02
-7.026140178699209926e+00,1.528474256355005068e+01,-5.002680039863157679e-01,9.993814195208586826e-01,-2.798355197895158880e-02,2.125321471186977784e-02,3.773981333598889591e+02
-6.911736546888977983e+00,1.553615818254719017e+01,-4.411293274544228482e-01,9.979268849027518318e-01,-5.861913510445928427e-02,2.652789830297834842e-02,3.791623041867395045e+02
-6.811949393880978754e+00,1.572304913003322113e+01,-4.090501244564816452e-01,9.955058792045080596e-01,-8.919794683662744805e-02,3.177689018553819800e-02,3.809264750135900499e+02
-6.727355748632819932e+00,1.584823812412565225e+01,-4.084670875099561393e-01,9.921207470878966594e-01,-1.196903724881460546e-01,3.699510686381048130e-02,3.826906458404405953e+02
-6.664985236199851393e+00,1.591248762508992876e+01,-4.358761867520116740e-01,9.877747669199711256e-01,-1.500668810298897982e-01,4.217749464583681746e-02,3.842474504765693837e+02
-6.613336045955178655e+00,1.593854290880275038e+01,-4.905344053842899954e-01,9.824721475986839536e-01,-1.802980536880527951e-01,4.731903453731751974e-02,3.858042551126981721e+02
-6.570958659003762747e+00,1.592872687119933950e+01,-5.755561575116676654e-01,9.762180244775937599e-01,-2.103546124326395872e-01,5.241474710190322656e-02,3.873785761281259283e+02
-6.536343776380872050e+00,1.588595467811179951e+01,-6.916820721696247398e-01,9.690184543936042338e-01,-2.402074483297479135e-01,5.745969728319730296e-02,3.889528971435536846e+02
-6.506888257911213280e+00,1.581408468044283566e+01,-8.396066129848741566e-01,9.608804098025393037e-01,-2.698276497302111165e-01,6.244899918380353299e-02,3.905272181589814409e+02
-6.479961156852880322e+00,1.571695501526490091e+01,-1.020024025036282644e+00,9.518117720282196492e-01,-2.991865302673253346e-01,6.737782079679455194e-02,3.921015391744091971e+02
-6.452879311434457144e+00,1.559813449614120806e+01,-1.233422392091224618e+00,9.418213236315662318e-01,-3.282556566365683604e-01,7.224138868502254229e-02,3.936758601898369534e+02
-6.422885349914553288e+00,1.546067326058606461e+01,-1.479877695258420944e+00,9.309187399070991686e-01,-3.570068761304299176e-01,7.703499260374413460e-02,3.952501812052647097e+02
-6.383820794582577562e+00,1.529475685305778576e+01,-1.782873005583240689e+00,9.191145795150527098e-01,-3.854123439017048125e-01,8.175399006208530772e-02,3.969421508560849929e+02
-6.333839776051385151e+00,1.511283983403721010e+01,-2.126568798329707466e+00,9.064202742581529693e-01,-4.134445499288652015e-01,8.639381081893185432e-02,3.986341205069052762e+02
-6.269325807117624549e+00,1.491830048608199810e+01,-2.510175055593597992e+00,8.928481180129395067e-01,-4.410763456574117725e-01,9.094996130889358710e-02,4.003260901577255595e+02
-6.194641631237319146e+00,1.473001432585536463e+01,-2.897193638907307189e+00,8.784112548263236508e-01,-4.682809702914160765e-01,9.541802899405761595e-02,4.018894274981638546e+02
-6.112340648504941854e+00,1.455148201570664490e+01,-3.276889693209446897e+00,8.631236661888879169e-01,-4.950320767098046471e-01,9.979368663731817690e-02,4.033279978224805404e+02
-6.028280536638870757e+00,1.438944341859208187e+01,-3.629971315339230564e+00,8.470001574972240155e-01,-5.213037569822925876e-01,1.040726964931449755e-01,4.046076431591168330e+02
-5.826940952736940460e+00,1.407522715164636651e+01,-4.330586208075778210e+00,8.300563437183928750e-01,-5.470705674602646118e-01,1.082509144117328598e-01,4.070017554401334792e+02
-5.720361218070864062e+00,1.393256058582877088e+01,-4.652067652523721897e+00,7.669240327213734387e-01,-6.083619976893147596e-01,2.042576994898911147e-01,4.080531984137069799e+02
-5.512201389879574087e+00,1.367467568127232624e+01,-5.220763737769780199e+00,6.907849783365456187e-01,-6.593357951168591358e-01,2.968003082571101237e-01,4.099016829047124020e+02
-5.273415239272280175e+00,1.340425091534968161e+01,-5.784076962299905311e+00,6.029304651332196840e-01,-6.991274818158479398e-01,3.843092743916288190e-01,4.117501673957178241e+02
-5.005599356882178164e+00,1.311829193037308450e+01,-6.326379107028111015e+00,5.048504550707269001e-01,-7.270622152181295261e-01,4.653004977604566772e-01,4.135986518867232462e+02
-4.710737623610798508e+00,1.281420035251744416e+01,-6.832041260756733791e+00,4.436676085589408847e-01,-6.619261072840308957e-01,6.041613042990341409e-01,4.154471363777286683e+02
-4.370681238535283342e+00,1.246914213306659036e+01,-7.308686462901782477e+00,3.703866502330014354e-01,-5.787403219276727739e-01,7.265475683705776566e-01,4.174078258605113092e+02
-4.005441426423188567e+00,1.209858698354492823e+01,-7.703169954212338411e+00,2.870058323433269387e-01,-4.797732006331239529e-01,8.291220224768505176e-01,4.193685153432939501e+02
-3.670968849371328613e+00,1.175526353576202254e+01,-7.970471891074571325e+00,1.957988106946531026e-01,-3.677234113814306093e-01,9.090876296889043306e-01,4.210780970384075204e+02
-3.326841555715234655e+00,1.139529528355426535e+01,-8.161805034079023358e+00,9.925264828604696277e-02,-2.456463634500808957e-01,9.642638518230368661e-01,4.227876787335210906e+02
-2.977329304780659935e+00,1.102030374975692162e+01,-8.273896910059812981e+00,0.000000000000000000e+00,-1.168708951520591871e-01,9.931461090226156863e-01,4.244972604286346609e+02
-2.626520159450993042e+00,1.063216955805546071e+01,-8.306350690645835755e+00,4.301035175183857140e-01,3.026596604823824505e-02,9.022709878502616077e-01,4.262068421237482312e+02
-2.282142350715400614e+00,1.023801076175603697e+01,-8.260864829252458463e+00,0.000000000000000000e+00,0.000000000000000000e+00,9.999989999986806932e-01,4.278964229234440495e+02
-1.992736255774622656e+00,9.896258980526180693e+00,-8.166321344320966347e+00,-1.161848472904061791e-01,1.341998236121057881e-03,9.932256945363709955e-01,4.293354488072124582e+02
-1.633256057575042552e+00,9.457094759612211021e+00,-7.970332925287847203e+00,-9.302458479231964783e-02,4.014339024324637371e-03,9.956547150960320947e-01,4.311642364071363431e+02
-1.285928149436300627e+00,9.016072716715800794e+00,-7.685236399640736238e+00,-6.981320943674672319e-02,6.684474332361906371e-03,9.975366828229664806e-01,4.329930240070602281e+02
-9.529387041987591456e-01,8.578029625756487420e+00,-7.319156827833119827e+00,-4.656347076063446083e-02,9.350937505758039753e-03,9.988705637591858144e-01,4.348218116069841130e+02
-6.364350118414557889e-01,8.147812021599456500e+00,-6.881543201344026528e+00,-2.328813938002751924e-02,1.201226390240998920e-02,9.996556247357402114e-01,4.366505992069079980e+02
-2.943188660482436991e-01,7.666361289994943817e+00,-6.290102788666461109e+00,-0.000000000000000000e+00,1.466699169430323718e-02,9.998914337765223426e-01,4.387747795449688510e+02
1.624042203830387832e-02,7.213471869697398731e+00,-5.619003930776837130e+00,-7.217103253061220025e-01,5.166585169996518179e-01,4.606475693617175238e-01,4.408989598830297041e+02
2.809015772119801690e-01,6.816974867347746603e+00,-4.928601386758820091e+00,-5.024135394077114958e-01,7.294793312430333243e-01,4.641535744828904630e-01,4.429084787836207511e+02
5.186879941916469061e-01,6.455842580223641214e+00,-4.201520306324804999e+00,-8.224100363950812564e-01,2.146638352581771436e-01,5.268388462009717665e-01,4.449179976842117981e+02
6.850429552588573889e-01,6.203078653803479448e+00,-3.630886726779057661e+00,-8.369935740605074503e-01,-3.798711599819862839e-01,3.938751817402157962e-01,4.464545876710864150e+02
8.410359349900965453e-01,5.968743246684691250e+00,-3.055651740881309752e+00,-5.407470413873790571e-01,-8.333356504909588125e-01,1.146400054430184445e-01,4.479911776579610319e+02
9.878783731901650267e-01,5.753542881010588417e+00,-2.480631304020783912e+00,-4.368697578786884250e-02,-9.773284583464662001e-01,-2.071678851837208402e-01,4.495277676448356488e+02
1.128829493022227792e+00,5.555468869465481241e+00,-1.902302441781418718e+00,-1.571261495725260748e-01,-9.643530046557341473e-01,-2.129146672417542852e-01,4.510868644251565343e+02
1.262938359178111147e+00,5.378402429202614243e+00,-1.333863742387963791e+00,-2.685116056345077662e-01,-9.387736212144522918e-01,-2.158786829369707672e-01,4.526459612054774198e+02
1.419649237383546980e+00,5.193275154258916615e+00,-6.571491399544233669e-01,-8.331036627168645348e-01,1.863803856925007052e-01,-5.207673559048091594e-01,4.545652864476153354e+02
1.568652453356031984e+00,5.047513409661748440e+00,-1.563325737461943726e-02,-0.000000000000000000e+00,9.988447030609834965e-01,4.803393763085728879e-02,4.564846116897532511e+02
1.690418921920995299e+00,4.952498582904738988e+00,4.945811594950237366e-01,-1.012112603122564958e-01,9.864282388197115337e-01,-1.292811295063959753e-01,4.581012057756331615e+02
1.810787197574052598e+00,4.879776250173022412e+00,9.759015645154092145e-01,-1.981879938681708475e-01,9.327409848346318588e-01,-3.011872744614481623e-01,4.597177998615130718e+02
1.931280176031420437e+00,4.828718029531816391e+00,1.424909021032793044e+00,-2.868728255453922293e-01,8.400291281611971250e-01,-4.604921777897290625e-01,4.613343939473929822e+02
2.053270224681522205e+00,4.798596269363756051e+00,1.838657200976713701e+00,-3.635552988304456279e-01,7.121715969870108243e-01,-6.005307328841688053e-01,4.629509880332728926e+02
2.177832474608277558e+00,4.788497797871952066e+00,2.215144780640549982e+00,-4.250271185151580089e-01,5.545177742426421474e-01,-7.154439087565077626e-01,4.645675821191528030e+02
2.305889282904911575e+00,4.797414013130232746e+00,2.552843080743541382e+00,-4.687163839134300680e-01,3.736636862885933663e-01,-8.004238883250984760e-01,4.661841762050327134e+02
2.441801731580906853e+00,4.825457142061943649e+00,2.856589277362902468e+00,-4.927951955134862727e-01,1.771760308422959396e-01,-8.519152242887787496e-01,4.678412304909839463e+02
2.583462259773247727e+00,4.871769456167771573e+00,3.115227532718678471e+00,-4.962561322563069921e-01,-2.672440828603922860e-02,-8.677635952268811792e-01,4.694982847769351793e+02
2.731864118158954025e+00,4.935214731147135048e+00,3.327071297665397331e+00,-4.789543995528269815e-01,-2.295067122760398592e-01,-8.473059377643143986e-01,4.711553390628864122e+02
2.887770324596721672e+00,5.015136735495063114e+00,3.491244821300090173e+00,-5.320608519531992986e-01,-2.209093076231278818e-01,-8.173789375959704673e-01,4.728123933488376451e+02
3.051496857413154018e+00,5.111849216810706587e+00,3.608493599624852610e+00,-5.831508766462978333e-01,-2.114746913112579008e-01,-7.843541993274925073e-01,4.744694476347888781e+02
3.222896165048995787e+00,5.226032378866501737e+00,3.680768876245701371e+00,-6.320308512242952537e-01,-2.012386189074819032e-01,-7.483568810147295247e-01,4.761265019207401110e+02
3.390382210129506024e+00,5.349264054665234802e+00,3.711193242310914187e+00,-6.785155288687908515e-01,-1.902398833250842913e-01,-7.095234061519903879e-01,4.776849414182245255e+02
3.563065508418416627e+00,5.487619739915079009e+00,3.708939068554972796e+00,-7.224287403738840485e-01,-1.785201678137117443e-01,-6.680009466809747609e-01,4.792433809157089399e+02
3.740262579507818153e+00,5.641362589663904359e+00,3.676460663580274346e+00,-7.636040617735424529e-01,-1.661238879970729221e-01,-6.239468652703794582e-01,4.808018204131933544e+02
3.921056015486350965e+00,5.810618979671862583e+00,3.616239958625583562e+00,-8.018854450439444337e-01,-1.530980235564609049e-01,-5.775281189784216007e-01,4.823602599106777689e+02
4.105834136290598124e+00,5.997177342261264421e+00,3.529758823052045358e+00,-8.371278094912011358e-01,-1.394919401975795170e-01,-5.289206265568247023e-01,4.839337802713719157e+02
4.291188028274421029e+00,6.199264040164246481e+00,3.419998892877602614e+00,-8.691975915835628008e-01,-1.253572025749554453e-01,-4.783086017925070599e-01,4.855073006320660625e+02
4.475425797165268449e+00,6.416600070831900204e+00,3.289625588887955310e+00,-8.979732511443982990e-01,-1.107473788824799993e-01,-4.258838554118943853e-01,4.870808209927602093e+02
4.656804830994965450e+00,6.648771485579515250e+00,3.141110836208765189e+00,-9.233457319873126234e-01,-9.571783785021342750e-02,-3.718450681919257539e-01,4.886543413534543561e+02
4.864253818797310558e+00,6.943488919348169475e+00,2.942948823020923310e+00,-9.452188752471211153e-01,-8.032553891638485877e-02,-3.163970380310188180e-01,4.905162175005103791e+02
5.059951445313318530e+00,7.260178857124851781e+00,2.721896213786542784e+00,-9.635097838393936742e-01,-6.462881636942209573e-02,-2.597499038320690845e-01,4.923780936475664021e+02
5.240162518116163959e+00,7.597251676180785118e+00,2.481660419859629041e+00,-9.781491366662423692e-01,-4.868715827774645205e-02,-2.021183491376063179e-01,4.942399697946224251e+02
5.401137567942713602e+00,7.953151657404767150e+00,2.225949036929907976e+00,-9.890814513762606897e-01,-3.256098104488013706e-02,-1.437207885341767466e-01,4.961018459416784481e+02
