-3.487031987777196029e+00,-3.961184007613614000e+00,-8.209982657929376870e+00,1.918554133010720031e-01,9.807742785554717235e-01,-3.565550322673424061e-02,2.265309695337709286e+02
-3.511409125639668005e+00,-3.952239633299685195e+00,-8.207964166961398078e+00,1.379953864884888581e-01,9.326999386969176964e-01,-3.332057887588398271e-01,2.274044568476214181e+02
-3.671615644559324654e+00,-3.868641128550465158e+00,-8.172509480135163429e+00,7.119854851144896690e-02,7.971865567767077998e-01,-5.995184404041509207e-01,2.339498421478915304e+02
-3.765955140857769834e+00,-3.801411657818689616e+00,-8.137198202355531151e+00,-2.272997664908139523e-03,5.869383970275048323e-01,-8.096271682552781401e-01,2.383110764775583164e+02
-3.894073613201589179e+00,-3.684300573534072143e+00,-8.069324596831231489e+00,-0.000000000000000000e+00,5.892782264991129892e-01,-8.079289394928859114e-01,2.448564617778284287e+02
-4.010101723289650977e+00,-3.557715474527464838e+00,-7.991400444824821037e+00,9.726792459832729609e-02,0.000000000000000000e+00,9.952572284809190206e-01,2.511634238544540949e+02
-4.128587254597190892e+00,-3.415043933009049848e+00,-7.899124551481365941e+00,-6.799996278704141409e-05,-9.702994690039160042e-02,9.952804553330789616e-01,2.577088091547242357e+02
-4.213152312224561769e+00,-3.310041242755735968e+00,-7.827441475420821249e+00,-5.300915303214126517e-01,-8.479392486978463150e-01,0.000000000000000000e+00,2.622794179026915344e+02
-4.340100702892065065e+00,-3.155567301783833933e+00,-7.714745667064927481e+00,5.293393740831576766e-01,8.484089967995838144e-01,-0.000000000000000000e+00,2.688248032029616752e+02
-4.465450845558125437e+00,-3.012605936322190647e+00,-7.601052506591618574e+00,6.075376243234049678e-01,7.797075178605343826e-01,1.514999063186102668e-01,2.748759631991309789e+02
-4.612734924400127667e+00,-2.862289659364211314e+00,-7.467370854054197871e+00,8.737930802728910429e-01,4.665529816886137549e-01,1.371567283878988019e-01,2.814213484994011196e+02
-4.774670509810719388e+00,-2.720524706611003651e+00,-7.322354053911031002e+00,9.922344407800078869e-01,7.447388731607955392e-02,9.961151858007523396e-02,2.879667337996712604e+02
-4.952122148249558542e+00,-2.589981047699042360e+00,-7.164774481658580108e+00,9.428249514826729794e-01,-3.302039785192508736e-01,4.521552196965318571e-02,2.945109145187357740e+02
-5.142225869746847700e+00,-2.470432948466724010e+00,-6.992617363315788204e+00,7.339227620765412796e-01,-6.790229397094318387e-01,-1.682933897512820312e-02,3.010562998190059147e+02
-5.260155491452046306e+00,-2.405377762457298729e+00,-6.880263841913980549e+00,4.008672462412447013e-01,-9.129749809947079742e-01,-7.602719885918698961e-02,3.049459099440690011e+02
-5.462513631470457653e+00,-2.303902207609648478e+00,-6.670836564753460429e+00,0.000000000000000000e+00,-9.924842934880487855e-01,-1.223639128937682868e-01,3.114912952443391418e+02
-5.481297372281297875e+00,-2.295103048299908188e+00,-6.649172323699509946e+00,-0.000000000000000000e+00,-9.983890695156890649e-01,-5.672094713688979190e-02,3.120989834406892101e+02
-5.680226612602224279e+00,-2.204666229494447904e+00,-6.393311982488540046e+00,2.579059523995141379e-01,-9.636885817642993901e-01,-6.918697200276566206e-02,3.186443687409593508e+02
-5.753301128318974555e+00,-2.170273680655168569e+00,-6.289992273919168042e+00,4.983064870968592075e-01,-8.635776034773944287e-01,-7.695692100401446689e-02,3.211354544923415233e+02
-5.935813866468024003e+00,-2.074578569708829257e+00,-6.009964151474843419e+00,7.048843823755562843e-01,-7.048512009470118134e-01,-7.950340878038225645e-02,3.276808397926116641e+02
-6.073005011538080034e+00,-1.987412185041141477e+00,-5.783317644731741147e+00,8.636181504659343755e-01,-4.982829685170020451e-01,-7.665359399872116730e-02,3.329351214666612009e+02
-6.181564675657972074e+00,-1.899403060781043928e+00,-5.590036821781409593e+00,9.637337419796875304e-01,-2.578937566684888494e-01,-6.860090992523359965e-02,3.374566577261890643e+02
-6.234280140543550175e+00,-1.843913889579695597e+00,-5.488004726366692232e+00,9.984358225271779963e-01,-0.000000000000000000e+00,-5.589193408566492383e-02,3.398844513119835824e+02
-6.321110716439070742e+00,-1.724534080763730604e+00,-5.302764881416226039e+00,9.360262369443479447e-01,-2.510647953300841340e-01,2.466157989569395803e-01,3.443790851872035432e+02
-6.431458405896078645e+00,-1.524727828471136748e+00,-5.038034209836448341e+00,0.000000000000000000e+00,9.950482571506961138e-01,-9.938292580607349658e-02,3.509244704874736840e+02
-6.526044448092518380e+00,-1.298221046653033506e+00,-4.777667566109057518e+00,9.973505985893444947e-01,0.000000000000000000e+00,-7.273089780338498622e-02,3.574698557877438247e+02
-6.605722868776595647e+00,-1.044829500057594229e+00,-4.520909694228833153e+00,9.948943568806407622e-01,-0.000000000000000000e+00,-1.009119347685325796e-01,3.640152410880139655e+02
-6.609240419419581514e+00,-1.030082745036552394e+00,-4.507549272822028996e+00,9.497874378597080947e-01,-2.078098770058433784e-02,-3.122018152205298103e-01,3.643601103569671409e+02
-6.640375851115817518e+00,-8.555334658244241330e-01,-4.364826648919645002e+00,9.973505985862407552e-01,-0.000000000000000000e+00,-7.273089780315865338e-02,3.680920722421590199e+02
-6.680763941257939820e+00,-5.230254639427462937e-01,-4.118687888660820917e+00,0.000000000000000000e+00,-9.950534475071197704e-01,-9.933094484754566300e-02,3.746374575424291606e+02
-6.691187716598061108e+00,-3.776078110714706781e-01,-4.021239283410889875e+00,7.364161080998669062e-01,-4.016585135368744286e-01,-5.443893406704171101e-01,3.772939840628650927e+02
-6.700858757327718962e+00,5.365759482089157983e-03,-3.789269712756744735e+00,5.760832163300317887e-01,-5.993410883361652841e-01,-5.558024718319491964e-01,3.838393693631352335e+02
-6.691276019757062876e+00,4.110016417327626015e-01,-3.568167143644326078e+00,3.783536023995333064e-01,-7.581172033173414482e-01,-5.311354418456750714e-01,3.903847546634053742e+02
-6.690050116345152453e+00,4.295934565350423839e-01,-3.559114886178183834e+00,4.445473707076029179e-01,-6.016824542143334176e-01,-6.635916360896847443e-01,3.906701809640483702e+02
-6.641798659353861822e+00,8.746311064430268845e-01,-3.366494424950354336e+00,4.901149481949128028e-01,-4.173307391816918899e-01,-7.652583823065848279e-01,3.972155662643185110e+02
-6.568129765914405560e+00,1.334466373086628854e+00,-3.190447170327902704e+00,5.129420866203796558e-01,-2.136155985929917844e-01,-8.314185418978413677e-01,4.037609515645886518e+02
-6.465714612397743366e+00,1.804296383058484832e+00,-3.033216099526352849e+00,5.119696326534558528e-01,1.099999210732662775e-05,-8.590023836518086986e-01,4.103063368648587925e+02
-6.331357956833723932e+00,2.279220312164523143e+00,-2.897041943370132433e+00,0.000000000000000000e+00,-9.950635238632306034e-01,9.922995251858007792e-02,4.168517221651289333e+02
-6.161999237789622441e+00,2.754242439414622545e+00,-2.784784784890457665e+00,0.000000000000000000e+00,-8.892115660138627531e-01,-4.574940336964649079e-01,4.233971074653990740e+02
-5.956110823857826198e+00,3.224630551367005271e+00,-2.699159677378053068e+00,0.000000000000000000e+00,-4.977924468363123522e-01,-8.672950362326234952e-01,4.299424927656692148e+02
-5.715081759593517496e+00,3.686331703591736453e+00,-2.640728551170196781e+00,3.593608275565005061e-01,-7.060348159645355448e-01,-6.102234297880881897e-01,4.364878780659393556e+02
-5.441799053633717520e+00,4.135705604676360281e+00,-2.608664189750625972e+00,6.329816456489846255e-01,-7.458232707355123559e-01,-2.075569442285203070e-01,4.430332633662094963e+02
-5.321838869382197856e+00,4.309060038870874187e+00,-2.606133175613139397e+00,7.555779954875633253e-01,-6.076637744114020689e-01,2.446316210122588264e-01,4.456396917800642541e+02
-4.994785504001843179e+00,4.727860595201436311e+00,-2.624903154346342138e+00,6.978988629173457081e-01,-3.245201447617960810e-01,6.384527020693985255e-01,4.521850770803343949e+02
-4.642891079527852405e+00,5.125756985109659603e+00,-2.668042350916942418e+00,4.737066590285227141e-01,3.605097405070491201e-02,8.799433666215495942e-01,4.587304623806045356e+02
-4.269354558340340944e+00,5.499418891771219009e+00,-2.734712363628779563e+00,4.665166772919541183e-01,3.509251954737637597e-02,8.838148589170711222e-01,4.652758476808746764e+02
-3.877464169341227507e+00,5.845611235490462576e+00,-2.824071986014518032e+00,4.592951601860331690e-01,3.413169302553405171e-02,8.876266012933071714e-01,4.718212329811448171e+02
-3.470596334698515140e+00,6.161196195453769064e+00,-2.935277306540263975e+00,4.520425951251004215e-01,3.316855933476278023e-02,8.913783365255302238e-01,4.783666182814149579e+02
-3.052214578777255216e+00,6.443135212076706253e+00,-3.067481808553068401e+00,4.447594716164101070e-01,3.220318348012417980e-02,8.950698114360221558e-01,4.849120035816850987e+02
-2.625868419371756080e+00,6.688490969631999405e+00,-3.219836470463403710e+00,4.374462812188906757e-01,3.123563061718209050e-02,8.987007768943768848e-01,4.914573888819552394e+02
-2.195192241355870877e+00,6.894429358847820488e+00,-3.391489866151959909e+00,4.301035175106210917e-01,3.026596604769185919e-02,9.022709878339729705e-01,4.980027741822253802e+02
-1.763904152874041120e+00,7.058221419168826394e+00,-3.581588265586219233e+00,8.506807646962363245e-01,5.164672500195557348e-01,9.798885770689810815e-02,5.045481594824955209e+02
-1.335804824198070673e+00,7.177245260374119695e+00,-3.789275735634164644e+00,4.888723575081648232e-01,8.713209217894075653e-01,4.244607541425945291e-02,5.110935447827656617e+02
-9.147763093747814933e-01,7.248987963253433087e+00,-4.013694241073014979e+00,0.000000000000000000e+00,9.997078536728380982e-01,-2.412897233222058985e-02,5.176389300830358025e+02
-5.045758880040538408e-01,7.272040578686165269e+00,-4.253366849197241173e+00,-0.000000000000000000e+00,9.997078529671034053e-01,-2.412897231518696187e-02,5.241843153833059432e+02
-1.519442053729882225e-01,7.250084011299837705e+00,-4.478011545889605927e+00,-0.000000000000000000e+00,9.999841710804819872e-01,5.445875370944270287e-03,5.300117934853070665e+02
2.269946944581975878e-01,7.179382074597740804e+00,-4.739830108204969861e+00,-0.000000000000000000e+00,9.993857527372194127e-01,3.501595629905780022e-02,5.365571787855772072e+02
5.857225569737248838e-01,7.064110175109274081e+00,-5.007892601875342464e+00,-4.272875887421045960e-01,2.998997113510259299e-02,9.036171302820652507e-01,5.431025640858473480e+02
9.211701689039802909e-01,6.906198498258939722e+00,-5.278866233595133295e+00,-5.370775984041298301e-01,2.798040020735227673e-02,8.430674649738996163e-01,5.496479493861174888e+02
1.230315660539209821e+00,6.707661944412587118e+00,-5.549417846590464443e+00,-6.384224939624483230e-01,2.553086077030039536e-02,7.692612653396899702e-01,5.561933346863876295e+02
1.510185409810337109e+00,6.470599066017873824e+00,-5.816214315627139086e+00,-7.297287154322661396e-01,2.267986987762038095e-02,6.833590749941840237e-01,5.627387199866577703e+02
1.757854937198662482e+00,6.197190988652829802e+00,-6.075922942021164452e+00,-8.095605528368148285e-01,1.947225700453948660e-02,5.867116348758907307e-01,5.692841052869279110e+02
1.970449791378753313e+00,5.889700316143529513e+00,-6.325211848616817178e+00,-8.766627207365030872e-01,1.595845914574767210e-02,4.808386440934384609e-01,5.758294905871980518e+02
2.145146425499615539e+00,5.550470019918460451e+00,-6.560750374688552711e+00,-9.299800958424470076e-01,1.219372774954497786e-02,3.674048643410581239e-01,5.823748758874681926e+02
2.279173064011750238e+00,5.181922312761938265e+00,-6.779209470731803577e+00,-9.686743074583561430e-01,8.237259956463738320e-03,2.481939435591813958e-01,5.889202611877383333e+02
2.369810559947036488e+00,4.786557507132922495e+00,-6.977262093110505603e+00,-9.921369199513795367e-01,4.151267799758194717e-03,1.250803703461787486e-01,5.954656464880084741e+02
2.414393242555917585e+00,4.366952858221787359e+00,-7.151583598526636720e+00,-9.999989999998939449e-01,0.000000000000000000e+00,0.000000000000000000e+00,6.020110317882786148e+02
2.411666808403840623e+00,3.926307559923848611e+00,-7.300091764437153685e+00,-9.969496286752767000e-01,-2.728820310100888574e-02,7.310808338858744426e-02,6.085564170885487556e+02
2.392589471739528406e+00,3.740423584529747103e+00,-7.349984975196453441e+00,-9.878201121978755772e-01,-5.440998198067124175e-02,1.457702980694755568e-01,6.112118990049212925e+02
2.303307744120270950e+00,3.268204621689839495e+00,-7.448591440621816773e+00,-9.726661295934638796e-01,-8.119992747320325943e-02,2.175434947799373131e-01,6.177572843051914333e+02
2.172367497221452393e+00,2.786316512952461633e+00,-7.524095630645261323e+00,-9.515801018086614826e-01,-1.074946542263765931e-01,2.879899462753105488e-01,6.243026696054615741e+02
2.002947356702010850e+00,2.299412860168861705e+00,-7.578144982684670516e+00,-9.246906280215660967e-01,-1.331337971656339214e-01,3.566800169654483210e-01,6.308480549057317148e+02
1.798346264671220940e+00,1.812045810152154157e+00,-7.612389456408004129e+00,-8.921617012991110984e-01,-1.579609895347227344e-01,4.231947831926443082e-01,6.373934402060018556e+02
1.561982282531980903e+00,1.328663344279675584e+00,-7.628481337533250084e+00,-8.541917083874496219e-01,-1.818248165471991751e-01,4.871285881684086494e-01,6.439388255062719963e+02
1.297391370111307562e+00,8.536065898431390853e-01,-7.628075041421101155e+00,-8.110122197385559728e-01,-2.045797388321388965e-01,5.480915159856196706e-01,6.504842108065421371e+02
1.008226141211513216e+00,3.911071535612944960e-01,-7.612826916477695605e+00,-7.628865771558317466e-01,-2.260869800418828512e-01,6.057117696168414778e-01,6.570295961068122779e+02
6.982545957182582086e-01,-5.471552233019624789e-02,-7.584395047387571864e+00,-7.101082876758887386e-01,-2.462153732085004265e-01,6.596379383959409815e-01,6.635749814070824186e+02
3.713588284033262910e-01,-4.798567809986630794e-01,-7.544439058194337022e+00,-6.529992334853151892e-01,-2.648421606875284717e-01,7.095411411549359393e-01,6.701203667073525594e+02
3.153371456100056980e-02,-8.804293485358101190e-01,-7.494619915244798314e+00,-5.919077087929128789e-01,-2.818537428108789933e-01,7.551170319470904557e-01,6.766657520076227001e+02
-3.171144273791607349e-01,-1.252665907674734180e+00,-7.436599730014179066e+00,-5.272062956327948635e-01,-2.971463706838655683e-01,7.960876561259907502e-01,6.832111373078928409e+02
-6.703691961153194212e-01,-1.592921647297353305e+00,-7.372041561829979273e+00,-4.592895915554539576e-01,-3.106267789021531223e-01,8.322031454635181458e-01,6.897565226081629817e+02
-9.305463049569738798e-01,-1.818142467964146025e+00,-7.320849764249230951e+00,-3.885718030664891409e-01,-3.222127543309997177e-01,8.632432419717021022e-01,6.945787647614342859e+02
-1.279707612146966378e+00,-2.086340220259347067e+00,-7.247884314723368249e+00,-3.154842194906386510e-01,-3.318336374791820975e-01,8.890186411383539378e-01,7.011241500617044267e+02
-1.621257744150129909e+00,-2.313256950305762949e+00,-7.172935579747001356e+00,-2.404725826672018951e-01,-3.394307534111084546e-01,9.093721463877892930e-01,7.076695353619745674e+02
-1.950640686381433841e+00,-2.496121926638611210e+00,-7.097928804196301122e+00,-1.639943685173883836e-01,-3.449577695702972235e-01,9.241796277290984518e-01,7.142149206622447082e+02
-2.039234882659258563e+00,-2.535533021499112305e+00,-7.077243594580681751e+00,-8.651599706084089902e-02,-3.483809783330377163e-01,9.333507787483358298e-01,7.160708230758001491e+02
-2.331717062907273874e+00,-2.629854652655717828e+00,-7.008081414106560381e+00,-8.509987894274916378e-03,-3.496795025699239168e-01,9.368296673303716515e-01,7.226162083760702899e+02
-2.601232948939895984e+00,-2.676812509831945963e+00,-6.944779983161788017e+00,2.012086115043393644e-02,-3.496213753834666593e-01,9.366739266236605577e-01,7.291615936763404306e+02
-2.843695942193143811e+00,-2.675963314610025456e+00,-6.889941610607432487e+00,4.873521659458084077e-02,-3.492766443911115570e-01,9.357503429555136254e-01,7.357069789766105714e+02
-2.898579566796793738e+00,-2.663945410197832153e+00,-6.878523139986143065e+00,7.730962347856097650e-02,-3.486455921206295105e-01,9.340596732582674422e-01,7.373958824033109067e+02
-3.079738377916523717e+00,-2.572935827244215989e+00,-6.846297988648688104e+00,1.058206595632397301e-01,-3.477287357426051551e-01,9.316033030980279683e-01,7.439412677035810475e+02
-3.169275928559922129e+00,-2.491763882848811562e+00,-6.834686725795892315e+00,1.342449545115348697e-01,-3.465268266464381908e-01,9.283832455387226457e-01,7.479009542327726194e+02
-3.283002774732171503e+00,-2.318638079122609774e+00,-6.827095542201739420e+00,1.625592090277787061e-01,-3.450408498261109957e-01,9.244021394964990757e-01,7.544463395330427602e+02
-3.361619111004377380e+00,-2.113367146564867127e+00,-6.826110688216636468e+00,1.907402139393407636e-01,-3.432720230750244128e-01,9.196632475825926578e-01,7.609917248333129010e+02
-3.385832517783384787e+00,-1.987058188699927452e+00,-6.825625869377906163e+00,2.187648692050080668e-01,-3.412217959905435860e-01,9.141704534363880308e-01,7.646008626906512973e+02
-3.395132901312958751e+00,-1.742876593222211667e+00,-6.816064373953186539e+00,1.998924593329976518e-01,-3.117851771830731367e-01,9.288869726657884573e-01,7.711462479909214380e+02
-3.369633359757355340e+00,-1.494434192532787531e+00,-6.785533758919447322e+00,1.807323560947650121e-01,-2.818998244540883436e-01,9.422665782202374052e-01,7.776916332911915788e+02
-3.310223724789723043e+00,-1.254016847755382802e+00,-6.720299889297677076e+00,1.613121354828448983e-01,-2.516087500073068695e-01,9.542900145467199113e-01,7.842370185914617196e+02
-3.218152559740560914e+00,-1.033879247127116097e+00,-6.606632729169000129e+00,1.416597477896738566e-01,-2.209555498659618311e-01,9.649399778419324170e-01,7.907824038917318603e+02
-3.094937147441847891e+00,-8.453789873196670968e-01,-6.437850395340678489e+00,1.218034773895085021e-01,-1.899843411418508654e-01,9.742011409430907376e-01,7.973277891920020011e+02
-2.956369881588476023e+00,-7.101778030047815049e-01,-6.241666538169518219e+00,1.017719020399959207e-01,-1.587396985551559059e-01,9.820601753741744488e-01,8.032508589282145977e+02
-2.773510113023702317e+00,-6.024788177699158531e-01,-5.990680248348939863e+00,8.159385176225997238e-02,-1.272665902968484475e-01,9.885057705178206255e-01,8.097962442284847384e+02
-2.561241883466402580e+00,-5.370362515313132912e-01,-5.718291625397407429e+00,6.129836735853932267e-02,-9.561031332576144792e-02,9.935286498854251080e-01,8.163416295287548792e+02
-2.507523856241215210e+00,-5.315786317578228282e-01,-5.654549254259555013e+00,4.091465862692696132e-02,-6.381642819321298177e-02,9.971215844621502677e-01,8.178054252697601214e+02
-2.241118623273867794e+00,-5.482505060447382395e-01,-5.362387269467896900e+00,2.047206233319073809e-02,-3.193069348873487506e-02,9.992794031077125716e-01,8.243508105700302622e+02
-1.950757382291794073e+00,-6.073997219511428902e-01,-5.070206672677586290e+00,0.000000000000000000e+00,9.999989999980329049e-07,9.999989999980327671e-01,8.308961958703004029e+02
-1.639441204902730265e+00,-7.082448870303297284e-01,-4.785794129063778435e+00,-0.000000000000000000e+00,3.333329503819602845e-07,9.999989992940616634e-01,8.374415811705705437e+02
-1.624003587648475300e+00,-7.147314708162300079e-01,-4.773077997736794309e+00,-0.000000000000000000e+00,-3.333329503819600198e-07,9.999989992940616634e-01,8.377474125983546855e+02
-1.277113026952186203e+00,-8.894827189533051071e-01,-4.514861479191923266e+00,-0.000000000000000000e+00,-9.999989992933948781e-07,9.999989992933948635e-01,8.442927978986248263e+02
-9.187129087484143808e-01,-1.098385597655031409e+00,-4.272204992650319610e+00,-3.175782561597086384e-01,-6.128222889424789210e-01,7.235958080248489077e-01,8.508381831988949671e+02
-7.394100390154171309e-01,-1.214053501264495072e+00,-4.162118689853379294e+00,-4.595974337851653768e-01,-8.868719073915704021e-01,4.718494186909653193e-02,8.540388386169396426e+02
-3.680815561016964610e-01,-1.473501744372027300e+00,-3.955784253489396995e+00,-0.000000000000000000e+00,1.466699169441398019e-02,9.998914337840719702e-01,8.605842239172097834e+02
-6.566364080063843978e-02,-1.699590939184113747e+00,-3.803983132308485615e+00,-4.257548302915932226e-01,-7.652377653068040964e-01,4.828477886770242700e-01,8.659137601400203721e+02
3.005424148242250015e-01,-1.988261210262604717e+00,-3.638691504481219141e+00,-4.015486972677502209e-01,-7.363974448213711499e-01,-5.444955894984196965e-01,8.724403359150708184e+02
6.588774220227381351e-01,-2.283079565421773260e+00,-3.493391765908617774e+00,-5.248440350634774321e-01,-8.511643937552457739e-01,-7.477543722296768960e-03,8.789857212153409591e+02
9.984963478406162496e-01,-2.570977686705384180e+00,-3.369478595216978345e+00,-4.818885140319649762e-01,-6.963144000263853384e-01,5.319095001580316229e-01,8.854289603144549119e+02
1.325927059472831626e+00,-2.853248387978862155e+00,-3.261094556946647405e+00,-2.862888237760184418e-01,-3.208982224643198156e-01,9.028073106703107253e-01,8.919743456147250527e+02
1.549223831961399567e+00,-3.045603267005056125e+00,-3.193252666527777173e+00,-3.999995304134292564e-06,1.561658166663590086e-01,9.877298404369673213e-01,8.967412072044597835e+02
1.831779535453139207e+00,-3.285016614987244399e+00,-3.113033574349936661e+00,-7.828344534522074794e-01,9.102111357163510108e-02,6.155350318002562604e-01,9.032865925047299243e+02
2.086497033640546839e+00,-3.493407611295166415e+00,-3.043147390719860734e+00,-9.741568796143648123e-01,-4.289895066157300985e-02,-2.217567449557902581e-01,9.098319778050000650e+02
2.310189010135149879e+00,-3.663425327587387592e+00,-2.980440040564153126e+00,-9.655980229722422870e-01,-7.210912586026188564e-02,-2.498374111287392230e-01,9.163773631052702058e+02
2.392695980528460442e+00,-3.717285482052848256e+00,-2.955027834579727397e+00,-9.553831516045492300e-01,-1.011956302831491933e-01,-2.774895998800260277e-01,9.192062492679181105e+02
2.549264070031329599e+00,-3.791429492434204018e+00,-2.897043139337354578e+00,-9.435297843671967000e-01,-1.301085806909603737e-01,-3.046658878877905319e-01,9.257516345681882513e+02
2.669179636785970811e+00,-3.810781659434138824e+00,-2.838331735023014613e+00,-9.300582500302909672e-01,-1.587983915098812870e-01,-3.313196680011434858e-01,9.322970198684583920e+02
2.698140430174328142e+00,-3.796920982528550148e+00,-2.817659385561456009e+00,-9.149916524136930684e-01,-1.872158598590235312e-01,-3.574052291593501351e-01,9.346156455443504001e+02
2.743815053877508348e+00,-3.699358498551647667e+00,-2.759975143344478798e+00,-8.983558307663341846e-01,-2.153122499215489594e-01,-3.828778347747401334e-01,9.411610308446205408e+02
2.758915255886688289e+00,-3.545640886126483871e+00,-2.701301355439814866e+00,-8.801793154564134802e-01,-2.430393765149209684e-01,-4.076937994449310598e-01,9.477064161448906816e+02
2.749277432066221660e+00,-3.338289837186488640e+00,-2.639719952999926456e+00,-8.604932790483910132e-01,-2.703496877171554513e-01,-4.318105638629902154e-01,9.542518014451608224e+02
2.720324752966264636e+00,-3.080483881546772551e+00,-2.573432036038450388e+00,-8.393314828505692438e-01,-2.971963464075598194e-01,-4.551867677972371573e-01,9.607971867454309631e+02
2.715272023740217033e+00,-3.047463724997007350e+00,-2.565614248366490102e+00,-8.167302190247905935e-01,-3.235333105822975064e-01,-4.777823210156857958e-01,9.615062579861255472e+02
2.653518202594550068e+00,-2.698260055011371783e+00,-2.486771864145348676e+00,-7.927282483573629968e-01,-3.493154123072115813e-01,-4.995584720336324613e-01,9.680516432863956879e+02
2.600136790095834982e+00,-2.409585179802702815e+00,-2.422730665333133082e+00,-7.673667337977395642e-01,-3.744984351726567962e-01,-5.204778745666128748e-01,9.728923574258250255e+02
2.520748028991731449e+00,-1.982723726692511956e+00,-2.327248313869536123e+00,-7.406891698787130274e-01,-3.990391901176503775e-01,-5.405046515748640479e-01,9.794377427260951663e+02
2.437615955237986576e+00,-1.524674934061182041e+00,-2.221858127414003015e+00,-7.127413081389296634e-01,-4.228955894934223192e-01,-5.596044567895336330e-01,9.859831280263653071e+02
2.353037055604947358e+00,-1.041571024710331361e+00,-2.105582329807755393e+00,-8.536475879973068892e-01,2.904298598275376064e-02,5.200387490095819132e-01,9.925285133266354478e+02
2.331280584499263231e+00,-9.162777087731602821e-01,-2.073699368712734969e+00,-7.890998334631428301e-01,2.879596484248190397e-02,6.135880093654008105e-01,9.941600517329895865e+02
2.242598048348071860e+00,-3.979273543402826463e-01,-1.933549399536537372e+00,-7.143585264350889030e-01,2.817695858218021918e-02,6.992109515120814578e-01,1.000705437033259727e+03
2.156660789710362014e+00,1.317423876164827701e-01,-1.780534362825720862e+00,-6.303891737194622369e-01,2.719396361502931028e-02,7.758015068303059092e-01,1.007250822333529868e+03
2.089079854574812156e+00,5.639587234151952622e-01,-1.646375918080501100e+00,-5.382764876479130267e-01,2.585967829514519353e-02,8.423702866815346857e-01,1.012534515054157623e+03
2.007883955189590619e+00,1.100167833959388108e+00,-1.466603995722447706e+00,-4.392103739644938054e-01,2.419133887461201102e-02,8.980573626030124990e-01,1.019079900354427764e+03
1.931388826300346917e+00,1.632010801897343377e+00,-1.272252031853828624e+00,-3.344705610515999461e-01,2.221049684713878244e-02,9.421433742375264764e-01,1.025625285654697791e+03
1.860968396356695864e+00,2.154419377895541832e+00,-1.062385278091897867e+00,-2.254100690082706526e-01,1.994274055447908811e-02,9.740588215753979151e-01,1.032170670954967818e+03
1.811495723424616733e+00,2.542484475490228490e+00,-8.903880662302099402e-01,-1.134377320605910316e-01,1.741736465096880432e-02,9.933914215219846744e-01,1.037160837249594579e+03
1.752063479873418705e+00,3.034983713100765090e+00,-6.491746457884535193e-01,-0.000000000000000000e+00,1.466699169441148046e-02,9.998914337839015509e-01,1.043706222549864606e+03
1.698892006034711466e+00,3.507760437315416979e+00,-3.924761079754550686e-01,-2.193777011000477284e-01,1.865964540252776013e-02,9.754605281064507860e-01,1.050251607850134633e+03
1.650894422797662298e+00,3.958280949285953199e+00,-1.208829548203526894e-01,-4.280629866906714986e-01,2.174283686053165091e-02,9.034862082351896584e-01,1.056796993150404660e+03
1.632742613188035374e+00,4.122446444350791772e+00,-1.131745664278578992e-02,-6.158846744722998867e-01,2.376629396164398056e-02,7.874764955363108276e-01,1.059310682662409818e+03
1.583611661439961349e+00,4.527297313566522874e+00,2.863473971078324687e-01,-7.736884750554596790e-01,2.463139536683367492e-02,6.330856481783309064e-01,1.065856067962679845e+03
1.531665701500933618e+00,4.911124219637001076e+00,5.941588051300892293e-01,-8.937831490311932692e-01,2.429597686785830990e-02,4.478385736139610107e-01,1.072401453262949872e+03
1.499366890911827843e+00,5.111428153339102387e+00,7.666016073284842580e-01,-9.629109920920509991e-01,2.850019874629762875e-02,-2.683060938191170197e-01,1.075989233689780121e+03
1.431737506617546618e+00,5.462059021912361700e+00,1.084050671980883340e+00,-5.335776174016564344e-01,1.795098712836199276e-02,-8.455593936971625979e-01,1.082534618990050149e+03
1.355851319659958643e+00,5.802463642828986856e+00,1.399666630331269701e+00,-4.155138571128832448e-01,1.906329162380951056e-02,-9.093859606679480789e-01,1.089080004290320176e+03
1.271894332391527493e+00,6.137446840241039148e+00,1.708514612373700059e+00,-2.899649859760889958e-01,1.983218692792863141e-02,-9.568307014670968114e-01,1.095625389590590203e+03
1.254524630801076901e+00,6.199277694544487183e+00,1.763961949199040369e+00,-1.591926598520642666e-01,2.024382221715839009e-02,-9.870389479204236816e-01,1.096841725917567601e+03
1.152663470382907951e+00,6.532078895097743754e+00,2.049355388566366898e+00,-2.555262735446115277e-02,2.029078237298563223e-02,-9.994665313989493649e-01,1.103387111217837628e+03
1.046730161779953816e+00,6.868072142992391882e+00,2.318653289384433158e+00,1.085477061419486688e-01,1.997222153564603281e-02,-9.938895843397080876e-01,1.109932496518107655e+03
1.014169575910027099e+00,6.969343322195596713e+00,2.392986912041987324e+00,2.406926446350796112e-01,1.929387832746673123e-02,-9.704085722407597148e-01,1.111877068987771281e+03
9.029389829922386257e-01,7.315661345528889470e+00,2.622310797012078698e+00,3.685017167682730910e-01,1.826797247387307657e-02,-9.294464836240790007e-01,1.118422454288041308e+03
7.947292114067331381e-01,7.667493921204372676e+00,2.828992789890001802e+00,4.896725565857655282e-01,1.691298468474890931e-02,-8.717412106103223923e-01,1.124967839588311335e+03
6.928302042380969361e-01,8.024109474021294375e+00,3.010960269287682234e+00,4.838606244995389272e-01,1.681634508519099999e-02,-8.749823464078338997e-01,1.131513224888581362e+03
5.999178409571087611e-01,8.384294197375091073e+00,3.166469669627374195e+00,4.780272641022016988e-01,1.671896069572938182e-02,-8.781847249053709170e-01,1.138058610188851389e+03
5.894915716719107968e-01,8.428579464493985540e+00,3.182170165128295647e+00,4.721727323223930406e-01,1.662083580582001535e-02,-8.813482050798151501e-01,1.138860141434578054e+03
5.125838300489974353e-01,8.790281669045819868e+00,3.282659421572966973e+00,4.662972870224132982e-01,1.652197473758049845e-02,-8.844726476241844271e-01,1.145405526734848081e+03
4.853260699489206909e-01,8.936093956725288834e+00,3.311894825288726363e+00,3.786464867585203620e-01,-4.409324695915757368e-03,-9.255297920224934138e-01,1.148053578703284984e+03
4.274451613031868824e-01,9.293267915275659874e+00,3.355679402884625073e+00,2.872825041711390415e-01,-2.529738166979420694e-02,-9.575107337664148233e-01,1.154598964003555011e+03
3.796544666593879014e-01,9.644777461425144693e+00,3.371116353401045540e+00,1.931012856496075181e-01,-4.593736088366805886e-02,-9.801018581532667806e-01,1.161144349303825038e+03
3.755978460534875607e-01,9.678402978445319604e+00,3.369886638250159994e+00,9.702640333360208758e-02,-6.612685959466804708e-02,-9.930816257971972760e-01,1.161785984944732490e+03
3.396709844924210575e-01,1.001116278730839682e+01,3.329558109934075194e+00,0.000000000000000000e+00,-8.566789209254577209e-02,-9.963227450298078880e-01,1.168331370245002518e+03
3.138374193584854699e-01,1.028816778731190951e+01,3.271088750746977691e+00,-3.571165318402182987e-01,-5.924852232850398304e-01,-7.220990533685643920e-01,1.173990410582729510e+03
2.880981316927809788e-01,1.059337992966522890e+01,3.177582166202707281e+00,3.588155418935747853e-01,-5.920762440853308828e-01,-7.215920787300742489e-01,1.180535795882999537e+03
2.650937360042391888e-01,1.088076320053978030e+01,3.060306732103429184e+00,5.623752087482116746e-01,-6.127230732625684739e-01,-5.552499978176599349e-01,1.187081181183269564e+03
2.458472458881597877e-01,1.110821655473742986e+01,2.942203537115339884e+00,7.268315228409760742e-01,-5.907656121671474025e-01,-3.502997700310304663e-01,1.192657969127693832e+03
2.227542975132584258e-01,1.135328246206439751e+01,2.787516213742302185e+00,8.045121833529315092e-01,-5.246029448652577143e-01,-2.784778215145163882e-01,1.199203354427963859e+03
2.160696197547185560e-01,1.141835233241700642e+01,2.740200028931747855e+00,8.696664015900286149e-01,-4.502721291901834455e-01,-2.023199437040513193e-01,1.201110968549146264e+03
1.952989501258582672e-01,1.162058556235199980e+01,2.578891623239724318e+00,9.212797289660189515e-01,-3.689305161580817560e-01,-1.230119313089544086e-01,1.207656353849416291e+03
1.931031886686931653e-01,1.164343079905580147e+01,2.559775491292343386e+00,9.585485516620662061e-01,-2.818446115837552890e-01,-4.178862319740646314e-02,1.208478945707734283e+03
1.900890699146982055e-01,1.167766853024759044e+01,2.530533153384409761e+00,9.808926007667952973e-01,-1.903703563516447594e-01,4.008532380624430652e-02,1.209865610689777441e+03
1.822221662817194721e-01,1.181976037642190391e+01,2.411207778537030944e+00,9.879639851732419098e-01,-9.593201482364957511e-02,1.213351248967945856e-01,1.216410995990047468e+03
1.829594640345154899e-01,1.186817806826530308e+01,2.374810915127384625e+00,9.796526068681459254e-01,-0.000000000000000000e+00,2.006957145972041445e-01,1.218977352460894735e+03
1.898967277281399246e-01,1.192413186676571968e+01,2.343114508108139926e+00,9.796526061767043547e-01,-0.000000000000000000e+00,2.006957144555525374e-01,1.222448549475186155e+03
1.980006141843400069e-01,1.195310900234889750e+01,2.335699626654084149e+00,9.546769266714698610e-01,-0.000000000000000000e+00,-2.976406653671949121e-01,1.224607003153273808e+03
2.331972368657412309e-01,1.202348511538821541e+01,2.353952144260795354e+00,8.864831785338591619e-01,-0.000000000000000000e+00,-4.627586564816839054e-01,1.231152388453543836e+03
2.763389834104954534e-01,1.207654561890758593e+01,2.416712089152021736e+00,7.899960121910915012e-01,-0.000000000000000000e+00,-6.131103495067511400e-01,1.237697773753813863e+03
2.896849199709716771e-01,1.208679274887931854e+01,2.447786928757995195e+00,6.682922228847640866e-01,-0.000000000000000000e+00,-7.438975095747273336e-01,1.239535596146444504e+03
3.387512555609571430e-01,1.210767554422401204e+01,2.608084705181993090e+00,5.252534313372850816e-01,-0.000000000000000000e+00,-8.509446707943770782e-01,1.246080981446714532e+03
3.857286682875965544e-01,1.211448108273861735e+01,2.819279684988235779e+00,3.654430836583754116e-01,-0.000000000000000000e+00,-9.308326124800254675e-01,1.252626366746984559e+03
4.095861471897015993e-01,1.211151202869590726e+01,2.972553348183095689e+00,1.939614612768299218e-01,-0.000000000000000000e+00,-9.810081301187432157e-01,1.256439075760270043e+03
4.205560086598569280e-01,1.210633604705405730e+01,3.078620003200952304e+00,1.628313858337399750e-02,-0.000000000000000000e+00,-9.998664206759945161e-01,1.258643091531374012e+03
4.375679142973959990e-01,1.208791497392329539e+01,3.351965496533236610e+00,-1.619179967726855351e-01,-0.000000000000000000e+00,-9.868032033326415986e-01,1.263537512859439857e+03
4.490571060820148230e-01,1.205515531111015903e+01,3.764419933142591823e+00,-3.349505112025986109e-01,-0.000000000000000000e+00,-9.422346601738429417e-01,1.270082898159709885e+03
4.488145581321228428e-01,1.204104299291183722e+01,3.926320884045634951e+00,-4.972879939151203521e-01,-0.000000000000000000e+00,-8.675843768241365828e-01,1.272415143416737919e+03
4.355272084975945202e-01,1.199563230318150353e+01,4.417385976728429142e+00,-6.437463472778028883e-01,-0.000000000000000000e+00,-7.652376364190088820e-01,1.278960528717007946e+03
4.097930117834838182e-01,1.194560546066897544e+01,4.937880091629604173e+00,-7.696498905092492571e-01,-0.000000000000000000e+00,-6.384646003471732278e-01,1.285505914017277973e+03
3.730484168960803149e-01,1.189236669496681742e+01,5.479070313760074029e+00,-8.709807986984856587e-01,-0.000000000000000000e+00,-4.913150193013761102e-01,1.292051299317548001e+03
3.275595112419531496e-01,1.183735233899163752e+01,6.032267096424518193e+00,-9.445070538147857242e-01,-0.000000000000000000e+00,-3.284880899224306705e-01,1.298596684617818028e+03
3.236876723538908984e-01,1.183317369606611003e+01,6.073917542571283690e+00,-9.878849078790982174e-01,-0.000000000000000000e+00,-1.551818569948743287e-01,1.299084628259237661e+03
2.666592413778725024e-01,1.177682690206112426e+01,6.633488387013604992e+00,-9.997327857654463301e-01,-0.000000000000000000e+00,2.307286374205557919e-02,1.305630013559507688e+03
2.060532179185658175e-01,1.172173556753609880e+01,7.187121663877141131e+00,-9.796745246509578342e-01,-0.000000000000000000e+00,2.005886979217730848e-01,1.312175398859777715e+03
1.442225059168127099e-01,1.166962757306658283e+01,7.726239313362288641e+00,-9.717329261108356153e-01,1.433092364078940584e-01,1.876048588769571868e-01,1.318720784160047742e+03
9.166908918112029458e-02,1.162860929943041555e+01,8.172855177939229776e+00,-9.436091829547553766e-01,2.836420581069363789e-01,1.707246107572791827e-01,1.324381940622837419e+03
3.419388632313591359e-02,1.158750286737825697e+01,8.658518138955562549e+00,-8.958873977066329486e-01,4.180838659982519245e-01,1.502985416568413113e-01,1.330927325923107446e+03
-1.821079183071436930e-02,1.155441663707157751e+01,9.105674247745410455e+00,-8.295587064796963173e-01,5.438424092210171201e-01,1.267508833816737013e-01,1.337472711223377473e+03
-3.276982548921290178e-02,1.154689043082239408e+01,9.232292987563861075e+00,-7.460006956297373648e-01,6.583057771568698868e-01,1.005707009187075118e-01,1.339529752796983757e+03
-4.448684437865976088e-02,1.154266444813146641e+01,9.336726037163840530e+00,-6.469487923592335266e-01,7.590966467663680106e-01,7.230173534737810437e-02,1.341451046296087952e+03
-7.797371560846201588e-02,1.153813971829738705e+01,9.642677647743701286e+00,-5.344602230999104808e-01,8.441216585990679588e-01,4.253111107216219627e-02,1.347996431596357979e+03
-1.050381038267438200e-01,1.154325334862073937e+01,9.894806175986586183e+00,-4.108712878789207434e-01,9.116148958298870841e-01,1.187714185771122574e-02,1.354541816896628006e+03
-1.095569904643762665e-01,1.154623438671846003e+01,9.937379107041806492e+00,-2.787488377854974164e-01,9.601745630140732235e-01,-1.902351110541584955e-02,1.355968761765152522e+03
-1.240140070186616511e-01,1.156743257002943714e+01,1.007363592672530217e+01,-1.408369631903245156e-01,9.887921024054885377e-01,-4.952906238361341751e-02,1.362514147065422549e+03
-1.318910346266464473e-01,1.159491087108166774e+01,1.014804457417651484e+01,-0.000000000000000000e+00,9.968731427319724725e-01,-7.900593205829645194e-02,1.369059532365692576e+03
-1.321706665839364747e-01,1.160665252046839235e+01,1.015183102566933471e+01,-0.000000000000000000e+00,9.968731420280737554e-01,-7.900593200250984049e-02,1.371438322353818876e+03
-1.250151134364881900e-01,1.164258922039376110e+01,1.009660152089050200e+01,9.968779763718003117e-01,0.000000000000000000e+00,-7.894491893667313076e-02,1.377983707654088903e+03
-1.088754150260962950e-01,1.168107254070811152e+01,9.973696379303875759e+00,9.968779756678982640e-01,-0.000000000000000000e+00,-7.894491888092960985e-02,1.384529092954358930e+03
-9.466435763832246886e-02,1.170343090376535855e+01,9.868076097585195328e+00,0.000000000000000000e+00,-9.968312352734686188e-01,-7.953293898571152376e-02,1.388136004714354613e+03
-9.238530926195530346e-02,1.170617338723648260e+01,9.851393332843294104e+00,-0.000000000000000000e+00,-0.000000000000000000e+00,-9.999989999999967516e-01,1.388555737678094602e+03
-4.675458211299150096e-02,1.175086631949104721e+01,9.523967689862752550e+00,-9.968817776734306690e-01,-0.000000000000000000e+00,-7.889690326056383873e-02,1.395101122978364629e+03
9.546647675310835149e-03,1.179693905726622383e+01,9.132367397205120696e+00,-0.000000000000000000e+00,-0.000000000000000000e+00,-9.999989999999968626e-01,1.401646508278634656e+03
3.318616075038829244e-02,1.181372249766143057e+01,8.972637096208368135e+00,2.939468704482832151e-01,-0.000000000000000000e+00,-9.558207140226158138e-01,1.403961155374455302e+03
1.099499102851943105e-01,1.186223410164641479e+01,8.464689959010428311e+00,5.619215658479069786e-01,-0.000000000000000000e+00,-8.271893095513981331e-01,1.410506540674725329e+03
1.954470292569483736e-01,1.191101729361489525e+01,7.905643908206188897e+00,7.802467475269804220e-01,-0.000000000000000000e+00,-6.254702334841095723e-01,1.417051925974995356e+03
2.879688543453127747e-01,1.195962280083156237e+01,7.301864621208117967e+00,9.296319423625671874e-01,-0.000000000000000000e+00,-3.684867049708651643e-01,1.423597311275265383e+03
3.688145455688028873e-01,1.199927680310310052e+01,6.770644431268808994e+00,9.968779763717972031e-01,-0.000000000000000000e+00,-7.894491893667289484e-02,1.429009903517570365e+03
4.700179788874023212e-01,1.204555530218405757e+01,6.095390008462621800e+00,6.786269348367017784e-01,1.492547796301726439e-02,-7.343301120226471967e-01,1.435555288817840392e+03
5.727160153815457067e-01,1.208873669540693641e+01,5.393263314029693056e+00,0.000000000000000000e+00,2.192496970816739527e-02,-9.997586187200654395e-01,1.442100674118110419e+03
6.747677033630382626e-01,1.212753573885185077e+01,4.670558428924780792e+00,6.008035540474822023e-01,8.946493359374771415e-02,-7.943734103682975611e-01,1.448646059418380446e+03
7.739929655978505796e-01,1.216073303659938887e+01,3.933571859752811317e+00,4.081932604183504537e-02,1.308872045267022721e-01,-9.905555624547079940e-01,1.455191444718650473e+03
8.203046541056835395e-01,1.217397489444510228e+01,3.567387101245711900e+00,-5.336068622114340521e-01,1.260033413072118025e-01,-8.362923379880708996e-01,1.458405581212226934e+03
9.080123709128241627e-01,1.219390562602851880e+01,2.817640111467368591e+00,-9.192495091526575735e-01,7.654119767195470547e-02,-3.861603099503875258e-01,1.464950966512496962e+03
9.872544304225626677e-01,1.220553840089173292e+01,2.069302314474022797e+00,-9.796745246592685197e-01,0.000000000000000000e+00,2.005886979234746959e-01,1.471496351812766989e+03
1.055870921362070725e+00,1.220774605552550440e+01,1.328596146504609221e+00,-9.796745239680101358e-01,-0.000000000000000000e+00,2.005886977819393013e-01,1.478041737113037016e+03
1.088308029511001473e+00,1.220301294616550969e+01,9.089682848579452301e-01,-9.987421919058823150e-01,-0.000000000000000000e+00,-5.012019659993331017e-02,1.481816523951514682e+03
1.130749856068656412e+00,1.218327295327019044e+01,1.991432167508611073e-01,-9.546707119062373126e-01,-0.000000000000000000e+00,-2.976605983800955091e-01,1.488361909251784709e+03
1.158474979511151526e+00,1.215075805645623852e+01,-4.880439742810703252e-01,-0.000000000000000000e+00,-5.697617808905054426e-01,-8.218086839625060591e-01,1.494907294552054736e+03
1.171760428639868623e+00,1.210479992426743934e+01,-1.145134166522471686e+00,5.764363129603543578e-01,-1.163998612659930673e-03,-8.171400260717770481e-01,1.501423043705973669e+03
1.171765571411751194e+00,1.204425269039731994e+01,-1.774145327106650072e+00,-5.741094903288136431e-01,1.828998376289212979e-03,-8.187752731244267723e-01,1.507968429006243696e+03
1.159805934331609167e+00,1.196848589432796750e+01,-2.368928059253354590e+00,-0.000000000000000000e+00,-9.950635238632307145e-01,9.922995251858010568e-02,1.514513814306513723e+03
1.146901516890981299e+00,1.191424600278591051e+01,-2.698712021910230519e+00,-0.000000000000000000e+00,8.080491350128965466e-02,9.967289330380600942e-01,1.518374598924670863e+03
1.116992403035483195e+00,1.180518595568257645e+01,-3.221529562116675738e+00,-7.142513392296293562e-01,-6.601633892676381787e-01,-2.324377849664496787e-01,1.524919984224940890e+03
1.108040817880381335e+00,1.177355014689496571e+01,-3.342632577885488843e+00,-5.759863546497717701e-01,0.000000000000000000e+00,-8.174580840985088415e-01,1.526550447678494493e+03
1.067518275342028256e+00,1.162864357917984037e+01,-3.792402047824737998e+00,5.752485914334153350e-01,0.000000000000000000e+00,-8.179774190368382936e-01,1.533095832978764520e+03
1.023401551399133469e+00,1.146742766850835693e+01,-4.207030403719993927e+00,9.997494087565386156e-01,-0.000000000000000000e+00,-2.234098678772675900e-02,1.539641218279034547e+03
1.016930277995817367e+00,1.144239811961942799e+01,-4.261363108853055692e+00,9.998937578844903085e-01,-0.000000000000000000e+00,-1.450768450587513851e-02,1.540574001202621048e+03
9.702355909632822684e-01,1.125515555554480507e+01,-4.610496263257715555e+00,9.999767319488265249e-01,-0.000000000000000000e+00,-6.673494387075448384e-03,1.547119386502891075e+03
9.204862229808148388e-01,1.106135164288067685e+01,-4.928866220563303813e+00,9.999983259014286752e-01,-0.000000000000000000e+00,1.161103332098619573e-03,1.553664771803161102e+03
8.672417161555782128e-01,1.086701368917782062e+01,-5.218348192720839052e+00,9.999585384587686976e-01,-0.000000000000000000e+00,8.995628390928222390e-03,1.560210157103431129e+03
8.584504997488250355e-01,1.083670330882676325e+01,-5.260054815271677953e+00,9.998573720849733837e-01,-0.000000000000000000e+00,1.682960053389872396e-02,1.561251238058522858e+03
8.032515915862205036e-01,1.065278243263210101e+01,-5.496124635888550714e+00,9.996948329916620635e-01,-0.000000000000000000e+00,2.466253953966860216e-02,1.567796623358792885e+03
7.508234070962621631e-01,1.047933642059748216e+01,-5.707479371084715147e+00,9.994709311375664651e-01,-0.000000000000000000e+00,3.249396525003610259e-02,1.574342008659062913e+03
7.456063728315335259e-01,1.046112827170564330e+01,-5.728949146002807247e+00,9.917726222304950046e-01,7.809910658013224927e-02,1.014179241838672196e-01,1.575088175139991336e+03
7.079720204777802950e-01,1.031776396700075082e+01,-5.895371523598924135e+00,9.732548033358544570e-01,1.553461971858138835e-01,1.692354773800308354e-01,1.581633560440261363e+03
6.789053513431101416e-01,1.019458383551087977e+01,-6.041440064452258341e+00,9.441194929023581928e-01,2.308985684906396108e-01,2.352067902745842987e-01,1.588178945740531390e+03
6.768457550002070500e-01,1.018377402330536441e+01,-6.055275610035432798e+00,9.046845352293026998e-01,3.039320054831036733e-01,2.986121694781426750e-01,1.588887797873073396e+03
6.681130953600566968e-01,1.010955031650954083e+01,-6.166170819120908142e+00,8.553801331724157908e-01,3.736497722559291024e-01,3.587599134064777262e-01,1.595433183173343423e+03
6.690937228185217522e-01,1.007133297799911986e+01,-6.245985245616238579e+00,7.967441554088647848e-01,4.392913030861941293e-01,4.149938576110236421e-01,1.600887889330697590e+03
6.724281584049963678e-01,1.006672441822436603e+01,-6.270785052358906597e+00,7.294162694261490110e-01,5.001404990657793981e-01,4.667005325588149955e-01,1.602857601602921704e+03
6.927018965992636224e-01,1.008246280728303823e+01,-6.339663604120376661e+00,5.179124917774815540e-01,7.186022948425190293e-01,4.640855445973440796e-01,1.609402986903191731e+03
7.205704753876239765e-01,1.012887316644581581e+01,-6.392994770469113242e+00,-5.024135394088025119e-01,7.294793312446173905e-01,4.641535744838983235e-01,1.615948372203461759e+03
7.539304876014082391e-01,1.020552530566648919e+01,-6.428260977995890357e+00,-0.000000000000000000e+00,1.173078338872849818e-01,9.930945937372316346e-01,1.622493757503731786e+03
7.651297734856858934e-01,1.023813995002285360e+01,-6.432927108793207616e+00,1.270998419732385096e-03,1.158168560016881454e-01,9.932687650413736247e-01,1.624493894945130023e+03
8.040680091857427270e-01,1.037450685217323176e+01,-6.426639193347441825e+00,1.182598423654793174e-01,0.000000000000000000e+00,9.929816764045386046e-01,1.631039280245400050e+03
8.365753613498299046e-01,1.050682159958900641e+01,-6.402821316439963439e+00,9.853237700196013082e-02,-1.938345885549112163e-02,9.949440447568290713e-01,1.636281754133308368e+03
8.486667081638539223e-01,1.056514523954416163e+01,-6.386364923467366950e+00,7.872917132844260701e-02,-3.875201109530925642e-02,9.961415558093054123e-01,1.638253231754998524e+03
8.872681682849457019e-01,1.078657297225726630e+01,-6.306244271600567330e+00,5.886544680331277923e-02,-5.809076941535877558e-02,9.965732896649827088e-01,1.644798617055268551e+03
9.149710210610052519e-01,1.098143110536101830e+01,-6.223370588848884388e+00,3.895647135642958669e-02,-7.738486942702080262e-02,9.962389147767441999e-01,1.649936422859968388e+03
9.438994906410018704e-01,1.125560522470972202e+01,-6.092589268723110685e+00,1.901754767376444971e-02,-9.661948106263730518e-02,9.951386881997390521e-01,1.656481808160238415e+03
9.545272338042877225e-01,1.142342301520594816e+01,-6.005481795409956192e+00,-9.359985444601274336e-04,-1.157798199546939688e-01,9.932734553938388222e-01,1.660148686695825063e+03
9.597650577887625323e-01,1.174840465285149094e+01,-5.826733717036071347e+00,-9.994701503669271014e-01,-0.000000000000000000e+00,3.251797235700859545e-02,1.666694071996095090e+03
9.518450849888325793e-01,1.203194551625871433e+01,-5.665802500782506357e+00,-9.891397142581442870e-01,-1.390294292444981539e-01,4.765966304714881752e-02,1.671978387122397407e+03
9.314519321051711875e-01,1.241065183677180883e+01,-5.449344689303426748e+00,-9.593576451450694931e-01,-2.753247902343647358e-01,6.186411386887168823e-02,1.678523772422667435e+03
9.279326955116220521e-01,1.246389953202643675e+01,-5.419191813344307107e+00,-9.107096217100091318e-01,-4.062058149930269924e-01,7.485199256834783321e-02,1.679380621676957617e+03
