8.480948034844224548e-01,-1.984407227387605444e+00,-4.413358753694378578e+00,-6.427004702405183512e-01,-6.884347752193945569e-01,3.361423297085481821e-01,1.447512907653909053e+02
1.666256865233965712e-01,-2.090263272499404579e+00,-5.378506764863876022e+00,-4.732093997209471659e-01,-6.382676163046114848e-01,6.071946261237858300e-01,1.512966760656610177e+02
-5.400442032387153812e-01,-2.268773466015319151e+00,-6.317086748618356395e+00,-2.541670015400347982e-01,-5.212652658817372719e-01,8.146653656040772074e-01,1.578420613659311300e+02
-1.080662417344872894e+00,-2.455943960862907449e+00,-7.003874308959435524e+00,-8.509987894274265857e-03,-3.496795025698971604e-01,9.368296673303000421e-01,1.628369048658720999e+02
-1.771582881995470427e+00,-2.760849386034983421e+00,-7.853159359784767979e+00,-3.338956043043544986e-01,-7.424407143437659062e-01,5.807697574016671416e-01,1.693822901661422122e+02
-2.223523621532881300e+00,-3.005760040815208534e+00,-8.392536012198577922e+00,-5.300915303213886709e-01,-8.479392486978079013e-01,0.000000000000000000e+00,1.738774042296837194e+02
-2.837347541015884822e+00,-3.404036853653583439e+00,-9.101043082007969076e+00,-9.999989999998206702e-01,-0.000000000000000000e+00,-0.000000000000000000e+00,1.804227895299538318e+02
-3.398154086111877081e+00,-3.828656585404899282e+00,-9.719386184392709183e+00,-8.660359688753014318e-01,-4.851305238750385634e-02,4.976205224496261237e-01,1.869681748302239441e+02
-3.628084126434483192e+00,-4.031786084923281166e+00,-9.958039916126933733e+00,-5.000389290562227140e-01,-8.402819019384548394e-02,8.619155020542174084e-01,1.899938190255517441e+02
-4.054676024671633350e+00,-4.474800441932199391e+00,-1.036208857360819735e+01,-6.799996278746933513e-05,-9.702994690100219533e-02,9.952804553393421738e-01,1.965392043258218564e+02
-4.157923224505871040e+00,-4.603808850896601079e+00,-1.044578516016269809e+01,3.246830178770680059e-02,-6.480014186036574253e-02,9.973689141847171813e-01,1.984780225039535253e+02
-4.424958464740550212e+00,-5.018244795924148960e+00,-1.059931506766965192e+01,6.493635159839644677e-02,-3.243415606078359215e-02,9.973611661529484529e-01,2.050234078042236376e+02
-4.613652331017350505e+00,-5.388276959080478434e+00,-1.062318031030599563e+01,9.726792459778155209e-02,0.000000000000000000e+00,9.952572284753349319e-01,2.115687931044937500e+02
-4.641402164053983981e+00,-5.463915836653116642e+00,-1.059932612038488209e+01,2.499018669913730950e-01,2.541836444697372355e-01,9.343113676708475479e-01,2.131970330455634439e+02
-4.642703859775266118e+00,-5.472387342393211895e+00,-1.059163029404013656e+01,3.796395242509267853e-01,4.850786862285858536e-01,7.877629718349029586e-01,2.134401989332307039e+02
-4.609183328260457735e+00,-5.617724447845073854e+00,-1.028623416325028828e+01,4.745942126363468794e-01,6.715302981810845617e-01,5.690390074134040743e-01,2.199855842335008163e+02
-4.525304563148379700e+00,-5.671863281721130967e+00,-9.915677244935471535e+00,5.260661211926201952e-01,7.964556449706428065e-01,2.981792107593254637e-01,2.265309695337709286e+02
-4.509630703752940839e+00,-5.666387222967705029e+00,-9.861915164056512140e+00,5.293393743997391043e-01,8.484089973069909307e-01,0.000000000000000000e+00,2.274044568476214181e+02
-4.370623409910666446e+00,-5.531394305960494862e+00,-9.448864524303159484e+00,6.075376243234049678e-01,7.797075178605343826e-01,1.514999063186102668e-01,2.339498421478915304e+02
-4.274207628560829697e+00,-5.381119677143843205e+00,-9.182322699292914336e+00,2.056789860367353451e-01,9.660057038023330822e-01,1.566114137700655717e-01,2.383110764775583164e+02
-4.143969938211253812e+00,-5.072400330522519596e+00,-8.814014829461186196e+00,-2.365391042692834844e-01,9.627504094020040704e-01,1.309919896256394878e-01,2.448564617778284287e+02
-4.052925819235334792e+00,-4.706276249725545036e+00,-8.498791356592999335e+00,-6.323425329657093030e-01,7.705801769340538954e-01,7.966876374981851638e-02,2.511634238544540949e+02
-4.015286339135967886e+00,-4.269242468250820544e+00,-8.214543605504866619e+00,-9.040649242080992520e-01,4.272037003286385803e-01,1.271264101641210453e-02,2.577088091547242357e+02
-4.039209418703853416e+00,-3.935211869577173172e+00,-8.042556861283397751e+00,-9.983881034636937768e-01,0.000000000000000000e+00,-5.673794905024299312e-02,2.622794179026915344e+02
-4.144988150881113498e+00,-3.435611639737059075e+00,-7.820260473332004914e+00,-9.177180431849187858e-01,-1.576963728929247632e-01,3.645866799399988811e-01,2.688248032029616752e+02
-4.297336161310386871e+00,-2.978381857493535456e+00,-7.613965991710431425e+00,-6.453451229989989324e-01,-2.824514811754954002e-01,7.097526562142785211e-01,2.748759631991309789e+02
-4.507415975495283611e+00,-2.517909645460221668e+00,-7.361120880078019901e+00,-2.381654151354098414e-01,-3.482050778892419318e-01,9.066578509920045770e-01,2.814213484994011196e+02
-4.747236454363366498e+00,-2.120500122535902143e+00,-7.047461256789075534e+00,2.187648692057442834e-01,-3.412217959916918897e-01,9.141704534394644588e-01,2.879667337996712604e+02
-4.997650221042756691e+00,-1.814335363604626883e+00,-6.638051797152791700e+00,0.000000000000000000e+00,-9.924842934886567436e-01,-1.223639128938432269e-01,2.945109145187357740e+02
-5.240108132304987620e+00,-1.624456153912209100e+00,-6.126579613034078164e+00,-0.000000000000000000e+00,-9.983890695156890649e-01,-5.672094713688979190e-02,3.010562998190059147e+02
-5.374527385092216392e+00,-1.587318620466755315e+00,-5.787428854454188532e+00,3.148822261806466516e-01,-9.485250810291029344e-01,3.387261866396656246e-02,3.049459099440690011e+02
-5.591493968333391074e+00,-1.635744077315199885e+00,-5.212468519448711035e+00,5.951763154270942602e-01,-7.944706970973700599e-01,1.207454554388153883e-01,3.114912952443391418e+02
-5.611770249775165809e+00,-1.648196266736476012e+00,-5.162470673976423008e+00,8.100934904732414177e-01,-5.531479447956112461e-01,1.943550561781810238e-01,3.120989834406892101e+02
-5.836809431823702710e+00,-1.845407078435903347e+00,-4.684754316603164881e+00,9.360262369457841292e-01,-2.510647953304693814e-01,2.466157989573179721e-01,3.186443687409593508e+02
-5.925190904669849878e+00,-1.934119807859504103e+00,-4.532225171452588519e+00,7.499804355356384233e-01,-6.434129735383985471e-01,1.534506168017697458e-01,3.211354544923415233e+02
-6.161548590516113144e+00,-2.173885378438093596e+00,-4.217380040361579319e+00,4.160157390090437612e-01,-9.088606525679626680e-01,3.002031163826633653e-02,3.276808397926116641e+02
-6.349012047073039788e+00,-2.346635257667558871e+00,-4.032183844087006364e+00,0.000000000000000000e+00,-9.950534475070934581e-01,-9.933094484754305398e-02,3.329351214666612009e+02
-6.501290004804111788e+00,-2.462104192255575086e+00,-3.922969905183570027e+00,3.800148993480943482e-01,-9.172565836790943505e-01,-1.192771393485804465e-01,3.374566577261890643e+02
-6.575885990625130795e+00,-2.502805909651963479e+00,-3.884981307087742586e+00,7.026999312624122584e-01,-7.010808394652924269e-01,-1.212289698851290037e-01,3.398844513119835824e+02
-6.701018037867639165e+00,-2.539017584369817726e+00,-3.841136885973180259e+00,9.193743660557834874e-01,-3.791390795087722365e-01,-1.048920084197613456e-01,3.443790851872035432e+02
-6.871581246762775486e+00,-2.536420143988619369e+00,-3.791452570724592963e+00,9.973505985893443837e-01,-0.000000000000000000e+00,-7.273089780338498622e-02,3.509244704874736840e+02
-7.043783111844355460e+00,-2.475879120897749530e+00,-3.722946328474881383e+00,9.984358224692105876e-01,-0.000000000000000000e+00,-5.589193408241993621e-02,3.574698557877438247e+02
-7.235389147169348334e+00,-2.355751063120537836e+00,-3.602447205520346696e+00,9.948943568937449466e-01,-0.000000000000000000e+00,-1.009119347698617525e-01,3.640152410880139655e+02
-7.247287426174364278e+00,-2.346393048699744632e+00,-3.592122828233757392e+00,9.973505985551252007e-01,-0.000000000000000000e+00,-7.273089780088957956e-02,3.643601103569671409e+02
-7.398805385058955686e+00,-2.212269722583971809e+00,-3.432509900693452742e+00,9.881347668376230242e-01,-1.422620706095885090e-01,-5.787215076702188071e-02,3.680920722421590199e+02
-7.701208127271931936e+00,-1.913448488515749002e+00,-3.071847404515606783e+00,9.586184427246579043e-01,-2.816014836783764519e-01,-4.182446245859729184e-02,3.746374575424291606e+02
-7.835661355854640853e+00,-1.763916611834916770e+00,-2.897040955379990290e+00,9.094080086275146968e-01,-4.151556227239283081e-01,-2.491751926522597221e-02,3.772939840628650927e+02
-8.180456304938820367e+00,-1.320756726425771799e+00,-2.414088644680069784e+00,8.415144439350737970e-01,-5.401807204445271404e-01,-7.498660542989006063e-03,3.838393693631352335e+02
-8.520172475256938327e+00,-7.982174183476571372e-01,-1.903861555201652234e+00,7.563325577487222118e-01,-6.541082260896939893e-01,1.007425689956718308e-02,3.903847546634053742e+02
-8.534642739261686373e+00,-7.719938062468979512e-01,-1.881236510621695501e+00,6.556123364257027131e-01,-7.545975743240379563e-01,2.744021048485238354e-02,3.906701809640483702e+02
-8.853340852262178373e+00,-9.304588699091843884e-02,-1.363864444470100246e+00,5.414229940796880802e-01,-8.395842715194969941e-01,4.424242872347518285e-02,3.972155662643185110e+02
-9.137693497057160386e+00,6.604023226771066346e-01,-8.633780135381976528e-01,4.161104640982614122e-01,-9.073223113874196999e-01,6.013572088857405129e-02,4.037609515645886518e+02
-9.365362960149377969e+00,1.480615862591754039e+00,-4.001093353381043327e-01,2.822492046098589169e-01,-9.564200481725279035e-01,7.479356891377172967e-02,4.103063368648587925e+02
-9.514228536829190119e+00,2.359189608121746051e+00,5.613897014905118443e-03,1.425893078400470027e-01,-9.858687899205494931e-01,8.791483578030764856e-02,4.168517221651289333e+02
-9.562394140100108686e+00,3.287053266740836754e+00,3.334708280265284430e-01,0.000000000000000000e+00,-9.950635238632341562e-01,9.922995251858045263e-02,4.233971074653990740e+02
-9.495428879134683697e+00,4.253515115180092288e+00,5.694992150529584185e-01,1.424789733973628736e-01,-9.852210307704760694e-01,9.506451844487004421e-02,4.299424927656692148e+02
-9.313647776905403575e+00,5.245603444960220685e+00,7.124464484227013283e-01,2.820493051956117769e-01,-9.552657194356454218e-01,8.895838751767663755e-02,4.364878780659393556e+02
-9.024942157053891023e+00,6.249480812291261067e+00,7.674203367951247801e-01,4.158617325432778511e-01,-9.058091142670889884e-01,8.103621361323018468e-02,4.430332633662094963e+02
-8.871836269934371799e+00,6.649918285490076464e+00,7.560161223808753439e-01,5.411845380528504945e-01,-8.378608497694386426e-01,7.145972429402329407e-02,4.456396917800642541e+02
-8.397508558856108252e+00,7.647637447794996213e+00,6.473485110523552466e-01,6.554593166731028653e-01,-7.528080590381063253e-01,6.042441918429638376e-02,4.521850770803343949e+02
-7.836643429092315927e+00,8.624232864798837994e+00,4.630020793531500201e-01,7.563532043311478326e-01,-6.523870557564188655e-01,4.815557890379809636e-02,4.587304623806045356e+02
-7.198351912156542909e+00,9.566757572527629705e+00,2.081205851735437873e-01,8.418065021158088745e-01,-5.386478878567106943e-01,3.490366604192239597e-02,4.652758476808746764e+02
-6.492096289317980329e+00,1.046254446560418039e+01,-1.121438359031153992e-01,9.100747237985129523e-01,-4.139124865250095042e-01,2.093921206460402570e-02,4.718212329811448171e+02
-5.727686870663217356e+00,1.129921426641421078e+01,-4.926312817580880687e-01,9.597642083558117765e-01,-2.807272649628585470e-01,6.547294538873775840e-03,4.783666182814149579e+02
-4.915278703866364118e+00,1.206468343581198610e+01,-9.281746955895907591e-01,9.898605705400432830e-01,-1.418111346030533071e-01,-7.978282579118631257e-03,4.849120035816850987e+02
-4.065368213018079047e+00,1.274717202414015027e+01,-1.413600478402781802e+00,9.997494087567809773e-01,-0.000000000000000000e+00,-2.234098678773217481e-02,4.914573888819552394e+02
-3.188789767882355353e+00,1.333521146133112190e+01,-1.943729102087527583e+00,9.420967208487663891e-01,-3.323399494299853485e-01,-4.474289417712860872e-02,4.980027741822253802e+02
-2.296712186884504181e+00,1.381765228409626189e+01,-2.513375726304786006e+00,7.767853432613935905e-01,-6.267013566998326235e-01,-6.203176610225660109e-02,5.045481594824955209e+02
-1.399787834757429739e+00,1.418596530439419290e+01,-3.117137238176235670e+00,5.227064052948828810e-01,-8.494460335494309344e-01,-7.223191781870144657e-02,5.110935447827656617e+02
-5.069875072864580279e-01,1.443781165487313523e+01,-3.749197551001026252e+00,1.252991905378432747e-01,-9.897556457570296784e-01,-6.842422482583088161e-02,5.176389300830358025e+02
3.739703651408505247e-01,1.457599605898448303e+01,-4.403560107239131938e+00,-2.943656942181576697e-01,-9.542507911381203911e-01,-5.246204036702054735e-02,5.241843153833059432e+02
1.141269237111684376e+00,1.460222296270870679e+01,-5.000841451104327540e+00,-6.617412723925100160e-01,-7.492380753412708483e-01,-2.718078127480832995e-02,5.300117934853070665e+02
1.977024504792247894e+00,1.452723213331089980e+01,-5.682550471908755618e+00,-9.115687543675963234e-01,-4.111348059219654405e-01,2.928723261015717116e-03,5.365571787855772072e+02
2.779723455851322189e+00,1.435165657193981481e+01,-6.369269896040647971e+00,-9.994701503667530185e-01,-0.000000000000000000e+00,3.251797235700292638e-02,5.431025640858473480e+02
3.542329209871643680e+00,1.408039571128406031e+01,-7.055014938713854988e+00,-9.995546131507976328e-01,-0.000000000000000000e+00,2.980897969389461125e-02,5.496479493861174888e+02
4.257935646521718631e+00,1.371854332883971317e+01,-7.733800908442639788e+00,-9.996317334341437988e-01,-0.000000000000000000e+00,2.709976850510687624e-02,5.561933346863876295e+02
4.919769480718324317e+00,1.327138457432641694e+01,-8.399643915580572440e+00,-9.997015106261937234e-01,-0.000000000000000000e+00,2.439035861585225548e-02,5.627387199866577703e+02
5.521192311719453016e+00,1.274439296021336077e+01,-9.046561580789822088e+00,-9.997639442190082715e-01,-0.000000000000000000e+00,2.168076985371731810e-02,5.692841052869279110e+02
6.055702645927671490e+00,1.214322731581497550e+01,-9.668573743376763119e+00,-9.998190337577774756e-01,-0.000000000000000000e+00,1.897102204756331151e-02,5.758294905871980518e+02
6.516937893186954156e+00,1.147372870541868473e+01,-1.025970316943253735e+01,-9.998667788408237556e-01,-0.000000000000000000e+00,1.626113502738769923e-02,5.823748758874681926e+02
6.898676336359502059e+00,1.074191731090980539e+01,-1.081397625971691134e+01,-9.999071791196048054e-01,-0.000000000000000000e+00,1.355112862418566926e-02,5.889202611877383333e+02
7.194839073970875631e+00,9.953989279365206500e+00,-1.132542375721881811e+01,-9.999402342987159242e-01,-0.000000000000000000e+00,1.084102266981162507e-02,5.954656464880084741e+02
7.399491935712974922e+00,9.116313536093006320e+00,-1.178808145432833854e+01,-9.999659441358913492e-01,-0.000000000000000000e+00,8.130836996840693984e-03,6.020110317882786148e+02
7.506847370599506242e+00,8.235428563595339924e+00,-1.219599089955924143e+01,-9.999843084420071415e-01,-0.000000000000000000e+00,5.420591438430220725e-03,6.085564170885487556e+02
7.510474302418929327e+00,7.862962503005809012e+00,-1.233730034295944833e+01,-9.999953270810815198e-01,-0.000000000000000000e+00,2.710305828181242861e-03,6.112118990049212925e+02
7.417004787367452501e+00,6.912742503240148828e+00,-1.262182998153472724e+01,-9.999989999702768584e-01,-0.000000000000000000e+00,0.000000000000000000e+00,6.177572843051914333e+02
7.216150781204087927e+00,5.937046324808506803e+00,-1.283878949511173317e+01,-9.968393637006955910e-01,2.792006391164553875e-02,7.436230906148055819e-02,6.243026696054615741e+02
6.913273249479167326e+00,4.944280015020360075e+00,-1.298669324063264341e+01,-9.873804219649419123e-01,5.566369197058487067e-02,1.482546988043670078e-01,6.308480549057317148e+02
6.517473611152844626e+00,3.943125314927363956e+00,-1.306554570895093015e+01,-9.716819493018691301e-01,8.305556447459512548e-02,2.212102226656958159e-01,6.373934402060018556e+02
6.038063852551546873e+00,2.941977170486051563e+00,-1.307535954817575430e+01,-9.498431495317978257e-01,1.099225846315175920e-01,2.927678545820314726e-01,6.439388255062719963e+02
5.484563168670051780e+00,1.948939044846872415e+00,-1.301615556189191558e+01,-9.220020288438720568e-01,1.360949724024907992e-01,3.624754023319576302e-01,6.504842108065421371e+02
4.866694563967684850e+00,9.718182914198129074e-01,-1.288796270665485366e+01,-8.883345236544130108e-01,1.614073373819897850e-01,4.298923650451910161e-01,6.570295961068122779e+02
4.194381413028320793e+00,1.812158842407557424e-02,-1.269081808876171280e+01,-8.490533887796649637e-01,1.856997239352531914e-01,4.945927168220098369e-01,6.635749814070824186e+02
3.477743981457845468e+00,-9.049495643769303044e-01,-1.242476696029853400e+01,-8.044068529509258436e-01,2.088186219891777218e-01,5.561675988741143772e-01,6.701203667073525594e+02
2.727095907398856323e+00,-1.790503286058276133e+00,-1.208986271446186045e+01,-7.546770501698247813e-01,2.306179370899608672e-01,6.142279031765300878e-01,6.766657520076227001e+02
1.952940644046271546e+00,-2.631961691344758769e+00,-1.168616688015668892e+01,-7.001782368174914728e-01,2.509599135982866769e-01,6.684067313060230164e-01,6.832111373078928409e+02
1.165967863549230543e+00,-3.423065203168270010e+00,-1.121374911587209944e+01,-6.412548057846344518e-01,2.697160051890484245e-01,7.183617129303992987e-01,6.897565226081629817e+02
5.853374912821363019e-01,-3.965886296446376136e+00,-1.081518780169255045e+01,-5.782791101715928361e-01,2.867676871556095186e-01,7.637771692999888451e-01,6.945787647614342859e+02
-1.942712381615001871e-01,-4.643483047958625320e+00,-1.020571690699547851e+01,-5.116491103101931115e-01,3.020072053863160355e-01,8.043661080719801681e-01,7.011241500617044267e+02
-9.563324897596624519e-01,-5.255313927959929465e+00,-9.527757684379729142e+00,-4.417858589751386678e-01,3.153382572810632944e-01,8.398720368638675771e-01,7.076695353619745674e+02
-1.691351763559579169e+00,-5.794387495365139529e+00,-8.779316111791585442e+00,-3.691308406746946491e-01,3.266766003056750800e-01,8.700705840774212163e-01,7.142149206622447082e+02
-1.889781829724653583e+00,-5.925357916287660842e+00,-8.545837321603089620e+00,-2.941431818321563751e-01,3.359505843389521962e-01,8.947709167520231377e-01,7.160708230758001491e+02
-2.551322838511670188e+00,-6.302246274695715300e+00,-7.642104911814916690e+00,-2.172967494852022785e-01,3.431016044486204231e-01,9.138169464883021398e-01,7.226162083760702899e+02
-3.173082085375912964e+00,-6.580228389790634402e+00,-6.651115549735775012e+00,2.039378542712327880e-01,3.347537607935365811e-01,9.199713426120417203e-01,7.291615936763404306e+02
-3.753853902580241098e+00,-6.747647536923058631e+00,-5.581876236888296816e+00,0.000000000000000000e+00,5.892782266479643649e-01,-8.079289396969684400e-01,7.357069789766105714e+02
-3.894027901053626284e+00,-6.761213932428971063e+00,-5.294144394971916689e+00,-2.272997664333986385e-03,5.869383968792458717e-01,-8.096271680507687307e-01,7.373958824033109067e+02
-4.406216155008849000e+00,-6.698972360996221731e+00,-4.171413618337306062e+00,-1.622507831047444648e-03,7.886419019143875442e-01,-6.148490205032044464e-01,7.439412677035810475e+02
-4.702988522702964858e+00,-6.593408832605295089e+00,-3.512452172840646369e+00,-8.444508831759677502e-04,9.283396920823987486e-01,-3.717293410633717987e-01,7.479009542327726194e+02
-5.184040330344513947e+00,-6.310234446427917199e+00,-2.496657737197311988e+00,-0.000000000000000000e+00,9.950482571503992402e-01,-9.938292580604385362e-02,7.544463395330427602e+02
-5.667021640316133535e+00,-5.921063448050747802e+00,-1.591348397990724584e+00,7.901121582998402726e-01,4.634195063229082368e-02,6.112063488867673922e-01,7.609917248333129010e+02
-5.938788866428120095e+00,-5.651985497065979303e+00,-1.170284239789143532e+00,5.805297106698704968e-02,-9.983125024511574352e-01,0.000000000000000000e+00,7.646008626906512973e+02
-6.440003052682920170e+00,-5.074327171019487714e+00,-5.647457315465574945e-01,9.497874378631574466e-01,-2.078098770065980525e-02,-3.122018152216636810e-01,7.711462479909214380e+02
-6.938510002016354150e+00,-4.422517974103588045e+00,-1.187909279593263728e-01,9.059247234184170106e-01,-1.778757664299201666e-02,-4.230626402979147382e-01,7.776916332911915788e+02
-7.421536882283714220e+00,-3.718515574451244809e+00,1.757832308720916614e-01,8.491770116206651675e-01,-1.454117278469294755e-02,-5.279062011651689534e-01,7.842370185914617196e+02
-7.876986053377851071e+00,-2.984649989043895335e+00,3.298728550024920825e-01,7.803514296083785551e-01,-1.108794971053076069e-02,-6.252413163563879106e-01,7.907824038917318603e+02
-8.293439194031799744e+00,-2.243607925983146512e+00,3.543907430258294577e-01,7.004268829737163582e-01,-7.477022466836866742e-03,-7.136835963803863647e-01,7.973277891920020011e+02
-8.625937600841393049e+00,-1.587127658796743779e+00,2.689798053326836746e-01,6.105401335473777946e-01,-3.759749050541292235e-03,-7.919751319420400559e-01,8.032508589282145977e+02
-8.934765130024914015e+00,-8.995067787898203271e-01,6.611405752336207975e-02,5.119696326533494934e-01,1.099999210732434415e-05,-8.590023836516301747e-01,8.097962442284847384e+02
-9.170425587610273155e+00,-2.703807641232031100e-01,-2.327510484810318414e-01,4.688867911122154286e-01,-5.443672211206090211e-02,-8.815780285407741612e-01,8.163416295287548792e+02
-9.203376180993902977e+00,-1.462844764945602227e-01,-3.181935107035902544e-01,4.233046256629160453e-01,-1.085942659748834749e-01,-8.994545454271737350e-01,8.178054252697601214e+02
-9.245424727822205924e+00,3.243204814053326501e-01,-7.723567840026079878e-01,3.754661056307743716e-01,-1.621729543168063670e-01,-9.125366493520332689e-01,8.243508105700302622e+02
-9.157322014933159338e+00,6.977500771667344281e-01,-1.284003152572946282e+00,3.256262268611889721e-01,-2.148871957669992727e-01,-9.207546108902709969e-01,8.308961958703004029e+02
-8.901738371949324602e+00,9.594533273984033883e-01,-1.830478214955294947e+00,2.740506525458014098e-01,-2.664560070425104343e-01,-9.240646276913966339e-01,8.374415811705705437e+02
-8.880144865249125274e+00,9.661873510708514079e-01,-1.856564318588781903e+00,2.210142972178568976e-01,-3.166045105517537595e-01,-9.224490578475901259e-01,8.377474125983546855e+02
-8.177361737198467040e+00,9.872077838369165415e-01,-2.407733119406472611e+00,1.667998614608902919e-01,-3.650653994462616514e-01,-9.159165138505396264e-01,8.442927978986248263e+02
-7.227523425860526096e+00,8.773812606399736813e-01,-2.897041497582736547e+00,1.116963251363103510e-01,-4.115803623184470239e-01,-9.045018166400822235e-01,8.508381831988949671e+02
-6.667725009896622979e+00,7.627557790119564585e-01,-3.068977217251404266e+00,5.599740715554483994e-02,-4.559014599581741045e-01,-8.882658099916752592e-01,8.540388386169396426e+02
-5.411311480810335972e+00,4.104701414296406670e-01,-3.268913719147911401e+00,0.000000000000000000e+00,-4.977924468361116794e-01,-8.672950362322737750e-01,8.605842239172097834e+02
-4.367656635481893090e+00,3.286937057526563566e-02,-3.338161037297764366e+00,0.000000000000000000e+00,9.999989999984911497e-07,9.999989999984910671e-01,8.659137601400203721e+02
-3.136077919613019738e+00,-5.321473538507682788e-01,-3.344167291006955978e+00,7.364161080998153919e-01,-4.016585135368463400e-01,-5.443893406703790294e-01,8.724403359150708184e+02
-1.999990499375512432e+00,-1.198260725017669559e+00,-3.300621929807381338e+00,3.783536023995333064e-01,-7.581172033173414482e-01,-5.311354418456750714e-01,8.789857212153409591e+02
-1.015851928586792186e+00,-1.938178354772826184e+00,-3.231953894388289061e+00,0.000000000000000000e+00,-9.999989999993195479e-07,9.999989999993197376e-01,8.854289603144549119e+02
-1.696311564580494091e-01,-2.742500762270521975e+00,-3.151203588767018893e+00,-5.625584947876330899e-01,-2.477434527945129167e-02,8.263850021382376232e-01,8.919743456147250527e+02
3.334374640135353562e-01,-3.337947922638838438e+00,-3.091638177121282638e+00,-9.297807644446979269e-01,-4.094533697034682257e-02,3.658267478601846534e-01,8.967412072044597835e+02
8.722008945278597603e-01,-4.137649036090230048e+00,-3.016811784810215169e+00,-9.741568796143654785e-01,-4.289895066157303760e-02,-2.217567449557903969e-01,9.032865925047299243e+02
1.265377332561416823e+00,-4.889975733347040610e+00,-2.956799972404306587e+00,-9.669949057261127967e-01,-2.495360547463726930e-01,5.148407212458168403e-02,9.098319778050000650e+02
1.525762887883580055e+00,-5.561307807892649890e+00,-2.916331850323015562e+00,-8.462971075998511061e-01,-4.268749063444198244e-01,3.186801217563472455e-01,9.163773631052702058e+02
1.589340766591850640e+00,-5.803061512577416536e+00,-2.906531923604891876e+00,-6.262347092911093593e-01,-5.540939591836693268e-01,5.484596368706433633e-01,9.192062492679181105e+02
1.640878712892420710e+00,-6.224739981018611701e+00,-2.897042544456232882e+00,-3.326454625832268031e-01,-6.162562823839733417e-01,7.138439539886456409e-01,9.257516345681882513e+02
1.616679701506371636e+00,-6.484115581097663394e+00,-2.898251074925827897e+00,-0.000000000000000000e+00,-6.060633378291321316e-01,7.954151309477166532e-01,9.322970198684583920e+02
1.589456727256002511e+00,-6.512509090499216668e+00,-2.903148369154007646e+00,-6.696665005626396550e-01,1.278249046681700085e-01,7.315774543894424387e-01,9.346156455443504001e+02
1.474525786322504306e+00,-6.412061074284333806e+00,-2.930988167756638507e+00,-8.245604879486149175e-01,2.587171993111636037e-01,5.031534681340547044e-01,9.411610308446205408e+02
1.331169816093396907e+00,-6.143696260133675757e+00,-2.969946360574025945e+00,-9.025207748661691065e-01,3.654704285613676329e-01,2.277841451539880102e-01,9.477064161448906816e+02
1.168201435497380203e+00,-5.726824413943207404e+00,-3.015537875574146209e+00,-8.962736280308324366e-01,4.381243293420082896e-01,-6.883789462652249724e-02,9.542518014451608224e+02
9.938457193775248610e-01,-5.181260994318397373e+00,-3.063715337918306858e+00,-8.279397540892824425e-01,4.644665520217173826e-01,3.143001521692169731e-01,9.607971867454309631e+02
9.739362623172930222e-01,-5.110057382156543149e+00,-3.068945877918165088e+00,-6.336277637610133739e-01,4.201362269486358936e-01,6.496148149467396715e-01,9.615062579861255472e+02
7.852659879226838724e-01,-4.352451184932910166e+00,-3.115820247733323889e+00,-3.429038021944998960e-01,3.118785447757426721e-01,8.860850725244010517e-01,9.680516432863956879e+02
6.482892393932382369e-01,-3.728237185018661304e+00,-3.147964195118720721e+00,-3.999995304135573277e-06,1.561658166664089964e-01,9.877298404372834018e-01,9.728923574258250255e+02
4.726011908488945701e-01,-2.815700876598558722e+00,-3.185343879834114045e+00,-3.654593722041262205e-01,-4.643007092146156367e-01,8.067603725333030162e-01,9.794377427260951663e+02
3.148540475700604135e-01,-1.853176198681210529e+00,-3.213170623698541561e+00,-5.294416305763052222e-01,-8.288043315543502931e-01,1.810329798898213105e-01,9.859831280263653071e+02
1.818534565432916306e-01,-8.608142710011033039e-01,-3.227525719831372264e+00,-4.015486972677028699e-01,-7.363974448212843305e-01,-5.444955894983555256e-01,9.925285133266354478e+02
1.547028175868803701e-01,-6.103042009404975321e-01,-3.226970646953364330e+00,-4.595974337848381386e-01,-8.868719073909389072e-01,4.718494186906293381e-02,9.941600517329895865e+02
7.350618148716964173e-02,3.945145303305045981e-01,-3.205716083537627714e+00,-0.000000000000000000e+00,1.466699169441398019e-02,9.998914337840719702e-01,1.000705437033259727e+03
2.984985720031792938e-02,1.383327488771542768e+00,-3.161788377835454522e+00,1.637731169484086535e-01,2.246807354469908605e-02,9.862411225631508849e-01,1.007250822333529868e+03
2.671116587546487967e-02,2.153482814223415254e+00,-3.104140649409395714e+00,3.231130308860172273e-01,2.966096776122240097e-02,9.458943895920182143e-01,1.012534515054157623e+03
6.522741089032309258e-02,3.055257076347074552e+00,-3.000283422347767459e+00,4.737066590282825174e-01,3.605097405068663496e-02,8.799433666211033955e-01,1.019079900354427764e+03
1.498175359315186972e-01,3.886175974249886256e+00,-2.858746005318594907e+00,0.000000000000000000e+00,1.466699169439773104e-02,9.998914337829643006e-01,1.025625285654697791e+03
2.819335243161561477e-01,4.627406217474500316e+00,-2.674455028527625622e+00,1.476680042147909544e-01,2.035193646738437875e-02,9.888265566880370949e-01,1.032170670954967818e+03
4.179915157240897128e-01,5.111810575420420832e+00,-2.498299748212517546e+00,2.920930421852076520e-01,2.558993689787549680e-02,9.560464475302475895e-01,1.037160837249594579e+03
6.419667082604118002e-01,5.626548519568593143e+00,-2.217088672317806264e+00,4.301035175183402504e-01,3.026596604823504968e-02,9.022709878501662395e-01,1.043706222549864606e+03
9.050886420390006348e-01,6.010346282189193090e+00,-1.882919210375268548e+00,0.000000000000000000e+00,9.997078536730037435e-01,-2.412897233222458665e-02,1.050251607850134633e+03
1.187225844301041500e+00,6.264153013314358809e+00,-1.494441770875476916e+00,-0.000000000000000000e+00,9.997078529671034053e-01,-2.412897231518696187e-02,1.056796993150404660e+03
1.294152683244184088e+00,6.315245088032371612e+00,-1.324574041369934063e+00,-4.272875887421053731e-01,2.998997113510264850e-02,9.036171302820669160e-01,1.059310682662409818e+03
1.553186052134327921e+00,6.340923008921542703e+00,-8.320926867225231227e-01,-6.987333367983128429e-01,2.871261969176033477e-02,7.148043854910538508e-01,1.065856067962679845e+03
1.776757468500760773e+00,6.280207221674498186e+00,-2.967170759606419517e-01,-8.937831490307434068e-01,2.429597686784608357e-02,4.478385736137356354e-01,1.072401453262949872e+03
1.871810740344354906e+00,6.212813678880645618e+00,1.569179993932572417e-02,-9.527974248425070680e-01,2.610570416425938081e-02,3.024790231142414632e-01,1.075989233689780121e+03
1.987726154434345416e+00,6.047782540498525705e+00,6.109635884961364116e-01,-9.883582010250796523e-01,2.727282882079828247e-02,1.496738429893562927e-01,1.082534618990050149e+03
2.041740145166397902e+00,5.862804069527701500e+00,1.219561277033293534e+00,-9.995901415046073435e-01,2.776862179618357421e-02,-6.815618161428407817e-03,1.089080004290320176e+03
2.030067503681438179e+00,5.683473430887890920e+00,1.827954148400847689e+00,-9.862167656753878520e-01,2.758087891120569388e-02,-1.631373231964951542e-01,1.095625389590590203e+03
2.015397024586535135e+00,5.654958914348392263e+00,1.938979681105088337e+00,-9.485672543892914588e-01,2.671422126286179810e-02,-3.154433614500902761e-01,1.096841725917567601e+03
1.867783559893712475e+00,5.542948458816864488e+00,2.517478332514086148e+00,-8.875683493731688634e-01,2.518998153463011813e-02,-4.599846628109104940e-01,1.103387111217837628e+03
1.652204339474800721e+00,5.491052280177715517e+00,3.066827812041736046e+00,-7.929889162718402051e-01,2.348173490788356410e-02,-6.087817234400488831e-01,1.109932496518107655e+03
1.569612806517465931e+00,5.497612046532094787e+00,3.218510015452345385e+00,-6.737564233258092061e-01,2.104346952223577413e-02,-7.386524584786653413e-01,1.111877068987771281e+03
1.236383233860993691e+00,5.603590369399322313e+00,3.683144164195492731e+00,-5.335776174011365169e-01,1.795098712834449980e-02,-8.455593936963387014e-01,1.118422454288041308e+03
8.583550845361640480e-01,5.800901569534736346e+00,4.094432023857728531e+00,-3.743866177412105700e-01,1.935856079735003357e-02,-9.270695262926781366e-01,1.124967839588311335e+03
4.491621974600625844e-01,6.084760974953496770e+00,4.446520447327447556e+00,-2.032198784526524915e-01,2.014689812426409196e-02,-9.789248099308833773e-01,1.131513224888581362e+03
2.304181950890129768e-02,6.443582127644188695e+00,4.735277587210125816e+00,-2.555262735446115277e-02,2.029078237298563223e-02,-9.994665313989493649e-01,1.138058610188851389e+03
-3.019616422954353452e-02,6.495207915123734743e+00,4.762503255892661436e+00,1.529319800560061948e-01,1.978561124316039269e-02,-9.880376202678674558e-01,1.138860141434578054e+03
-4.656613667412589641e-01,6.972734077924134688e+00,4.916092158585757765e+00,3.265246469515879491e-01,1.864754402230164518e-02,-9.450036635038708832e-01,1.145405526734848081e+03
-6.389477614565539643e-01,7.185470363120823656e+00,4.949265354868719768e+00,4.896725565857655282e-01,1.691298468474890931e-02,-8.717412106103223923e-01,1.148053578703284984e+03
-1.057288707422539664e+00,7.747535117032223084e+00,4.955811158464915600e+00,4.819185392894427267e-01,1.678396616534519672e-02,-8.760541192743348526e-01,1.154598964003555011e+03
-1.466970144084011052e+00,8.331320818482620183e+00,4.880977003975969453e+00,4.741265793927953998e-01,1.665362611414406696e-02,-8.802980423581512337e-01,1.161144349303825038e+03
-1.507315243291823981e+00,8.388981156018921581e+00,4.865095472669680454e+00,4.662972870224132982e-01,1.652197473758049845e-02,-8.844726476241844271e-01,1.161785984944732490e+03
-1.927371340950499334e+00,8.971778527733880182e+00,4.611348001768226013e+00,0.000000000000000000e+00,-8.566789209254577209e-02,-9.963227450298078880e-01,1.168331370245002518e+03
-2.300848952765807365e+00,9.463341510371826359e+00,4.307862702548200140e+00,1.907265185379168615e-01,-3.602513385871322638e-01,-9.131486013642159394e-01,1.173990410582729510e+03
-2.741245854952456096e+00,1.000952378500784512e+01,3.853582430062277187e+00,3.588155418935495278e-01,-5.920762440852891384e-01,-7.215920787300234007e-01,1.180535795882999537e+03
-3.167948639367963448e+00,1.053215427910325808e+01,3.289615998976484157e+00,5.623752087482116746e-01,-6.127230732625684739e-01,-5.552499978176599349e-01,1.187081181183269564e+03
-3.494846153865280414e+00,1.095709653586860810e+01,2.710900657183034301e+00,7.268315228409760742e-01,-5.907656121671474025e-01,-3.502997700310304663e-01,1.192657969127693832e+03
-3.811420906514041196e+00,1.143547400930166447e+01,1.923515936179917230e+00,9.796526068681459254e-01,-0.000000000000000000e+00,2.006957145972041445e-01,1.199203354427963859e+03
-3.881743074609057320e+00,1.157092519242693918e+01,1.668723845519799021e+00,9.796526061767043547e-01,-0.000000000000000000e+00,2.006957144555525374e-01,1.201110968549146264e+03
-4.044230930996447704e+00,1.202898175257565505e+01,7.342019810652672396e-01,9.994220091165006981e-01,-0.000000000000000000e+00,3.396538964094672486e-02,1.207656353849416291e+03
-4.054222004729577833e+00,1.208630718720415054e+01,6.126512445939672480e-01,9.910178181062265779e-01,-0.000000000000000000e+00,-1.337224147093227788e-01,1.208478945707734283e+03
-4.053232805153820451e+00,1.218288112665289447e+01,4.045786278780856282e-01,9.546769266714698610e-01,-0.000000000000000000e+00,-2.976406653671949121e-01,1.209865610689777441e+03
-3.951364271149850449e+00,1.263810819732750623e+01,-5.681873721142970401e-01,5.764363129601857150e-01,-1.163998612659590233e-03,-8.171400260715380170e-01,1.216410995990047468e+03
-3.866850520665913393e+00,1.281548389106274222e+01,-9.294365003357765165e-01,5.752485911879960945e-01,-0.000000000000000000e+00,-8.179774186878632225e-01,1.218977352460894735e+03
-3.689798493927760159e+00,1.305104547901647472e+01,-1.371955413729801787e+00,8.093453007876272309e-01,-0.000000000000000000e+00,-5.873314090814024668e-01,1.222448549475186155e+03
-3.540811467624704001e+00,1.319170169300431539e+01,-1.609636096997355326e+00,9.560334318755445704e-01,-0.000000000000000000e+00,-2.932542874999571891e-01,1.224607003153273808e+03
-2.964876017799575880e+00,1.357895675181552875e+01,-2.180400000947922301e+00,9.994709311545987296e-01,-0.000000000000000000e+00,3.249396525058984020e-02,1.231152388453543836e+03
-2.269793354815761166e+00,1.388231782414465698e+01,-2.565835907585169107e+00,7.342455860437712145e-01,2.131448798322355676e-01,6.445546366101320146e-01,1.237697773753813863e+03
-2.049913395823611761e+00,1.393138480387857570e+01,-2.620400518245500354e+00,6.355972790727207888e-01,2.092487626592402228e-01,7.431211571135819538e-01,1.239535596146444504e+03
-1.220351377589891539e+00,1.395704638505105777e+01,-2.627875877932253523e+00,3.390056985247803523e-01,1.547046385921709011e-01,9.279760832943718674e-01,1.246080981446714532e+03
-3.985215761968255999e-01,1.384887899299103253e+01,-2.449453616442584636e+00,0.000000000000000000e+00,8.080491350124668903e-02,9.967289330375299627e-01,1.252626366746984559e+03
4.449069234604567658e-02,1.373337110877439216e+01,-2.245756651756356526e+00,-0.000000000000000000e+00,-5.697617808899569924e-01,-8.218086839617149142e-01,1.256439075760270043e+03
2.691420581923538724e-01,1.364892425423768252e+01,-2.076052677830628301e+00,-0.000000000000000000e+00,-8.196919543029347333e-01,-5.728028457077191105e-01,1.258643091531374012e+03
6.833974665489019884e-01,1.343657633485468139e+01,-1.590364526129721900e+00,-0.000000000000000000e+00,-9.675956670008405425e-01,-2.525007429713789775e-01,1.263537512859439857e+03
1.108233472800739916e+00,1.313494384071605126e+01,-8.065201854805211790e-01,-0.000000000000000000e+00,-9.950635238630910484e-01,9.922995251856617238e-02,1.270082898159709885e+03
1.211774499734860067e+00,1.302733258354285262e+01,-4.854380907006065060e-01,-7.106647894182556435e-02,-9.958892682888376147e-01,-5.614375190484331007e-02,1.272415143416737919e+03
1.374867102929297369e+00,1.273405289291676468e+01,5.155230639183174812e-01,-1.400583455732360427e-01,-9.676428585422111039e-01,-2.098784365959770748e-01,1.278960528717007946e+03
1.424931318419235371e+00,1.245457263823922567e+01,1.595212662911135837e+00,-2.049615837855490730e-01,-9.111489017289806647e-01,-3.574862627444364560e-01,1.285505914017277973e+03
1.381729647108720593e+00,1.219403183680140579e+01,2.729061049626924529e+00,-2.638815393306136459e-01,-8.280566027130984441e-01,-4.946582617371571011e-01,1.292051299317548001e+03
1.266545907961552864e+00,1.195370206600919438e+01,3.893738728022551943e+00,-3.150982259606036617e-01,-7.207916139815140344e-01,-6.173901175202376468e-01,1.298596684617818028e+03
1.253974556276321817e+00,1.193717146312171096e+01,3.981567445980520148e+00,-3.571165318403607403e-01,-5.924852232852761968e-01,-7.220990533688523838e-01,1.299084628259237661e+03
1.043755819977190136e+00,1.173347930156790753e+01,5.161007389517949129e+00,-7.276310544702175864e-01,-4.777519535019162378e-01,-4.922439633936577796e-01,1.305630013559507688e+03
8.073109178755023541e-01,1.154779242760051439e+01,6.324162467456439174e+00,-9.502337949370633918e-01,-2.659020387987073297e-01,-1.623263402045622139e-01,1.312175398859777715e+03
5.645569654783662017e-01,1.137984209247358613e+01,7.449223328442763581e+00,-9.796745246597435841e-01,-0.000000000000000000e+00,2.005886979235719514e-01,1.318720784160047742e+03
3.627913429680229562e-01,1.125251661637301481e+01,8.372631297694253405e+00,-9.496783480520777365e-01,2.605848352475679253e-01,1.737946457230343800e-01,1.324381940622837419e+03
1.523473874504712999e-01,1.113080371984297301e+01,9.365038984947686274e+00,-8.536583387930555267e-01,5.030532556442118830e-01,1.349179847037371149e-01,1.330927325923107446e+03
-2.681584316478347746e-02,1.104038396204905403e+01,1.026722892091637185e+01,-6.982899759836863618e-01,7.105483052751740969e-01,8.666149844440869388e-02,1.337472711223377473e+03
-7.328683584466061385e-02,1.102343457999923970e+01,1.052004505304407189e+01,-4.943747774871898870e-01,8.686444092110158222e-01,3.238008233409372244e-02,1.339529752796983757e+03
-1.084333123242689628e-01,1.101900184377427117e+01,1.072693359257526957e+01,-2.560893881848012033e-01,9.663502897247936430e-01,-2.415249073566342816e-02,1.341451046296087952e+03
-2.044799926218633657e-01,1.104248214877381784e+01,1.133137447042579637e+01,-0.000000000000000000e+00,9.968731427319724725e-01,-7.900593205829645194e-02,1.347996431596357979e+03
-2.852677081468563136e-01,1.109898377606461750e+01,1.183523252663817438e+01,-0.000000000000000000e+00,9.968731420280737554e-01,-7.900593200250984049e-02,1.354541816896628006e+03
-3.013726483070254814e-01,1.111632521019412323e+01,1.192326620253076719e+01,-9.968817776734337777e-01,0.000000000000000000e+00,-7.889690326056407466e-02,1.355968761765152522e+03
-3.697204933850072317e-01,1.121052437264267176e+01,1.222658694746214181e+01,-8.996035960395879494e-01,-0.000000000000000000e+00,-4.367051293425207592e-01,1.362514147065422549e+03
-4.289988753812005173e-01,1.130984396669610703e+01,1.242764439833215562e+01,-6.786388523889902435e-01,-0.000000000000000000e+00,-7.344707673076221743e-01,1.369059532365692576e+03
-4.463403555310289095e-01,1.134389652414954419e+01,1.246306843008307830e+01,-3.643679506332873075e-01,-0.000000000000000000e+00,-9.312539914289851284e-01,1.371438322353818876e+03
-4.803513699375109303e-01,1.142338833950439714e+01,1.245570012732716592e+01,-0.000000000000000000e+00,-0.000000000000000000e+00,-9.999989999999968626e-01,1.377983707654088903e+03
-4.977432135694935811e-01,1.148285450206252278e+01,1.233904507283524055e+01,-0.000000000000000000e+00,-0.000000000000000000e+00,-9.999989992938940198e-01,1.384529092954358930e+03
-4.967460507804305481e-01,1.150490786841282720e+01,1.221080389554552070e+01,4.770155088648625474e-01,-0.000000000000000000e+00,-8.788937389147039037e-01,1.388136004714354613e+03
-4.953002266477188886e-01,1.150644439207393255e+01,1.218822866733566457e+01,8.384927114421110161e-01,-0.000000000000000000e+00,-5.449109770040920786e-01,1.388555737678094602e+03
-4.502562351765771465e-01,1.151707986046170795e+01,1.171903554611169085e+01,9.968779763717972031e-01,-0.000000000000000000e+00,-7.894491893667289484e-02,1.395101122978364629e+03
-3.790638998744546573e-01,1.151944512227720097e+01,1.114018198627225331e+01,0.000000000000000000e+00,-9.968312352734686188e-01,-7.953293898571152376e-02,1.401646508278634656e+03
-3.435370862952152327e-01,1.151951407824181217e+01,1.090000052242455908e+01,9.968779763718004228e-01,-0.000000000000000000e+00,-7.894491893667315852e-02,1.403961155374455302e+03
-2.147987006310068669e-01,1.152175448702637262e+01,1.012914551106343808e+01,9.968779756680579140e-01,-0.000000000000000000e+00,-7.894491888094226639e-02,1.410506540674725329e+03
-6.205206854843289127e-02,1.153064363843296647e+01,9.278308437798351349e+00,9.968779756681376281e-01,-0.000000000000000000e+00,-7.894491888094856691e-02,1.417051925974995356e+03
1.097995589817467865e-01,1.155251405505511997e+01,8.361683030939708772e+00,9.968779756681376281e-01,-0.000000000000000000e+00,-7.894491888094856691e-02,1.423597311275265383e+03
2.639551824196167962e-01,1.158665429473439268e+01,7.560563584143583427e+00,9.968779756680579140e-01,-0.000000000000000000e+00,-7.894491888094226639e-02,1.429009903517570365e+03
4.600666466061198445e-01,1.165147843395654625e+01,6.551858482071559742e+00,9.968779756678982640e-01,-0.000000000000000000e+00,-7.894491888092960985e-02,1.435555288817840392e+03
6.594078144909560901e-01,1.174034316511111697e+01,5.514581079143574094e+00,8.654850242191837184e-01,-0.000000000000000000e+00,5.009328026651488353e-01,1.442100674118110419e+03
8.544715625858803065e-01,1.185260473962629213e+01,4.460000685279603694e+00,4.280853374566496172e-01,-0.000000000000000000e+00,9.037372094363461672e-01,1.448646059418380446e+03
1.037731748193618797e+00,1.198785724760902305e+01,3.399388646531396496e+00,-1.606945259288301842e-01,-0.000000000000000000e+00,9.870031758845121406e-01,1.455191444718650473e+03
1.118397401715778283e+00,1.206582152304288336e+01,2.880465363322222583e+00,-6.926345852836913730e-01,-0.000000000000000000e+00,7.212872737059213835e-01,1.458405581212226934e+03
1.258115308474477834e+00,1.224818130030367769e+01,1.835964043224473929e+00,-9.796745246527556183e-01,-0.000000000000000000e+00,2.005886979221412070e-01,1.464950966512496962e+03
1.368381630332041965e+00,1.245220772675223841e+01,8.132052237941277406e-01,-9.796745239680101358e-01,-0.000000000000000000e+00,2.005886977819393013e-01,1.471496351812766989e+03
1.444456443834359671e+00,1.267368892275549364e+01,-1.774530938027990556e-01,-9.546707119062373126e-01,-0.000000000000000000e+00,-2.976605983800955091e-01,1.478041737113037016e+03
1.466133869607630480e+00,1.280871168748750044e+01,-7.250807690191451993e-01,-5.759863546495468389e-01,0.000000000000000000e+00,-8.174580840981896523e-01,1.481816523951514682e+03
1.462033002939919335e+00,1.305124550733534328e+01,-1.625653630444760855e+00,-5.741094901531109684e-01,1.828998375729459346e-03,-8.187752728738456609e-01,1.488361909251784709e+03
1.414548627199367470e+00,1.329840794576967333e+01,-2.469949872789798828e+00,-7.142513392294824737e-01,-6.601633892675022874e-01,-2.324377849664018281e-01,1.494907294552054736e+03
1.323534766766594206e+00,1.354694828439327203e+01,-3.249523357708084426e+00,-6.909293223264039163e-01,-7.037694872095299203e-01,-1.652972486784534401e-01,1.501423043705973669e+03
1.188811795017707285e+00,1.379808341373779257e+01,-3.968286057981820658e+00,-6.628030928795268784e-01,-7.424820735138013550e-01,-9.700737383533425406e-02,1.507968429006243696e+03
1.015005013428613934e+00,1.404536817067836907e+01,-4.623135747785657834e+00,-6.300682186579006361e-01,-7.760319778354356490e-01,-2.804298865262574297e-02,1.514513814306513723e+03
8.946885140048583818e-01,1.418148498252708833e+01,-4.975582227449112160e+00,-5.929523095498142604e-01,-8.041859244672568963e-01,4.111638951391416441e-02,1.518374598924670863e+03
6.719503061672881250e-01,1.438106350444080661e+01,-5.524770514967178414e+00,-5.517134353483502673e-01,-8.267481538638011829e-01,1.099898874307431995e-01,1.524919984224940890e+03
6.142298757340951543e-01,1.441954392851719291e+01,-5.651568562158390208e+00,-5.280479528939087119e-01,-8.089278374354500478e-01,2.584552442255338978e-01,1.526550447678494493e+03
3.834304535658882296e-01,1.451746410068772342e+01,-6.127930969250161120e+00,-4.922798141114153592e-01,-7.725672030845105454e-01,4.009968844490948148e-01,1.533095832978764520e+03
1.669877525623116865e-01,1.454639528019188610e+01,-6.580424168737443402e+00,-4.452288173351870992e-01,-7.184996318090275391e-01,5.343478074307480563e-01,1.539641218279034547e+03
1.395723807203047562e-01,1.453873966023000186e+01,-6.642423808530881324e+00,-3.879733591886269095e-01,-6.479643406929236349e-01,6.554516654581773460e-01,1.540574001202621048e+03
-2.838783715609651329e-02,1.439415017238661676e+01,-7.055979495333454921e+00,-3.218257168848318028e-01,-5.625779785886935169e-01,7.615328134495639167e-01,1.547119386502891075e+03
-1.778496994059904635e-01,1.414895905661908948e+01,-7.433271311740656806e+00,-2.483019704112895965e-01,-4.642975715967019301e-01,8.501599240738172414e-01,1.553664771803161102e+03
-3.157381892190661565e-01,1.378945035334447944e+01,-7.755726123981169451e+00,-1.690872541615728031e-01,-3.553756679351137149e-01,9.193017106052787657e-01,1.560210157103431129e+03
-3.363248033827620498e-01,1.371224178095816271e+01,-7.795990456239077382e+00,-8.599713451642683470e-02,-2.383087104372996201e-01,9.673734808163518828e-01,1.561251238058522858e+03
-4.540310218104456341e-01,1.311197046188009097e+01,-7.971670217594349239e+00,-9.359985444648231132e-04,-1.157798199552748097e-01,9.932734553988218362e-01,1.567796623358792885e+03
-5.513598853084099582e-01,1.244077385105210887e+01,-8.072191917530542327e+00,-5.684545205634657355e-04,-7.727672044147064490e-02,9.970085181847022637e-01,1.574342008659062913e+03
-5.588506746612097453e-01,1.236090726616434132e+01,-8.076640400689644395e+00,-2.000598030338650074e-04,-3.865797479661969155e-02,9.992514803373305776e-01,1.575088175139991336e+03
-5.924825820862076320e-01,1.165879794082793808e+01,-8.070489390173621658e+00,1.686343174595578804e-04,1.862528282389815335e-05,9.999989856050671699e-01,1.581633560440261363e+03
-6.010976061415270744e-01,1.099050851243508831e+01,-8.039001404316033828e+00,5.370761023278502327e-04,3.869520154464401590e-02,9.992499151474155683e-01,1.588178945740531390e+03
-5.994782883564609977e-01,1.092508677291528230e+01,-8.034704410004779973e+00,9.047141899907975475e-04,7.731387571767514566e-02,9.970053892075583235e-01,1.588887797873073396e+03
-5.671350799363680251e-01,1.040386569400570060e+01,-7.996936131628835653e+00,1.270998420251511071e-03,1.158168560489923615e-01,9.932687654470641059e-01,1.595433183173343423e+03
-5.347742877099390668e-01,1.005625586920528924e+01,-7.975015683685251489e+00,0.000000000000000000e+00,1.173078338390019654e-01,9.930945933284813787e-01,1.600887889330697590e+03
