-2.105475500257785182e+00,8.486833443715040559e+00,-2.985735148892052493e+00,4.301035175183402504e-01,3.026596604823504968e-02,9.022709878501662395e-01,1.032170670954967818e+03
-1.694053649298929543e+00,8.854682807732093153e+00,-3.078661903711628067e+00,2.212372297382728670e-01,3.260356855104590279e-02,9.746738405725005050e-01,1.037160837249594579e+03
-7.274549955875917462e-01,9.059225228896655935e+00,-3.109062566494143365e+00,1.558471184842040187e-03,3.334774137565475749e-02,9.994415937480278789e-01,1.043706222549864606e+03
4.994846472455696240e-01,8.899879612443903909e+00,-2.944474612285502779e+00,-2.181964736739489541e-01,3.246211488325882744e-02,9.753637834030232101e-01,1.050251607850134633e+03
1.669594862703567939e+00,8.344489372518113512e+00,-2.556543852681879336e+00,-4.272875887419810836e-01,2.998997113509392284e-02,9.036171302818040152e-01,1.056796993150404660e+03
2.064711525707563222e+00,8.039105125859570933e+00,-2.354081721691218654e+00,-6.154182278393652838e-01,2.950148691952238222e-02,7.876471717162810693e-01,1.059310682662409818e+03
2.903984529711911122e+00,7.142090209883042995e+00,-1.720746103730073751e+00,-7.734902722824857912e-01,2.757207668414288562e-02,6.332065849876694630e-01,1.065856067962679845e+03
3.466915142713896003e+00,6.275229127620443492e+00,-9.616148409820507448e-01,-8.937831490307434068e-01,2.429597686784608357e-02,4.478385736137356354e-01,1.072401453262949872e+03
3.690664121942003550e+00,5.884462432459179659e+00,-5.206076526198664123e-01,-9.527974248425070680e-01,2.610570416425938081e-02,3.024790231142414632e-01,1.075989233689780121e+03
3.959793776088971207e+00,5.334619248924125756e+00,2.983890190272830978e-01,-9.883582010250796523e-01,2.727282882079828247e-02,1.496738429893562927e-01,1.082534618990050149e+03
4.017736520554649360e+00,4.928472828773075243e+00,1.127865595474129234e+00,-9.995901415046073435e-01,2.776862179618357421e-02,-6.815618161428407817e-03,1.089080004290320176e+03
3.852696423941486703e+00,4.532034727638857063e+00,1.952091836800581071e+00,-9.862167656753878520e-01,2.758087891120569388e-02,-1.631373231964951542e-01,1.095625389590590203e+03
3.799630643383326234e+00,4.452572702053694265e+00,2.103950168734685100e+00,-9.485672543892914588e-01,2.671422126286179810e-02,-3.154433614500902761e-01,1.096841725917567601e+03
3.383664469899007710e+00,3.913997449428016306e+00,2.904775157574128741e+00,-8.875683493731688634e-01,2.518998153463011813e-02,-4.599846628109104940e-01,1.103387111217837628e+03
2.700673128442945270e+00,3.261870403262054907e+00,3.639389809490442662e+00,-7.929889162718402051e-01,2.348173490788356410e-02,-6.087817234400488831e-01,1.109932496518107655e+03
2.450525120108897337e+00,3.072777553650701599e+00,3.839844778638977996e+00,-6.737564233258092061e-01,2.104346952223577413e-02,-7.386524584786653413e-01,1.111877068987771281e+03
1.425321225901825084e+00,2.802220663870584438e+00,4.375544896401814654e+00,-5.335776174011365169e-01,1.795098712834449980e-02,-8.455593936963387014e-01,1.118422454288041308e+03
1.572946057745672477e-01,3.277070915576655530e+00,4.652611361188111694e+00,-2.899649859760889958e-01,1.983218692792863141e-02,-9.568307014670968114e-01,1.124967839588311335e+03
-1.081195624845926240e+00,4.385722721951908376e+00,4.732988847994143988e+00,-2.555262735446115277e-02,2.029078237298563223e-02,-9.994665313989493649e-01,1.131513224888581362e+03
-1.925301828444750063e+00,5.788485492066026694e+00,4.739955713061924314e+00,2.406926446350796112e-01,1.929387832746673123e-02,-9.704085722407597148e-01,1.138058610188851389e+03
-1.992483499544040360e+00,5.967501431093997333e+00,4.740150974801768946e+00,4.896725565857655282e-01,1.691298468474890931e-02,-8.717412106103223923e-01,1.138860141434578054e+03
-2.146876779310892935e+00,7.350152293003471726e+00,4.770783563144441963e+00,4.780272641022016988e-01,1.671896069572938182e-02,-8.781847249053709170e-01,1.145405526734848081e+03
-2.023554461836681639e+00,7.866318432804786376e+00,4.796502700415695486e+00,4.662972870224132982e-01,1.652197473758049845e-02,-8.844726476241844271e-01,1.148053578703284984e+03
-1.376739786709644919e+00,8.983702354210214125e+00,4.845065356187918226e+00,3.588155418935190522e-01,-5.920762440852388453e-01,-7.215920787299621164e-01,1.154598964003555011e+03
-3.863438179212932977e-01,9.837697358872599551e+00,4.773223297707715140e+00,0.000000000000000000e+00,-8.566789209259183246e-02,-9.963227450303434596e-01,1.161144349303825038e+03
-2.818748584233903287e-01,9.908445965564176561e+00,4.756123219453166406e+00,1.018857449814389998e-01,-1.629710269826544211e-01,-9.813550526364815951e-01,1.161785984944732490e+03
5.828841462831341191e-01,1.064006570395671503e+01,4.503207970862856513e+00,2.020821696990388605e-01,-2.375720141300620425e-01,-9.501159586035980986e-01,1.168331370245002518e+03
8.319960111106132761e-01,1.144635517793473056e+01,4.234566688075950047e+00,2.989279677452669204e-01,-3.082339320221739176e-01,-9.031234208296600174e-01,1.173990410582729510e+03
2.672215859389310832e-01,1.264921937519362416e+01,3.993946807272047650e+00,3.908173863690928562e-01,-3.737851696181747063e-01,-8.411565951035776534e-01,1.180535795882999537e+03
-1.001971680988908098e+00,1.349285149047165078e+01,3.815013093553350387e+00,4.762268499009514322e-01,-4.331388517492178458e-01,-7.652429173404462492e-01,1.187081181183269564e+03
-2.220244827847731361e+00,1.341956258689856796e+01,3.629950229889840507e+00,5.537402210068383956e-01,-4.853108598633288362e-01,-6.766410695034337230e-01,1.192657969127693832e+03
-3.127574353778700189e+00,1.259643522258885895e+01,3.157423431106302747e+00,6.220722809994578828e-01,-5.294361493601789093e-01,-5.768201114414504005e-01,1.199203354427963859e+03
-3.243268437952080863e+00,1.228626098004714251e+01,2.951456943410163181e+00,6.800900398975622263e-01,-5.647830929521743260e-01,-4.674351244267279104e-01,1.201110968549146264e+03
-3.474985674794438761e+00,1.156917674791720430e+01,2.023603438988217817e+00,7.268315228416235563e-01,-5.907656121676736483e-01,-3.502997700313424945e-01,1.207656353849416291e+03
-3.490863962624902062e+00,1.152285393862609197e+01,1.882468611088888188e+00,9.796526068681459254e-01,-0.000000000000000000e+00,2.006957145972041445e-01,1.208478945707734283e+03
-3.523032055679397256e+00,1.145322619997745939e+01,1.644484202984375809e+00,9.796526061767043547e-01,-0.000000000000000000e+00,2.006957144555525374e-01,1.209865610689777441e+03
-3.705928803734523491e+00,1.147255787034769270e+01,1.005054492916329201e+00,9.998909035073536566e-01,5.726601948044849439e-04,-1.469194146876416120e-02,1.216410995990047468e+03
-3.755004118578999961e+00,1.163196271087535116e+01,1.017646213977323244e+00,9.733324292544658363e-01,1.118519086827896762e-03,-2.293920902660459282e-01,1.218977352460894735e+03
-3.667483258102333554e+00,1.199812188235068966e+01,1.346552637753402060e+00,9.012200865864328225e-01,1.612029472314886920e-03,-4.333563855458556491e-01,1.222448549475186155e+03
-3.501982938535162848e+00,1.232754741506248841e+01,1.733513129018267040e+00,7.869287782108677076e-01,2.030093992502411595e-03,-6.170388778192636980e-01,1.224607003153273808e+03
-2.191970888796860084e+00,1.333225075290681083e+01,3.060726572869131967e+00,6.358074951380271456e-01,2.353146172580109895e-03,-7.718427895804558236e-01,1.231152388453543836e+03
-2.946799763612152345e-01,1.374843649116068711e+01,3.201725576584324884e+00,4.549290017815014742e-01,2.566066262472305702e-03,-8.905228905758854063e-01,1.237697773753813863e+03
1.801270876385092090e-01,1.371867518297074362e+01,2.874750261763989290e+00,2.527588216754396155e-01,2.658888979213920329e-03,-9.675246293362361749e-01,1.239535596146444504e+03
1.179449602789965912e+00,1.333848510803120924e+01,1.216397846126619831e+00,3.875901382082382052e-02,2.627269983103541068e-03,-9.992441324811187631e-01,1.246080981446714532e+03
1.549160364729808226e+00,1.257887234340058491e+01,-1.808577673528922181e-01,-1.770547080019461705e-01,2.472689222533889456e-03,-9.841968889306519364e-01,1.252626366746984559e+03
1.712486511417040891e+00,1.211184571522311693e+01,-4.444791834242778905e-01,-3.845817699586164262e-01,2.202381621952955934e-03,-9.230872178347053758e-01,1.256439075760270043e+03
1.780844641801474060e+00,1.189125482447909476e+01,-4.546384470445333781e-01,-5.741094903285879347e-01,1.828998376288493936e-03,-8.187752731241048076e-01,1.258643091531374012e+03
1.848721881413627477e+00,1.159172786526520404e+01,-1.025234991124961276e-01,-5.759863544736036900e-01,0.000000000000000000e+00,-8.174580838484853951e-01,1.263537512859439857e+03
1.699593796911766930e+00,1.156877199099423770e+01,1.096760200550460418e+00,-9.546707119066457636e-01,0.000000000000000000e+00,-2.976605983802228517e-01,1.270082898159709885e+03
1.583619751918375229e+00,1.163211021194883799e+01,1.653903320055814419e+00,-9.796745246587165168e-01,-0.000000000000000000e+00,2.005886979233616751e-01,1.272415143416737919e+03
1.118561656867323562e+00,1.190489035866629131e+01,3.314310281819265125e+00,-3.547495365921330968e-01,-0.000000000000000000e+00,9.349603019259025150e-01,1.278960528717007946e+03
5.513307532009612544e-01,1.225286629220405565e+01,5.040463255852935198e+00,6.000999550062849908e-01,-0.000000000000000000e+00,7.999237737963288408e-01,1.285505914017277973e+03
1.301963741795346408e-01,1.252436011598312682e+01,6.673344410556463657e+00,9.968779763646680170e-01,-0.000000000000000000e+00,-7.894491893610830480e-02,1.292051299317548001e+03
-8.063537565404798463e-03,1.260683172044367772e+01,8.091394023866508078e+00,9.837329888413843815e-01,1.553341713849361316e-01,-9.021475415030021094e-02,1.298596684617818028e+03
-7.290337641442521527e-03,1.260457467474740056e+01,8.187463301936027449e+00,9.465568266188224555e-01,3.068737557864170684e-01,-9.928077352573376479e-02,1.299084628259237661e+03
5.108558944499127369e-02,1.247830853007070928e+01,9.341885256254505165e+00,8.862576475397304643e-01,4.509168620383675607e-01,-1.059215072957523512e-01,1.305630013559507688e+03
1.098736025354349194e-01,1.217985209158646676e+01,1.022499046060216266e+01,8.043084704262796203e-01,5.839447257918207734e-01,-1.099747317405117969e-01,1.312175398859777715e+03
-1.794272990965417938e-02,1.175005913108895861e+01,1.082765036865168007e+01,7.027111920888708951e-01,7.027076675327708077e-01,-1.113414321112484451e-01,1.318720784160047742e+03
-4.035329075463201520e-01,1.130996235310737497e+01,1.112606372352771444e+01,5.839476846689635181e-01,8.043044776111325511e-01,-1.099882214843077577e-01,1.324381940622837419e+03
-8.630144882337464907e-01,1.067647066393316813e+01,1.126710220044579813e+01,4.509191677710943646e-01,8.862532890116372464e-01,-1.059481564420688277e-01,1.330927325923107446e+03
-7.121860989545926168e-01,1.006923573320906939e+01,1.130562388868035661e+01,3.068753362846142752e-01,9.465522064619722453e-01,-9.931992963616440018e-02,1.337472711223377473e+03
-5.149727562526836833e-01,9.939665161005175165e+00,1.131365586621883246e+01,1.553349751045881577e-01,9.837282106520132130e-01,-9.026545893848636481e-02,1.339529752796983757e+03
-3.168529274030553178e-01,9.860808601969912601e+00,1.132117162157613954e+01,0.000000000000000000e+00,9.968731427319725835e-01,-7.900593205829646581e-02,1.341451046296087952e+03
3.788956153364806956e-01,1.018179636872813631e+01,1.132628285247165856e+01,-0.000000000000000000e+00,9.968731420280737554e-01,-7.900593200250984049e-02,1.347996431596357979e+03
8.089053662427766467e-01,1.123026347722212748e+01,1.129752275281619767e+01,-7.027152663281615030e-01,7.027089221158548948e-01,-1.113077950963309581e-01,1.354541816896628006e+03
8.384997226014357929e-01,1.150574159358989057e+01,1.128804971921249134e+01,-9.968817776734337777e-01,0.000000000000000000e+00,-7.889690326056407466e-02,1.355968761765152522e+03
6.517483210472647670e-01,1.263433781261106503e+01,1.130996768065049807e+01,-7.027007806795227962e-01,-7.026648308841961788e-01,-1.116769818354378524e-01,1.362514147065422549e+03
2.113422045945101135e-01,1.321217510047778454e+01,1.161572855416931205e+01,-0.000000000000000000e+00,-9.968312352734685078e-01,-7.953293898571150988e-02,1.369059532365692576e+03
7.781212757891330101e-02,1.323933165418880087e+01,1.182052064279126391e+01,-0.000000000000000000e+00,-9.294579235924391725e-01,-3.689254237266030856e-01,1.371438322353818876e+03
-1.778653484783586369e-01,1.290068310231951898e+01,1.253095555228141578e+01,-0.000000000000000000e+00,-7.800252575090558249e-01,-6.257464323899046832e-01,1.377983707654088903e+03
-4.206730939454323970e-01,1.218357902199163512e+01,1.323918069624387961e+01,-0.000000000000000000e+00,-5.617262803326580345e-01,-8.273219361195105481e-01,1.384529092954358930e+03
-6.271932509612517803e-01,1.179379726465355027e+01,1.351606938981799466e+01,-0.000000000000000000e+00,-2.938340374102883512e-01,-9.558554066699397334e-01,1.388136004714354613e+03
-6.554018040780920096e-01,1.175250453052790611e+01,1.354198876792356998e+01,-0.000000000000000000e+00,-0.000000000000000000e+00,-9.999989999999967516e-01,1.388555737678094602e+03
-1.222485240516911542e+00,1.129536676185636423e+01,1.362158884751596766e+01,-0.000000000000000000e+00,-0.000000000000000000e+00,-9.999989992938940198e-01,1.395101122978364629e+03
-1.854323949742508804e+00,1.108360537568721504e+01,1.309295456449437900e+01,4.770155088648625474e-01,-0.000000000000000000e+00,-8.788937389147039037e-01,1.401646508278634656e+03
-2.046760786364582696e+00,1.102825402546855393e+01,1.279136402776300407e+01,8.384927114421110161e-01,-0.000000000000000000e+00,-5.449109770040920786e-01,1.403961155374455302e+03
-2.258481335254369338e+00,1.074414216362857744e+01,1.170939917987517553e+01,9.968779763717972031e-01,-0.000000000000000000e+00,-7.894491893667289484e-02,1.410506540674725329e+03
-1.857152966830469598e+00,1.034742458771623141e+01,1.030672300300424915e+01,9.968779756678982640e-01,-0.000000000000000000e+00,-7.894491888092960985e-02,1.417051925974995356e+03
-1.026229747601320685e+00,1.019941383216375108e+01,8.654471425491122361e+00,1.400273938824310449e-01,-0.000000000000000000e+00,9.901466198590045398e-01,1.423597311275265383e+03
-2.547940887284053102e-01,1.035833554549310875e+01,7.141714071244665618e+00,-9.796745246527556183e-01,-0.000000000000000000e+00,2.005886979221412070e-01,1.429009903517570365e+03
5.765425668342012422e-01,1.068048465580315742e+01,5.247772621720609543e+00,-8.610980435139656830e-01,-3.816511123333345967e-01,-3.359324156926402627e-01,1.435555288817840392e+03
1.230499737114762793e+00,1.106576054320469638e+01,3.437263820750220411e+00,-3.571165318404133648e-01,-5.924852232853634604e-01,-7.220990533689588542e-01,1.442100674118110419e+03
1.679076889393515293e+00,1.153289999602294635e+01,1.903495914318770854e+00,-9.796745246597435841e-01,-0.000000000000000000e+00,2.005886979235719514e-01,1.448646059418380446e+03
1.920644989216420351e+00,1.207563420407392663e+01,7.590532537045244776e-01,-9.843358218113138491e-01,-1.067248189243016204e-01,1.403239214319472183e-01,1.455191444718650473e+03
1.982385642909086032e+00,1.235650228148895025e+01,3.178180400035263142e-01,-9.741889796240758015e-01,-2.118440915645642408e-01,7.794814205336446367e-02,1.458405581212226934e+03
2.047852814743882366e+00,1.289288739175971266e+01,-4.314361645073122586e-01,-9.493866427327790625e-01,-3.137764340910534355e-01,1.439972259995702872e-02,1.464950966512496962e+03
2.065529477209198994e+00,1.331510001629794360e+01,-1.033418834691150368e+00,-9.103019254991879805e-01,-4.109884041434229140e-01,-4.936533290879310809e-02,1.471496351812766989e+03
2.105839714196565904e+00,1.353211454979473061e+01,-1.617733372397469394e+00,-8.575227999816973368e-01,-5.020175682881037327e-01,-1.123877601987042785e-01,1.478041737113037016e+03
2.157593537769483927e+00,1.354652204935294435e+01,-1.984624982311752550e+00,-7.918432521573541827e-01,-5.854945017051919054e-01,-1.737194649035885274e-01,1.481816523951514682e+03
2.349951992838091641e+00,1.330434457027228667e+01,-2.774845735642236022e+00,-7.142513392294312924e-01,-6.601633892674549919e-01,-2.324377849663851747e-01,1.488361909251784709e+03
2.643575031046945245e+00,1.276706505231484812e+01,-3.773965284511665796e+00,-8.710707304291974706e-01,-4.668868046154087126e-01,-1.524811275728920612e-01,1.494907294552054736e+03
2.828347142499705758e+00,1.230889580522963378e+01,-4.785690957477908292e+00,-9.683599515652910883e-01,-2.417025710099443281e-01,-6.210371463880428461e-02,1.501423043705973669e+03
2.614621761754681639e+00,1.246376742402175353e+01,-5.520024297891079179e+00,-9.994701503665153197e-01,-0.000000000000000000e+00,3.251797235699518951e-02,1.507968429006243696e+03
1.870936314388823130e+00,1.336225327556707931e+01,-5.768833394335754150e+00,-8.795958124946809953e-01,-4.688060794709624224e-01,8.080882683045025050e-02,1.514513814306513723e+03
1.249057990336571722e+00,1.403198398281547910e+01,-5.701747257157129489e+00,-5.517134353490490417e-01,-8.267481538648483452e-01,1.099898874308825047e-01,1.518374598924670863e+03
1.085539504029584962e-01,1.477491689525101215e+01,-5.281795696396168971e+00,-2.883779608520256610e-01,-9.545120556963128111e-01,7.578183968180839114e-02,1.524919984224940890e+03
-1.836518058514530760e-01,1.487124367961554761e+01,-5.120318384082938934e+00,-0.000000000000000000e+00,-9.993865585865699952e-01,3.499294952973203837e-02,1.526550447678494493e+03
-1.302903016419497684e+00,1.497299037652698672e+01,-4.413741437729099992e+00,2.720069345108765413e-01,-9.620991124404614236e-01,-1.937847825694037282e-02,1.533095832978764520e+03
-2.322535842764553937e+00,1.472853490618574668e+01,-3.932486987901282482e+00,5.227064052945151751e-01,-8.494460335488333014e-01,-7.223191781865063998e-02,1.539641218279034547e+03
-2.460527039438840990e+00,1.468126716766342632e+01,-3.903628437357776093e+00,7.225950756106506168e-01,-6.862985715154418243e-01,-8.275643441654637056e-02,1.540574001202621048e+03
-3.217129842582667099e+00,1.437725077026514064e+01,-4.036306247140964309e+00,8.742987729865345781e-01,-4.773860124153966877e-01,-8.776246749630256527e-02,1.547119386502891075e+03
-3.305288406445801019e+00,1.416492532467534460e+01,-4.664116923675987181e+00,9.677011225359344326e-01,-2.366392116887007513e-01,-8.691617185092474773e-02,1.553664771803161102e+03
-2.228157016886715081e+00,1.411206376846178578e+01,-5.477502643861376974e+00,9.965734100014721486e-01,1.988794255116991747e-02,-8.027395725427516338e-02,1.560210157103431129e+03
-1.940599972520975047e+00,1.411749316682925404e+01,-5.608966556207822585e+00,9.589901060191026172e-01,2.750890584907113579e-01,-6.827874083493606916e-02,1.561251238058522858e+03
-4.815916617283515222e-02,1.365134679245500493e+01,-6.297615727494353166e+00,8.574573923695617550e-01,5.119460754259221869e-01,-5.173041775529893527e-02,1.567796623358792885e+03
9.291362273865594323e-01,1.216009640786029422e+01,-6.612541469074693978e+00,6.987460480183098621e-01,7.146642623022778640e-01,-3.173251585161825095e-02,1.574342008659062913e+03
9.264303138658487313e-01,1.192955806501650251e+01,-6.620768213763623677e+00,4.934398343670183262e-01,8.697255960906498107e-01,-9.618594580644380942e-03,1.575088175139991336e+03
3.390729809466616063e-01,9.946248561926974929e+00,-6.359803146675266916e+00,2.552295604449531519e-01,9.667902040748939108e-01,1.313669587483674329e-02,1.581633560440261363e+03
-4.371009170130900068e-01,8.511666504514087350e+00,-5.500967815663647009e+00,0.000000000000000000e+00,9.993857527522133077e-01,3.501595629958313693e-02,1.588178945740531390e+03
-4.825922056107541658e-01,8.411337980216183396e+00,-5.378532414257499283e+00,-0.000000000000000000e+00,9.997942891154746325e-01,2.023312684888299920e-02,1.588887797873073396e+03
-6.362867288475000382e-01,7.920048804882640070e+00,-4.301670839369763577e+00,-0.000000000000000000e+00,9.999841710804819872e-01,5.445875370944270287e-03,1.595433183173343423e+03
-4.085405910194188084e-01,7.990978543067903672e+00,-3.703714151617837569e+00,-0.000000000000000000e+00,9.999553572012952474e-01,-9.342567865892730319e-03,1.600887889330697590e+03
-2.713937196504426219e-01,8.064937307379455689e+00,-3.598662207888798648e+00,-0.000000000000000000e+00,9.997078536570985774e-01,-2.412897233184069928e-02,1.602857601602921704e+03
2.791602052852883986e-01,8.373987160508967520e+00,-3.816133611476750787e+00,-0.000000000000000000e+00,9.997078529671034053e-01,-2.412897231518696187e-02,1.609402986903191731e+03
8.113637659220752640e-01,8.764173942837402365e+00,-4.794314421301283602e+00,-1.832039303443547262e-01,9.712156778011484803e-01,1.522314918151939367e-01,1.615948372203461759e+03
9.874825146017232047e-01,9.190234089866343936e+00,-6.048641280744551096e+00,-3.544119140093665021e-01,8.791296348956626483e-01,3.186240421828073766e-01,1.622493757503731786e+03
9.484177146858967511e-01,9.323189026080108022e+00,-6.432258661343484007e+00,-5.024135394086530759e-01,7.294793312444004529e-01,4.641535744837603228e-01,1.624493894945130023e+03
5.448581809289225752e-01,9.832074455678986524e+00,-7.461703553626535701e+00,-2.856722249030643201e-01,4.814830239229320741e-01,8.285912608724884665e-01,1.631039280245400050e+03
7.006982165825416387e-02,1.041974278593587933e+01,-7.970894183497937213e+00,-0.000000000000000000e+00,1.173078338872849818e-01,9.930945937372316346e-01,1.636281754133308368e+03
-8.725084220013468173e-02,1.069501351478231221e+01,-8.098521202936812102e+00,1.270998419732385096e-03,1.158168560016881454e-01,9.932687650413736247e-01,1.638253231754998524e+03
-4.436730748533835866e-01,1.165449916101738026e+01,-8.351233537660956330e+00,1.686343174595578804e-04,1.862528282389815335e-05,9.999989856050671699e-01,1.644798617055268551e+03
-6.294259684397612853e-01,1.222372464204006803e+01,-8.441853386528935133e+00,-9.359985444617109109e-04,-1.157798199548898399e-01,9.932734553955192558e-01,1.649936422859968388e+03
-9.946509991729922673e-01,1.225354570198807380e+01,-8.570928124830832218e+00,3.895647135642957976e-02,-7.738486942702081650e-02,9.962389147767441999e-01,1.656481808160238415e+03
-1.280527838649336836e+00,1.195087465196160359e+01,-8.628698613456867506e+00,7.872917132844260701e-02,-3.875201109530926336e-02,9.961415558093054123e-01,1.660148686695825063e+03
-1.913821368301869441e+00,1.108665048464309599e+01,-8.499237599235412333e+00,1.182598423654860065e-01,0.000000000000000000e+00,9.929816764045947819e-01,1.666694071996095090e+03
-2.524516547515176512e+00,1.026670418107326377e+01,-7.972696219687120056e+00,3.646206963099254406e-01,4.118652099828213342e-01,8.351148403839941947e-01,1.671978387122397407e+03
-3.298314141550806156e+00,9.781917735346690179e+00,-6.658270444696592349e+00,5.179124917785975502e-01,7.186022948440675684e-01,4.640855445983441685e-01,1.678523772422667435e+03
-3.396722841777760848e+00,9.783719798133136081e+00,-6.442066344625938079e+00,7.294162694248140788e-01,5.001404990648640192e-01,4.667005325579609010e-01,1.679380621676957617e+03
-3.994372905156802656e+00,1.030806468391175024e+01,-4.918265229806139338e+00,8.506807646949677837e-01,5.164672500187856841e-01,9.798885770675200280e-02,1.685926006977227644e+03
-4.143896840980275442e+00,1.153541465168851943e+01,-3.742471246767418602e+00,9.994709311538764185e-01,0.000000000000000000e+00,3.249396525056635898e-02,1.692471392277497671e+03
-4.121869688758860839e+00,1.173959931511730481e+01,-3.607709089658902801e+00,9.997494087395482065e-01,-0.000000000000000000e+00,-2.234098678734708007e-02,1.693401776851197610e+03
-3.599640281853491164e+00,1.305549897233240308e+01,-2.920881765228757310e+00,9.184469054582836689e-01,-2.156561407244547424e-01,-3.315806249195962230e-01,1.699947162151467637e+03
-2.422574872485128594e+00,1.384345974465324680e+01,-2.685254629210608979e+00,7.005280431490772397e-01,-3.992340674375639553e-01,-5.914986222798636062e-01,1.706492547451737664e+03
-8.798805566316076909e-01,1.412866721009732629e+01,-2.605776244294367050e+00,3.784075770856151766e-01,-5.234270783560733831e-01,-7.634329042212306682e-01,1.713037932752007691e+03
-7.454702171432318059e-01,1.414458978754842278e+01,-2.595600219962622024e+00,0.000000000000000000e+00,-5.697617808905230952e-01,-8.218086839625315942e-01,1.713584268264123693e+03
7.184765170939555468e-01,1.467255358508138130e+01,-2.339187880511266471e+00,-0.000000000000000000e+00,8.080491350120935778e-02,9.967289330370694422e-01,1.720129653564393720e+03
1.873794590924277248e+00,1.573060850984783698e+01,-1.935790267346346738e+00,-3.984253273703448062e-01,1.675420223099963468e-01,9.017676692315910181e-01,1.726675038864663748e+03
2.676691580320434305e+00,1.704031897941823459e+01,-1.621926718160307201e+00,-7.270129289258565608e-01,2.249116686481584249e-01,6.487410442401632116e-01,1.733220424164933775e+03
3.094095477398841609e+00,1.822651831605642769e+01,-1.523645159031113527e+00,-7.549865093677484706e-01,1.733702037470828128e-01,6.324050467233119921e-01,1.738973867391777048e+03
3.311678731344525062e+00,1.952143880633357398e+01,-1.543414841636491230e+00,-7.801621746499253218e-01,1.211862402296333824e-01,6.137254079961460551e-01,1.745519252692047075e+03
3.354701174365852800e+00,2.072049871813496935e+01,-1.536043284458220803e+00,-8.024466305158267643e-01,6.855315426832334080e-02,5.927713473243773068e-01,1.752064637992317103e+03
3.342837456962924225e+00,2.178015708321508725e+01,-1.313562980292016347e+00,-8.217572942052846496e-01,1.566598654472483448e-02,5.696205107616943986e-01,1.758610023292587130e+03
3.342958557283510768e+00,2.231851274062021062e+01,-1.058331611433572572e+00,-9.030751044794913529e-01,-9.698067933594446688e-02,4.183875040026757697e-01,1.762352992655723710e+03
3.350038582628548145e+00,2.313302009764860045e+01,-4.007576896391586430e-01,-9.463071992939864341e-01,-2.055373432424522362e-01,2.495096893868582466e-01,1.768898377955993737e+03
3.317708008360913396e+00,2.377201593518201861e+01,4.850912837241057596e-01,-9.496303369891606616e-01,-3.054258016463040626e-01,7.010922021639677537e-02,1.775443763256263765e+03
3.180247511633055080e+00,2.424543492235252984e+01,1.487986980214102806e+00,-9.129043770733080709e-01,-3.924334214092250472e-01,-1.122479758495593394e-01,1.781989148556533792e+03
2.872172002098035026e+00,2.456562838872907406e+01,2.496687170963144187e+00,-8.376781877122515541e-01,-4.628908016844801576e-01,-2.898712809989993366e-01,1.788534533856803819e+03
2.328259899083894524e+00,2.474735863931257285e+01,3.399948948296747098e+00,-7.271243204777344538e-01,-5.138265243224933165e-01,-4.552697282639640575e-01,1.795079919157073846e+03
2.251003328272349169e+00,2.476056268911977654e+01,3.493143168022584621e+00,-5.859052089291506560e-01,-5.430924666213197138e-01,-6.014679200506224399e-01,1.795822939813491757e+03
1.398158240055628054e+00,2.482075533734320771e+01,4.169891687712226513e+00,-4.199765354729848021e-01,-5.494543922603116748e-01,-7.223002010792790584e-01,1.802368325113761784e+03
2.456623168610071462e-01,2.480054795047787053e+01,4.522357585337402064e+00,-1.294010743361807547e-01,-5.992516874889408651e-01,-7.900321366902033349e-01,1.808913710414031812e+03
-1.014730174473131186e+00,2.477611471669294119e+01,4.498704626812237706e+00,1.730147582869359657e-01,-5.942164588185467888e-01,-7.854748204016575031e-01,1.815269220276476744e+03
-2.231860187829913134e+00,2.483426210306416237e+01,4.051926788226839271e+00,4.595995113955018141e-01,-5.348094314391391713e-01,-7.090452462074303686e-01,1.821814605576746771e+03
-2.446194431633190280e+00,2.485860171739463098e+01,3.919999907216693114e+00,5.878531675450539007e-01,-5.446294309037942316e-01,-5.981684013700879765e-01,1.823075599560264436e+03
-3.348639837707077405e+00,2.509512966073689100e+01,3.019258381722196738e+00,6.991536932632081980e-01,-5.387427636396280306e-01,-4.700407937809575332e-01,1.829620984860534463e+03
-3.797593233675596203e+00,2.542840367858152106e+01,1.767807714288448961e+00,8.322725717506667120e-01,-5.036706817473003417e-01,-2.315949279668832739e-01,1.836166370160804490e+03
-3.753139092818616351e+00,2.563016004498830114e+01,3.170874459185294425e-01,9.022991163601591369e-01,-4.304167581542486798e-01,2.440735373883442041e-02,1.842711755461074517e+03
-3.385717519747903470e+00,2.562800788072171088e+01,-9.093290835586752552e-01,9.039249330924072900e-01,-3.245342228763962167e-01,2.785592459733253201e-01,1.848176137346606993e+03
-2.626900350833640818e+00,2.549377521747977227e+01,-2.195614901607944258e+00,8.370268619317778880e-01,-1.940497361591983494e-01,5.115943044079622748e-01,1.854721522646877020e+03
-1.647929511394401025e+00,2.514370879271426773e+01,-3.042320347069771280e+00,6.186673437187470981e-01,-1.543592791598510372e-01,7.703388415203118456e-01,1.861266907947147047e+03
-1.380768609384902090e+00,2.500208652167830792e+01,-3.178866856036217658e+00,3.284154996414213046e-01,-9.673147929840232584e-02,9.395660064676385481e-01,1.862969455417602603e+03
-5.442239416411841502e-01,2.410103887894328167e+01,-3.444541933471032102e+00,0.000000000000000000e+00,-2.786296520869569956e-02,9.996107518284006455e-01,1.869514840717872630e+03
-3.961941451604455988e-01,2.380713862784374513e+01,-3.451119297654961837e+00,-0.000000000000000000e+00,-6.332962606652572934e-03,9.999789465491109031e-01,1.871052893727382980e+03
5.233796726569882145e-03,2.225951915015258109e+01,-3.421345493092453616e+00,-0.000000000000000000e+00,1.519999199338746380e-02,9.998834733102782701e-01,1.877598279027653007e+03
2.337115970557712002e-02,2.040562861749426204e+01,-3.360428734961987463e+00,-0.000000000000000000e+00,1.612699114615828364e-02,9.998689510642841949e-01,1.884143664327923034e+03
-3.156852742026839548e-02,1.983799659948342153e+01,-3.348956510746277981e+00,-0.000000000000000000e+00,1.705397560600646970e-02,9.998535698102263281e-01,1.886141432716269264e+03
-5.027019126696644635e-01,1.834440352376156014e+01,-3.348058695002112728e+00,-0.000000000000000000e+00,2.016697227361248165e-02,9.997956254396260789e-01,1.892621027517892571e+03
-8.607392275753406041e-01,1.787226051359245460e+01,-3.361558306614286007e+00,-0.000000000000000000e+00,2.016697226524963651e-02,9.997956250250304988e-01,1.895443756594243041e+03
-1.994360083795442051e+00,1.717881686962957488e+01,-3.278324167845728443e+00,3.400140207114686342e-01,1.227264034429659811e-01,9.323769064163389686e-01,1.901989141894513068e+03
-3.199096729869066458e+00,1.698083005673658974e+01,-2.778980029051730583e+00,6.355972790763313451e-01,2.092487626604288553e-01,7.431211571178032438e-01,1.908534527194783095e+03
-3.299121540544105891e+00,1.697951905203832723e+01,-2.702574257574034799e+00,6.865937718539617540e-01,2.117124940274092426e-01,6.955320354324947552e-01,1.909155685568748140e+03
-4.143757237404315674e+00,1.703651819234444531e+01,-1.763369825894526288e+00,7.342455860396148726e-01,2.131448798310290049e-01,6.445546366064833776e-01,1.915410774006160409e+03
-4.701133603964362528e+00,1.720901796030048203e+01,-5.784856753911876703e-01,8.784582088458006144e-01,2.322851467203935205e-01,4.175557279269816457e-01,1.921956159306430436e+03
-4.855545998256205920e+00,1.744965570856684423e+01,6.568620767275967776e-01,9.588137003544235926e-01,2.345400767365141692e-01,1.602037465768255398e-01,1.928501544606700463e+03
-4.563349923467492353e+00,1.771975830380835149e+01,1.891812622631509511e+00,9.694708420289608330e-01,2.197457559689778295e-01,-1.087937920541829778e-01,1.935046929906970490e+03
-3.905498106740388220e+00,1.797564353432459328e+01,3.038077394102461692e+00,9.096549585286868300e-01,1.889776214611892102e-01,-3.698828395740911268e-01,1.941592315207240517e+03
-3.311462914919245826e+00,1.812269968996760383e+01,3.728211038835536950e+00,7.837142204520656241e-01,1.444722824516010973e-01,-6.040842493103670829e-01,1.945986311538626524e+03
-2.268407321270167643e+00,1.827390898126872543e+01,4.564268671900038932e+00,6.008035540478735559e-01,8.946493359380597310e-02,-7.943734103688149251e-01,1.952531696838896551e+03
-1.495946701348283892e+00,1.829617927796290289e+01,4.977640622516731561e+00,3.169908213566581257e-01,5.877059338972136920e-02,-9.466048999073018999e-01,1.956877363433620303e+03
-2.979462570704538571e-01,1.795388323392144159e+01,5.410996020820348917e+00,0.000000000000000000e+00,2.192496970815314972e-02,-9.997586187194160701e-01,1.963422748733890330e+03
8.812283333061124990e-01,1.693016181143801191e+01,5.638495763941981487e+00,-2.011052652033966659e-01,1.135792221074348324e-01,-9.729616809590619919e-01,1.969968134034160357e+03
2.003599525697446815e+00,1.523868636550416866e+01,5.698799293231254559e+00,-3.922433584226212577e-01,1.996042641941799256e-01,-8.979428074719009167e-01,1.976513519334430384e+03
3.061809146624728140e+00,1.303982285588677037e+01,5.616975859596911924e+00,-5.639410959643497145e-01,2.757365237333589958e-01,-7.784200728164386573e-01,1.983058904634700411e+03
4.052652763031113992e+00,1.049396646014281131e+01,5.418111620288798669e+00,-7.076887886022867891e-01,3.382027306789663346e-01,-6.203172506463020541e-01,1.989604289934970438e+03
4.977078604520878358e+00,7.761439800134067646e+00,5.127306657111832422e+00,-8.163619994932661550e-01,3.839069284477810706e-01,-4.314702261738518341e-01,1.996149675235240466e+03
5.840185543168147753e+00,5.002391193149905213e+00,4.769671995391739472e+00,-8.845746498598606733e-01,4.105839178146400981e-01,-2.212386387107407593e-01,2.002695060535510493e+03
6.651220140594187313e+00,2.376692954065320329e+00,4.370326624294333939e+00,-9.089459700192471514e-01,4.169115275727455772e-01,-4.199995240735530157e-05,2.009240445835780520e+03
7.418923852230914662e+00,-7.107515658108307230e-04,3.949890797538723852e+00,-9.089459693774821769e-01,4.169115272783834869e-01,-4.199995237770106434e-05,2.015785831136050547e+03
8.145330586331544609e+00,-2.104214025916308461e+00,3.519979862634921020e+00,-9.089459693775241433e-01,4.169115272784028603e-01,-4.199995237770300912e-05,2.022331216436320574e+03
8.828090650259145633e+00,-3.952692502863074608e+00,3.087706591838567771e+00,-9.089459693775606697e-01,4.169115272784194581e-01,-4.199995237770469641e-05,2.028876601736590601e+03
9.464347143861719047e+00,-5.564833184031421354e+00,2.660184053141825711e+00,-9.089459693775915339e-01,4.169115272784336690e-01,-4.199995237770611943e-05,2.035421987036860628e+03
1.005073886004820949e+01,-6.959121963641433872e+00,2.244524767384021846e+00,-9.089459693776168470e-01,4.169115272784452708e-01,-4.199995237770729172e-05,2.041967372337130655e+03
1.020298953339169046e+01,-7.309403023819845302e+00,2.133200261837367773e+00,-9.089459693776364979e-01,4.169115272784542636e-01,-4.199995237770819974e-05,2.043757430129056502e+03
1.072656782333374359e+01,-8.488462841111637402e+00,1.739262103806954451e+00,-9.089459693776504867e-01,4.169115272784607584e-01,-4.199995237770884349e-05,2.050302815429326529e+03
1.119022842333540169e+01,-9.490977554585535714e+00,1.373351170260759480e+00,-9.089459693776589244e-01,4.169115272784645887e-01,-4.199995237770923651e-05,2.056848200729596556e+03
1.158898073046988664e+01,-1.033467959993367913e+01,1.042572533059936912e+00,-9.089459693776618110e-01,4.169115272784659210e-01,-4.199995237770936526e-05,2.063393586029866583e+03
1.191734360572574225e+01,-1.103704766017182948e+01,7.540271042096234888e-01,-9.089459693776589244e-01,4.169115272784645887e-01,-4.199995237770923651e-05,2.069938971330136610e+03
1.216934887112585173e+01,-1.161529453494698849e+01,5.148107771574242930e-01,-9.089459693776504867e-01,4.169115272784607029e-01,-4.199995237770883671e-05,2.076484356630406637e+03
1.233854489760115847e+01,-1.208635505862071113e+01,3.320135717269956377e-01,-9.089459693776364979e-01,4.169115272784543191e-01,-4.199995237770819297e-05,2.083029741930676664e+03
1.241800031215355204e+01,-1.246687408172821776e+01,2.127187879886902333e-01,-9.089459693776168470e-01,4.169115272784452708e-01,-4.199995237770729172e-05,2.089575127230946691e+03
1.240030782279427690e+01,-1.277319451785561100e+01,1.640021675088167985e-01,-9.089459693775915339e-01,4.169115272784337245e-01,-4.199995237770612621e-05,2.096120512531216718e+03
1.227758815700490658e+01,-1.302134546140408133e+01,1.929310532382782217e-01,-9.089459693775606697e-01,4.169115272784195136e-01,-4.199995237770469641e-05,2.102665897831486745e+03
1.204149411293651895e+01,-1.322703037869278475e+01,3.065635485023739393e-01,-9.089459693775242544e-01,4.169115272784028048e-01,-4.199995237770300235e-05,2.109211283131756772e+03
1.168321472350227097e+01,-1.340561537567840666e+01,5.119476781866314496e-01,-9.089459693774821769e-01,4.169115272783834869e-01,-4.199995237770106434e-05,2.115756668432026800e+03
1.119347953392038164e+01,-1.357211754460701769e+01,8.161205515179557057e-01,-9.089459693774344373e-01,4.169115272783616155e-01,-4.199995237769885527e-05,2.122302053732296827e+03
1.065357883113379955e+01,-1.372551528767090012e+01,1.145692296329265725e+00,-7.014655474692574888e-01,6.767085928696763286e-01,2.236281870674776961e-01,2.128530846178800857e+03
1.019013162527548566e+01,-1.387468709723144400e+01,1.344715526574398190e+00,-3.813497982913617856e-01,8.278456895045452901e-01,4.113901380837695076e-01,2.135076231479070884e+03
1.008040161473383201e+01,-1.400432811955388068e+01,1.135442156186355245e+00,-0.000000000000000000e+00,8.460544322754661728e-01,5.330946422796267736e-01,2.141621616779340911e+03
1.009457750631430706e+01,-1.401698854501253066e+01,1.084292983768596175e+00,-0.000000000000000000e+00,5.332983833111852867e-01,8.459260217988052721e-01,2.142313443644631661e+03
1.015972101695749430e+01,-1.406683225234179879e+01,7.973662351871587672e-01,-7.954407036333380199e-02,6.218208301598704413e-01,7.791082056093179276e-01,2.145499142418664633e+03
1.016055311509282788e+01,-1.403249375637279073e+01,-8.771737011200825274e-02,-1.576063873604992838e-01,6.987599155651402771e-01,6.977770468141953897e-01,2.152044527718934660e+03
1.016121939463905832e+01,-1.371064580827946422e+01,-9.764552513221926855e-01,-2.327328258591808419e-01,7.626824293278462452e-01,6.034475484743073714e-01,2.158589913019204687e+03
1.030753056272868839e+01,-1.335334689271343578e+01,-1.326714580722665460e+00,-4.672813338358813295e-01,6.273824414917936743e-01,6.229265022110522798e-01,2.162754429491485098e+03
1.069129962377725107e+01,-1.265629199047593723e+01,-1.559927335356007472e+00,-6.673917866736809312e-01,4.458452540938268593e-01,5.964966156511249951e-01,2.169299814791755125e+03
1.098068565292881793e+01,-1.193723453921540134e+01,-1.641222828464793837e+00,-8.183163669124255968e-01,2.314499048109630863e-01,5.261057547746268437e-01,2.175845200092025152e+03
1.101249808087400517e+01,-1.175556368477549540e+01,-1.671530001371742680e+00,-9.089321683887600090e-01,-2.999997255206137291e-06,4.169416185267190711e-01,2.177622345709097772e+03
1.083108304058107585e+01,-1.119637480546680486e+01,-1.910695100839347349e+00,-8.246267345256375059e-01,-1.310669840483918991e-01,5.502819226532177366e-01,2.184167731009367799e+03
1.016097278275494631e+01,-1.080351795110104085e+01,-2.284629414420525695e+00,-7.056334856241519571e-01,-2.566176295213646874e-01,6.604746597605208880e-01,2.190713116309637826e+03
9.127987733396230041e+00,-1.051632711067138004e+01,-2.601633826449462727e+00,-5.569578689444630859e-01,-3.713736708399452691e-01,7.428845999405581102e-01,2.197258501609907853e+03
7.862940943527857662e+00,-1.026098156056525923e+01,-2.694317280645923685e+00,-3.848539055432659284e-01,-4.705079199740032636e-01,7.940451930658688484e-01,2.203803886910177880e+03
6.580934591680350110e+00,-9.958698614977761210e+00,-2.477492353352417798e+00,-1.965611168171250978e-01,-5.498503167912235368e-01,8.118043831375582053e-01,2.209961793825262248e+03
5.254112599669461758e+00,-9.457043038806682844e+00,-1.832215748361325725e+00,-0.000000000000000000e+00,-6.060633378291028217e-01,7.954151309476781284e-01,2.216507179125532275e+03
4.104315833670475477e+00,-8.797839724968586239e+00,-8.113780440455170551e-01,1.729676262671682438e-05,-8.961196055263010996e-01,4.438103787578254744e-01,2.223052564425802302e+03
3.369631156657593607e+00,-8.323808111798204123e+00,9.681637151081644299e-02,3.099996898509656018e-05,-9.999989995192437586e-01,0.000000000000000000e+00,2.228535470921359774e+03
2.992522833813788807e+00,-8.114087925361788578e+00,9.426247498504809474e-01,1.016999271930584155e-02,-9.999472841380963040e-01,-0.000000000000000000e+00,2.234736411398093878e+03
3.354728011098974783e+00,-8.241809406724543763e+00,1.635048120463543420e+00,5.380148306426881660e-03,-9.474570460048838960e-01,-3.198346447460815867e-01,2.241281796698363905e+03
4.288786283959131751e+00,-8.481844929875641981e+00,2.085292403475352163e+00,2.499997267777621953e-05,-7.954151306986420034e-01,-6.060633376393507188e-01,2.247170543447848104e+03
5.705561066336883869e+00,-8.717608175902007872e+00,2.367838668212378206e+00,1.249998704530147521e-05,-7.954196756453777439e-01,-6.060573718961056455e-01,2.253715928748118131e+03
7.175684581228476411e+00,-8.923717821102588488e+00,2.530752059368297502e+00,0.000000000000000000e+00,-7.954242209842218303e-01,-6.060514064505511111e-01,2.260261314048388158e+03
7.816373849251388783e+00,-9.027663613024419220e+00,2.610646540050696185e+00,-7.821154460040291578e-02,-7.893549157844309550e-01,-6.089333060467692071e-01,2.263384574859697750e+03
8.903762496593593312e+00,-9.217007533795825935e+00,2.942389804998892355e+00,-1.559411132179591708e-01,-7.784214508753702910e-01,-6.080628372301273288e-01,2.269929960159967777e+03
9.407941432118043679e+00,-9.282372492545299281e+00,3.327318481960334751e+00,-2.327097549695938683e-01,-7.626911969286643833e-01,-6.034453646056531229e-01,2.274173040800676063e+03
9.853866688825490883e+00,-9.281847975577278476e+00,4.224970894918736342e+00,-3.311642465655792456e-01,-7.495870928960981505e-01,-5.731033344497629134e-01,2.280718426100946090e+03
9.846202772252580004e+00,-9.356570754645609611e+00,5.319276572034931760e+00,-4.260468734841415528e-01,-7.283982040620698983e-01,-5.365800200444873491e-01,2.287263811401216117e+03
9.806074661089795086e+00,-9.390740013380018070e+00,5.500888045562470907e+00,-5.163343074801883814e-01,-6.993530620110968155e-01,-4.942693370742496928e-01,2.288346293910029544e+03
9.430572422331650273e+00,-9.835844255069549291e+00,6.450013737663427449e+00,-2.971009514804584528e-01,-4.155937883758283879e-01,-8.596573897167861800e-01,2.294891679210299571e+03
9.047588577442837732e+00,-1.054559506597952279e+01,6.998754059446917530e+00,-0.000000000000000000e+00,-2.291096583325372138e-02,-9.997365091093977085e-01,2.300417285006516522e+03
8.749515691053531441e+00,-1.167155103091837276e+01,7.309331818641914502e+00,-0.000000000000000000e+00,-7.370517615494355176e-03,-9.999718373191328613e-01,2.306962670306786549e+03
8.582688740676276851e+00,-1.285287005184872378e+01,7.336761086377879160e+00,-0.000000000000000000e+00,8.171710922508092917e-03,-9.999656109595502773e-01,2.313508055607056576e+03
8.576621644814512280e+00,-1.290019877246966473e+01,7.333802060177117887e+00,-0.000000000000000000e+00,2.371197228132256377e-02,-9.997178313559172969e-01,2.313785461999990275e+03
8.400173540261617333e+00,-1.384458243353826035e+01,7.211716473941169880e+00,1.265736907714826720e-01,2.072071611280375258e-01,-9.700733442286813002e-01,2.320330847300260302e+03
8.134296673743895312e+00,-1.443026261094157192e+01,6.978862757555195806e+00,2.467465232155975352e-01,3.802238382244655934e-01,-8.913719684441564484e-01,2.326876232600530329e+03
7.964003613859790498e+00,-1.459712598176278675e+01,6.825706308903301434e+00,3.544413309196141615e-01,5.340125118986510655e-01,-7.675936295153469313e-01,2.330114591040249707e+03
7.504299746166280372e+00,-1.466258034725002624e+01,6.429771101523519050e+00,4.442119517835491083e-01,6.607960370785164184e-01,-6.049978010494152514e-01,2.336659976340519734e+03
6.834664286194002791e+00,-1.428982852891035016e+01,5.890805197385653891e+00,5.115186418412942526e-01,7.541629079196235930e-01,-4.118069782889129393e-01,2.343205361640789761e+03
5.908603531265710807e+00,-1.344343935235717247e+01,5.195904115905491061e+00,5.529576574120685928e-01,8.093914985370842530e-01,-1.977908774575835027e-01,2.349750746941059788e+03
4.721049129530413779e+00,-1.219451293511148116e+01,4.389871770283323649e+00,6.675084704846109274e-01,5.370364989596068117e-01,-5.157734392314420324e-01,2.356296132241329815e+03
3.345224302513738035e+00,-1.083115081756001885e+01,3.632905076607739758e+00,6.562924008750601335e-01,1.634971751996023293e-01,-7.365778697841200984e-01,2.362841517541599842e+03
3.289211197111681084e+00,-1.077983743343687273e+01,3.606587523543837825e+00,5.214227561253226284e-01,-2.408469375197301587e-01,-8.186018947465673046e-01,2.363095694385508978e+03
1.832929136889223543e+00,-9.709305081672658488e+00,3.121291030456040172e+00,2.883107282158150486e-01,-5.998124345700049931e-01,-7.463912963933344580e-01,2.369641079685779005e+03
3.595894424533632727e-01,-9.151957093667745013e+00,2.979125645592325622e+00,3.842828343207981695e-02,-6.335762710661299035e-01,-7.727239971521929762e-01,2.376186464986049032e+03
-7.950689601683101904e-01,-8.975986080540641510e+00,2.976398639559782122e+00,-2.139240564032778569e-01,-6.266171450321479375e-01,-7.493900530726985698e-01,2.381263921751987255e+03
-2.328589869513855604e+00,-8.760244316203879222e+00,2.771740330010629805e+00,-4.525265025555165188e-01,-5.793823631078870440e-01,-6.778892548231577608e-01,2.387809307052257282e+03
-3.880580649945997163e+00,-8.570487399025498831e+00,2.301821227138411086e+00,7.525789214886245970e-01,9.257286733498956699e-02,-6.519610656828066508e-01,2.394354692352527309e+03
-5.306456118178950909e+00,-9.010534687791318831e+00,2.095198605465405262e+00,5.805297106698698029e-02,-9.983125024511562140e-01,-0.000000000000000000e+00,2.400900077652797336e+03
-5.628650686794159697e+00,-9.268213141283412781e+00,2.136623980996302130e+00,2.753260367644096429e-01,-9.543640786017102418e-01,1.156839615262024862e-01,2.402515144762348427e+03
-6.761993992794502084e+00,-1.079239118707472933e+01,2.432059300598410800e+00,4.753851564051091994e-01,-8.507469658897378606e-01,2.241351224135650633e-01,2.409060530062618454e+03
-7.561125979366688732e+00,-1.264760808271767090e+01,2.384984408446827242e+00,6.457222474172044091e-01,-6.939395384252506904e-01,3.185729056292605499e-01,2.415605915362888481e+03
-7.987916786538173497e+00,-1.397342781709735604e+01,1.434524021725484211e+00,7.756875272000468557e-01,-4.937457247967480534e-01,3.930928890120440333e-01,2.422151300663158509e+03
-8.053884524289015800e+00,-1.437227679824386151e+01,2.902827594833766733e-01,8.571553483512618365e-01,-2.626820322243052508e-01,4.430359564866941935e-01,2.427138108118117088e+03
-7.751041980812743759e+00,-1.428518228852767002e+01,-1.033352504051288312e+00,8.850322134205435010e-01,-1.519498649533425338e-02,4.652795864790471581e-01,2.433683493418387116e+03
-7.157022008728650242e+00,-1.414007845707262767e+01,-1.671728555125231219e+00,4.606684729584154536e-01,4.802354505722278288e-01,7.464291460253459354e-01,2.439487471183304933e+03
-6.325027173786685886e+00,-1.431514830214140943e+01,-1.826341708003911934e+00,3.592143859719917898e-01,6.190260078969691548e-01,6.984052021987829928e-01,2.446032856483574960e+03
-5.367997590293762222e+00,-1.461018298124356285e+01,-1.740117371064464624e+00,2.463149771822679690e-01,7.380930812200718893e-01,6.281285978771595779e-01,2.452578241783844987e+03
-5.348711648582895606e+00,-1.461473092196151669e+01,-1.738187583242547074e+00,1.255674336883352837e-01,8.336429655115755732e-01,5.378384754274165847e-01,2.452699812519981151e+03
-4.186544440105203435e+00,-1.458531826615467253e+01,-1.825841621197693110e+00,8.189993087924184439e-04,9.026312382099124232e-01,4.304116367472068938e-01,2.459245197820251178e+03
-2.836185546603112950e+00,-1.398295434556237105e+01,-2.224091015880429900e+00,2.635470699440507492e-01,8.262343068975647187e-01,4.978732891311249964e-01,2.465790583120521205e+03
-1.527936073390725680e+00,-1.294737199425874863e+01,-2.510202322940094266e+00,5.053458285054019949e-01,6.842230358136095481e-01,5.257969483320251713e-01,2.472335968420791232e+03
-6.319703917048253849e-01,-1.180349235484863613e+01,-2.416953452057120533e+00,7.070131484538375588e-01,4.878751123598378814e-01,5.119651185916499481e-01,2.478881353721061259e+03
-5.151358553016625041e-01,-1.157485127641574785e+01,-2.369012753703715557e+00,8.525339220864571743e-01,2.527832703872466835e-01,4.574762615761003293e-01,2.480227996267119124e+03
