1.643582069353746844e+00,6.344634410192353968e+00,2.577048246323478953e-01,-5.335776174015608442e-01,1.795098712835877311e-02,-8.455593936970110525e-01,1.103387111217837628e+03
1.653669613962307716e+00,6.503097592376938074e+00,3.973028750766990358e-01,-8.875683493725092799e-01,2.518998153461140393e-02,-4.599846628105687674e-01,1.109932496518107655e+03
1.655545210702734638e+00,6.550154166563622482e+00,4.383211380165494275e-01,-8.333541264373907076e-01,2.694153787409381273e-02,-5.520806584976625242e-01,1.111877068987771281e+03
1.658317279869246041e+00,6.708451002186366807e+00,5.747331553624529521e-01,-7.696197116145662154e-01,2.838531556207197701e-02,-6.378697150321668285e-01,1.118422454288041308e+03
1.658803070933693835e+00,6.866555558382238189e+00,7.093341569413327274e-01,-6.970932039668538138e-01,2.950482095346761841e-02,-7.163717823338702217e-01,1.124967839588311335e+03
1.657354404619194366e+00,7.024362069922708507e+00,8.419457655942543806e-01,-6.166031431612976066e-01,3.028726488311079060e-02,-7.866900567758583485e-01,1.131513224888581362e+03
1.654318037911072681e+00,7.181753930960104171e+00,9.723898379981266160e-01,-5.290690441685905743e-01,3.072370876857779404e-02,-8.480212262806617884e-01,1.138058610188851389e+03
1.653638483423392591e+00,7.200962202547835922e+00,9.880842976313041204e-01,-4.354908926507662370e-01,3.080916672290592503e-02,-8.996646473351218587e-01,1.138860141434578054e+03
1.645763533931979827e+00,7.357233584139932780e+00,1.113866848740599158e+00,-3.369377210550975055e-01,3.054266251079498437e-02,-9.410303490842013563e-01,1.145405526734848081e+03
1.641876407930722648e+00,7.420189320399504851e+00,1.163744701590511799e+00,-2.345353959333620619e-01,2.992724069786351082e-02,-9.716457730671269610e-01,1.148053578703284984e+03
1.630751658531103265e+00,7.575051939578368199e+00,1.284425001130114818e+00,-1.294537560153511402e-01,2.896993186591798400e-02,-9.911611716072523670e-01,1.154598964003555011e+03
1.619153173324329620e+00,7.729077471421511802e+00,1.402358415121229385e+00,-2.289324798002133343e-02,2.768167229200014026e-02,-9.993536031939541653e-01,1.161144349303825038e+03
1.617872826093018634e+00,7.744073668227035689e+00,1.413643767124217909e+00,8.392878739742622163e-02,2.607717900920282494e-02,-9.961294792252907149e-01,1.161785984944732490e+03
1.603484753145741681e+00,7.895928080820536543e+00,1.525890943436697844e+00,1.897920220541831349e-01,2.417478167693953503e-02,-9.815256330306486587e-01,1.168331370245002518e+03
1.590929717609985472e+00,8.026210931592466125e+00,1.620352050222096274e+00,2.934870815357485951e-01,2.199621318169929854e-02,-9.557088989739903617e-01,1.173990410582729510e+03
1.576493621568311410e+00,8.175575862483215772e+00,1.726524116002716047e+00,3.938293607252819628e-01,1.956636136068570092e-02,-9.189742064577324232e-01,1.180535795882999537e+03
1.562536553956308971e+00,8.323469354982067969e+00,1.829521448241593573e+00,4.896725565858324192e-01,1.691298468475121997e-02,-8.717412106104414082e-01,1.187081181183269564e+03
1.551073417849691882e+00,8.448074259423336230e+00,1.914514989497103636e+00,4.877376426268011378e-01,1.688085450248329872e-02,-8.728258867862211945e-01,1.192657969127693832e+03
1.538320677573641770e+00,8.592521645968851374e+00,2.010961508544439003e+00,4.858003287765743639e-01,1.684864125026947976e-02,-8.739062671573293306e-01,1.199203354427963859e+03
1.534653167102363103e+00,8.634041363323701646e+00,2.038099463262522004e+00,4.838606244995389272e-01,1.681634508519099999e-02,-8.749823464078338997e-01,1.201110968549146264e+03
1.522352599409654728e+00,8.774420149811353653e+00,2.127844472317931945e+00,4.819185392894427267e-01,1.678396616534519672e-02,-8.760541192743348526e-01,1.207656353849416291e+03
1.520831247605826553e+00,8.791786866931815325e+00,2.138696890175461718e+00,4.799740826514707903e-01,1.675150464922724181e-02,-8.771215805141563404e-01,1.208478945707734283e+03
1.518118429968598138e+00,8.820572041591420387e+00,2.156279038864690190e+00,4.780272641022016988e-01,1.671896069572938182e-02,-8.781847249053709170e-01,1.209865610689777441e+03
1.505682526865987692e+00,8.954172477531184171e+00,2.235834979330334260e+00,4.760780931695646201e-01,1.668633446414023724e-02,-8.792435472468226321e-01,1.216410995990047468e+03
1.501060585313253037e+00,9.005641015950402561e+00,2.265663324671122414e+00,4.741265793927953998e-01,1.665362611414406696e-02,-8.802980423581512337e-01,1.218977352460894735e+03
1.494885957434218371e+00,9.073965208553930850e+00,2.304162338525148179e+00,4.721727323223930406e-01,1.662083580582001535e-02,-8.813482050798151501e-01,1.222448549475186155e+03
1.491076074177908328e+00,9.115634533158386787e+00,2.326944583906735975e+00,4.702165615200765147e-01,1.658796369964143230e-02,-8.823940302731158036e-01,1.224607003153273808e+03
1.480127594543108938e+00,9.239526649022623772e+00,2.392439253538820587e+00,4.682580765587406879e-01,1.655500995647509604e-02,-8.834355128202202589e-01,1.231152388453543836e+03
1.470502237349596175e+00,9.360953818449461394e+00,2.454207885159709335e+00,4.662972870224132982e-01,1.652197473758049845e-02,-8.844726476241844271e-01,1.237697773753813863e+03
1.467949531950309972e+00,9.394328266090395729e+00,2.470493005472698123e+00,4.566212757954659085e-01,1.507919973723852169e-01,-8.767877645253733254e-01,1.239535596146444504e+03
1.459354104873311853e+00,9.510600359089497857e+00,2.524643849144286190e+00,4.386433601044418817e-01,2.823204521822750279e-01,-8.531618632579927031e-01,1.246080981446714532e+03
1.451957002274520292e+00,9.624298522723375271e+00,2.574784833605575418e+00,4.126903969593487820e-01,4.087160044995033492e-01,-8.140244860723531151e-01,1.252626366746984559e+03
1.448073266545359061e+00,9.689002673721995862e+00,2.601600067407307204e+00,3.792342379376585915e-01,5.276806391221205983e-01,-7.600871896521030902e-01,1.256439075760270043e+03
1.445840426933658884e+00,9.725512298519392473e+00,2.615703134320478629e+00,3.388831510248839773e-01,6.370514400774978103e-01,-6.923306093537846539e-01,1.258643091531374012e+03
1.441002963710904305e+00,9.804617015653452228e+00,2.643840052641230010e+00,2.923707623177962955e-01,7.348399147100079798e-01,-6.119866314651559724e-01,1.263537512859439857e+03
1.435283141422069697e+00,9.907818085883867809e+00,2.677018388336707133e+00,2.405427185415062452e-01,8.192681471806610993e-01,-5.205159974227669961e-01,1.270082898159709885e+03
1.433370307892074536e+00,9.943669928956962778e+00,2.687208676182267553e+00,1.843413127573352572e-01,8.888011240084127129e-01,-4.195817469496343488e-01,1.272415143416737919e+03
1.428309202200386485e+00,1.004173031695774299e+01,2.711080396219281319e+00,1.247883526929221831e-01,9.421746437863811607e-01,-3.110189827632283133e-01,1.278960528717007946e+03
1.424085830380546813e+00,1.013729144794339554e+01,2.729985056166888580e+00,6.296658311489314319e-02,9.784183034221005659e-01,-1.968015064480666820e-01,1.285505914017277973e+03
1.420651701336642425e+00,1.023039289432064791e+01,2.743696725147458881e+00,0.000000000000000000e+00,9.968731427319688088e-01,-7.900593205829616050e-02,1.292051299317548001e+03
1.417961294908139047e+00,1.032108109046970590e+01,2.751986797945103369e+00,-0.000000000000000000e+00,-8.566789209264032146e-02,-9.963227450309074529e-01,1.298596684617818028e+03
1.417757165075341774e+00,1.032766337514693156e+01,2.752193108072965799e+00,-0.000000000000000000e+00,9.968731427319725835e-01,-7.900593205829646581e-02,1.299084628259237661e+03
1.414936988282208263e+00,1.041360355550687444e+01,2.749314947283099553e+00,-9.796745246597646783e-01,0.000000000000000000e+00,2.005886979235763090e-01,1.305630013559507688e+03
1.412738801017771717e+00,1.049724932827017376e+01,2.740539901533566969e+00,-9.968817776708351897e-01,-0.000000000000000000e+00,-7.889690326035841972e-02,1.312175398859777715e+03
1.411119935040141771e+00,1.057865717297137031e+01,2.725648114233064412e+00,-3.571165318403861644e-01,-5.924852232853182743e-01,-7.220990533689037871e-01,1.318720784160047742e+03
1.410088327603454816e+00,1.064718737878970600e+01,2.707329703627446182e+00,-0.000000000000000000e+00,-0.000000000000000000e+00,-9.999989999995544387e-01,1.324381940622837419e+03
1.409253859831551159e+00,1.072432160535837831e+01,2.679726762832583375e+00,3.588155418935933261e-01,-5.920762440853613029e-01,-7.215920787301114414e-01,1.330927325923107446e+03
1.408800987804111893e+00,1.079943617278118495e+01,2.645567311177029257e+00,9.968779763717017239e-01,-0.000000000000000000e+00,-7.894491893666531757e-02,1.337472711223377473e+03
1.408607897801519515e+00,1.082242899786873913e+01,2.632757175800160887e+00,7.268315228413133600e-01,-5.907656121674214056e-01,-3.502997700311930029e-01,1.339529752796983757e+03
1.408224803396908031e+00,1.084334314674917721e+01,2.618857613627734171e+00,0.000000000000000000e+00,-9.968312352731990567e-01,-7.953293898568999931e-02,1.341451046296087952e+03
1.406643138138437665e+00,1.091272619074526418e+01,2.564850427337200145e+00,9.968779763718004228e-01,-0.000000000000000000e+00,-7.894491893667315852e-02,1.347996431596357979e+03
1.405173450672889901e+00,1.098030780328891254e+01,2.504140369107271891e+00,0.000000000000000000e+00,-0.000000000000000000e+00,-9.999989999999968626e-01,1.354541816896628006e+03
1.404750810132415761e+00,1.099465858038524146e+01,2.489460012028413161e+00,9.968779763717972031e-01,-0.000000000000000000e+00,-7.894491893667289484e-02,1.355968761765152522e+03
1.402277861800939940e+00,1.105878329457949683e+01,2.415527388777462203e+00,9.576328542364139773e-01,4.651711756069817211e-03,-2.879508257773891189e-01,1.362514147065422549e+03
1.399683364413005782e+00,1.112128283944853635e+01,2.335014135320501172e+00,8.750592824596771235e-01,9.092954624025314375e-03,-4.839282698485465883e-01,1.369059532365692576e+03
1.398528386201884244e+00,1.114342657079250998e+01,2.303407091106630666e+00,7.528933506221630045e-01,1.312278288373524074e-02,-6.580101786140678533e-01,1.371438322353818876e+03
1.394694168039368742e+00,1.120285792750546072e+01,2.210073438624545972e+00,5.966625173849142705e-01,1.655886568968502684e-02,-8.023201632244553183e-01,1.377983707654088903e+03
1.390490977157773811e+00,1.126089713969876094e+01,2.110466158139209014e+00,4.134355114168603018e-01,1.924573663796847259e-02,-9.103288853608969555e-01,1.384529092954358930e+03
1.387780812498775163e+00,1.129215730525653250e+01,2.052220435415676558e+00,2.115025003211626897e-01,2.106182775484768607e-02,-9.771494725840400575e-01,1.388136004714354613e+03
1.387382237566166188e+00,1.129571259075045475e+01,2.045062877977727123e+00,0.000000000000000000e+00,2.192496970816739527e-02,-9.997586187200654395e-01,1.388555737678094602e+03
1.380061843959714318e+00,1.134994742113550359e+01,1.927629546854687348e+00,-7.747626202644705140e-01,1.733906970192034686e-02,-6.320128471039171414e-01,1.395101122978364629e+03
1.372051812141682925e+00,1.140311676714098255e+01,1.804587910072410484e+00,-9.796745246597445833e-01,0.000000000000000000e+00,2.005886979235721734e-01,1.401646508278634656e+03
1.368817329247324022e+00,1.142156342365600707e+01,1.759211455488884024e+00,-9.796745239680101358e-01,-0.000000000000000000e+00,2.005886977819393013e-01,1.403961155374455302e+03
1.358437086023779772e+00,1.147281359945409385e+01,1.625889241098403604e+00,-5.482382338457068280e-05,-0.000000000000000000e+00,9.999989984903829843e-01,1.410506540674725329e+03
1.347035043286110456e+00,1.152330788638823833e+01,1.487885317960727427e+00,9.796526068669312304e-01,-0.000000000000000000e+00,2.006957145969553158e-01,1.417051925974995356e+03
1.334466626836079417e+00,1.157317730827553071e+01,1.345627262491804865e+00,9.796526061767043547e-01,-0.000000000000000000e+00,2.006957144555525374e-01,1.423597311275265383e+03
1.322923084905956781e+00,1.161399079744423979e+01,1.224823850727226437e+00,9.841855039982579934e-01,-0.000000000000000000e+00,-1.771352411856755016e-01,1.429009903517570365e+03
1.307437764807596770e+00,1.166295702785147448e+01,1.075331488588857409e+00,8.481883525044562333e-01,-0.000000000000000000e+00,-5.296928530349646058e-01,1.435555288817840392e+03
1.290371688796827510e+00,1.171168460299642788e+01,9.228815434241764981e-01,5.910542877856559407e-01,-0.000000000000000000e+00,-8.066305403983923261e-01,1.442100674118110419e+03
1.271580792734231746e+00,1.176031363328016965e+01,7.679499083314786922e-01,2.494917400654646511e-01,-0.000000000000000000e+00,-9.683758936613481305e-01,1.448646059418380446e+03
1.250925146997492909e+00,1.180898799007039379e+01,6.110145956232447828e-01,-1.277051181594173745e-01,-0.000000000000000000e+00,-9.918111728590766063e-01,1.455191444718650473e+03
1.239686609690696439e+00,1.183293404369030810e+01,5.331779414528377004e-01,-4.866458720460897225e-01,-0.000000000000000000e+00,-8.735981885853418838e-01,1.458405581212226934e+03
1.214470667824345984e+00,1.188191012542236535e+01,3.734539918890025789e-01,-7.760699903484538087e-01,-0.000000000000000000e+00,-6.306452013847876348e-01,1.464950966512496962e+03
1.187060773211925824e+00,1.193132795548684655e+01,2.129299028560662776e-01,-9.546707118986682561e-01,-0.000000000000000000e+00,-2.976605983777355080e-01,1.471496351812766989e+03
1.157331250763037334e+00,1.198134396395823309e+01,5.208978557116063224e-02,-8.931466909671531562e-01,4.896755118412853556e-04,-4.497629916220901025e-01,1.478041737113037016e+03
1.138665064141646255e+00,1.201055903350704668e+01,-4.060050392248411300e-02,-8.075785913881418088e-01,9.661686516775521956e-04,-5.897574800289399066e-01,1.481816523951514682e+03
1.103567344429665642e+00,1.206199738598487059e+01,-2.008250313689494138e-01,-7.002699325829992993e-01,1.416652022242646976e-03,-7.138753494954820367e-01,1.488361909251784709e+03
1.065845823719995700e+00,1.211448030425597544e+01,-3.601227034394134940e-01,-5.741094903284836848e-01,1.828998376288161953e-03,-8.187752731239562598e-01,1.494907294552054736e+03
1.025574212727721202e+00,1.216794205603622636e+01,-5.173088414813034053e-01,-5.759863544736036900e-01,0.000000000000000000e+00,-8.174580838484853951e-01,1.501423043705973669e+03
9.822849240393332071e-01,1.222305407821489887e+01,-6.733488034388894761e-01,-5.600404813770031298e-01,-3.238874340399546803e-01,-7.625284186776964956e-01,1.507968429006243696e+03
9.361856008933080453e-01,1.227973758795405068e+01,-8.271112578692394468e-01,-4.835122988202208427e-01,-6.127384713463874810e-01,-6.251123280038516361e-01,1.514513814306513723e+03
9.073419311472697979e-01,1.231407233183539596e+01,-9.162982809876929480e-01,-3.546801689516630995e-01,-8.353066694931655656e-01,-4.200746905646122187e-01,1.518374598924670863e+03
8.559487680875843552e-01,1.237387870595408579e+01,-1.064728226626180607e+00,-1.874804555269631579e-01,-9.675156242381367511e-01,-1.695953880578503770e-01,1.524919984224940890e+03
8.425471434131334147e-01,1.238915200360656144e+01,-1.100967290832274958e+00,-0.000000000000000000e+00,-9.950635238632309365e-01,9.922995251858010568e-02,1.526550447678494493e+03
7.865861965863772953e-01,1.245203167994605487e+01,-1.243342284501899986e+00,9.546769266724903780e-01,-0.000000000000000000e+00,-2.976406653675131020e-01,1.533095832978764520e+03
7.291946127605508643e-01,1.251685983304168559e+01,-1.382407419734273279e+00,9.984468343129763168e-01,1.068709772541973080e-02,5.465990298124860647e-02,1.539641218279034547e+03
7.207851869151535862e-01,1.252633031267708574e+01,-1.401735403435065752e+00,9.162667150136376559e-01,2.002606070601925525e-02,4.000653244809729836e-01,1.540574001202621048e+03
6.603812183309742956e-01,1.259446632614216810e+01,-1.533809210595795891e+00,7.185032639773418772e-01,2.683881732865195727e-02,6.950041277140865947e-01,1.547119386502891075e+03
5.993843073725357851e-01,1.266473196115845212e+01,-1.662139835171811519e+00,4.301035175189049653e-01,3.026596604827478873e-02,9.022709878513509585e-01,1.553664771803161102e+03
5.381744293836545623e-01,1.273718657328240589e+01,-1.786533036154997811e+00,5.764363129604719305e-01,-1.163998612660168330e-03,-8.171400260719436925e-01,1.560210157103431129e+03
5.283695150289455800e-01,1.274900321016775173e+01,-1.805675614413896790e+00,5.760406274776115332e-01,-7.759994197133005542e-04,-8.174194715494740304e-01,1.561251238058522858e+03
4.665079475543778553e-01,1.282517198069730568e+01,-1.921879966636238279e+00,5.756447203099680499e-01,-3.879998899874613147e-04,-8.176986025322190432e-01,1.567796623358792885e+03
4.052387051285040731e-01,1.290365227658119096e+01,-2.033754382983333109e+00,5.752485911879960945e-01,-0.000000000000000000e+00,-8.179774186878632225e-01,1.574342008659062913e+03
3.982867939453145767e-01,1.291281787666629377e+01,-2.046005891018776612e+00,3.962572734595354307e-01,5.342084912957939524e-01,-7.467258272326389168e-01,1.575088175139991336e+03
3.377837901479517901e-01,1.299515606714228966e+01,-2.148987825829711706e+00,8.947500021079959898e-02,8.961381637093988051e-01,-4.346591950928254677e-01,1.581633560440261363e+03
2.786030007611600134e-01,1.307985154597320765e+01,-2.247316902721722354e+00,-2.461623949818277368e-01,9.690680720279651883e-01,1.758257864202232915e-02,1.588178945740531390e+03
2.722978611185027376e-01,1.308923456553158537e+01,-2.257457546616897570e+00,-5.024135394086992612e-01,7.294793312444676214e-01,4.641535744838030109e-01,1.588887797873073396e+03
2.152159162766464906e-01,1.317779612517591303e+01,-2.346346615266613700e+00,-9.994701503667592357e-01,0.000000000000000000e+00,3.251797235700312760e-02,1.595433183173343423e+03
1.692042451629313660e-01,1.325342725906885200e+01,-2.416373594747972309e+00,-0.000000000000000000e+00,-5.697617808905230952e-01,-8.218086839625314832e-01,1.600887889330697590e+03
1.530690051564086440e-01,1.328129113662632044e+01,-2.440193923198752390e+00,-0.000000000000000000e+00,8.080491350120935778e-02,9.967289330370694422e-01,1.602857601602921704e+03
1.013527342664240494e-01,1.337571316089050377e+01,-2.514416131285456935e+00,4.203463235973335932e-01,3.347858842179117778e-01,8.433417930873142732e-01,1.609402986903191731e+03
5.229340083098013570e-02,1.347210842882334170e+01,-2.583593714546594811e+00,7.294162694263955915e-01,5.001404990659483740e-01,4.667005325589728137e-01,1.615948372203461759e+03
6.180087219686026222e-03,1.357029571891978748e+01,-2.647654010422908044e+00,0.000000000000000000e+00,1.173078338872874937e-01,9.930945937372529508e-01,1.622493757503731786e+03
-7.100335151400497327e-03,1.360072559438532203e+01,-2.665664989023643017e+00,5.179124917785868920e-01,7.186022948440528024e-01,4.640855445983346761e-01,1.624493894945130023e+03
-4.771466956513637642e-02,1.370155646580763609e+01,-2.719452146060905129e+00,8.506807646955482083e-01,5.164672500191380689e-01,9.798885770681885210e-02,1.631039280245400050e+03
-7.747918303072574842e-02,1.378330300101412220e+01,-2.758349777996469410e+00,9.997494087558927989e-01,0.000000000000000000e+00,-2.234098678771232957e-02,1.636281754133308368e+03
-8.773438825848227374e-02,1.381430396551242623e+01,-2.771414424484629269e+00,1.270998420255764830e-03,1.158168560493799404e-01,9.932687654503882246e-01,1.638253231754998524e+03
-1.183418641623517759e-01,1.391797248376605012e+01,-2.809588521619390100e+00,1.182598423654793174e-01,0.000000000000000000e+00,9.929816764045386046e-01,1.644798617055268551e+03
-1.392023602366167234e-01,1.399984401977299697e+01,-2.835465357005379605e+00,9.994709311547830266e-01,0.000000000000000000e+00,3.249396525059583540e-02,1.649936422859968388e+03
-1.615074073873072058e-01,1.410449559029782840e+01,-2.863265748032639113e+00,-9.359985444648430625e-04,-1.157798199552772661e-01,9.932734553988430415e-01,1.656481808160238415e+03
-1.715885139179059438e-01,1.416315184084185930e+01,-2.875982533448113720e+00,1.580962574316494562e-01,-3.677369299453824292e-01,9.163913594870324308e-01,1.660148686695825063e+03
-1.850794773470583465e-01,1.426763123739380568e+01,-2.893650932027531208e+00,3.021592364488920324e-01,-5.848750092783338017e-01,7.527410041655331341e-01,1.666694071996095090e+03
-1.920174920802126262e-01,1.435158260835598476e+01,-2.903920850921769770e+00,4.176123767784961083e-01,-7.466343946646996077e-01,5.178175194667348213e-01,1.671978387122397407e+03
-1.955159982269864538e-01,1.445472514348855952e+01,-2.911820301904580077e+00,4.935240026499413957e-01,-8.376988947089334392e-01,2.338645347486136006e-01,1.678523772422667435e+03
-1.953557621794086152e-01,1.446807754751429087e+01,-2.912245694828667908e+00,5.227064052949739192e-01,-8.494460335495787051e-01,-7.223191781871403372e-02,1.679380621676957617e+03
-1.893125982766458715e-01,1.456866939352798518e+01,-2.910942656364317038e+00,-5.517134353491086607e-01,-8.267481538649376072e-01,1.099898874308943703e-01,1.685926006977227644e+03
-1.776638165674180869e-01,1.466746773018813421e+01,-2.905155806831631438e+00,-2.883779608520256610e-01,-9.545120556963128111e-01,7.578183968180839114e-02,1.692471392277497671e+03
-1.752847183550802213e-01,1.468121717706853246e+01,-2.903727110303771841e+00,-0.000000000000000000e+00,-9.993865585865699952e-01,3.499294952973203837e-02,1.693401776851197610e+03
-1.533961228420089862e-01,1.477558732971289857e+01,-2.889518963859226464e+00,2.165513013826878275e-01,-9.498562503475095342e-01,2.255585013847052345e-01,1.699947162151467637e+03
-1.256585598997284892e-01,1.486707828881790228e+01,-2.871229091450279380e+00,4.145521980327395162e-01,-8.189582429394326457e-01,3.968020557268372994e-01,1.706492547451737664e+03
-9.197830546903100479e-02,1.495519255271091374e+01,-2.849047904524037556e+00,5.770413075782515611e-01,-6.179055640674204763e-01,5.340543448410827176e-01,1.713037932752007691e+03
-8.871617055403743790e-02,1.496225434925574582e+01,-2.846890405284892012e+00,6.900992251039893555e-01,-3.639209450878968521e-01,6.255578352458515123e-01,1.713584268264123693e+03
-4.420812351574407439e-02,1.504305342451693939e+01,-2.817476671817849443e+00,7.440409465578829984e-01,-7.876153649808180501e-02,6.634739559423112887e-01,1.720129653564393720e+03
6.347216625235907461e-03,1.511934925104061556e+01,-2.784561405467166129e+00,7.342455860441425841e-01,2.131448798323433702e-01,6.445546366104580871e-01,1.726675038864663748e+03
6.300142531616660657e-02,1.519062307616059471e+01,-2.748328630852806764e+00,6.355972790727207888e-01,2.092487626592402228e-01,7.431211571135819538e-01,1.733220424164933775e+03
1.181379903953304611e-01,1.524846308878374401e+01,-2.713729482918305624e+00,5.253617572762757648e-01,1.773538001814737586e-01,8.321890731999486146e-01,1.738973867391777048e+03
1.869582157185379345e-01,1.530829815675032890e+01,-2.671412544482641316e+00,4.040399347418084375e-01,1.417162767469933027e-01,9.036958714300191708e-01,1.745519252692047075e+03
2.619462306241744365e-01,1.536159573845042203e+01,-2.626310005726663288e+00,2.741919707132784434e-01,1.030882234004354553e-01,9.561326170534464319e-01,1.752064637992317103e+03
3.431095590818382113e-01,1.540783284954818555e+01,-2.578604701030875912e+00,1.385579368567454173e-01,6.228477539240687144e-02,9.883927887683322533e-01,1.758610023292587130e+03
3.929673404415651716e-01,1.543012889552905165e+01,-2.549945866737411304e+00,0.000000000000000000e+00,2.016697227947948992e-02,9.997956257304881911e-01,1.762352992655723710e+03
4.861648821826134448e-01,1.546145500909845616e+01,-2.497556635597793395e+00,-0.000000000000000000e+00,2.016697226524963651e-02,9.997956250250304988e-01,1.768898377955993737e+03
5.854914567058551178e-01,1.548435669244995339e+01,-2.443018935517742296e+00,8.370268619317432490e-01,-1.940497361591903558e-01,5.115943044079412916e-01,1.775443763256263765e+03
6.909253056941268012e-01,1.549831693731529114e+01,-2.386508893150977251e+00,0.000000000000000000e+00,-2.786296520869569956e-02,9.996107518284006455e-01,1.781989148556533792e+03
8.024374488284082840e-01,1.550283028606441960e+01,-2.328201125956249840e+00,-0.000000000000000000e+00,1.519999199338746380e-02,9.998834733102782701e-01,1.788534533856803819e+03
9.199973494977987665e-01,1.549741542399926786e+01,-2.268266986768563864e+00,6.991536932645082691e-01,-5.387427636406298959e-01,-4.700407937818316673e-01,1.795079919157073846e+03
9.340248324632473009e-01,1.549572495607463374e+01,-2.261300548567897639e+00,4.595995113947056177e-01,-5.348094314382125791e-01,-7.090452462062019068e-01,1.795822939813491757e+03
1.063543931124653730e+00,1.547106772047728107e+01,-2.198591810733141028e+00,6.008035540474920833e-01,8.946493359374915744e-02,-7.943734103683104397e-01,1.802368325113761784e+03
1.198904687891164667e+00,1.543542684682055466e+01,-2.134603054490492369e+00,0.000000000000000000e+00,1.705397561329156236e-02,9.998535702373423373e-01,1.808913710414031812e+03
1.335956815956193422e+00,1.538980379575183477e+01,-2.071344774164980862e+00,-4.199765354727899025e-01,-5.494543922600566566e-01,-7.223002010789438820e-01,1.815269220276476744e+03
1.482806653624376692e+00,1.533113775592746286e+01,-2.005117695762554941e+00,-8.217572942078683607e-01,1.566598654477408675e-02,5.696205107634852993e-01,1.821814605576746771e+03
1.512235361125557231e+00,1.531770865794873160e+01,-1.992170411523494389e+00,-7.953450456822120929e-01,8.613540554541568306e-02,6.000041251654493202e-01,1.823075599560264436e+03
1.670785809837421976e+00,1.523676425295484194e+01,-1.924018276886741319e+00,-7.636941011571498628e-01,1.560374306746019624e-01,6.264356631625663807e-01,1.829620984860534463e+03
1.834652970556296392e+00,1.514341053541159710e+01,-1.854896442833485981e+00,-7.270129289238149717e-01,2.249116686475268190e-01,6.487410442383414466e-01,1.836166370160804490e+03
2.003690692274931351e+00,1.503740938359028156e+01,-1.784834070561054808e+00,-8.521666701644833308e-01,2.288007591402125077e-02,5.227680827946641351e-01,1.842711755461074517e+03
2.149094181917763802e+00,1.493836147708387507e+01,-1.725588525115660188e+00,-9.156665354933054557e-01,-1.808069032883145300e-01,3.589730623635252194e-01,1.848176137346606993e+03
2.328219537875743761e+00,1.480690799847451800e+01,-1.653746456135961163e+00,-9.129183099056412676e-01,-3.714126257856997793e-01,1.692064444616985242e-01,1.854721522646877020e+03
2.511988252076275518e+00,1.466226881246923064e+01,-1.581048971704514416e+00,-8.441207703727842127e-01,-5.351468367639837798e-01,-3.280225796815774975e-02,1.861266907947147047e+03
2.561134166715818505e+00,1.462146002667608435e+01,-1.561932603442448553e+00,-7.142513392296423458e-01,-6.601633892676501691e-01,-2.324377849664538698e-01,1.862969455417602603e+03
2.755076475385155099e+00,1.445223012521112160e+01,-1.487669526833176992e+00,-7.374317119912999763e-01,-6.370844843211691533e-01,-2.243119033552934405e-01,1.869514840717872630e+03
2.801810174017829613e+00,1.440956592884478837e+01,-1.470044313104397871e+00,-7.597743624609983870e-01,-6.132818545040776836e-01,-2.159312045146642711e-01,1.871052893727382980e+03
3.005452606600322429e+00,1.421561546839537904e+01,-1.394325126857881569e+00,-7.812539097205145611e-01,-5.887825395732668721e-01,-2.073052089076820592e-01,1.877598279027653007e+03
3.212742569534711823e+00,1.400808291466121069e+01,-1.317907118295436941e+00,-8.018459533321482535e-01,-5.636143706885829996e-01,-1.984437156435565619e-01,1.884143664327923034e+03
3.277351126420330552e+00,1.394093792509085894e+01,-1.294393387463230294e+00,-8.215271010539738628e-01,-5.378059387970040017e-01,-1.893567913459352769e-01,1.886141432716269264e+03
3.491068650101866844e+00,1.371083965789114778e+01,-1.217557857246764019e+00,-8.402749954101541574e-01,-5.113865621542809103e-01,-1.800547587175561626e-01,1.892621027517892571e+03
3.585843507832063626e+00,1.360516623818598347e+01,-1.183857288288165055e+00,-8.580683390858804271e-01,-4.843862530206640149e-01,-1.705481848141024159e-01,1.895443756594243041e+03
3.809239641113824515e+00,1.334755749480865461e+01,-1.105246563638815127e+00,-8.748869191181203320e-01,-4.568356835685324357e-01,-1.608478690405755751e-01,1.901989141894513068e+03
4.035077775411588519e+00,1.307651722945209549e+01,-1.026241348405850351e+00,-8.907116298547244071e-01,-4.287661510406416965e-01,-1.509648308838177910e-01,1.908534527194783095e+03
4.056870746486433532e+00,1.304968150649365732e+01,-1.018716893371338417e+00,-9.055244946558390629e-01,-4.002095421985517043e-01,-1.409102973951123494e-01,1.909155685568748140e+03
4.279828529434285045e+00,1.276835537996122483e+01,-9.427332738515942223e-01,-9.193086863129981134e-01,-3.711982971015972410e-01,-1.306956904370748518e-01,1.915410774006160409e+03
4.514824999801149374e+00,1.246089616434907121e+01,-8.630624556293219340e-01,-9.320485461627228130e-01,-3.417653722575277886e-01,-1.203326137093135156e-01,1.921956159306430436e+03
4.751040257480698692e+00,1.214050234135088324e+01,-7.833466555323091995e-01,-9.437296018729383063e-01,-3.119442031866484499e-01,-1.098328395675895602e-01,1.928501544606700463e+03
4.988077495486084700e+00,1.180741722351332257e+01,-7.037048333141159295e-01,-9.543385838820183098e-01,-2.817686664419626341e-01,-9.920829565143952922e-02,1.935046929906970490e+03
5.225534414722146082e+00,1.146190653704751305e+01,-6.242451989585603433e-01,-9.638634404718019466e-01,-2.512730411284333498e-01,-8.847105133544209965e-02,1.941592315207240517e+03
5.385457269134054314e+00,1.122220615225683282e+01,-5.710833711709549787e-01,-9.722933514574698677e-01,-2.204919699650425280e-01,-7.763330401950813142e-02,1.945986311538626524e+03
5.624079006946950621e+00,1.085384802935817206e+01,-4.922241794987943231e-01,-9.796187404787357611e-01,-1.894604199338545680e-01,-6.670736527375817349e-02,1.952531696838896551e+03
5.782561367282387899e+00,1.060197411975240911e+01,-4.401291009025664058e-01,-9.858312858784001875e-01,-1.582136425607505725e-01,-5.570564685371474228e-02,1.956877363433620303e+03
6.020983002250484439e+00,1.021187991606827339e+01,-3.621095389563572797e-01,-9.909239301559058521e-01,-1.267871338729225361e-01,-4.464064660168438892e-02,1.963422748733890330e+03
6.257895610033259004e+00,9.810807747534701306e+00,-2.845655295005760088e-01,-9.948908879851567910e-01,-9.521659407858457103e-02,-3.352493425033482854e-02,1.969968134034160357e+03
6.492864641074508114e+00,9.399181560381947520e+00,-2.075264226599921324e-01,-9.977276527874872070e-01,-6.353788701466825395e-02,-2.237113714458144331e-02,1.976513519334430384e+03
6.725468554455932058e+00,8.977436637712903789e+00,-1.310215075746825053e-01,-9.994310018523033801e-01,-3.178699940854213396e-02,-1.119192589799310016e-02,1.983058904634700411e+03
6.955298933240117165e+00,8.546019294182650938e+00,-5.508000919238723730e-02,-9.999989999995712031e-01,-0.000000000000000000e+00,-0.000000000000000000e+00,1.989604289934970438e+03
7.181960597029216409e+00,8.105386568646267165e+00,2.026891493339449263e-02,-9.994518934362455198e-01,3.307435099828503339e-02,-3.331932738630625119e-06,1.996149675235240466e+03
7.405071711727390316e+00,7.656005914824057790e+00,9.499617783928915316e-02,-9.978111727131722120e-01,6.611250685682537598e-02,-6.660219154130045829e-06,2.002695060535510493e+03
7.624263896495332204e+00,7.198354890033612286e+00,1.690727663416375925e-01,-9.950786335275220162e-01,9.907831748659322313e-02,-9.981217461807085985e-06,2.009240445835780520e+03
7.839182327885546364e+00,6.732920842038287113e+00,2.424697442195132557e-01,-9.912572661640018934e-01,1.319357119929960298e-01,-1.329129385507213201e-05,2.015785831136050547e+03
8.049485841147314247e+00,6.260200594061842594e+00,3.151582553908998663e-01,-9.863512522191524301e-01,1.646487381346780077e-01,-1.658682648054379650e-05,2.022331216436320574e+03
8.254847028690541322e+00,5.780700128019240935e+00,3.871095270817513367e-01,-9.803659600241407812e-01,1.971816016522756621e-01,-1.986420940005463332e-05,2.028876601736590601e+03
8.454952335697992538e+00,5.294934266013746615e+00,4.582948729876464844e-01,-9.733079387701036866e-01,2.294987054242006996e-01,-2.311985653523148469e-05,2.035421987036860628e+03
8.649502152875690797e+00,4.803426350150648005e+00,5.286856964277665272e-01,-9.651849113424754156e-01,2.615646884067164279e-01,-2.635020559034541399e-05,2.041967372337130655e+03
8.701727562757293200e+00,4.667849262910412023e+00,5.477158725786009930e-01,-9.560057658721318186e-01,2.933444643158066856e-01,-2.955172194914965485e-05,2.043757430129056502e+03
8.888921869677188781e+00,4.168202604511447973e+00,6.164760932832427098e-01,-9.457805460125831010e-01,3.248032600086219746e-01,-3.272090254145268510e-05,2.050302815429326529e+03
9.069907293019667804e+00,3.664031869962766752e+00,6.843771665541733551e-01,-9.345204399538221685e-01,3.559066535226070860e-01,-3.585427967520602805e-05,2.056848200729596556e+03
9.244430481001826294e+00,3.155886411419917437e+00,7.513908453558383327e-01,-9.222377681848152875e-01,3.866206117307956491e-01,-3.894842482992433893e-05,2.063393586029866583e+03
9.412252392718084337e+00,2.644322715039629124e+00,8.174889856575339175e-01,-9.089459700179759460e-01,4.169115275721624880e-01,-4.199995240729656492e-05,2.069938971330136610e+03
9.573142836990214732e+00,2.129903430769361172e+00,8.826506137482356129e-01,-9.317747235323527999e-01,3.478927475358763455e-01,-1.037521122587702627e-01,2.076484356630406637e+03
9.726874981399779685e+00,1.613196628611278438e+00,9.468689927028460795e-01,-9.396572854467886149e-01,2.732935752552618780e-01,-2.057979777134523180e-01,2.083029741930676664e+03
9.873230925577992423e+00,1.094776452148098489e+00,1.010144558744766385e+00,-9.324672147942424383e-01,1.943106116576245601e-01,-3.045427384307528018e-01,2.089575127230946691e+03
1.001200730212665313e+01,5.752235437865139689e-01,1.072477856759653791e+00,-9.103198351686486722e-01,1.122107747340466699e-01,-3.984024845951386062e-01,2.096120512531216718e+03
1.014301535032356583e+01,5.512471299949764370e-02,1.133869540007445442e+00,-8.735703862515963314e-01,2.831098010942321302e-02,-4.858716586388920899e-01,2.102665897831486745e+03
1.026608098689357540e+01,-4.649273967316841505e-01,1.194320369824833916e+00,-8.727550254441267530e-01,-5.161913851837111877e-02,-4.854195402958610961e-01,2.109211283131756772e+03
1.038104487383746211e+01,-9.843346422240863980e-01,1.253831215318222281e+00,-8.663630167451517039e-01,-1.312194258949948844e-01,-4.818657338766016429e-01,2.115756668432026800e+03
1.048776248331126837e+01,-1.502493716096531928e+00,1.312403053047199952e+00,-8.544352033510157485e-01,-2.099812590094587983e-01,-4.752329472371752406e-01,2.122302053732296827e+03
1.058148953072995901e+01,-1.993794372616115584e+00,1.367251072124637812e+00,-8.370478007804464937e-01,-2.874013723939925491e-01,-4.655635620998582191e-01,2.128530846178800857e+03
1.067164250889188715e+01,-2.507582808459607460e+00,1.423952042896768688e+00,-8.143119098609428175e-01,-3.629850738874385585e-01,-4.529193632359102550e-01,2.135076231479070884e+03
1.075321347887043721e+01,-3.018335824346240592e+00,1.479715935694430495e+00,-7.863728067986357484e-01,-4.362494056110728380e-01,-4.373811436631920846e-01,2.141621616779340911e+03
1.076120195640184107e+01,-3.071896885545635669e+00,1.485514854507128835e+00,-7.534090148701242384e-01,-5.067262299568321415e-01,-4.190481883825573628e-01,2.142313443644631661e+03
1.079579822212191687e+01,-3.316333616901756987e+00,1.511789493890792757e+00,-7.156311636699861367e-01,-5.739652208676124800e-01,-3.980376399529511611e-01,2.145499142418664633e+03
1.085973893877641849e+01,-3.814307895196713094e+00,1.564851536864954484e+00,-6.732806432054359025e-01,-6.375367412950745383e-01,-3.744837499603386188e-01,2.152044527718934660e+03
1.091498277932685745e+01,-4.307928882261655268e+00,1.616961962858428858e+00,-6.266280614406399829e-01,-6.970345884483756249e-01,-3.485370211647854100e-01,2.158589913019204687e+03
1.094520018047036025e+01,-4.618907590896665027e+00,1.649518587480326204e+00,-5.759715151491225926e-01,-7.520785892927327465e-01,-3.203632458085631796e-01,2.162754429491485098e+03
1.098488116784982616e+01,-5.102515366726598778e+00,1.699740798326681235e+00,-5.216346851254849426e-01,-8.023170297142870888e-01,-2.901424462315850272e-01,2.169299814791755125e+03
1.101566819561750421e+01,-5.580761247427943772e+00,1.748984165402474700e+00,-4.639647679296814431e-01,-8.474289018312057831e-01,-2.580677245645553453e-01,2.175845200092025152e+03
1.102212576516985187e+01,-5.709039125296285100e+00,1.762092832130074171e+00,-4.033302573812174718e-01,-8.871259550935108873e-01,-2.243440288509673253e-01,2.177622345709097772e+03
1.103887608802295794e+01,-6.175510475094811547e+00,1.809388365648100905e+00,-3.401185899801902335e-01,-9.211545380682855111e-01,-1.891868434828019863e-01,2.184167731009367799e+03
1.104661338487992772e+01,-6.635848982824184894e+00,1.855632234832875982e+00,-2.747336693009890252e-01,-9.492972191446615859e-01,-1.528208123180748723e-01,2.190713116309637826e+03
1.104526306223294796e+01,-7.089745002456820266e+00,1.900783289510746821e+00,-2.075932851771861432e-01,-9.713741758057464759e-01,-1.154783032781803859e-01,2.197258501609907853e+03
1.103475661910800021e+01,-7.536905105948203065e+00,1.944787969221728696e+00,-1.391264441677733388e-01,-9.872443435933939693e-01,-7.739792359655994769e-02,2.203803886910177880e+03
1.101633530180959042e+01,-7.950997214605592056e+00,1.985057010485618667e+00,-6.977062836119862776e-02,-9.968063174269976567e-01,-3.882299520521575315e-02,2.209961793825262248e+03
1.098762531939017784e+01,-8.383851998628404800e+00,2.026600416852450071e+00,3.099996898510452229e-05,-9.999989995195006642e-01,-0.000000000000000000e+00,2.216507179125532275e+03
1.094957959437502026e+01,-8.809115352577880032e+00,2.066813772526877813e+00,-1.894780590071798720e-01,-9.649815539831558819e-01,-1.814019449397043793e-01,2.223052564425802302e+03
1.091012111821974706e+01,-9.158799136505537675e+00,2.099323852915144339e+00,-3.657147329773924871e-01,-8.623703818318153580e-01,-3.500972131045264613e-01,2.228535470921359774e+03
1.085691375559470728e+01,-9.546635259870807744e+00,2.134678076195683172e+00,-5.163343074811496125e-01,-6.993530620123987740e-01,-4.942693370751698456e-01,2.234736411398093878e+03
1.079118304413764484e+01,-9.947596438863900659e+00,2.170393980216500651e+00,-2.327097549698321222e-01,-7.626911969294452032e-01,-6.034453646062709620e-01,2.241281796698363905e+03
1.072335980291335034e+01,-1.030050904223527120e+01,2.200990485124523222e+00,-0.000000000000000000e+00,-7.954242215431440721e-01,-6.060514068764062401e-01,2.247170543447848104e+03
1.063811466506903969e+01,-1.068375946523089759e+01,2.233181399119865684e+00,2.499997266014357872e-05,-7.954151301376305438e-01,-6.060633372118903184e-01,2.253715928748118131e+03
1.054257358320237259e+01,-1.105759234427251769e+01,2.263436359530907716e+00,0.000000000000000000e+00,-6.060633378291391260e-01,7.954151309477257570e-01,2.260261314048388158e+03
1.049244520625526356e+01,-1.123152142427553635e+01,2.276918693329336829e+00,-9.089321683888220704e-01,-2.999997255206341850e-06,4.169416185267475483e-01,2.263384574859697750e+03
1.037770982849919221e+01,-1.158639958430644512e+01,2.303090174834442116e+00,-0.000000000000000000e+00,-2.291096583325515426e-02,-9.997365091094602141e-01,2.269929960159967777e+03
1.029670955570900759e+01,-1.180993404976747740e+01,2.318641497260345741e+00,-3.498498161641168669e-01,1.392377172831763543e-01,-9.263994625525081572e-01,2.274173040800676063e+03
1.016134418869093459e+01,-1.214436199502767444e+01,2.340358375823528014e+00,-6.457998176120151035e-01,2.799346649903147188e-01,-7.103359620001391539e-01,2.280718426100946090e+03
1.001473647185723692e+01,-1.246765055301626113e+01,2.359680468071060133e+00,-8.422542034483067042e-01,3.775032793885995108e-01,-3.848339003074890408e-01,2.287263811401216117e+03
9.988814459099991439e+00,-1.251937726630852765e+01,2.362476204682879111e+00,-9.089459700192470404e-01,4.169115275727455772e-01,-4.199995240735530157e-05,2.288346293910029544e+03
9.821834845863008923e+00,-1.282134565758746270e+01,2.376928116734144947e+00,-8.314206161608017620e-01,5.369063692590713144e-01,1.430709952185687250e-01,2.294891679210299571e+03
9.671225581413942507e+00,-1.306614438020645430e+01,2.386999925975128445e+00,-7.198981816597426198e-01,6.349469179796738416e-01,2.803337642740446611e-01,2.300417285006516522e+03
9.481292434003234959e+00,-1.334374505902286323e+01,2.396401982416834553e+00,-5.789388387807374858e-01,7.070242705068446876e-01,4.061336010061699642e-01,2.306962670306786549e+03
9.279723402626096629e+00,-1.360843712304985331e+01,2.403292305028124520e+00,-4.143064360610881902e-01,7.501911514494449262e-01,5.153265113748706217e-01,2.313508055607056576e+03
9.270741425396950675e+00,-1.361916345776783466e+01,2.403482224373679088e+00,-2.327328258594906496e-01,7.626824293288614331e-01,6.034475484751106178e-01,2.313785461999990275e+03
9.048745156255005639e+00,-1.386057199020769026e+01,2.405598746691424150e+00,-0.000000000000000000e+00,2.371197228180181582e-02,-9.997178313761231339e-01,2.320330847300260302e+03
8.816231350663048971e+00,-1.408881641352111558e+01,2.405379739564362573e+00,-0.000000000000000000e+00,8.460544322753847934e-01,5.330946422795754813e-01,2.326876232600530329e+03
8.696552116582600078e+00,-1.419576328025144640e+01,2.404189691175774524e+00,-0.000000000000000000e+00,7.071911767215847133e-01,7.070209611926693283e-01,2.330114591040249707e+03
8.445854871906288253e+00,-1.439997730173563717e+01,2.399694966759655657e+00,-0.000000000000000000e+00,5.332983833111852867e-01,8.459260217988052721e-01,2.336659976340519734e+03
8.186578625602964010e+00,-1.459147440458672662e+01,2.393188319294968114e+00,1.061328345905636628e-01,6.523769041791460666e-01,7.504253435996471877e-01,2.343205361640789761e+03
7.919451117379032290e+00,-1.477049435423305290e+01,2.384799910161086611e+00,2.085972635982223933e-01,7.489064633025873663e-01,6.289867175418787371e-01,2.349750746941059788e+03
7.645184231563916022e+00,-1.493729460047643620e+01,2.374665996490828768e+00,3.038516799060372309e-01,8.195505834855906224e-01,4.858075727360747220e-01,2.356296132241329815e+03
7.364470140110233487e+00,-1.509214750673659822e+01,2.362934795663005794e+00,3.886036800995176788e-01,8.618674900829148555e-01,3.258367833012284498e-01,2.362841517541599842e+03
7.353357607622292846e+00,-1.509778669368332693e+01,2.362424382519999089e+00,4.599238628012080055e-01,8.743945110747660676e-01,1.546036203615861471e-01,2.363095694385508978e+03
7.062128336460941291e+00,-1.523350107820906985e+01,2.347948045801449890e+00,5.153470822890516834e-01,8.566986379691922115e-01,-2.197335837423203264e-02,2.369641079685779005e+03
6.765914827787656627e+00,-1.535779637506165507e+01,2.332189948081154984e+00,5.529576574120615984e-01,8.093914985370741499e-01,-1.977908774575810325e-01,2.376186464986049032e+03
6.532776853636542036e+00,-1.544597138523092106e+01,2.319098462946314054e+00,6.361630235299536862e-01,7.374481370864548468e-01,-2.268586621653309876e-01,2.381263921751987255e+03
6.228448739789659072e+00,-1.554926944909357545e+01,2.301243857434976725e+00,7.111339615373529766e-01,6.559592538768101999e-01,-2.529900116597877946e-01,2.387809307052257282e+03
5.920831654965811097e+00,-1.564196917873820070e+01,2.282544474223834108e+00,7.769000438462596581e-01,5.659796204882207027e-01,-2.758466803520480681e-01,2.394354692352527309e+03
5.610487162420000118e+00,-1.572438501673235223e+01,2.263159096166985407e+00,8.326099846259509274e-01,4.686739155409616053e-01,-2.951328080537928278e-01,2.400900077652797336e+03
5.533361441079986065e+00,-1.574269026440016006e+01,2.258251136312532825e+00,8.775426600824314249e-01,3.653016509809408063e-01,-3.105987500338313057e-01,2.402515144762348427e+03
5.218897695717448215e+00,-1.580882632649537456e+01,2.237956053863052741e+00,9.111164444405666085e-01,2.572008702920449141e-01,-3.220443090430966104e-01,2.409060530062618454e+03
4.902898668047859232e+00,-1.586534451844379490e+01,2.217337085365022720e+00,9.328967405794984513e-01,1.457708294933295901e-01,-3.293213274001611235e-01,2.415605915362888481e+03
4.585823769564762564e+00,-1.591255288525371370e+01,2.196552840838011722e+00,9.426016076045059533e-01,3.245388502767288658e-02,-3.323356055003705012e-01,2.422151300663158509e+03
4.343710867371461504e+00,-1.594207821900367250e+01,2.180713072301402988e+00,9.401054122632952481e-01,-8.128317699605526470e-02,-3.310481218278195636e-01,2.427138108118117088e+03
4.025557948312497025e+00,-1.597262483511612174e+01,2.160048297104644188e+00,9.254404567143558191e-01,-1.939681284268970074e-01,-3.254755385982061600e-01,2.433683493418387116e+03
3.743406450646214356e+00,-1.599239307301220947e+01,2.141943807229250041e+00,8.987965613958164290e-01,-3.041423576049158140e-01,-3.156899864241165532e-01,2.439487471183304933e+03
3.425448635610667925e+00,-1.600669328296518756e+01,2.121895902782287902e+00,8.605186082800933001e-01,-4.103797518748081852e-01,-3.018181307506831446e-01,2.446032856483574960e+03
3.107979803975880362e+00,-1.601298402872805582e+01,2.102320662969078047e+00,8.111020762812495288e-01,-5.113051594028855673e-01,-2.840395321349076796e-01,2.452578241783844987e+03
3.102090536717559743e+00,-1.601300040870522068e+01,2.101968421423189515e+00,7.511866266562465810e-01,-6.056121910692695565e-01,-2.625843216122732415e-01,2.452699812519981151e+03
2.785496899649215319e+00,-1.600860734549846143e+01,2.083660474931292139e+00,6.815478215608737900e-01,-6.920801317825536758e-01,-2.377302212873987075e-01,2.459245197820251178e+03
2.469789547271267427e+00,-1.599674432993597506e+01,2.066016929908283561e+00,6.030870831492800566e-01,-7.695897421511822545e-01,-2.097989487831505295e-01,2.465790583120521205e+03
2.155108152563133928e+00,-1.597767944617319458e+01,2.049122624505816503e+00,5.168200234216856481e-01,-8.371377458875793875e-01,-1.791520521722173576e-01,2.472335968420791232e+03
1.841556921396852564e+00,-1.595167949670577556e+01,2.033049786659495872e+00,4.238632961279881761e-01,-8.938498154215478442e-01,-1.461862293916395827e-01,2.478881353721061259e+03
1.777230263064753624e+00,-1.594534172753278689e+01,2.029932719731425195e+00,3.254201411507608999e-01,-9.389918877271319353e-01,-1.113281928081333583e-01,2.480227996267119124e+03
1.674730270961105161e+00,-1.593421169306964202e+01,2.025280388649239871e+00,2.227648086738432676e-01,-9.719796640589745129e-01,-7.502914547458738870e-02,2.482378294293382169e+03
1.431622850243861711e+00,-1.590432116265298035e+01,2.014968939430770600e+00,1.172260648786833670e-01,-9.923861708603862741e-01,-3.775894062157931358e-02,2.487493360058910184e+03
1.225638431958618213e+00,-1.587554728164078632e+01,2.006833392559546514e+00,1.016999272028218902e-02,-9.999472842340938472e-01,-0.000000000000000000e+00,2.491842497033928794e+03
9.168433752916311796e-01,-1.582679487353546399e+01,1.995518161751074437e+00,1.667144711269536173e-01,-8.935352972032607477e-01,-4.168920217145787310e-01,2.498387882334198821e+03
6.094371601352620571e-01,-1.577193861376006367e+01,1.985093416102677866e+00,2.883107282157467699e-01,-5.998124345698628845e-01,-7.463912963931577105e-01,2.504933267634468848e+03
3.034412924111805632e-01,-1.571112481253739723e+01,1.975531356326060806e+00,3.222658772280992401e-01,4.473177041815307731e-01,-8.342958563358160440e-01,2.511478652934738875e+03
2.198500350206985809e-01,-1.569331828514250304e+01,1.973148995814371975e+00,0.000000000000000000e+00,9.999989999997501711e-01,-0.000000000000000000e+00,2.513272847419664231e+03
-8.404411076855525242e-02,-1.562428224525971210e+01,1.965295942836889242e+00,-6.696665005627399081e-01,1.278249046681891599e-01,7.315774543895520177e-01,2.519818232719934258e+03
-3.864925759344902123e-01,-1.554955761417472715e+01,1.958196030970348112e+00,-0.000000000000000000e+00,3.410856895399499988e-01,-9.400311443730269279e-01,2.526363618020204285e+03
-6.874939132663240304e-01,-1.546925211882230577e+01,1.951790361915263894e+00,5.921112049313174142e-01,3.478823112758434588e-01,-7.268976671418566626e-01,2.532909003320474312e+03
-8.754018925858434441e-01,-1.541601679965379113e+01,1.948181848598762755e+00,9.497058974994861957e-01,2.168935788489771144e-01,-2.258625327681023920e-01,2.537011840204739656e+03
-1.173960404643839217e+00,-1.532655441546893549e+01,1.943003864186683360e+00,9.311514953131336814e-01,0.000000000000000000e+00,3.646298023695679902e-01,2.543557225505009683e+03
-1.471092357654126825e+00,-1.523180096404500361e+01,1.938302557384822489e+00,0.000000000000000000e+00,3.025597526116984362e-02,-9.995411827240952007e-01,2.550102610805279710e+03
