-8.374996507042354210e+00,-3.924172368857532511e+00,-2.897040500249209671e+00,9.962221309802647973e-01,-0.000000000000000000e+00,-8.683009661442889215e-02,4.717159914931144726e+01
-8.411882040065417954e+00,-3.843517290310863643e+00,-3.076901965553866525e+00,9.966204438978909508e-01,-0.000000000000000000e+00,-8.213215410482671563e-02,4.885817028298509967e+01
-8.412621342060377927e+00,-3.840837063019987507e+00,-3.082464895850788533e+00,9.969966025275882604e-01,-0.000000000000000000e+00,-7.743238651663081340e-02,4.891389638844230348e+01
-8.420659568002454520e+00,-3.763421107826808942e+00,-3.231317566733140634e+00,9.973505985551252007e-01,-0.000000000000000000e+00,-7.273089780088957956e-02,5.051398453533273170e+01
-8.416211585148870356e+00,-3.685501018971867548e+00,-3.369403377089322582e+00,9.973505978853581810e-01,-0.000000000000000000e+00,-7.273089775204741314e-02,5.211407268222315992e+01
-8.391488313695949941e+00,-3.563021677873757564e+00,-3.568690903205223641e+00,9.973505978851086029e-01,-0.000000000000000000e+00,-7.273089775202921936e-02,5.461353278951893486e+01
-8.343856153966566325e+00,-3.417980390902472632e+00,-3.785031482778022927e+00,9.977439094743714154e-01,-0.000000000000000000e+00,-6.711997461848086266e-02,5.755889355606510804e+01
-8.288970193980526702e+00,-3.292147474322606016e+00,-3.957137390089813689e+00,9.981056545529966018e-01,-0.000000000000000000e+00,-6.150692835097544553e-02,6.010633580849721369e+01
-8.213465240098123843e+00,-3.149473393997786808e+00,-4.136463870815848765e+00,9.984358224692105876e-01,-0.000000000000000000e+00,-5.589193408241993621e-02,6.299307464477005425e+01
-8.145689040634005451e+00,-3.038496532800273542e+00,-4.265070037625907418e+00,9.387592494221218553e-01,1.772071852368702349e-01,-2.955108883378915197e-01,6.524293661838004255e+01
-8.070221907293070984e+00,-2.927958094648399623e+00,-4.383557871794502070e+00,7.923590696963455082e-01,3.380437641648720293e-01,-5.078302060538317786e-01,6.749279859199003795e+01
-7.982843789252618727e+00,-2.811142798337734838e+00,-4.499825160540671831e+00,5.727599121246159664e-01,4.676514808137701706e-01,-6.732356018194973757e-01,6.988417700898770590e+01
-7.918622192921621838e+00,-2.731548387636846265e+00,-4.573581609656712565e+00,3.002485948489763690e-01,5.540570444884475032e-01,-7.764467610503392736e-01,7.152344036060237897e+01
-7.832531696549906997e+00,-2.631580210121206242e+00,-4.659928499337792296e+00,0.000000000000000000e+00,5.892782266480779407e-01,-8.079289396971242043e-01,7.359432021803705481e+01
-7.714024428940224887e+00,-2.501920213691190664e+00,-4.764538478028520707e+00,5.293393743996578360e-01,8.484089973068609236e-01,-0.000000000000000000e+00,7.629843917353215943e+01
-7.666482868614798996e+00,-2.452513467323420127e+00,-4.801768847333417689e+00,-2.272997664908239270e-03,5.869383970275305895e-01,-8.096271682553137783e-01,7.733463552839180011e+01
-7.639909539729029753e+00,-2.426076408399442830e+00,-4.820307039479808431e+00,6.075376243260796061e-01,7.797075178639670812e-01,1.514999063192772333e-01,7.789101077776658144e+01
-7.588830018227435303e+00,-2.377325776069297181e+00,-4.852008353719940992e+00,5.959673680146911900e-01,7.456475456545983427e-01,2.980446844370577830e-01,7.892104193766662945e+01
-7.510389972272229819e+00,-2.305531301132575983e+00,-4.895220056959992405e+00,5.708273127220924170e-01,6.946096533261242323e-01,4.378031618855532936e-01,8.044738639663522406e+01
-7.429310588567574314e+00,-2.234346159571232615e+00,-4.934824982632306067e+00,5.326898847555514571e-01,6.277559452546039864e-01,5.675931288141576880e-01,8.197373085560381867e+01
-7.345744098186640869e+00,-2.163903578499924762e+00,-4.970997269848313138e+00,4.824234516030624365e-01,5.466086406668109188e-01,6.844593540103485196e-01,8.350007531457241328e+01
-7.297621619472524301e+00,-2.124876607282940810e+00,-4.989434070868159488e+00,4.211725492707965590e-01,4.530154131424423136e-01,7.857408728051912261e-01,8.435532562772920073e+01
-7.175850026573701079e+00,-2.029970982483224606e+00,-5.030631128879662128e+00,3.503318216904970916e-01,3.491073200878462846e-01,8.691315744883907346e-01,8.646411939583471451e+01
-7.085123377750781160e+00,-1.962144942853832008e+00,-5.057729334065411919e+00,2.715142656269466936e-01,2.372502801346084433e-01,9.327327099108733144e-01,8.799682483877838024e+01
-6.992279933646333490e+00,-1.895535381026998367e+00,-5.082249696384848470e+00,1.865145041153946082e-01,1.199912032462236849e-01,9.750961239276163539e-01,8.952953028172204597e+01
-6.894768737325440711e+00,-1.828479675422182593e+00,-5.105038705483229577e+00,9.726792459839142535e-02,0.000000000000000000e+00,9.952572284815752734e-01,9.110419438554150418e+01
-6.795173393202714962e+00,-1.762932872750151647e+00,-5.125672722528836545e+00,2.427431159094717850e-01,-4.075146899990142457e-02,9.692332523461241189e-01,9.267885848936096238e+01
-6.693539411316860921e+00,-1.699022301220660891e+00,-5.144401276620663488e+00,3.825135857937100314e-01,-8.054523351448177049e-02,9.204313239139355618e-01,9.425352259318042059e+01
-6.589913176552525620e+00,-1.636874966876438409e+00,-5.161473909923715020e+00,5.132945930274342983e-01,-1.184461014142425550e-01,8.499983422508866626e-01,9.582818669699987879e+01
-6.484333882560346929e+00,-1.576619295162615897e+00,-5.177124493241489489e+00,6.320126589840250331e-01,-1.535633659582444910e-01,7.595895546413437005e-01,9.740285080081933700e+01
-6.376860542352909000e+00,-1.518364088195296224e+00,-5.191509967632349287e+00,7.358777958909319405e-01,-1.850717378674772706e-01,6.513296564399085886e-01,9.897751490463879520e+01
-6.267614912301330499e+00,-1.462173682672137653e+00,-5.204680451979533551e+00,8.224490728690290187e-01,-2.122307400300487701e-01,5.277628591743130926e-01,1.005521790084582534e+02
-6.156754166111898741e+00,-1.408088584313299085e+00,-5.216640499422586785e+00,8.896919791989869042e-01,-2.344021091325101114e-01,3.917931002248795647e-01,1.021268431122777116e+02
-6.041822603867662345e+00,-1.354945198202143875e+00,-5.227644620503899553e+00,9.360262369457534870e-01,-2.510647953304611657e-01,2.466157989573098952e-01,1.037381329339357450e+02
-5.925561355876160619e+00,-1.304046227223361942e+00,-5.237419175289349305e+00,7.398693777385924042e-01,-2.406986587639316499e-01,6.282160930400781940e-01,1.053494227555937783e+02
-5.808135761011320675e+00,-1.255430462474417252e+00,-5.245968956475434375e+00,4.074254880915838539e-01,-1.859948289683605038e-01,8.940964127266809447e-01,1.069607125772518117e+02
-5.689711407344808514e+00,-1.209135467382703499e+00,-5.253298765537240733e+00,-6.799996278746670594e-05,-9.702994690099846220e-02,9.952804553393037601e-01,1.085720023989098451e+02
-5.570454128704159125e+00,-1.165197576322243744e+00,-5.259413412693510814e+00,-4.870791589666508269e-05,-7.804118380611038130e-01,6.252642326583703891e-01,1.101832922205678784e+02
-5.450530001229276778e+00,-1.123651893246244704e+00,-5.264317716872014330e+00,-0.000000000000000000e+00,-9.924842934886829449e-01,-1.223639128938464604e-01,1.117945820422259118e+02
-5.330105339926736185e+00,-1.084532290334517590e+00,-5.268016505675088723e+00,0.000000000000000000e+00,-9.950534474652565908e-01,-9.933094484336670027e-02,1.134058718638839451e+02
-5.209346695220922641e+00,-1.047871406655659365e+00,-5.270514615345069487e+00,0.000000000000000000e+00,-9.983890695074900679e-01,-5.672094713642399089e-02,1.150171616855419785e+02
-5.088420849501136267e+00,-1.013700646842929931e+00,-5.271816890729673410e+00,2.082687147217902879e-02,-9.992664639199568821e-01,3.210569280347484733e-02,1.166284515072000119e+02
-4.967494813666546882e+00,-9.820501797831036050e-01,-5.271928185247335641e+00,4.148036468373834940e-02,-9.918252480353728640e-01,1.206650600053456590e-01,1.182397413288580452e+02
-4.846735823668035792e+00,-9.529489373181131429e-01,-5.270853360852473912e+00,6.178854548188492807e-02,-9.761273681294417859e-01,2.082199242069298628e-01,1.198510311505160786e+02
-4.726311337045320471e+00,-9.264246129600247626e-01,-5.268597288000704815e+00,8.158235433044508378e-02,-9.523035043287368939e-01,2.940414173308069090e-01,1.214623209721741119e+02
-4.610896859994043417e+00,-9.033944910238195236e-01,-5.265294188239792561e+00,1.006970136488118672e-01,-9.205519827865186189e-01,3.774151009575382743e-01,1.230130338369359322e+02
-4.496122782073142865e+00,-8.828767450564040109e-01,-5.260864157316474277e+00,1.189733995084528706e-01,-8.811371247426439401e-01,4.576469136904469659e-01,1.245637467016977524e+02
-4.382144776727358249e+00,-8.648936366224914130e-01,-5.255311728992242415e+00,1.362593662703246167e-01,-8.343870462282455547e-01,5.340689489108855215e-01,1.261144595664595727e+02
-4.269118702769980622e+00,-8.494663191402640479e-01,-5.248641444485241614e+00,1.524110131378474398e-01,-7.806909267241274319e-01,6.060450148343061727e-01,1.276651724312213929e+02
-4.157200601400949047e+00,-8.366148368475124775e-01,-5.240857852440680809e+00,1.672938820830414397e-01,-7.204957695005630436e-01,6.729759305873400654e-01,1.292158852959832132e+02
-4.046546693224356339e+00,-8.263581237782645639e-01,-5.231965508900880302e+00,1.807840771740408248e-01,-6.543026805964743398e-01,7.343045142207935694e-01,1.307665981607450192e+02
-3.937292327801459990e+00,-8.186476353402580841e-01,-5.221947062679256568e+00,1.927692959857804922e-01,-5.826626974026749561e-01,7.895202211349227062e-01,1.323173110255068252e+02
-3.829530286789149862e+00,-8.133011858512279035e-01,-5.210741340880436390e+00,2.031497645068114366e-01,-5.061722015636855865e-01,8.381633943004580534e-01,1.338680238902686312e+02
-3.723330859511583046e+00,-8.100696281034585056e-01,-5.198265263904828792e+00,2.118390677579071735e-01,-4.254679543742967973e-01,8.798290908876540417e-01,1.354187367550304373e+02
-3.618762565742161375e+00,-8.087033320895883337e-01,-5.184435760599492404e+00,2.187648692057430067e-01,-3.412217959916899468e-01,9.141704534394591297e-01,1.369694496197922433e+02
-3.515892154445620310e+00,-8.089521946081801307e-01,-5.169169768811761045e+00,-5.300915303214064345e-01,-8.479392486978359900e-01,0.000000000000000000e+00,1.385201624845540493e+02
-3.414784602547277892e+00,-8.105656488311029362e-01,-5.152384235940925983e+00,2.039378542715062359e-01,3.347537607939853888e-01,9.199713426132752891e-01,1.400708753493158554e+02
-3.312854858919900725e+00,-8.133687467222033840e-01,-5.133504643367649223e+00,0.000000000000000000e+00,9.999989999979490486e-07,9.999989999979489452e-01,1.416629677535833309e+02
-3.212865784037159056e+00,-8.170600754420866974e-01,-5.112891712567455116e+00,-1.737287666186518613e-03,-7.138518100927856991e-02,9.974463082099174205e-01,1.432550601578508065e+02
-3.114881197273266622e+00,-8.213500464539525980e-01,-5.090457931295889082e+00,-3.465704865601465946e-03,-1.424068743802214543e-01,9.898011270033606479e-01,1.448471525621182820e+02
-3.018964764691973279e+00,-8.259005194895550073e-01,-5.066115792154232800e+00,-5.176427389343960656e-03,-2.127014881082525399e-01,9.771024928605356319e-01,1.464392449663857576e+02
-2.925178631877080271e+00,-8.303488413590980333e-01,-5.039777797167878326e+00,-6.860721377958553524e-03,-2.819101426741865146e-01,9.594152395901702768e-01,1.480313373706532332e+02
-2.833582297373253844e+00,-8.343318966353263644e-01,-5.011356462364711106e+00,-8.509987894259095700e-03,-3.496795025692738812e-01,9.368296673286302667e-01,1.496234297749207087e+02
-2.744168080061689885e+00,-8.374433639729453871e-01,-4.980809086501212235e+00,-9.999989999999999712e-01,-0.000000000000000000e+00,0.000000000000000000e+00,1.512155221791881843e+02
-2.656791668599615353e+00,-8.392100896426191170e-01,-4.948201260688182224e+00,-9.983881034473690574e-01,-0.000000000000000000e+00,-5.673794904931526994e-02,1.528076145834556598e+02
-2.571231706808096540e+00,-8.391543494310285123e-01,-4.913680841034993918e+00,-9.557369829425215180e-01,1.196891129653005759e-01,2.687737629949461526e-01,1.543997069877231354e+02
-2.487258882001464055e+00,-8.368185457847082676e-01,-4.877414438287130949e+00,-7.963878204240721903e-01,2.247638403034501187e-01,5.614674127439683859e-01,1.559917993919906110e+02
-2.404640511980684625e+00,-8.317467777429521369e-01,-4.839568675441996426e+00,-5.397976295858363249e-01,3.023942919351506609e-01,7.856043605402421859e-01,1.575838917962580865e+02
-2.323140549764444618e+00,-8.234848598614878945e-01,-4.800310186578826688e+00,-2.172967494852045822e-01,3.431016044486241423e-01,9.138169464883117987e-01,1.591759842005255621e+02
-2.240001779112858582e+00,-8.112101462578069633e-01,-4.758542786579172734e+00,1.217661609292228636e-01,-4.071497900403127090e-01,9.052071865150825847e-01,1.608177560236051704e+02
-2.157510791254046101e+00,-7.947097272060913431e-01,-4.715667099418143771e+00,3.782822093607541292e-01,-8.813882579374571202e-01,2.829404687327566892e-01,1.624595278466847788e+02
-2.075422575914287027e+00,-7.735375739575761633e-01,-4.671870126771723974e+00,3.783536023996327824e-01,-7.581172033175407332e-01,-5.311354418458147375e-01,1.641012996697643871e+02
-1.994159515363705282e+00,-7.475151981585180794e-01,-4.627703941584733194e+00,-3.019507279633185798e-02,-7.064048614189645248e-01,-7.071622369314997103e-01,1.657303144908346439e+02
-1.912886133139833023e+00,-7.161326737899645911e-01,-4.583041697546581084e+00,-4.326877450315714246e-01,-5.130072760052238889e-01,-7.413520419235961612e-01,1.673593293119049008e+02
-1.831419963815346774e+00,-6.790802000054432241e-01,-4.538082842590121402e+00,-7.483952119941237324e-01,-2.167146567915683997e-01,-6.268471617512653138e-01,1.689883441329751577e+02
-1.710450391234713541e+00,-6.156557517528351564e-01,-4.471479006978835713e+00,-9.139952717368208246e-01,1.230446250372296685e-01,-3.866143601741671709e-01,1.713957818958127746e+02
-1.613641973742798275e+00,-5.581175985362536451e-01,-4.418619837328138900e+00,-8.962736280307991299e-01,4.381243293419919138e-01,-6.883789462651992985e-02,1.733093333169784671e+02
-1.516049648160484820e+00,-4.932350240857890089e-01,-4.365992453460649791e+00,-7.760692577669825454e-01,4.574274897673259455e-01,4.341366130102958798e-01,1.752228847381441597e+02
-1.424881740498534777e+00,-4.263110586946446956e-01,-4.317537728358032290e+00,-4.480290794791623177e-01,3.542289632754175299e-01,8.208469927577272118e-01,1.769943616397087567e+02
-1.332830521890504993e+00,-3.525566981419435142e-01,-4.269303685881854271e+00,-3.999995304135573277e-06,1.561658166664089964e-01,9.877298404372834018e-01,1.787658385412733537e+02
-1.239841495124949677e+00,-2.720594821059216795e-01,-4.221197363550778014e+00,-9.741568796143648123e-01,-4.289895066157300985e-02,-2.217567449557902581e-01,1.805373154428379507e+02
-1.145895557773447537e+00,-1.849039499611925264e-01,-4.173091405011977173e+00,-9.297807644446979269e-01,-4.094533697034682257e-02,3.658267478601845424e-01,1.823087923444025478e+02
-1.051043666025829770e+00,-9.116792081136426695e-02,-4.124789668411786181e+00,-5.625584947876330899e-01,-2.477434527945129167e-02,8.263850021382375122e-01,1.840802692459671448e+02
-9.609846387927971634e-01,3.215895782233294063e-03,-4.078919105127561728e+00,-0.000000000000000000e+00,-9.999989999994743432e-07,9.999989999994745027e-01,1.857479976157101191e+02
-8.702523992360137184e-01,1.036825540834486192e-01,-4.032443859075096171e+00,-4.595974337851653768e-01,-8.868719073915704021e-01,4.718494186909653193e-02,1.874157259854530935e+02
-7.868440864571288884e-01,2.009656404946919828e-01,-3.989257394615093322e+00,-8.384479280489072206e-01,5.561892889150344549e-02,5.421343068842521262e-01,1.889390883555622622e+02
-7.030049018896129542e-01,3.037316558141475165e-01,-3.945138318656525644e+00,-7.127413081394902150e-01,-4.228955894937548865e-01,-5.596044567899737254e-01,1.904624507256714310e+02
-6.188512833142773006e-01,4.119570179130175869e-01,-3.899843018591139021e+00,-4.015486972673014687e-01,-7.363974448205481416e-01,-5.444955894978111832e-01,1.919858130957805997e+02
-5.154625104062345864e-01,5.512087781197392289e-01,-3.842547661438571627e+00,-4.786625172444491927e-01,-8.661900715263467498e-01,1.435094232913107504e-01,1.938525587422797400e+02
-4.119590726678450388e-01,6.970503402145666882e-01,-3.783066613359073571e+00,-3.182903140906614414e-01,-5.662268030331278901e-01,7.603134113519692816e-01,1.957193043887788804e+02
-2.611025142733767179e-01,9.191669174604532033e-01,-3.692447019688075649e+00,-0.000000000000000000e+00,1.466699169441102249e-02,9.998914337838703537e-01,1.984406693608128194e+02
-1.785320530807001094e-01,1.046533779040337508e+00,-3.640051407387630000e+00,0.000000000000000000e+00,-7.602732763638759828e-01,6.496018359264408293e-01,1.999363587990146698e+02
-1.532627070158055528e-02,1.310423649626828002e+00,-3.529629898110353103e+00,0.000000000000000000e+00,-9.853556001393901642e-01,-1.705061326396703214e-01,2.029129500469389313e+02
1.256370647633142934e-01,1.548885135363998966e+00,-3.426982192495935831e+00,0.000000000000000000e+00,-4.977924468358315702e-01,-8.672950362317858319e-01,2.055053673847398272e+02
2.176557439911065983e-01,1.712290779082859427e+00,-3.353984555527789624e+00,-8.536475879972387215e-01,2.904298598275144305e-02,5.200387490095402798e-01,2.072214651416229287e+02
3.080419574349757550e-01,1.880985531633232011e+00,-3.275304199964283125e+00,4.737066590288069312e-01,3.605097405072654748e-02,8.799433666220776162e-01,2.089375628985060303e+02
3.966732326924180541e-01,2.054537854538003749e+00,-3.190346606537705298e+00,4.185242220736978269e-01,3.376032036438197242e-02,9.075768376864237208e-01,2.106536606553891318e+02
4.859582869329207022e-01,2.237513673135929970e+00,-3.095840555830270180e+00,3.617455563874195645e-01,3.134090634630536110e-02,9.317488395602357976e-01,2.124193393247330448e+02
5.732379964009203244e-01,2.424233904280475027e+00,-2.993586727272259385e+00,3.035872109297504950e-01,2.880195945374101202e-02,9.523671836482331399e-01,2.141850179940769578e+02
6.474959443567877004e-01,2.589816129056148331e+00,-2.897043674366019506e+00,2.442709962289007497e-01,2.615316300315888992e-02,9.693532341024131416e-01,2.157256422970113476e+02
7.196987273543112851e-01,2.757361030170642380e+00,-2.792948482213712946e+00,1.840231385680196619e-01,2.340461924526931331e-02,9.826422076564933494e-01,2.172662665999457374e+02
7.897247019437455551e-01,2.926348279595948121e+00,-2.681609277471600272e+00,1.230734173425587219e-01,2.056681084333342527e-02,9.921834206605641970e-01,2.188068909028801272e+02
8.574520129778603339e-01,3.096703332708824696e+00,-2.563460937661803385e+00,6.165428887181820944e-02,1.765056090136933598e-02,9.979404823744408848e-01,2.203475152058145170e+02
9.684037148713935395e-01,3.387557769008140873e+00,-2.352507955229639958e+00,0.000000000000000000e+00,1.466699169439773104e-02,9.998914337829643006e-01,2.229568572653024887e+02
1.034995550538281073e+00,3.570106558464891666e+00,-2.214917011062270014e+00,-0.000000000000000000e+00,3.847562801285162593e-01,9.230171205898846098e-01,2.245814899898486487e+02
1.098733713823611735e+00,3.754125875194068040e+00,-2.071541064117654152e+00,-0.000000000000000000e+00,6.998730157412103026e-01,7.142658901544736150e-01,2.262061227143948088e+02
1.159479178749620365e+00,3.939489517439608957e+00,-1.922789364540333112e+00,-0.000000000000000000e+00,9.149946751465929395e-01,4.034634363293613801e-01,2.278307554389409688e+02
1.234247575571841393e+00,4.181183084355935442e+00,-1.723632537977702439e+00,-0.000000000000000000e+00,9.993857527531184726e-01,3.501595629961485462e-02,2.299361849680944658e+02
1.304944199985402120e+00,4.424025528150450803e+00,-1.518764373232893483e+00,-0.000000000000000000e+00,9.997300720292205956e-01,2.319014985731076423e-02,2.320416144972479628e+02
1.364165378212230273e+00,4.641789163833504261e+00,-1.331245052005685547e+00,-0.000000000000000000e+00,9.999344605420675824e-01,1.136109988157223138e-02,2.339228117885992333e+02
1.419122476097114838e+00,4.860108785839546641e+00,-1.139877860700199586e+00,-0.000000000000000000e+00,9.999988897505776020e-01,-4.695398240298282507e-04,2.358040090799505037e+02
1.469550117719635951e+00,5.078748125319999751e+00,-9.452790761628973026e-01,-0.000000000000000000e+00,9.999233506299635144e-01,-1.230011523445882077e-02,2.376852063713017742e+02
1.510553226226751589e+00,5.275492888352498078e+00,-7.678835519980963253e-01,-0.000000000000000000e+00,9.997078536570985774e-01,-2.412897233184069928e-02,2.393772263515389511e+02
1.546909481504035400e+00,5.472166610441980161e+00,-5.886459758682555110e-01,-0.000000000000000000e+00,9.997078529671034053e-01,-2.412897231518696187e-02,2.410692463317761280e+02
1.578326335825126492e+00,5.668643052588180353e+00,-4.080987507884659693e-01,-8.937831490312991845e-01,2.429597686786118954e-02,4.478385736140141349e-01,2.427612663120133050e+02
1.607919915061834404e+00,5.890206414781684607e+00,-2.033287617797300273e-01,4.301035175189094062e-01,3.026596604827509751e-02,9.022709878513600623e-01,2.446723705017103612e+02
1.631287996368307125e+00,6.111302615338368049e+00,1.594050317877639426e-03,-8.117660155362351748e-01,3.782681830325554939e-01,4.449124830690891486e-01,2.465834746914074174e+02
1.645195074691422343e+00,6.295151038901316554e+00,1.719222385417888410e-01,-5.335776173979984716e-01,1.795098712823892453e-02,-8.455593936913655684e-01,2.481763902549058116e+02
1.653198706364230386e+00,6.478537377186055934e+00,3.411989113866608081e-01,-4.558083051559717602e-01,1.872981483880198708e-02,-8.898797576005520460e-01,2.497693058184042059e+02
1.655068517791723037e+00,6.661421178425915635e+00,5.088837893998438000e-01,-3.743866177412105700e-01,1.935856079735003357e-02,-9.270695262926781366e-01,2.513622213819026001e+02
1.650302030383066221e+00,6.858601597497662183e+00,6.879585113203540159e-01,-2.899649859760889958e-01,1.983218692792863141e-02,-9.568307014670968114e-01,2.530850393346039482e+02
1.638913182075313779e+00,7.055046620526253420e+00,8.642286281844435702e-01,-2.032198784526524915e-01,2.014689812426409196e-02,-9.789248099308833773e-01,2.548078572873052963e+02
1.623256019271099859e+00,7.230490081387682011e+00,1.019517627545605043e+00,-1.148463810562260351e-01,2.030017265620270156e-02,-9.931748142945626689e-01,2.563537788340681800e+02
1.602826393585379039e+00,7.404870495334435532e+00,1.171654757410798720e+00,-2.555262735446115277e-02,2.029078237298563223e-02,-9.994665313989493649e-01,2.578997003808310637e+02
1.578305843921974816e+00,7.577934415080594732e+00,1.320397621660424292e+00,6.394587552272415487e-02,2.011880254182945443e-02,-9.977495471252363357e-01,2.594456219275939475e+02
1.550373904774370759e+00,7.749423419877954800e+00,1.465503847018432948e+00,1.529319800560061948e-01,1.978561124316039269e-02,-9.880376202678674558e-01,2.609915434743568312e+02
1.508786497246271230e+00,7.980608008575747370e+00,1.657973354767333429e+00,2.406926446350796112e-01,1.929387832746673123e-02,-9.704085722407597148e-01,2.630983951370834575e+02
1.475845287123708216e+00,8.151024715553864652e+00,1.797540343503409632e+00,3.265246469515879491e-01,1.864754402230164518e-02,-9.450036635038708832e-01,2.646719166653975890e+02
1.441562342295418464e+00,8.318828574633672090e+00,1.932742748720089887e+00,4.097402187195198220e-01,1.785178736082393414e-02,-9.120264617061892842e-01,2.662454381937117205e+02
1.379817724994572448e+00,8.611869605533502892e+00,2.165059162138967430e+00,4.896725565857655282e-01,1.691298468474890931e-02,-8.717412106103223923e-01,2.690423153242666103e+02
1.333136403278537108e+00,8.831405920705675427e+00,2.336470354045504738e+00,4.863540913554911804e-01,1.685785350401660526e-02,-8.735980257104606350e-01,2.711813290364380578e+02
1.287794239653770267e+00,9.045742163985549311e+00,2.501521567272249946e+00,4.830285932554876371e-01,1.680247852926130409e-02,-8.754422052548316291e-01,2.733203427486095052e+02
1.248668870419620491e+00,9.234690919768160811e+00,2.645197755895260183e+00,4.796961101005720596e-01,1.674686055648888852e-02,-8.772737227027180840e-01,2.752575089428830779e+02
1.216710600646520257e+00,9.394553393605702851e+00,2.765378520982316068e+00,4.763566898219896983e-01,1.669100038575352732e-02,-8.790925517241865439e-01,2.769460215713796742e+02
1.211104094193556246e+00,9.423679756580128242e+00,2.787048552591690154e+00,4.730103804489583230e-01,1.663489882053164129e-02,-8.808986661687263631e-01,2.772638023249403432e+02
1.177242955918019307e+00,9.608625017149819314e+00,2.923201160493359207e+00,4.696572301080234046e-01,1.657855666771111333e-02,-8.826920400655986487e-01,2.793519319047393878e+02
1.165584755728471089e+00,9.676585397122337895e+00,2.972676028190835318e+00,4.662972870224132982e-01,1.652197473758049845e-02,-8.844726476241844271e-01,2.801474229694475184e+02
1.159047582006967891e+00,9.717258162645435959e+00,3.001939090642988361e+00,5.183634914360650825e-01,-5.966465461962108807e-02,-8.530752720228048647e-01,2.806420738369828314e+02
1.139038831883683489e+00,9.852430849225825682e+00,3.097823450178701421e+00,5.655046709036827268e-01,-1.352844066533489265e-01,-8.135727358410861365e-01,2.823526598806212746e+02
1.121750785743411916e+00,9.982150371794856980e+00,3.188150759269026135e+00,6.072729337032060082e-01,-2.096188141405131433e-01,-7.663403530749788306e-01,2.840632459242597179e+02
1.105174578477451153e+00,1.012286312758697626e+01,3.283782063365380477e+00,6.432714351978285894e-01,-2.819616211572427145e-01,-7.118268784290081586e-01,2.860001234538141830e+02
1.091493207713978286e+00,1.025744714998539209e+01,3.372358774969875572e+00,6.731581482165370778e-01,-3.516254928537417279e-01,-6.505502442286111853e-01,2.879370009833686481e+02
1.088584397914784674e+00,1.029095945131698464e+01,3.393515308387229812e+00,6.966491127443015241e-01,-4.179485455763965462e-01,-5.830926401214086008e-01,2.884420932743479966e+02
1.083460743546259764e+00,1.036190508955572831e+01,3.435995038273939262e+00,7.135211340593604623e-01,-4.803006353218262636e-01,-5.100949822929179422e-01,2.895637433614400038e+02
1.076743123286610038e+00,1.048445331624763632e+01,3.504339273987177261e+00,7.236139036656952239e-01,-5.380893447917846073e-01,-4.322508246877728721e-01,2.915982218871575924e+02
1.073599187769652241e+00,1.057206114020837617e+01,3.548526323735474719e+00,7.268315228414715667e-01,-5.907656121675500804e-01,-3.502997700312692197e-01,2.931261772873576206e+02
1.072225397675082625e+00,1.065541442573191944e+01,3.584969802465297839e+00,0.000000000000000000e+00,-8.566789209263254989e-02,-9.963227450308171917e-01,2.946541326875576488e+02
1.072556301297973747e+00,1.073468235997888520e+01,3.613103812750693589e+00,3.588155418935495278e-01,-5.920762440852891384e-01,-7.215920787300234007e-01,2.961820880877576769e+02
1.074534889582838160e+00,1.081004426458824241e+01,3.632345951174002163e+00,0.000000000000000000e+00,9.968731427317910621e-01,-7.900593205828206067e-02,2.977100434879577051e+02
1.079097444031309028e+00,1.090066406699932067e+01,3.644637878392556818e+00,-3.571165318403559663e-01,-5.924852232852682032e-01,-7.220990533688428359e-01,2.996424975149617467e+02
1.085679641130766537e+00,1.098688272123501797e+01,3.644013134200188020e+00,-9.796745246597435841e-01,-0.000000000000000000e+00,2.005886979235719514e-01,3.015749515419657882e+02
1.094145627529789166e+00,1.106904198730915923e+01,3.629660347865113046e+00,-0.000000000000000000e+00,9.968731427319724725e-01,-7.900593205829645194e-02,3.035074055689698298e+02
1.103249635886975888e+00,1.113951300201644123e+01,3.603852822242210596e+00,-0.000000000000000000e+00,0.000000000000000000e+00,-9.999989999999968626e-01,3.052431107428334940e+02
1.113649145304692611e+00,1.120697254326561421e+01,3.564624525893498319e+00,9.968779763717972031e-01,-0.000000000000000000e+00,-7.894491893667289484e-02,3.069788159166971582e+02
1.116551046651423462e+00,1.122338716405022474e+01,3.551171967732550616e+00,0.000000000000000000e+00,-0.000000000000000000e+00,-9.999989999999968626e-01,3.074191170015756143e+02
1.128375688612152539e+00,1.128292005181672764e+01,3.486941919710832671e+00,-0.000000000000000000e+00,-9.968312352734655102e-01,-7.953293898571126008e-02,3.090826228308427517e+02
1.140964818332670383e+00,1.134011763636516079e+01,3.409217207604817279e+00,9.968779763718004228e-01,-0.000000000000000000e+00,-7.894491893667315852e-02,3.107461286601098891e+02
1.154954571955796760e+00,1.139879286304796224e+01,3.311974097259345218e+00,-9.968817776680953813e-01,-0.000000000000000000e+00,-7.889690326014157928e-02,3.125187012298287641e+02
1.169281113662475002e+00,1.145542293988997606e+01,3.200369928903445960e+00,9.968779763664620264e-01,-0.000000000000000000e+00,-7.894491893625038559e-02,3.142912737995476391e+02
1.184837115879822989e+00,1.151461607527039632e+01,3.064590607237028141e+00,6.786269348367017784e-01,1.492547796301726439e-02,-7.343301120226471967e-01,3.162045701443610142e+02
1.200180728707590960e+00,1.157219901757604674e+01,2.913810164212845777e+00,0.000000000000000000e+00,2.192496970816739527e-02,-9.997586187200654395e-01,3.181178664891743892e+02
1.200922160860488086e+00,1.157502807094058639e+01,2.905490664078499208e+00,6.008035540474822023e-01,8.946493359374771415e-02,-7.943734103682975611e-01,3.182140563109689992e+02
1.213791828804133610e+00,1.162590428482310934e+01,2.739579048821998875e+00,7.993434003877689653e-01,7.411472778365707503e-02,-5.962844416743070530e-01,3.199792790965235554e+02
1.225756251713903122e+00,1.167594507486365174e+01,2.561101308529941445e+00,9.348205202346947518e-01,5.291739346619585976e-02,-3.511528789831132591e-01,3.217445018820781115e+02
1.237325719004806590e+00,1.172961734116664978e+01,2.355068320302001972e+00,9.965468187575979853e-01,2.754525736008142309e-02,-7.831792146532709498e-02,3.236579681635880661e+02
1.247005289052051547e+00,1.178306901411027852e+01,2.137702338590919293e+00,9.796526068683385491e-01,0.000000000000000000e+00,2.006957145972436130e-01,3.255714344450980207e+02
1.254249894281834088e+00,1.183665414944660199e+01,1.910366172178226130e+00,-9.796745246582524436e-01,-0.000000000000000000e+00,2.005886979232666678e-01,3.274849007266079752e+02
1.257988687445450893e+00,1.188422765468030917e+01,1.702729919723955376e+00,9.796526068669312304e-01,-0.000000000000000000e+00,2.006957145969553158e-01,3.291690459113141287e+02
1.258618568840226715e+00,1.193248264979665940e+01,1.488734512053839998e+00,-9.796745246582524436e-01,-0.000000000000000000e+00,2.005886979232666678e-01,3.308531910960202822e+02
1.255699102745903906e+00,1.198168380460356452e+01,1.269526682993175060e+00,-9.948908452029191496e-01,-0.000000000000000000e+00,1.009465508649484977e-01,3.325373362807264357e+02
1.248794776924451844e+00,1.203209630427087440e+01,1.046255692803886417e+00,-9.999989611371523646e-01,-0.000000000000000000e+00,2.787916991923843502e-04,3.342214814654325892e+02
1.236777852831758562e+00,1.208719879611109604e+01,8.060993721872029560e-01,-9.949469768340168940e-01,-0.000000000000000000e+00,-1.003917989129619048e-01,3.360098362883581444e+02
1.219613037547099044e+00,1.214416564524890596e+01,5.641583073916460744e-01,-9.797862182859700120e-01,-0.000000000000000000e+00,-2.000424116451125500e-01,3.377981911112836997e+02
1.196825951645189123e+00,1.220329759865854946e+01,3.217369315821734244e-01,-9.546707119062373126e-01,-0.000000000000000000e+00,-2.976605983800955091e-01,3.395865459342092549e+02
1.160549322932150185e+00,1.228072592117227835e+01,1.833741635657361660e-02,-4.103567096748648724e-01,-0.000000000000000000e+00,-9.119239939936242267e-01,3.418331500898481181e+02
1.115973069745149315e+00,1.236179395408721327e+01,-2.819949445133277388e-01,4.103752135849342841e-01,-0.000000000000000000e+00,-9.119156671924175672e-01,3.440797542454869813e+02
1.069997133118169907e+00,1.243539404057779230e+01,-5.374270735676076605e-01,9.546769266717656244e-01,-0.000000000000000000e+00,-2.976406653672871716e-01,3.460221404963771192e+02
1.017107688880224181e+00,1.251269905911629365e+01,-7.873757413581015108e-01,-5.741094903288209705e-01,1.828998376289236397e-03,-8.187752731244372084e-01,3.479645267472672572e+02
9.603354078673279615e-01,1.259095388747791766e+01,-1.022235291574308258e+00,-0.000000000000000000e+00,-9.950635238632307145e-01,9.922995251858010568e-02,3.498381785749494952e+02
9.074478365461163820e-01,1.266131544152696620e+01,-1.217617426529918445e+00,4.249377054256315289e-01,-7.343991457882926843e-01,-5.292294787458483585e-01,3.514450610823338934e+02
8.510355773171837113e-01,1.273502777356716109e+01,-1.406387797616945878e+00,5.764363129605547531e-01,-1.163998612660335514e-03,-8.171400260720611541e-01,3.530519435897182916e+02
7.927582273461288853e-01,1.281090938361746367e+01,-1.584953077411643596e+00,5.758427016365942341e-01,-5.819996984464478494e-04,-8.175590763952382822e-01,3.546314714484562955e+02
7.322687816034719743e-01,1.289036190078556743e+01,-1.756070609735918442e+00,5.752485911879960945e-01,-0.000000000000000000e+00,-8.179774186878632225e-01,3.562109993071942995e+02
6.701519574234459098e-01,1.297354799087371013e+01,-1.919304309233082817e+00,3.145528559499483623e-01,-3.115525004159145905e-01,-8.966546382516057401e-01,3.577905271659323034e+02
6.067412601834684116e-01,1.306096543662840581e+01,-2.074812438492212863e+00,0.000000000000000000e+00,-5.697617808903234771e-01,-8.218086839622436024e-01,3.593760263130449175e+02
5.428244596311376791e-01,1.315245770484446020e+01,-2.221566402684850949e+00,-0.000000000000000000e+00,-9.957248574901754745e-01,-9.235804333354340201e-02,3.609615254601575316e+02
4.790794273230276623e-01,1.324790528999903216e+01,-2.358820040186505373e+00,-0.000000000000000000e+00,-7.111927844806165133e-01,7.029956068831672011e-01,3.625427489596182227e+02
4.157985334777331010e-01,1.334766250910019636e+01,-2.486636709827238612e+00,-0.000000000000000000e+00,8.080491350120935778e-02,9.967289330370694422e-01,3.641239724590789137e+02
3.076697621561161888e-01,1.352884915686712830e+01,-2.691985975229936212e+00,-5.024135394087861917e-01,7.294793312445937428e-01,4.641535744838832245e-01,3.668740225112421740e+02
2.903337911532099525e-01,1.355981079581229309e+01,-2.722840746673668821e+00,-9.994701503667592357e-01,0.000000000000000000e+00,3.251797235700312760e-02,3.673254196823474444e+02
2.285673226463188490e-01,1.367742354278939665e+01,-2.825216243448513520e+00,5.179124917786057658e-01,7.186022948440788927e-01,4.640855445983514960e-01,3.689782095755043656e+02
1.690065288930883702e-01,1.379910927719888925e+01,-2.916834691617514075e+00,9.997494087566204390e-01,0.000000000000000000e+00,-2.234098678772858740e-02,3.706309994686612868e+02
1.120609933390738638e-01,1.392450970780538810e+01,-2.997530176992039941e+00,0.000000000000000000e+00,1.173078338873077137e-01,9.930945937374241472e-01,3.722837893618182079e+02
2.431960716346159845e-02,1.413486873065301275e+01,-3.111338214648372347e+00,7.294162694263858215e-01,5.001404990659417127e-01,4.667005325589665410e-01,3.749852023376957391e+02
1.061917550848998429e-02,1.417079521548661525e+01,-3.127319541858899044e+00,8.506807646949677837e-01,5.164672500187856841e-01,9.798885770675200280e-02,3.754370040723335933e+02
-6.415838452564766314e-02,1.438728022917824489e+01,-3.203955021287256955e+00,1.270998420255749000e-03,1.158168560493785110e-01,9.932687654503759012e-01,3.781144303587176410e+02
-1.228000897007075765e-01,1.457868689426565645e+01,-3.255400466934670778e+00,1.182598423654793174e-01,0.000000000000000000e+00,9.929816764045386046e-01,3.804547655798012897e+02
-1.819863218334353272e-01,1.480123749223033514e+01,-3.297583481845546505e+00,-9.359985444601274336e-04,-1.157798199546939688e-01,9.932734553938388222e-01,3.831657672742510385e+02
-2.131539537292871378e-01,1.493988719686502797e+01,-3.313577541763592649e+00,-5.517134353491486287e-01,-8.267481538649975592e-01,1.099898874309023500e-01,3.848621306390451764e+02
-2.369650902520613889e-01,1.506962008754055127e+01,-3.319342326206714322e+00,5.227064052949248474e-01,-8.494460335494989911e-01,-7.223191781870724748e-02,3.864687383325978089e+02
-2.548748203405174495e-01,1.519685367696907896e+01,-3.316170211313245186e+00,0.000000000000000000e+00,-9.993865585864855072e-01,3.499294952972908240e-02,3.880753460261504415e+02
-2.662550115675876850e-01,1.531564680087561214e+01,-3.304981083993890678e+00,9.994709311547945729e-01,-0.000000000000000000e+00,3.249396525059620316e-02,3.896170804303950490e+02
-2.717320017672004706e-01,1.543021441097929625e+01,-3.286069919713069165e+00,9.927322244214562552e-01,2.902076229187999790e-02,1.167840997370246936e-01,3.911588148346396565e+02
-2.712278898475530831e-01,1.553961530443011263e+01,-3.259848465417549690e+00,9.780591482850297114e-01,5.780957617747835287e-02,2.001408388068655342e-01,3.927005492388842640e+02
-2.629160506963405530e-01,1.566945087538899095e+01,-3.218195415858784436e+00,9.555689760521730580e-01,8.613635005580994042e-02,2.818979624009154139e-01,3.946400530238337865e+02
-2.467770769835122280e-01,1.579003117841990189e+01,-3.168460286908019174e+00,9.254414569708304672e-01,1.137746850099310564e-01,3.614020348180290720e-01,3.965795568087833090e+02
-2.227313886983676161e-01,1.589981451609864394e+01,-3.111260926098613488e+00,8.879173798130115536e-01,1.405036841208692766e-01,4.380176267849370531e-01,3.985190605937328314e+02
-1.932669013525536994e-01,1.598957482721911560e+01,-3.052276035779156516e+00,8.432966487346057471e-01,1.661097178313370726e-01,5.111323936854422767e-01,4.003049848893569447e+02
-1.564302588411666528e-01,1.606668136715631690e+01,-2.987500528788368914e+00,7.919358867645381883e-01,1.903881312604670251e-01,5.801619693921562515e-01,4.020909091849810579e+02
-1.121267917397294894e-01,1.612984825496947749e+01,-2.917423654438447755e+00,7.342455860437712145e-01,2.131448798322355676e-01,6.445546366101320146e-01,4.038768334806051712e+02
-6.758559489770948892e-02,1.617108494529802343e+01,-2.853072646238570265e+00,6.355972790727207888e-01,2.092487626592402228e-01,7.431211571135819538e-01,4.054108889543014698e+02
-1.649898342625998743e-02,1.619832922752436488e+01,-2.784932276825971442e+00,0.000000000000000000e+00,2.016697227947948992e-02,9.997956257304881911e-01,4.069449444279977683e+02
4.121247629613017383e-02,1.621066385364836293e+01,-2.713348721884789594e+00,-0.000000000000000000e+00,1.705397560833250836e-02,9.998535699465991300e-01,4.084789999016940669e+02
1.056542091963860591e-01,1.620722651789604640e+01,-2.638655561644691172e+00,8.370268619317428049e-01,-1.940497361591902448e-01,5.115943044079409585e-01,4.100130553753903655e+02
1.769418623385436151e-01,1.618718179410349123e+01,-2.561180087752378487e+00,0.000000000000000000e+00,1.519999199372266442e-02,9.998834733323284096e-01,4.115471108490866641e+02
2.905786401862280321e-01,1.613250400183532562e+01,-2.445130697191816527e+00,-0.000000000000000000e+00,-2.786296520808142704e-02,9.996107518063629405e-01,4.137753540583346989e+02
4.144809582693966266e-01,1.605063554573058937e+01,-2.326130820883641093e+00,6.991536932645192604e-01,-5.387427636406384446e-01,-4.700407937818390502e-01,4.160035972675827338e+02
5.224049655810147907e-01,1.596204265296979230e+01,-2.228550747379667740e+00,4.595995113947056177e-01,-5.348094314382125791e-01,-7.090452462062019068e-01,4.177925781126367610e+02
6.472838752743690360e-01,1.584183324251137748e+01,-2.121939683275222421e+00,-8.217572942073522180e-01,1.566598654476424740e-02,5.696205107631275855e-01,4.197100005893018988e+02
7.814397039792677635e-01,1.569578062348964131e+01,-2.013383682991299661e+00,-4.199765354729848021e-01,-5.494543922603116748e-01,-7.223002010792790584e-01,4.216274230659670366e+02
9.249267527252105214e-01,1.552343389494922121e+01,-1.902954135263874136e+00,-0.000000000000000000e+00,2.016697227948017340e-02,9.997956257305221639e-01,4.235448455426321743e+02
1.060064165633645139e+00,1.534758909526068038e+01,-1.803733747214606664e+00,-7.270129289258697725e-01,2.249116686481625049e-01,6.487410442401749799e-01,4.252399311707904985e+02
1.203507574622976417e+00,1.514809756936761787e+01,-1.702973758352540390e+00,-8.353971706888615456e-01,5.706897708573422517e-02,5.466742165689856270e-01,4.269350167989488227e+02
1.369266735803393642e+00,1.490406157247750585e+01,-1.591247322576948786e+00,-9.017308211791940087e-01,-1.136463540324677141e-01,4.170899571463849709e-01,4.287874910091637730e+02
1.532295732173094560e+00,1.465203303767305520e+01,-1.485570338996704542e+00,-9.226748959561067442e-01,-2.786412042015056767e-01,2.665110048291648437e-01,4.305164043920318591e+02
1.703595130339173647e+00,1.437593186825655422e+01,-1.378622178920147157e+00,-8.971751246285712966e-01,-4.296103845413990485e-01,1.025168924770933909e-01,4.322453177748999451e+02
1.857802763203903584e+00,1.411837068055481481e+01,-1.285800774641381761e+00,-8.265150306012553072e-01,-5.589546842172216090e-01,-6.663756585315357139e-02,4.337302406261237024e+02
1.928169613081814671e+00,1.399745052642626142e+01,-1.244996138590684698e+00,-7.142513392296423458e-01,-6.601633892676501691e-01,-2.324377849664538698e-01,4.343771228829025404e+02
2.106667762017812695e+00,1.368281773322642891e+01,-1.145129649268435745e+00,-7.357823574584418935e-01,-5.574226315644983387e-01,-3.845807227010403229e-01,4.359482980328901931e+02
2.292253899321725630e+00,1.334743908766528442e+01,-1.044702350137643565e+00,-7.321740586651848126e-01,-4.356365654474305682e-01,-5.235837379672650949e-01,4.375194731828778458e+02
2.467888528289341910e+00,1.302298032252648419e+01,-9.527824665777666624e-01,-7.035497417094719319e-01,-2.989662255798881119e-01,-6.446975701086496979e-01,4.389529461146747735e+02
2.689806024752146918e+00,1.260445772772987461e+01,-8.403756303346214818e-01,-6.508874097503483114e-01,-1.520811815190669103e-01,-7.437841716903847988e-01,4.407046881510376579e+02
2.918390401130710465e+00,1.216455052813362059e+01,-7.282045610820746528e-01,-5.759863546497717701e-01,0.000000000000000000e+00,-8.174580840985088415e-01,4.424564301874005423e+02
3.153123187798379412e+00,1.170404266324715437e+01,-6.166001784200567659e-01,-9.064038950925267235e-01,1.716608156519831493e-02,-4.220607830693183793e-01,4.442081722237634267e+02
3.393457525803940111e+00,1.122376351143243234e+01,-5.058590433033640643e-01,-9.958902039876152967e-01,2.976925291429426829e-02,8.552481033153315482e-02,4.459599142601263111e+02
3.742308420635833244e+00,1.051243956825152281e+01,-3.496576818480808257e-01,-8.206585819565425099e-01,3.445945006703926561e-02,5.703771017161664014e-01,4.484558067237550745e+02
3.959758835528936149e+00,1.006046327207900326e+01,-2.549508352987900350e-01,-4.272875887420417573e-01,2.998997113509817986e-02,9.036171302819322459e-01,4.499873625635356689e+02
4.180476818722430821e+00,9.594218625936479228e+00,-1.614734222519762230e-01,-6.189077359697422454e-01,2.605421236355616108e-02,7.850301856462785777e-01,4.515189184033162633e+02
4.403912399973236802e+00,9.114603071213187135e+00,-6.925973367624380095e-02,-7.790893676536096990e-01,2.079498557677448081e-02,6.265662979964589097e-01,4.530504742430968577e+02
4.629522201038390961e+00,8.622517826627426274e+00,2.165594768240974161e-02,-8.996958080729103857e-01,1.447944220425205313e-02,4.362749118280037641e-01,4.545820300828774521e+02
4.856769445554005138e+00,8.118867852450065925e+00,1.112393475227211603e-01,-9.746006606414238105e-01,7.428390516094996593e-03,2.238221867746825189e-01,4.561135859226580465e+02
5.085123968838950681e+00,7.604561814686790377e+00,1.994562002102066023e-01,-9.999989999998939449e-01,0.000000000000000000e+00,0.000000000000000000e+00,4.576451417624386409e+02
5.314062227622965651e+00,7.080512049219104931e+00,2.862722489996231690e-01,-9.954183830734479876e-01,5.227729664778990940e-03,-9.546158117718792080e-02,4.591766976022192353e+02
5.543067309699939216e+00,6.547634525903680114e+00,3.716532462578371332e-01,-9.817184986309720474e-01,1.040756621027815083e-02,-1.900486043364348898e-01,4.607082534419998296e+02
5.771628943506864395e+00,6.006848812630726897e+00,4.555649536861801630e-01,-9.590248536952179492e-01,1.549205670511627844e-02,-2.828945495634343499e-01,4.622398092817804240e+02
5.999243507627848970e+00,5.459078039342121436e+00,5.379731425424112423e-01,-9.275453438634505554e-01,2.043462163375317844e-02,-3.731488460580371092e-01,4.637713651215610184e+02
6.225414040222757350e+00,4.905248862008517285e+00,6.188435938627455668e-01,-8.875683493723395268e-01,2.518998153460658487e-02,-4.599846628104806712e-01,4.653029209613416128e+02
6.449650248379032114e+00,4.346291426567007399e+00,6.981420986836699427e-01,-9.199086269487261047e-01,1.092637387024191081e-01,-3.765999913296716461e-01,4.668344768011222072e+02
6.671468517386482944e+00,3.783139332821097156e+00,7.758344582635080533e-01,-9.383883391133857055e-01,1.916911532974031607e-01,-2.875410001430652729e-01,4.683660326409028016e+02
6.902818225888973203e+00,3.184397722871652903e+00,8.562257912339004129e-01,-9.427290616112640187e-01,2.712302785734335697e-01,-1.941495618806158563e-01,4.699849865328579313e+02
7.130463749862098410e+00,2.583216023542987738e+00,9.348448279850990472e-01,-9.328653992240356629e-01,3.466826875459574353e-01,-9.783282213256855320e-02,4.716039404248130609e+02
7.353887749634559157e+00,1.980649532841245897e+00,1.011653376182936714e+00,-9.089459700185786861e-01,4.169115275724389891e-01,-4.199995240732441536e-05,4.732228943167681905e+02
7.572576865191648743e+00,1.377759199473043816e+00,1.086631801637923500e+00,-9.387032294025746681e-01,2.987077819359678643e-01,-1.720694863131673746e-01,4.748418482087233201e+02
7.786017792153408834e+00,7.756133645836745805e-01,1.159797573441654350e+00,-9.267340335826361741e-01,1.672261144274354017e-01,-3.364482986327326786e-01,4.764608021006784497e+02
7.993701272369603927e+00,1.752860296104029880e-01,1.231186718844109240e+00,-8.735703862515963314e-01,2.831098010942321302e-02,-4.858716586388920899e-01,4.780797559926335794e+02
8.195126066834129475e+00,-4.221449162206741823e-01,1.300835277996001293e+00,-8.700043558761719753e-01,-9.455431539053267553e-02,-4.838903824193234171e-01,4.796987098845887090e+02
8.389798966816538695e+00,-1.015597741667073617e+00,1.368779303685730531e+00,-8.532903386905791310e-01,-2.159906527009873012e-01,-4.745962872205600758e-01,4.813176637765438386e+02
8.577234804892697184e+00,-1.603986919290704583e+00,1.435054861076467292e+00,-8.236809271393787935e-01,-3.341628168007160782e-01,-4.581298310905779214e-01,4.829366176684989682e+02
8.756956465874532469e+00,-2.186223171326740822e+00,1.499698027443366666e+00,-7.816235967590323686e-01,-4.472849232967420763e-01,-4.347398651853855989e-01,4.845555715604540978e+02
8.928494897638087124e+00,-2.761213515601386614e+00,1.562744891911044265e+00,-7.277539434155381182e-01,-5.536474079979245566e-01,-4.047798728455760942e-01,4.861745254524092275e+02
9.091389121849735133e+00,-3.327861311498091279e+00,1.624231555191305576e+00,-6.628860774828858604e-01,-6.516428629636991099e-01,-3.687026273685388711e-01,4.877934793443643571e+02
9.241443781820496639e+00,-3.871408323064607693e+00,1.682724277051129480e+00,-5.880003201785996003e-01,-7.397903285546770791e-01,-3.270533492376087037e-01,4.893727520113143896e+02
9.382260882532873936e+00,-4.404730509837182950e+00,1.739759245917869235e+00,-5.042283880479468960e-01,-8.167576743667499528e-01,-2.804614662486979992e-01,4.909520246782644222e+02
9.443164984387498961e+00,-4.646131173782578117e+00,1.765458982753837169e+00,-4.128362895465282900e-01,-8.813817308338516288e-01,-2.296311010874377001e-01,4.916820883707489998e+02
9.596099441329229762e+00,-5.285334539772029494e+00,1.833259010398806454e+00,-3.152051922379541793e-01,-9.326858672968972863e-01,-1.753304301362940132e-01,4.936592775981091563e+02
9.735617590668649513e+00,-5.909408346689917657e+00,1.899252620882458942e+00,-2.128105497780150290e-01,-9.698947509410468237e-01,-1.183800743416686813e-01,4.956364668254693129e+02
9.843918131065079180e+00,-6.433385377043745024e+00,1.954552628460370700e+00,-1.071998041378132566e-01,-9.924460636149935455e-01,-5.964069758901969359e-02,4.973401002483557249e+02
9.939977974255294058e+00,-6.943044182902746719e+00,2.008258284874760768e+00,3.099996898510452229e-05,-9.999989995195006642e-01,-0.000000000000000000e+00,4.990437336712421370e+02
1.003052321662529778e+01,-7.481307207431087569e+00,2.064845697349316112e+00,2.955221501515262230e-05,-9.474735656008080875e-01,-3.198309578739903514e-01,5.008965341539060887e+02
