-4.749488967199713585e+00,-2.790989814322489604e+00,-7.131339027973624844e+00,5.293393740831576766e-01,8.484089967995838144e-01,-0.000000000000000000e+00,5.755889355606510804e+01
-5.178260878461633077e+00,-2.497365074087450676e+00,-6.684445834074608683e+00,9.726792459839352090e-02,0.000000000000000000e+00,9.952572284815965897e-01,6.010633580849721369e+01
-5.728939233504434014e+00,-2.252753004444764784e+00,-6.105042927606732839e+00,0.000000000000000000e+00,-9.924842934886758394e-01,-1.223639128938455861e-01,6.299307464477005425e+01
-6.179660398679602373e+00,-2.127093366347086789e+00,-5.616254147972904676e+00,-0.000000000000000000e+00,-9.983890695156890649e-01,-5.672094713688979190e-02,6.524293661838004255e+01
-6.628837470558630152e+00,-2.039269348621129296e+00,-5.115130416237729349e+00,9.360262369457841292e-01,-2.510647953304693814e-01,2.466157989573179721e-01,6.749279859199003795e+01
-7.096194158600449775e+00,-1.971497700261751307e+00,-4.583653619436717896e+00,6.075376243260579567e-01,7.797075178639392146e-01,1.514999063192718209e-01,6.988417700898770590e+01
-7.404693170458036988e+00,-1.931009017348793710e+00,-4.224835243992881573e+00,9.984358225269304166e-01,0.000000000000000000e+00,-5.589193408565105992e-02,7.152344036060237897e+01
-7.763188395490233873e+00,-1.873311786952974289e+00,-3.780958718178053957e+00,9.973505985314402578e-01,-0.000000000000000000e+00,-7.273089779916236397e-02,7.359432021803705481e+01
-8.110063200893558033e+00,-1.761955973135280296e+00,-3.220051609209669596e+00,0.000000000000000000e+00,-9.950534475071197704e-01,-9.933094484754566300e-02,7.629843917353215943e+01
-8.200958130682241887e+00,-1.706438774247274193e+00,-3.009704181701135184e+00,9.973505985893443837e-01,-0.000000000000000000e+00,-7.273089780338498622e-02,7.733463552839180011e+01
-8.244618796756377321e+00,-1.675076014983158057e+00,-2.897040860051326661e+00,9.948943568806407622e-01,-0.000000000000000000e+00,-1.009119347685325796e-01,7.789101077776658144e+01
-8.314214173376974770e+00,-1.613962788431015927e+00,-2.688921548009928220e+00,9.865485953900813287e-01,-4.804043550846940486e-02,-1.562433534245335764e-01,7.892104193766662945e+01
-8.375539824831523816e+00,-1.512471327605153792e+00,-2.381741934577893183e+00,9.728368900048235401e-01,-9.581956095453818267e-02,-2.107249325158387643e-01,8.044738639663522406e+01
-8.383786573579794066e+00,-1.396417235509194832e+00,-2.074570395838775116e+00,9.538338238070589448e-01,-1.430775022889627379e-01,-2.640603432932646655e-01,8.197373085560381867e+01
-8.346722669426664964e+00,-1.266413446340454829e+00,-1.765131766694480575e+00,9.296427592063281065e-01,-1.895572207129066766e-01,-3.159594915979304641e-01,8.350007531457241328e+01
-8.310956601275940159e+00,-1.188605946402006008e+00,-1.590510087910635750e+00,9.003952756571107496e-01,-2.350059105950053906e-01,-3.661400955370529009e-01,8.435532562772920073e+01
-8.171493839647606450e+00,-9.773894729345622423e-01,-1.154377307919763895e+00,8.662504539218590649e-01,-2.791763743483052784e-01,-4.143292206520208243e-01,8.646411939583471451e+01
-8.023485416914995838e+00,-8.061900957751826358e-01,-8.329758065825479951e-01,8.273940108088886358e-01,-3.218283667969763506e-01,-4.602647642418596918e-01,8.799682483877838024e+01
-7.845509770977185937e+00,-6.242358748718606076e-01,-5.106988471734211776e-01,7.840372890914925064e-01,-3.627299017290012695e-01,-5.036968807784766300e-01,8.952953028172204597e+01
-7.631720138970796263e+00,-4.274687848931963963e-01,-1.812023454772375974e-01,7.364161080994982012e-01,-4.016585135366733117e-01,-5.443893406701445503e-01,9.110419438554150418e+01
-7.385635234733121557e+00,-2.224161042871989902e-01,1.437487362494650756e-01,0.000000000000000000e+00,-9.950635238631688750e-01,9.922995251857391619e-02,9.267885848936096238e+01
-7.106118812692859166e+00,-1.107055645053776731e-02,4.610291691701135508e-01,1.387474860146165612e-01,-9.824666311709601141e-01,-1.245249122066950653e-01,9.425352259318042059e+01
-6.792056930612488053e+00,2.045691479649313915e-01,7.675137771869813275e-01,2.678552909395245374e-01,-9.016120270999745667e-01,-3.396281727193342093e-01,9.582818669699987879e+01
-6.442357963854027147e+00,4.224984189698847148e-01,1.060077458424919961e+00,3.783536023997760567e-01,-7.581172033178276148e-01,-5.311354418460156879e-01,9.740285080081933700e+01
-6.057483014024231061e+00,6.409469611570611791e-01,1.335850921444687867e+00,5.119696326534558528e-01,1.099999210732662775e-05,-8.590023836518086986e-01,9.897751490463879520e+01
-5.640972490273126638e+00,8.586298781979563310e-01,1.592476419697637535e+00,3.996517389686284893e-01,-1.354739068109789557e-01,-9.065998610813139624e-01,1.005521790084582534e+02
-5.197909955189766507e+00,1.074524087802652739e+00,1.827852053003468313e+00,2.740506525458014098e-01,-2.664560070425104343e-01,-9.240646276913966339e-01,1.021268431122777116e+02
-4.722174903280372149e+00,1.292526913223147611e+00,2.044209551896224664e+00,1.393409662666698634e-01,-3.885818767076947289e-01,-9.108162384447009430e-01,1.037381329339357450e+02
-4.229071847054597377e+00,1.506526757453724663e+00,2.233249126223888936e+00,0.000000000000000000e+00,-4.977924468361116794e-01,-8.672950362322737750e-01,1.053494227555937783e+02
-3.724207378808919167e+00,1.715493168156168924e+00,2.392667383277618853e+00,-6.533588604569258440e-02,-4.496617081560301266e-01,-8.908050124540343173e-01,1.069607125772518117e+02
-3.213199963155602745e+00,1.918426453682467336e+00,2.520161143568918405e+00,-1.302053952751951738e-01,-3.983212519031532617e-01,-9.079563510015128402e-01,1.085720023989098451e+02
-2.701679860693694923e+00,2.114357741734723906e+00,2.613427457408621812e+00,-1.941454870831270663e-01,-3.441375483086630549e-01,-9.186266258332597134e-01,1.101832922205678784e+02
-2.195289051556167159e+00,2.302349037701098222e+00,2.670163621484708649e+00,-2.566997550195315725e-01,-2.874973623449166849e-01,-9.227396720733416213e-01,1.117945820422259118e+02
-1.699681158833809214e+00,2.481493282667246447e+00,2.688067195438971435e+00,-3.174216843838191249e-01,-2.288049932004543874e-01,-9.202661296439049732e-01,1.134058718638839451e+02
-1.220521371876372330e+00,2.650914411102694768e+00,2.664836018443027310e+00,-3.758778392360916931e-01,-1.684793886197922808e-01,-9.112236528875129471e-01,1.150171616855419785e+02
-7.633738202794675409e-01,2.809767235728564128e+00,2.598553346365745309e+00,-4.316509560929994715e-01,-1.069511546890002801e-01,-8.956767846799801314e-01,1.166284515072000119e+02
-3.331586037381136234e-01,2.957235766741191263e+00,2.488552357502714418e+00,-4.843429222386821942e-01,-4.465948239380847923e-02,-8.737364959239027895e-01,1.182397413288580452e+02
6.616607207075776709e-02,3.092528317001667304e+00,2.335510408126110882e+00,-5.335776174014186246e-01,1.795098712835399221e-02,-8.455593936967856772e-01,1.198510311505160786e+02
4.311963253074976854e-01,3.214817665873090924e+00,2.140665104940865149e+00,-6.405153591179187922e-01,2.032825299291826301e-02,-7.676749552142025923e-01,1.214623209721741119e+02
7.487823884977201638e-01,3.319232029215002822e+00,1.916190572352102217e+00,-7.362393509072513442e-01,2.234962451983484380e-02,-6.763505839861796431e-01,1.230130338369359322e+02
1.034018246998245072e+00,3.408861827765957919e+00,1.659120811981310561e+00,-8.190737462294166438e-01,2.397971346249319971e-02,-5.731851110931015514e-01,1.245637467016977524e+02
1.287908884557530831e+00,3.481381007662057936e+00,1.372888772617577580e+00,-8.875683493725092799e-01,2.518998153461140393e-02,-4.599846628105687674e-01,1.261144595664595727e+02
1.511430113955192667e+00,3.534458190461237326e+00,1.060927597487799190e+00,-9.572517314590752724e-01,3.022501725906007186e-02,-2.876692040353281965e-01,1.276651724312213929e+02
1.705528564103896194e+00,3.565756812796046837e+00,7.266706013669773645e-01,-9.938392763539846131e-01,3.421505962931421785e-02,-1.054078861876927148e-01,1.292158852959832132e+02
1.871121667437922964e+00,3.572935266078329786e+00,3.735512476879526145e-01,-9.960659916309089201e-01,3.702215697168722425e-02,8.049782735627231123e-02,1.307665981607450192e+02
2.008714055049755753e+00,3.554472348550654637e+00,4.876244548850440855e-03,-9.638548686706343016e-01,3.854925631041481587e-02,2.636204600883876870e-01,1.323173110255068252e+02
2.118026989048939157e+00,3.510495395841408683e+00,-3.763013584340226814e-01,-8.983195519954357833e-01,3.874355912086668158e-02,4.376287457750112075e-01,1.338680238902686312e+02
2.198401506533454342e+00,3.441959049270643778e+00,-7.670553093782730425e-01,-8.017258416415070643e-01,3.759834703340128592e-02,5.965065290034512469e-01,1.354187367550304373e+02
2.249188535773383180e+00,3.349821257776490313e+00,-1.164459292541862423e+00,-6.774133579587995335e-01,3.515321428836288425e-02,7.347607733020087295e-01,1.369694496197922433e+02
2.269748903585415700e+00,3.235043230902664213e+00,-1.565586947831558717e+00,-5.296800765183912185e-01,3.149269885209587255e-02,8.476114832031026447e-01,1.385201624845540493e+02
2.259453342612324889e+00,3.098589391756192413e+00,-1.967511890311607781e+00,-3.636337256872984591e-01,2.674335950915056673e-02,9.311569718712219279e-01,1.400708753493158554e+02
2.215696736814527501e+00,2.936679265032813291e+00,-2.377855632039521439e+00,-1.850151861237338269e-01,2.106940001905495408e-02,9.825087588851771914e-01,1.416629677535833309e+02
2.137230695220976084e+00,2.753438823324213303e+00,-2.782645187049323621e+00,-0.000000000000000000e+00,1.466699169441214139e-02,9.998914337839467370e-01,1.432550601578508065e+02
2.023390904738892271e+00,2.550212382424912327e+00,-3.178526968664330710e+00,-3.826831913532182106e-01,1.355053256928853180e-02,9.237791717304867367e-01,1.448471525621182820e+02
1.873530767305052747e+00,2.328872762557455012e+00,-3.561941654009879166e+00,-7.071062274239234835e-01,1.037112703762668557e-02,7.070298599513616944e-01,1.464392449663857576e+02
1.687026732370615623e+00,2.091558648983113944e+00,-3.929227108412526981e+00,-9.238786673140091388e-01,5.612812646191430235e-03,3.826417442166524796e-01,1.480313373706532332e+02
1.463279370110834643e+00,1.840411937828167588e+00,-4.276721310521841346e+00,-9.999989999999999712e-01,0.000000000000000000e+00,0.000000000000000000e+00,1.496234297749207087e+02
1.203549201161570714e+00,1.578138246665412803e+00,-4.601751216960491497e+00,4.737066590287434820e-01,3.605097405072171107e-02,8.799433666219595995e-01,1.512155221791881843e+02
9.128016516218873111e-01,1.308554144812019038e+00,-4.903621620023450589e+00,0.000000000000000000e+00,1.466699169439773104e-02,9.998914337829643006e-01,1.528076145834556598e+02
5.978848860279611932e-01,1.036006431115382709e+00,-5.182626313644703941e+00,1.611509719022813716e-02,-1.145786746627069051e-02,9.998034911487038157e-01,1.543997069877231354e+02
2.656984681035614582e-01,7.648046290221396371e-01,-5.439059252412898005e+00,3.221500857471350232e-02,-3.757192772704276429e-02,9.987735196064108090e-01,1.559917993919906110e+02
-7.680673099651068314e-02,4.992207348977092951e-01,-5.673214549501784276e+00,4.828456489673208646e-02,-6.365058454515445940e-02,9.968024899033197661e-01,1.575838917962580865e+02
-4.226286249693761432e-01,2.434889667314864559e-01,-5.885386474599832773e+00,6.430862551209023947e-02,-8.966926675525785373e-02,9.938922593933698924e-01,1.591759842005255621e+02
-7.750771707078040196e-01,-5.196571937184485054e-03,-6.081115242338186455e+00,8.027209265104431890e-02,-1.156034597145752102e-01,9.900455702851430617e-01,1.608177560236051704e+02
-1.115673215823159925e+00,-2.343351968535660190e-01,-6.253695457392282719e+00,9.615992563976109853e-02,-1.414287283946811247e-01,9.852660470570600015e-01,1.624595278466847788e+02
-1.437246299579331588e+00,-4.408017599026078925e-01,-6.404344724389649635e+00,1.119571550679525074e-01,-1.671207403982137574e-01,9.795581930419874350e-01,1.641012996697643871e+02
-1.730833613262650728e+00,-6.208163949828094941e-01,-6.533711067542661510e+00,1.276488968893706444e-01,-1.926552888788844453e-01,9.729273861844753846e-01,1.657303144908346439e+02
-1.993247810462802860e+00,-7.743530973694490172e-01,-6.644583811538617546e+00,1.432203664419106626e-01,-2.180083153432446352e-01,9.653798739746211055e-01,1.673593293119049008e+02
-2.220379331445317295e+00,-9.009484622236167972e-01,-6.738392533531813555e+00,1.586568923741460413e-01,-2.431559323127817640e-01,9.569227675633211749e-01,1.689883441329751577e+02
-2.466775735545303050e+00,-1.028977976245568415e+00,-6.838929370115983453e+00,1.739439304652065366e-01,-2.680744458250438056e-01,9.475640350644447540e-01,1.713957818958127746e+02
-2.581692986398151923e+00,-1.082818010821779531e+00,-6.884235963917930690e+00,1.890670773250107961e-01,-2.927403777526455531e-01,9.373124940502153279e-01,1.733093333169784671e+02
-2.633652571141947174e+00,-1.106995058933594400e+00,-6.899581937472180293e+00,2.040120839619754822e-01,-3.171304879191775838e-01,9.261778032468455102e-01,1.752228847381441597e+02
-2.628427146284225913e+00,-1.111232527375330736e+00,-6.883552279111087024e+00,2.187648692054464383e-01,-3.412217959912273724e-01,9.141704534382198988e-01,1.769943616397087567e+02
-2.575217165419497078e+00,-1.106807714318666092e+00,-6.834173064985658463e+00,1.436964142341866368e-01,-3.460630087635425678e-01,9.271406228270525629e-01,1.787658385412733537e+02
-2.475751156966949473e+00,-1.102280618915847610e+00,-6.744762279605211575e+00,6.779070661394576147e-02,-3.488877292528889118e-01,9.347083890008008877e-01,1.805373154428379507e+02
-2.332703842251365955e+00,-1.108050931148882423e+00,-6.605515142397361039e+00,-8.509987894245948231e-03,-3.496795025687336467e-01,9.368296673271827579e-01,1.823087923444025478e+02
-2.149133799362945130e+00,-1.134625896914905008e+00,-6.411828036062689584e+00,-6.442598531490321273e-03,-2.647292225525982867e-01,9.643002289998380272e-01,1.840802692459671448e+02
-1.941217165752221252e+00,-1.184196990825399753e+00,-6.188448128995784003e+00,-4.323826470861320652e-03,-1.776676047596140728e-01,9.840800408207758254e-01,1.857479976157101191e+02
-1.699188011238201401e+00,-1.258661162046009752e+00,-5.938461243171818893e+00,-2.170569389916645209e-03,-8.918898491964016850e-02,9.960113521418215710e-01,1.874157259854530935e+02
-1.449415635123865620e+00,-1.347359971806917800e+00,-5.695331554000330421e+00,-0.000000000000000000e+00,9.999989999976411521e-07,9.999989999976411914e-01,1.889390883555622622e+02
-1.175013306893101239e+00,-1.454253905323780405e+00,-5.444545217668171233e+00,-0.000000000000000000e+00,3.333329503819602845e-07,9.999989992940616634e-01,1.904624507256714310e+02
-8.787687293455207493e-01,-1.577684458427872416e+00,-5.189987042571120313e+00,-0.000000000000000000e+00,-3.333329503819600198e-07,9.999989992940616634e-01,1.919858130957805997e+02
-4.891612753878410991e-01,-1.749011571877825855e+00,-4.877090891082911384e+00,-0.000000000000000000e+00,-9.999989992933948781e-07,9.999989992933948635e-01,1.938525587422797400e+02
-7.546987033695899683e-02,-1.938084265328427369e+00,-4.567830019711246692e+00,-4.595974337851653768e-01,-8.868719073915704021e-01,4.718494186909653193e-02,1.957193043887788804e+02
5.527397660125086265e-01,-2.229458307356873004e+00,-4.140671053601386653e+00,-4.131130237826303175e-01,-7.146250146798559522e-01,5.644880140236181454e-01,1.984406693608128194e+02
9.022387900428978647e-01,-2.391114268906819440e+00,-3.920560219634940946e+00,-2.429289782935741826e-01,-3.283958651163968456e-01,9.127648477461065557e-01,1.999363587990146698e+02
1.550534017316474777e+00,-2.671947455612657230e+00,-3.525098045363134425e+00,-3.999995304135556337e-06,1.561658166664083303e-01,9.877298404372794050e-01,2.029129500469389313e+02
2.021621399550915577e+00,-2.839172424827709484e+00,-3.232283565639829437e+00,-9.741568796143648123e-01,-4.289895066157300985e-02,-2.217567449557902581e-01,2.055053673847398272e+02
2.274525479744937240e+00,-2.903619942246627339e+00,-3.058915689204478205e+00,-8.962736280301438763e-01,4.381243293416716145e-01,-6.883789462646959512e-02,2.072214651416229287e+02
2.478425091973918359e+00,-2.931115664591931846e+00,-2.897043250807821657e+00,-9.291384371253856855e-01,3.575549941955732947e-01,9.409670973680399342e-02,2.089375628985060303e+02
2.624391828416561268e+00,-2.916393109185861920e+00,-2.746304317215008339e+00,-9.303017251129950260e-01,2.647861532809775986e-01,2.538207896995747781e-01,2.106536606553891318e+02
2.709421072566163602e+00,-2.852826748581315464e+00,-2.603224040906088721e+00,-8.997237993727624783e-01,1.629829900887360961e-01,4.048847117205076618e-01,2.124193393247330448e+02
2.735227164501938812e+00,-2.736597323184396302e+00,-2.471201840705647523e+00,-8.384479280485628294e-01,5.561892889148059571e-02,5.421343068840295265e-01,2.141850179940769578e+02
2.721127940455308369e+00,-2.593429187819517256e+00,-2.362598398135898226e+00,-9.398141263731930595e-01,-6.290436771020070650e-02,3.358428924272429117e-01,2.157256422970113476e+02
2.682059388738395889e+00,-2.414636200624743267e+00,-2.257746468247125993e+00,-9.783263459661830641e-01,-1.772206743382840899e-01,1.070905849129473869e-01,2.172662665999457374e+02
2.623236680812345067e+00,-2.201548874915184584e+00,-2.154790487801010013e+00,-9.514089133330804193e-01,-2.796846221408631483e-01,-1.288238788795880163e-01,2.188068909028801272e+02
2.549556846460237391e+00,-1.955859483389271070e+00,-2.051977996718516994e+00,-8.608620123120167555e-01,-3.634435067614086301e-01,-3.561227501187634314e-01,2.203475152058145170e+02
2.395813236347835051e+00,-1.446003553412818166e+00,-1.870944134324626029e+00,-7.127413081394902150e-01,-4.228955894937548865e-01,-5.596044567899737254e-01,2.229568572653024887e+02
2.287284970346888713e+00,-1.072939896872941112e+00,-1.751723679925028865e+00,-8.536475879973068892e-01,2.904298598275376064e-02,5.200387490095819132e-01,2.245814899898486487e+02
2.177403963861479053e+00,-6.743056966957353682e-01,-1.626742933405997960e+00,-8.710613791589444377e-01,-4.908788197031822564e-01,-1.697227459123171536e-02,2.262061227143948088e+02
2.069308638850430704e+00,-2.545247855069663889e-01,-1.494750452562336074e+00,-4.015486972678312116e-01,-7.363974448215194757e-01,-5.444955894985293865e-01,2.278307554389409688e+02
1.938378065423219221e+00,3.166543140954727886e-01,-1.308902334928760292e+00,-3.557978279803629684e-01,-7.185436755501087847e-01,-5.975791930212061009e-01,2.299361849680944658e+02
1.824159521019705910e+00,9.114320658128175490e-01,-1.102168846107042466e+00,-3.081862171207854217e-01,-6.969320830843749315e-01,-6.475375874379655228e-01,2.320416144972479628e+02
1.738871287820495048e+00,1.452726403143419054e+00,-8.992228665743675631e-01,-2.589628630965096212e-01,-6.716756917798321069e-01,-6.941095018867816657e-01,2.339228117885992333e+02
1.670056485428312865e+00,1.994858549712954954e+00,-6.795003654426550188e-01,-2.083851932645746086e-01,-6.429065874230620592e-01,-7.370513761446603196e-01,2.358040090799505037e+02
1.617450049126534894e+00,2.531718651215570492e+00,-4.433669632977970676e-01,-1.567177176369745628e-01,-6.107752264304344703e-01,-7.761386343677083577e-01,2.376852063713017742e+02
1.582544623034299436e+00,3.006143126527119236e+00,-2.182423022517468447e-01,-1.042306455507299862e-01,-5.754496489762718214e-01,-8.111668595436242191e-01,2.393772263515389511e+02
1.556740964646619485e+00,3.469839927567254012e+00,1.736202562340153840e-02,-5.119847253725892666e-02,-5.371146001664519609e-01,-8.419528625158430035e-01,2.410692463317761280e+02
1.535485814512365543e+00,3.921434370524174984e+00,2.619012889609588224e-01,2.101455218791602794e-03,-4.959705638541522243e-01,-8.683356399900483691e-01,2.427612663120133050e+02
1.509013309314420903e+00,4.415106190406244302e+00,5.469315988785796723e-01,5.539039132413826200e-02,-4.522327141510554260e-01,-8.901772165143991833e-01,2.446723705017103612e+02
1.471233907443420197e+00,4.890457043976645934e+00,8.383416105672633067e-01,1.083896469400492391e-01,-4.061297901175127123e-01,-9.073633660315646443e-01,2.465834746914074174e+02
1.426849152482385419e+00,5.274901262894037046e+00,1.082388111751944937e+00,1.608220482412203722e-01,-3.579028995166418925e-01,-9.198042092303704287e-01,2.481763902549058116e+02
1.368714016911867226e+00,5.651627989899327353e+00,1.323483858220646958e+00,2.124133859491801057e-01,-3.078042578880573754e-01,-9.274346835742240946e-01,2.497693058184042059e+02
1.295546945247112447e+00,6.022307224830967698e+00,1.558246100707823878e+00,2.628938493606170490e-01,-2.560958695349521141e-01,-9.302148835491336198e-01,2.513622213819026001e+02
1.199713316378352213e+00,6.417745036279737469e+00,1.801146195132035555e+00,3.119994373721700076e-01,-2.030481573218107794e-01,-9.281302693525806946e-01,2.530850393346039482e+02
1.088191224647591104e+00,6.808748617673847647e+00,2.028803111762388145e+00,3.594733391235194198e-01,-1.489385484475766463e-01,-9.211917429322353801e-01,2.548078572873052963e+02
9.781853804516663642e-01,7.156742984328726465e+00,2.218514015116777927e+00,4.050672770394518896e-01,-9.405002358920516725e-02,-9.094355909769022972e-01,2.563537788340681800e+02
8.635012988307441129e-01,7.501897958765009200e+00,2.394053512598597777e+00,4.485428052481049699e-01,-3.866963700203024379e-02,-8.929232951575738486e-01,2.578997003808310637e+02
7.487068008190788104e-01,7.843407164259672548e+00,2.554819009127544227e+00,4.896725565858144336e-01,1.691298468475059893e-02,-8.717412106104095448e-01,2.594456219275939475e+02
6.377245754022069502e-01,8.180275448140799099e+00,2.700410279264641833e+00,3.158457201159800554e-01,1.937845104880107569e-02,-9.486115942360219266e-01,2.609915434743568312e+02
4.996046421320465836e-01,8.626830709592313795e+00,2.869466417477454900e+00,1.306069743203815969e-01,2.114375577063366471e-02,-9.912077279006429320e-01,2.630983951370834575e+02
4.088115604208464315e-01,8.948959561586638856e+00,2.973777845834768563e+00,-5.935081270778011509e-02,2.214511544835406215e-02,-9.979905184376868243e-01,2.646719166653975890e+02
3.291402023630877749e-01,9.260818693000526736e+00,3.062792945308596249e+00,-2.471642424054293907e-01,2.234634897333938677e-02,-9.687148589561073164e-01,2.662454381937117205e+02
2.251529511614241141e-01,9.766488443398619879e+00,3.171566686526921419e+00,-4.260473796467934005e-01,2.174018511074844034e-02,-9.044384968841768790e-01,2.690423153242666103e+02
1.768004502378551501e-01,1.010279466467890863e+01,3.214344456155384666e+00,-5.895369523500124664e-01,2.034852536636665848e-02,-8.074838198553233592e-01,2.711813290364380578e+02
1.493012427612110948e-01,1.039464671984631927e+01,3.236120582607825202e+00,-7.317258920233958852e-01,1.822165259450731975e-02,-6.813539390937273232e-01,2.733203427486095052e+02
1.450234483628801974e-01,1.061888686122960124e+01,3.249807477133726419e+00,-8.474767720404624560e-01,1.543641396279211465e-02,-5.306061043519784137e-01,2.752575089428830779e+02
1.601129067206565615e-01,1.078569486857775139e+01,3.270286145003735268e+00,-9.326074286827312765e-01,1.209344400981145207e-02,-3.606870285691300970e-01,2.769460215713796742e+02
1.647475999964564397e-01,1.081467043982304510e+01,3.275591769436031697e+00,-9.840420580131331585e-01,8.313528249833227607e-03,-1.777360776828142419e-01,2.772638023249403432e+02
2.096447880743087244e-01,1.098170567129132280e+01,3.338223817437653729e+00,-9.999223320803867221e-01,4.233238829126864666e-03,1.163655864410380672e-02,2.793519319047393878e+02
2.325751390488996484e-01,1.103539967125898968e+01,3.374431976524972399e+00,-9.796745246594487089e-01,0.000000000000000000e+00,2.005886979235116108e-01,2.801474229694475184e+02
2.472363203455981984e-01,1.106771932822964288e+01,3.398663681978683293e+00,-9.796745239680101358e-01,-0.000000000000000000e+00,2.005886977819393013e-01,2.806420738369828314e+02
2.989456276897711762e-01,1.116651552573147121e+01,3.506130715920865892e+00,-9.766469516045874766e-01,-2.024901932016721917e-01,-7.180845062134155743e-02,2.823526598806212746e+02
3.498654892194245636e-01,1.124119015961119494e+01,3.658816140653808890e+00,-8.610980435139656830e-01,-3.816511123333345967e-01,-3.359324156926402627e-01,2.840632459242597179e+02
3.996349789244040829e-01,1.129462944906900468e+01,3.892860828102284287e+00,-6.463403735424584351e-01,-5.168413016604888055e-01,-5.613529998393678166e-01,2.860001234538141830e+02
4.323264261451642554e-01,1.131435062202968567e+01,4.196526350929727478e+00,-3.571165318404133648e-01,-5.924852232853634604e-01,-7.220990533689588542e-01,2.879370009833686481e+02
4.377623626221266440e-01,1.131493885720852255e+01,4.285414824919155485e+00,-2.524185312712940443e-01,-4.107627331631436007e-01,-8.761032257196547102e-01,2.884420932743479966e+02
4.464391371898620009e-01,1.131264081074170136e+01,4.490575218680152858e+00,-1.306312823599972694e-01,-2.012307725627368038e-01,-9.707933066539117251e-01,2.895637433614400038e+02
4.394383444026291330e-01,1.128678355841565484e+01,4.906509174090778025e+00,-0.000000000000000000e+00,2.192496970815829838e-02,-9.997586187196506602e-01,2.915982218871575924e+02
4.136371226100147291e-01,1.124894876292973045e+01,5.253345646180970441e+00,-0.000000000000000000e+00,-8.566789209192911259e-02,-9.963227450226359583e-01,2.931261772873576206e+02
3.736250633886187833e-01,1.119937921312159546e+01,5.617495014416110877e+00,4.770897259945170443e-01,-7.206429901637165236e-02,-8.758939034832989856e-01,2.946541326875576488e+02
3.203390811815223782e-01,1.113937180805445593e+01,5.992484642458625110e+00,8.385791000365957482e-01,-4.099928597101425848e-02,-5.432330545290046109e-01,2.961820880877576769e+02
2.547305673800043246e-01,1.107021847596973529e+01,6.371841823735125310e+00,9.968779763717973141e-01,-0.000000000000000000e+00,-7.894491893667290872e-02,2.977100434879577051e+02
1.533012317794720802e-01,1.097056462294040280e+01,6.846186620057534533e+00,1.400273938824310449e-01,-0.000000000000000000e+00,9.901466198590045398e-01,2.996424975149617467e+02
3.078762600146596820e-02,1.085962393792281411e+01,7.300148893543527251e+00,-9.796745246527556183e-01,-0.000000000000000000e+00,2.005886979221412070e-01,3.015749515419657882e+02
-1.110810239973147318e-01,1.074206990806543160e+01,7.717586774156898421e+00,-9.893931619697062807e-01,-0.000000000000000000e+00,1.452555370531094514e-01,3.035074055689698298e+02
-2.529041327604854006e-01,1.063464286609114318e+01,8.050762182340923445e+00,-9.959890592263805909e-01,-0.000000000000000000e+00,8.946392512289413901e-02,3.052431107428334940e+02
-4.070872201669790691e-01,1.052903478812478255e+01,8.335680559374683440e+00,-9.994413998085041051e-01,-0.000000000000000000e+00,3.338994378177237432e-02,3.069788159166971582e+02
-4.479093227792293463e-01,1.050274969118756907e+01,8.400750107816334022e+00,-9.997392868564995982e-01,-0.000000000000000000e+00,-2.278943422553007803e-02,3.074191170015756143e+02
-6.091322097645875955e-01,1.040697272267111551e+01,8.617287095640689287e+00,-9.968817776708351897e-01,-0.000000000000000000e+00,-7.889690326035841972e-02,3.090826228308427517e+02
-7.841101299236208355e-01,1.031894005077357157e+01,8.776281374897289211e+00,-0.000000000000000000e+00,-9.968312352734685078e-01,-7.953293898571150988e-02,3.107461286601098891e+02
-9.868571075800286474e-01,1.023669941819510143e+01,8.875084304623205966e+00,-0.000000000000000000e+00,-0.000000000000000000e+00,-9.999989999999967516e-01,3.125187012298287641e+02
-1.205765257783575573e+00,1.016983137145720306e+01,8.894787972360736816e+00,-0.000000000000000000e+00,-0.000000000000000000e+00,-9.999989992938940198e-01,3.142912737995476391e+02
-1.457760295903161918e+00,1.012000618245153660e+01,8.819549036794272823e+00,-0.000000000000000000e+00,9.968731427319694749e-01,-7.900593205829621601e-02,3.162045701443610142e+02
-1.722210496435565341e+00,1.009916159637190169e+01,8.637313015416870243e+00,-0.000000000000000000e+00,9.968731420280737554e-01,-7.900593200250984049e-02,3.181178664891743892e+02
-1.735752674374254401e+00,1.009891427011390874e+01,8.625418957709170442e+00,9.968779763718003117e-01,0.000000000000000000e+00,-7.894491893667313076e-02,3.182140563109689992e+02
-1.985059490974046881e+00,1.010958489193025756e+01,8.365038477996428412e+00,9.968779756678982640e-01,-0.000000000000000000e+00,-7.894491888092960985e-02,3.199792790965235554e+02
-2.233076281419883014e+00,1.015068678154629644e+01,8.023385235645008606e+00,9.609568845979227225e-01,3.909827921217762063e-03,-2.766669101836155553e-01,3.217445018820781115e+02
-2.494839527961774550e+00,1.022805409822012201e+01,7.565281139379431252e+00,8.862134777905735783e-01,7.661698737169878731e-03,-4.632115824935735815e-01,3.236579681635880661e+02
-2.744750750836372433e+00,1.033489256875197881e+01,7.022639349670097175e+00,7.756673945232163137e-01,1.110403867162655656e-02,-6.310426240757319727e-01,3.255714344450980207e+02
-2.977262519084909798e+00,1.046522375039818797e+01,6.407076895596643062e+00,6.337846657244564641e-01,1.409777913309229365e-02,-7.733797580217600665e-01,3.274849007266079752e+02
-3.162623412482870044e+00,1.059413992251754522e+01,5.816621272579034496e+00,4.662972870393549685e-01,1.652197473818078216e-02,-8.844726476563193884e-01,3.291690459113141287e+02
-3.324945459414602844e+00,1.073162729725300046e+01,5.191411500488430697e+00,4.353854392640205684e-01,-3.037013873181200752e-01,-8.474685755937333420e-01,3.308531910960202822e+02
-3.458694433764932352e+00,1.087411732830884681e+01,4.538498803404692694e+00,3.588155418935190522e-01,-5.920762440852388453e-01,-7.215920787299621164e-01,3.325373362807264357e+02
-3.561972114826449598e+00,1.101732813629805818e+01,3.864885140906753502e+00,5.150284054269282930e-01,-2.697520444638911719e-01,-8.136200440693651670e-01,3.342214814654325892e+02
-3.643756878094556395e+00,1.116349516214725668e+01,3.134367262090485440e+00,6.008035540475877845e-01,8.946493359376343768e-02,-7.943734103684372272e-01,3.360098362883581444e+02
-3.704934757503385967e+00,1.129579663836774372e+01,2.395797201825479839e+00,7.268315228414464757e-01,-5.907656121675297634e-01,-3.502997700312571738e-01,3.377981911112836997e+02
-3.751330239178513715e+00,1.140650218624467982e+01,1.657283523194561958e+00,9.796526068681459254e-01,-0.000000000000000000e+00,2.006957145972041445e-01,3.395865459342092549e+02
-3.797079367751471146e+00,1.150125478150705760e+01,7.461591985681959027e-01,9.796526061767043547e-01,-0.000000000000000000e+00,2.006957144555525374e-01,3.418331500898481181e+02
-3.838904823702292024e+00,1.154107416132353414e+01,-1.262981642981500785e-01,9.546769266714698610e-01,-0.000000000000000000e+00,-2.976406653671949121e-01,3.440797542454869813e+02
-3.878960717696838145e+00,1.153671347670257674e+01,-8.381074423392074202e-01,5.764363129601857150e-01,-1.163998612659590233e-03,-8.171400260715380170e-01,3.460221404963771192e+02
-3.928110301639195168e+00,1.150174102196763748e+01,-1.503889028097297187e+00,5.752485911879960945e-01,-0.000000000000000000e+00,-8.179774186878632225e-01,3.479645267472672572e+02
-3.982860098791234815e+00,1.144202487475162755e+01,-2.098749441051409370e+00,9.652053762583802099e-01,2.223048388393666919e-02,-2.605424864156046239e-01,3.498381785749494952e+02
-4.029123446762706173e+00,1.137462052913029353e+01,-2.573804421153903288e+00,9.079872039382865800e-01,3.416169334893169596e-02,4.176005462064093510e-01,3.514450610823338934e+02
-4.066904135528450759e+00,1.129646915822520370e+01,-3.019044226430525502e+00,4.301035175188459014e-01,3.026596604827063233e-02,9.022709878512270576e-01,3.530519435897182916e+02
-4.088252917173345935e+00,1.121280682876685653e+01,-3.428279397380243676e+00,9.997494087566847210e-01,0.000000000000000000e+00,-2.234098678773002375e-02,3.546314714484562955e+02
-4.090453844958962470e+00,1.112664719970755911e+01,-3.809791396395708407e+00,8.656286913530754079e-01,4.996986299570533308e-01,-3.140458447212542137e-02,3.562109993071942995e+02
-4.076540056715217908e+00,1.104210121971327574e+01,-4.163573944004033578e+00,4.997189848681614643e-01,8.655929514576091721e-01,-3.205898548387869224e-02,3.577905271659323034e+02
-4.052192048533491686e+00,1.096288024088952007e+01,-4.490766580563612997e+00,0.000000000000000000e+00,9.997078536730038545e-01,-2.412897233222458665e-02,3.593760263130449175e+02
-4.023198303317424340e+00,1.089345650075168770e+01,-4.790048518865293481e+00,2.527869496922195980e-01,9.674745732253021702e-01,9.471442823725079521e-03,3.609615254601575316e+02
-3.995278537335435587e+00,1.083825347872339506e+01,-5.061100616590542778e+00,4.888723575081648232e-01,8.713209217894075653e-01,4.244607541425945291e-02,3.625427489596182227e+02
-3.973530062934197193e+00,1.080129963111239277e+01,-5.305421634633834316e+00,6.926582765642803619e-01,7.175997365720077070e-01,7.261632034520786039e-02,3.641239724590789137e+02
-3.972066164974476177e+00,1.081914230982352976e+01,-5.643260309556021426e+00,8.506807646962084579e-01,5.164672500195388594e-01,9.798885770689490238e-02,3.668740225112421740e+02
-3.976678804985962490e+00,1.083298063714886972e+01,-5.687905266216614741e+00,0.000000000000000000e+00,9.993857527529492746e-01,3.501595629960892880e-02,3.673254196823474444e+02
-3.998561344682569629e+00,1.090076287413534928e+01,-5.836831226793360194e+00,7.294162694263894853e-01,5.001404990659442662e-01,4.667005325589688725e-01,3.689782095755043656e+02
-4.026087553174421352e+00,1.100071618839545096e+01,-5.958242184164023847e+00,-5.024135394088605766e-01,7.294793312447017675e-01,4.641535744839520583e-01,3.706309994686612868e+02
-4.053574714207297980e+00,1.113305157735449669e+01,-6.051372989410563008e+00,5.179124917786145366e-01,7.186022948440912161e-01,4.640855445983594896e-01,3.722837893618182079e+02
-4.084213917836382102e+00,1.144328857813781219e+01,-6.116963242748033380e+00,0.000000000000000000e+00,1.173078338872851206e-01,9.930945937372328558e-01,3.749852023376957391e+02
-4.087128876274489286e+00,1.150677853151013785e+01,-6.117051932384065083e+00,1.270998419732385096e-03,1.158168560016881454e-01,9.932687650413736247e-01,3.754370040723335933e+02
-4.066876767134599113e+00,1.194469921282783176e+01,-6.056256024727556309e+00,1.182598423654793174e-01,0.000000000000000000e+00,9.929816764045386046e-01,3.781144303587176410e+02
-3.967694804635100603e+00,1.241546266624577299e+01,-5.915402903328430995e+00,9.994709311547830266e-01,0.000000000000000000e+00,3.249396525059583540e-02,3.804547655798012897e+02
-3.711619205701498725e+00,1.305622331626820376e+01,-5.666102953310410584e+00,6.952599907442229554e-01,-8.061522241398018374e-02,7.142217661112978400e-01,3.831657672742510385e+02
-3.482047681762683311e+00,1.350424655467322488e+01,-5.473810064123683539e+00,-9.359985444648430625e-04,-1.157798199552772661e-01,9.932734553988430415e-01,3.848621306390451764e+02
-3.237264057770838921e+00,1.395169388651444109e+01,-5.278794151008471935e+00,1.960830482997140134e-01,-4.261615895764654383e-01,8.831397045434850046e-01,3.864687383325978089e+02
-2.971765275287137520e+00,1.441907796567693723e+01,-5.075545178532408386e+00,3.642224086905596070e-01,-6.737770072946996924e-01,6.429343523645030256e-01,3.880753460261504415e+02
-2.702536204197165670e+00,1.488371017367649962e+01,-4.876176472579449417e+00,4.787179720284828743e-01,-8.221564557109922733e-01,3.080354940442657230e-01,3.896170804303950490e+02
-2.424417668263485037e+00,1.536109228428660067e+01,-4.675521160141997257e+00,5.227064052949739192e-01,-8.494460335495787051e-01,-7.223191781871403372e-02,3.911588148346396565e+02
-2.142109664784676237e+00,1.584819111409980863e+01,-4.475916717294768254e+00,-5.517134353491086607e-01,-8.267481538649376072e-01,1.099898874308943703e-01,3.927005492388842640e+02
-1.788067559292902287e+00,1.647035470288505010e+01,-4.229913181402662481e+00,-0.000000000000000000e+00,-9.993865585865699952e-01,3.499294952973203837e-02,3.946400530238337865e+02
-1.443317357216671759e+00,1.709669039028813131e+01,-3.993395124566259113e+00,6.355972790766413194e-01,2.092487626605308848e-01,7.431211571181656206e-01,3.965795568087833090e+02
-1.117019266314958514e+00,1.771841799571428666e+01,-3.770182318474756045e+00,7.342455860396148726e-01,2.131448798310290049e-01,6.445546366064833776e-01,3.985190605937328314e+02
-8.396236696873180527e-01,1.827996144332158579e+01,-3.579027709657546463e+00,0.000000000000000000e+00,2.016697227948333407e-02,9.997956257306789274e-01,4.003049848893569447e+02
-5.891681663504509947e-01,1.882456974191570964e+01,-3.403616741316569438e+00,-0.000000000000000000e+00,2.016697226524963651e-02,9.997956250250304988e-01,4.020909091849810579e+02
-3.684399015113982712e-01,1.934546716439488989e+01,-3.245538355908323069e+00,-0.000000000000000000e+00,1.705397560833250836e-02,9.998535699465991300e-01,4.038768334806051712e+02
-2.019629604781310039e-01,1.977050693150169636e+01,-3.123500635772313405e+00,-1.202707137569602597e-01,1.780079227686633125e-02,9.925805192568378787e-01,4.054108889543014698e+02
-5.600751822706316607e-02,2.017221176175238995e+01,-3.013879750040485028e+00,-2.387952726563613848e-01,1.828916762490200021e-02,9.708966598490318400e-01,4.069449444279977683e+02
6.917322729624963973e-02,2.054694799722399523e+01,-2.917190569840643288e+00,-3.538528816863981685e-01,1.851201117871046145e-02,9.351168074447763212e-01,4.084789999016940669e+02
1.746255438287185324e-01,2.089137759704058439e+01,-2.833667012532120388e+00,-4.637730791952814902e-01,1.846608752366221337e-02,8.857604273315181631e-01,4.100130553753903655e+02
2.620273822436963163e-01,2.120230357136206933e+01,-2.763402474855801039e+00,-5.669599884067451079e-01,1.815206328885606360e-02,8.235440936253557442e-01,4.115471108490866641e+02
3.528741955836429689e-01,2.156897713760147539e+01,-2.691485429287680642e+00,-6.619154864511818115e-01,1.757449748366623002e-02,7.493710868689100746e-01,4.137753540583346989e+02
4.010331604522272553e-01,2.181095212942986095e+01,-2.657863312970535574e+00,-7.472609546351499654e-01,1.674177532952699637e-02,6.643182811251897579e-01,4.160035972675827338e+02
4.161301948937771722e-01,2.191735748881421841e+01,-2.650647018393861298e+00,-8.217572942076923903e-01,1.566598654477073527e-02,5.696205107633635079e-01,4.177925781126367610e+02
4.166461150160927773e-01,2.194851869655692411e+01,-2.651620207258487572e+00,-0.000000000000000000e+00,1.519999199372182135e-02,9.998834733322731205e-01,4.197100005893018988e+02
4.094348457329761160e-01,2.188921034168675561e+01,-2.656030185802118471e+00,4.595995113954241540e-01,-5.348094314390486881e-01,-7.090452462073104645e-01,4.216274230659670366e+02
4.045095942740632999e-01,2.173905581272745025e+01,-2.659031418438265959e+00,8.370268619318710357e-01,-1.940497361592199432e-01,5.115943044080193403e-01,4.235448455426321743e+02
4.067727362139030300e-01,2.153565954293420148e+01,-2.656716136324677180e+00,-4.199765354728736688e-01,-5.494543922601661246e-01,-7.223002010790878780e-01,4.252399311707904985e+02
4.182241816457034633e-01,2.127150398130054754e+01,-2.646314693707015664e+00,6.991536932645603386e-01,-5.387427636406700859e-01,-4.700407937818666393e-01,4.269350167989488227e+02
4.455763175327093761e-01,2.091203123471856529e+01,-2.621043497267612654e+00,0.000000000000000000e+00,-2.786296520869695897e-02,9.996107518284458315e-01,4.287874910091637730e+02
4.878965201890381187e-01,2.051206716783307371e+01,-2.580920092830377932e+00,-9.189873195718348264e-02,2.960236011488144407e-03,9.957629537538013054e-01,4.305164043920318591e+02
5.480466986563153897e-01,2.005585791373527371e+01,-2.522275044299330471e+00,-1.829326559552046649e-01,3.375557517811308278e-02,9.825447595559250180e-01,4.322453177748999451e+02
6.140842811440414550e-01,1.962456175092890120e+01,-2.456238491942276170e+00,-2.722451215692222593e-01,6.423326084885956633e-02,9.600805601530818523e-01,4.337302406261237024e+02
6.460506743678816610e-01,1.942834217398469221e+01,-2.423750665239677637e+00,-3.589956786696742452e-01,9.410649112867178201e-02,9.285817524727802974e-01,4.343771228829025404e+02
7.323833769798416826e-01,1.893093822557457528e+01,-2.333932700443383190e+00,-4.423679858452176927e-01,1.230941524119540803e-01,8.883447499381953438e-01,4.359482980328901931e+02
8.335548332726666620e-01,1.839902051444030562e+01,-2.224775523528495835e+00,-5.215774919190524495e-01,1.509234645800400509e-01,8.397481930698810215e-01,4.375194731828778458e+02
9.369915522258982499e-01,1.788596289051021415e+01,-2.108200981456767931e+00,-5.958788183143278738e-01,1.773325477754155999e-01,7.832493864570303499e-01,4.389529461146747735e+02
1.077126726433348836e+00,1.722175096955435691e+01,-1.943482318392688146e+00,-6.645727728390884437e-01,2.020728866123937539e-01,7.193799956202184820e-01,4.407046881510376579e+02
1.235842824295910303e+00,1.651355183266324289e+01,-1.757851767950412869e+00,-7.270129289258814298e-01,2.249116686481661131e-01,6.487410442401854160e-01,4.424564301874005423e+02
1.417579254815866330e+00,1.576178761172500842e+01,-1.559934363708616711e+00,-8.833083786843737295e-01,-4.189862841558845696e-01,-2.102731600406161361e-01,4.442081722237634267e+02
1.625604375175159877e+00,1.496720858820149402e+01,-1.357415702176758110e+00,-0.000000000000000000e+00,-5.697617808903334691e-01,-8.218086839622579243e-01,4.459599142601263111e+02
1.980917666770421581e+00,1.374774053646359562e+01,-1.074372899573806439e+00,-0.000000000000000000e+00,8.080491350120935778e-02,9.967289330370694422e-01,4.484558067237550745e+02
2.231187446408788855e+00,1.295190781857390938e+01,-9.073131565868783888e-01,-7.142513392296293562e-01,-6.601633892676381787e-01,-2.324377849664496787e-01,4.499873625635356689e+02
2.496542967985294403e+00,1.213267898896090102e+01,-7.458187577026503812e-01,-0.000000000000000000e+00,-9.950635238629427226e-01,9.922995251855139254e-02,4.515189184033162633e+02
2.774933220391604838e+00,1.129275956452205243e+01,-5.902373194412955382e-01,-5.759863546499147668e-01,0.000000000000000000e+00,-8.174580840987117902e-01,4.530504742430968577e+02
3.064339592757301389e+00,1.043486555330710175e+01,-4.409164198553954250e-01,-9.546707119066457636e-01,0.000000000000000000e+00,-2.976605983802228517e-01,4.545820300828774521e+02
3.362775898665267604e+00,9.561723301483805670e+00,-2.982035962708332044e-01,-5.741094903284836848e-01,1.828998376288161953e-03,-8.187752731239562598e-01,4.561135859226580465e+02
3.668288400058072884e+00,8.676069340206803204e+00,-1.624463430278812182e-01,-9.994701503667330345e-01,0.000000000000000000e+00,3.251797235700227412e-02,4.576451417624386409e+02
3.978955830835233964e+00,7.780650232390809329e+00,-3.399210922249232963e-02,-0.000000000000000000e+00,9.997078536730037435e-01,-2.412897233222459012e-02,4.591766976022192353e+02
4.292889420141242418e+00,6.878222419389360631e+00,8.681170355218525980e-02,-4.272875887421053731e-01,2.998997113510264850e-02,9.036171302820669160e-01,4.607082534419998296e+02
4.608232915344250280e+00,5.971552067580351952e+00,1.996177434640571957e-01,-8.937831490307434068e-01,2.429597686784608357e-02,4.478385736137356354e-01,4.622398092817804240e+02
4.923162604705276557e+00,5.063414914859593274e+00,3.040787107000918477e-01,-9.241325611954082087e-01,1.083556543586387533e-01,3.663823979214446136e-01,4.637713651215610184e+02
5.235887339737842261e+00,4.156596117043593885e+00,3.998473597240788102e-01,-9.409690694337842221e-01,1.908309044523144038e-01,2.795689114955250965e-01,4.653029209613416128e+02
5.544648557257862542e+00,3.253890094182828818e+00,4.865765015341206312e-01,-9.440464974518757435e-01,2.705157665155980551e-01,1.886675136725022295e-01,4.668344768011222072e+02
5.847720301123634279e+00,2.358100376786727459e+00,5.639190059198435634e-01,-9.333198499414820937e-01,3.462450816379840091e-01,9.500737417002060037e-02,4.683660326409028016e+02
6.159847822436351983e+00,1.422245795334546647e+00,6.347680686723008447e-01,-9.089459700185579250e-01,4.169115275724294412e-01,-4.199995240732345313e-05,4.699849865328579313e+02
6.461514236271598932e+00,5.015648032885341445e-01,6.941255077451177202e-01,-9.379447850849553792e-01,2.342722996625442866e-01,-2.556835343596929322e-01,4.716039404248130609e+02
6.751060656182874098e+00,-4.001166200947710583e-01,7.428576868067731098e-01,-8.735703862515963314e-01,2.831098010942321302e-02,-4.858716586388920899e-01,4.732228943167681905e+02
7.026997552626959020e+00,-1.278865257157331348e+00,7.822641542157630079e-01,-9.005717567118941558e-01,2.704551402124882875e-02,-4.338629405517436810e-01,4.748418482087233201e+02
7.287883399770881176e+00,-2.130739659953620357e+00,8.136445260984208616e-01,-9.244791305052034724e-01,2.568713080040047059e-02,-3.803636530633658919e-01,4.764608021006784497e+02
7.532324696293383859e+00,-2.951790389600001507e+00,8.382984769030122907e-01,-9.452103727919604070e-01,2.424049730961932644e-02,-3.255575977563370249e-01,4.780797559926335794e+02
7.758975985676793918e+00,-3.738060255711842750e+00,8.575257299535146149e-01,-9.626942605843037404e-01,2.271058359668590501e-02,-2.696330655372785046e-01,4.796987098845887090e+02
7.966539875989152364e+00,-4.485584555926218187e+00,8.726260480031348132e-01,-9.768707274057999435e-01,2.110264581919708143e-02,-2.127821897562276743e-01,4.813176637765438386e+02
8.153767059156484365e+00,-5.190391315508039227e+00,8.848992237876149858e-01,-9.876910696237954923e-01,1.942220818659050330e-02,-1.552002861304778714e-01,4.829366176684989682e+02
8.319456329725088750e+00,-5.848501527037493375e+00,8.956450705783698396e-01,-9.951181137468871896e-01,1.767504398146770017e-02,-9.708518174037818194e-02,4.845555715604540978e+02
8.462454603113753748e+00,-6.455929390176608607e+00,9.061634127355127077e-01,-9.991263441136181145e-01,1.586715572541116601e-02,-3.863653540174483147e-02,4.861745254524092275e+02
8.581656933355725769e+00,-7.008682551512815273e+00,9.177540762608225045e-01,-9.997019905344618484e-01,1.400475455742347837e-02,1.994484825097753850e-02,4.877934793443643571e+02
8.674272965780330580e+00,-7.492106437384580708e+00,9.312961310968665973e-01,-9.968430755865897996e-01,1.209423889581552961e-02,7.845770861517988026e-02,4.893727520113143896e+02
8.743467623024153923e+00,-7.918059622630732264e+00,9.481862225355502938e-01,-9.905594213993696995e-01,1.014217245682744878e-02,1.367010205351290031e-01,4.909520246782644222e+02
8.768910129666801723e+00,-8.098498373172080989e+00,9.571293759589426520e-01,-9.808726159075312756e-01,8.155261705471336317e-03,1.944746849072173100e-01,4.916820883707489998e+02
8.814500795381995601e+00,-8.522695513486688412e+00,9.875485486439303795e-01,-9.678159386880030857e-01,6.140332816031661596e-03,2.515802161038707130e-01,4.936592775981091563e+02
8.821416186494081657e+00,-8.836686713758750145e+00,1.030637746562678370e+00,-9.514342466350856897e-01,4.104308221341555415e-03,3.078214238554790039e-01,4.956364668254693129e+02
8.800007853059998553e+00,-9.029363413433562968e+00,1.079416401067635922e+00,-9.317838198664190053e-01,2.054182831364232548e-03,3.630050872487218250e-01,4.973401002483557249e+02
8.756633371231936636e+00,-9.161780893751648946e+00,1.139765479350053790e+00,-9.089321683886583125e-01,-2.999997255205801866e-06,4.169416185266724417e-01,4.990437336712421370e+02
8.686648826504786314e+00,-9.243593925808967882e+00,1.219377625809759280e+00,-9.089459700185428259e-01,4.169115275724225023e-01,-4.199995240732275518e-05,5.008965341539060887e+02
8.597561948541800447e+00,-9.269431098192848495e+00,1.312989186928418928e+00,-2.327328258594906496e-01,7.626824293288614331e-01,6.034475484751106178e-01,5.027493346365700404e+02
8.496154477656206794e+00,-9.251887845889759987e+00,1.418949073437592912e+00,-0.000000000000000000e+00,5.332983833110829242e-01,8.459260217986427355e-01,5.046021351192339921e+02
8.387627781301237206e+00,-9.203688175198328381e+00,1.534876418914048690e+00,-0.000000000000000000e+00,8.460544322744092405e-01,5.330946422789608619e-01,5.064549356018979438e+02
8.256510560177938274e+00,-9.126693500766020151e+00,1.675520299607237584e+00,-2.327097549696778567e-01,-7.626911969289398296e-01,-6.034453646058710596e-01,5.085831919509165573e+02
8.119173409820291454e+00,-9.045390039925662151e+00,1.817253581360397385e+00,-3.311642465655792456e-01,-7.495870928960981505e-01,-5.731033344497629134e-01,5.107114482999352276e+02
8.025340953360203144e+00,-8.995923970718052942e+00,1.909266014534693801e+00,-4.260468734841415528e-01,-7.283982040620698983e-01,-5.365800200444873491e-01,5.121325121927999362e+02
