5.554787086464513246e-01,-2.333629049481815443e+01,-6.748390270430765447e+00,-1.919122006940859881e-01,7.941881053392376710e-01,5.765699962354604580e-01,5.461353278951893486e+01
-1.918829159624763636e-01,-2.427094445650882193e+01,-6.469020606674886764e+00,-1.889699616942709104e-01,7.963369588726263437e-01,5.745744525362358468e-01,5.755889355606510804e+01
-7.091622139750098919e-01,-2.505948774495737652e+01,-6.157741291756392066e+00,-1.860244617734652661e-01,7.984720703227726757e-01,5.725689936880336006e-01,6.010633580849721369e+01
-1.145852952383575429e+00,-2.592836495243907891e+01,-5.753134948349595490e+00,-1.830757517592127015e-01,8.005934028470426123e-01,5.705536542974541936e-01,6.299307464477005425e+01
-1.377024411899423040e+00,-2.658676576866541197e+01,-5.416668455943110416e+00,-1.801238825344358419e-01,8.027009198405496981e-01,5.685284691415715130e-01,6.524293661838004255e+01
-1.519587754563946236e+00,-2.722926696874507968e+01,-5.078317636597146745e+00,-1.771689050365589657e-01,8.047945849367873494e-01,5.664934731673343382e-01,6.749279859199003795e+01
-1.568888976268315361e+00,-2.789265772913048380e+01,-4.732971234623213341e+00,-1.742108702566292633e-01,8.068743620082546864e-01,5.644487014909621569e-01,6.988417700898770590e+01
-1.546249728871808227e+00,-2.833635155506063441e+01,-4.510980059846616541e+00,-1.712498292384374010e-01,8.089402151670807006e-01,5.623941893973398720e-01,7.152344036060237897e+01
-1.456001492558044674e+00,-2.888408184812523771e+01,-4.251704240576514415e+00,-1.682858330776370037e-01,8.109921087656427607e-01,5.603299723394092879e-01,7.359432021803705481e+01
-1.210245928074320521e+00,-2.956883195146757259e+01,-3.946044500497233098e+00,-1.653189329208633318e-01,8.130300073971811203e-01,5.582560859375574891e-01,7.629843917353215943e+01
-1.080909312636883390e+00,-2.982252456541428032e+01,-3.836863969676095554e+00,-1.623491799648510703e-01,8.150538758964094299e-01,5.561725659790023313e-01,7.733463552839180011e+01
-1.008071266094288099e+00,-2.995799087182717813e+01,-3.779225532055612735e+00,-1.593766254555513684e-01,8.170636793401226949e-01,5.540794484171751577e-01,7.789101077776658144e+01
-8.671869786985173523e-01,-3.020732063259852751e+01,-3.673751470736155600e+00,-1.564013206872476580e-01,8.190593830477971293e-01,5.519767693711002954e-01,7.892104193766662945e+01
-6.373001665313227093e-01,-3.057081174416205016e+01,-3.519886280813021351e+00,-1.534233170016711389e-01,8.210409525821901200e-01,5.498645651247725530e-01,8.044738639663522406e+01
-3.801382601950513140e-01,-3.092554154511325137e+01,-3.367163285927818883e+00,-1.504426657871151818e-01,8.230083537499336410e-01,5.477428721265309441e-01,8.197373085560381867e+01
-9.792453677324117201e-02,-3.127090749701985928e+01,-3.213710916318652355e+00,-1.474594184775487316e-01,8.249615526021232270e-01,5.456117269884300791e-01,8.350007531457241328e+01
6.885123040798409033e-02,-3.146089529779256821e+01,-3.127148337859692262e+00,-1.444736265517296281e-01,8.269005154349050590e-01,5.434711664856086699e-01,8.435532562772920073e+01
5.096969300140561376e-01,-3.191258608441190248e+01,-2.912609297523931051e+00,-1.414853415323159558e-01,8.288252087900555010e-01,5.413212275556550379e-01,8.646411939583471451e+01
8.564005056844974373e-01,-3.222426764701244650e+01,-2.757112824146659147e+00,-1.384946149849781427e-01,8.307355994555590817e-01,5.391619472979702898e-01,8.799682483877838024e+01
1.218059936293728107e+00,-3.252369987026623477e+01,-2.604760699873322150e+00,-1.355014985175089781e-01,8.326316544661813701e-01,5.369933629731279412e-01,8.952953028172204597e+01
1.602128602659304679e+00,-3.281751414731381544e+01,-2.454311633819045824e+00,-1.325060437789336854e-01,8.345133411040368543e-01,5.348155120022315412e-01,9.110419438554150418e+01
1.995598626725021196e+00,-3.309621024282236590e+01,-2.312728850447370643e+00,-1.295083024586192177e-01,8.363806268991540449e-01,5.326284319662694111e-01,9.267885848936096238e+01
2.395032068161386807e+00,-3.335883161983016265e+01,-2.182669982444282564e+00,-1.265083262853821389e-01,8.382334796300345836e-01,5.304321606054654969e-01,9.425352259318042059e+01
2.797240165160296055e+00,-3.360440926823753927e+01,-2.066792583234443814e+00,-1.235061670265970163e-01,8.400718673242101309e-01,5.282267358186293338e-01,9.582818669699987879e+01
3.199283357250865212e+00,-3.383196264241939843e+01,-1.967754108710414007e+00,-1.205018764873032611e-01,8.418957582587921484e-01,5.260121956625019024e-01,9.740285080081933700e+01
3.597993167296556383e+00,-3.404048405812976341e+01,-1.887326611958582978e+00,-1.174955065093116202e-01,8.437051209610212377e-01,5.237885783510995985e-01,9.897751490463879520e+01
3.989499460618538329e+00,-3.422892069700863260e+01,-1.825511444072591916e+00,-1.144871089703098227e-01,8.454999242088075961e-01,5.215559222550543161e-01,1.005521790084582534e+02
4.369716675010337781e+00,-3.439618852336975863e+01,-1.781424541148823204e+00,-1.114767357829680450e-01,8.472801370312713631e-01,5.193142659009524209e-01,1.021268431122777116e+02
4.742918549605373180e+00,-3.454398890144640433e+01,-1.753798364869695092e+00,-1.084644388940434190e-01,8.490457287092757488e-01,5.170636479706698374e-01,1.037381329339357450e+02
5.096110814325293781e+00,-3.466667871462073691e+01,-1.742979146028648119e+00,-1.054502702834838879e-01,8.507966687759574986e-01,5.148041073007049162e-01,1.053494227555937783e+02
5.425708353161869724e+00,-3.476302371378898926e+01,-1.748012631641212344e+00,-1.024342819635318952e-01,8.525329270172519180e-01,5.125356828815086363e-01,1.069607125772518117e+02
5.728423049512425536e+00,-3.483177640906847472e+01,-1.767944454573988633e+00,-9.941652597782711653e-02,8.542544734724140110e-01,5.102584138568116989e-01,1.085720023989098451e+02
6.001263810961991574e+00,-3.487167721338061455e+01,-1.801820140415271831e+00,-9.639705440050880259e-02,8.559612784345357328e-01,5.079723395229501781e-01,1.101832922205678784e+02
6.241536591880342932e+00,-3.488145558612445285e+01,-1.848685114346220182e+00,-9.337591933531769195e-02,8.576533124510580253e-01,5.056774993281869524e-01,1.117945820422259118e+02
6.446844413833818344e+00,-3.485983117693249511e+01,-1.907584708012532770e+00,-9.035317291469720236e-02,8.593305463242788544e-01,5.033739328720315820e-01,1.134058718638839451e+02
6.615087383811776967e+00,-3.480551496950023704e+01,-1.977564166396648782e+00,-8.732886729889437205e-02,8.609929511118568080e-01,5.010616799045577441e-01,1.150171616855419785e+02
6.744462710267590033e+00,-3.471721042548134761e+01,-2.057668654690449905e+00,-8.430305467506007955e-02,8.626404981273106953e-01,4.987407803257166150e-01,1.166284515072000119e+02
6.833464716974091857e+00,-3.459361462843988733e+01,-2.146943265168412829e+00,-8.127578725634884704e-02,8.642731589405133752e-01,4.964112741846494758e-01,1.182397413288580452e+02
6.880884854693426256e+00,-3.443341942785136212e+01,-2.244433024061138315e+00,-7.824711728101858832e-02,8.658909053781836951e-01,4.940732016789971537e-01,1.198510311505160786e+02
6.885811710661205787e+00,-3.423531258314420711e+01,-2.349182898429216682e+00,-7.521709701152914929e-02,8.674937095243706597e-01,4.917266031542056881e-01,1.214623209721741119e+02
6.850529531445310738e+00,-3.400832469497127875e+01,-2.455933292587135330e+00,-7.218577873364130648e-02,8.690815437209368222e-01,4.893715191028314981e-01,1.230130338369359322e+02
6.776382194842524243e+00,-3.374523484600977241e+01,-2.567612701062837122e+00,-6.915321475551459984e-02,8.706543805680339032e-01,4.870079901638426079e-01,1.245637467016977524e+02
6.663337416254075940e+00,-3.344491198053035674e+01,-2.683379812001995823e+00,-6.611945740680523487e-02,8.722121929245760796e-01,4.846360571219170410e-01,1.261144595664595727e+02
6.511609411455554053e+00,-3.310622537260703524e+01,-2.802393286264868610e+00,-6.308455903776365170e-02,8.737549539087080541e-01,4.822557609067411044e-01,1.276651724312213929e+02
6.321658895609636453e+00,-3.272804553946835426e+01,-2.923811763035090827e+00,-6.004857201833132402e-02,8.752826368982690175e-01,4.798671425923014544e-01,1.292158852959832132e+02
6.094193080599529466e+00,-3.230924515484190351e+01,-3.046793865428586212e+00,-5.701154873723762728e-02,8.767952155312516149e-01,4.774702433961780512e-01,1.307665981607450192e+02
5.830000797340918695e+00,-3.184868150999712810e+01,-3.170172172020842449e+00,-5.397354160109618659e-02,8.782926637062565822e-01,4.750651046788328946e-01,1.323173110255068252e+02
5.529793688646361893e+00,-3.134517816760504871e+01,-3.292127190548273408e+00,-5.093460303350094004e-02,8.797749555829434964e-01,4.726517679428960950e-01,1.338680238902686312e+02
5.194380184878013118e+00,-3.079754314643417246e+01,-3.410513404121036540e+00,-4.789478547412203552e-02,8.812420655824761972e-01,4.702302748324512227e-01,1.354187367550304373e+02
4.824833407842918476e+00,-3.020458794329736563e+01,-3.523185319609798860e+00,-4.485414137780115856e-02,8.826939683879637677e-01,4.678006671323159393e-01,1.369694496197922433e+02
4.422491163989892726e+00,-2.956512851379656226e+01,-3.627997481950694159e+00,-4.181272321364698508e-02,8.841306389448982950e-01,4.653629867673220177e-01,1.385201624845540493e+02
3.988955935803147224e+00,-2.887798625303918243e+01,-3.722804488450124794e+00,-3.877058346413002343e-02,8.855520524615861921e-01,4.629172758015920319e-01,1.400708753493158554e+02
3.512989342819739402e+00,-2.812099361931699093e+01,-3.807411780933585010e+00,-3.572777462417741495e-02,8.869581844095759671e-01,4.604635764378136042e-01,1.416629677535833309e+02
3.007692270394259015e+00,-2.730988447610093317e+01,-3.876762856484506692e+00,-3.268434920026764418e-02,8.883490105240819945e-01,4.580019310165123203e-01,1.432550601578508065e+02
2.475731047563578535e+00,-2.644337452758523455e+01,-3.928516707348434167e+00,-2.964035970952462462e-02,8.897245068044022931e-01,4.555323820153204251e-01,1.448471525621182820e+02
1.920072901248479624e+00,-2.552019018500390146e+01,-3.960332449408417776e+00,-2.659585867881215579e-02,8.910846495143336377e-01,4.530549720482450748e-01,1.464392449663857576e+02
1.343985935537989507e+00,-2.453906971130910009e+01,-3.969869338637968870e+00,-2.355089864382767587e-02,8.924294151825801213e-01,4.505697438649329811e-01,1.480313373706532332e+02
7.510391088127298387e-01,-2.349876436576724714e+01,-3.954786787553193683e+00,-2.050553214819626074e-02,8.937587806031588311e-01,4.480767403499331669e-01,1.496234297749207087e+02
1.453610801521118823e-01,-2.239802591630202500e+01,-3.914319930146138660e+00,-1.745981174256435592e-02,8.950727228357995280e-01,4.455760045219573917e-01,1.512155221791881843e+02
-4.680961948859513888e-01,-2.123559547120787983e+01,-3.850855175743269854e+00,-1.441378998369319091e-02,8.963712192063412187e-01,4.430675795331379119e-01,1.528076145834556598e+02
-1.083809240627350956e+00,-2.001022025880628519e+01,-3.768354643750859712e+00,-1.136751943355250073e-02,8.976542473071228434e-01,4.405515086682840198e-01,1.543997069877231354e+02
-1.695939595158518998e+00,-1.872066911168807835e+01,-3.670780587325699784e+00,-8.321052658413706157e-03,8.989217849973700769e-01,4.380278353441345862e-01,1.559917993919906110e+02
-2.298333851722696330e+00,-1.736573366495488102e+01,-3.562095365527419233e+00,-5.274442227943309906e-03,9.001738104035774679e-01,4.354966031086096034e-01,1.575838917962580865e+02
-2.884523702378731347e+00,-1.594422955429986821e+01,-3.446261415470753153e+00,-2.227740714296249942e-03,9.014103019198856925e-01,4.329578556400595635e-01,1.591759842005255621e+02
-3.464512371590783957e+00,-1.440632327663042922e+01,-3.323535399118859868e+00,8.189993087910953920e-04,9.026312382084542563e-01,4.304116367465116166e-01,1.608177560236051704e+02
-4.011491981946557317e+00,-1.279293892993397463e+01,-3.202729924945057594e+00,-4.477217380014633652e-01,5.738696641820142386e-01,6.857235987271464994e-01,1.624595278466847788e+02
-4.516931332405865973e+00,-1.110281209130845781e+01,-3.091093830886980420e+00,4.606684729585431293e-01,4.802354505723608336e-01,7.464291460255527699e-01,1.641012996697643871e+02
-4.968730056413350304e+00,-9.349044622651922154e+00,-2.997441567111481575e+00,0.000000000000000000e+00,8.584009604372708768e-01,5.129773787609889224e-01,1.657303144908346439e+02
-5.362063101819099842e+00,-7.517923570072356121e+00,-2.929471974924891864e+00,-8.962736280310056314e-01,4.381243293420928886e-01,-6.883789462653577829e-02,1.673593293119049008e+02
-5.687538073478148881e+00,-5.608317836219367969e+00,-2.897040871619136482e+00,3.143997210391026587e-03,3.833196598877507133e-02,9.992591133763795153e-01,1.689883441329751577e+02
-5.983471882409650000e+00,-2.719136517654967999e+00,-2.897041244376544977e+00,8.850322134204295921e-01,-1.519498649533229835e-02,4.652795864789872615e-01,1.713957818958127746e+02
-6.045974680817602476e+00,-4.708198582348284145e-01,-2.902995330088259163e+00,7.901121582963330781e-01,4.634195063208511323e-02,6.112063488840542291e-01,1.733093333169784671e+02
-5.980212472679297342e+00,1.668832359664724541e+00,-2.897041925706326460e+00,5.293393743996738232e-01,8.484089973068863477e-01,0.000000000000000000e+00,1.752228847381441597e+02
-5.821267191882575354e+00,3.558123815951051316e+00,-2.887741968882806987e+00,9.984358225270002496e-01,0.000000000000000000e+00,-5.589193408565497345e-02,1.769943616397087567e+02
-5.582577441304551691e+00,5.364837439386611173e+00,-2.879538735816021600e+00,-9.999989999831140342e-01,-0.000000000000000000e+00,-0.000000000000000000e+00,1.787658385412733537e+02
-5.274443470529021738e+00,7.090801955373151166e+00,-2.876025038613473139e+00,5.805297106698695253e-02,-9.983125024511558809e-01,-0.000000000000000000e+00,1.805373154428379507e+02
-4.906621352041914186e+00,8.737883701224790300e+00,-2.879883773923516355e+00,2.187648692057376498e-01,-3.412217959916815646e-01,9.141704534394368142e-01,1.823087923444025478e+02
-4.488380318540538205e+00,1.030797968620623450e+01,-2.891978024991902707e+00,0.000000000000000000e+00,-9.983890695297991114e-01,-5.672094713769141455e-02,1.840802692459671448e+02
-4.057016591957165019e+00,1.171934799258150939e+01,-2.910797535647439371e+00,-5.300915303209486895e-01,-8.479392486971040199e-01,-0.000000000000000000e+00,1.857479976157101191e+02
-3.596745355253545551e+00,1.306952822447426321e+01,-2.936733723684789688e+00,2.039378542715062359e-01,3.347537607939853888e-01,9.199713426132752891e-01,1.874157259854530935e+02
-3.156677556421932263e+00,1.425271883279691032e+01,-2.965723416916428601e+00,-8.509987894270711409e-03,-3.496795025697511106e-01,9.368296673299086885e-01,1.889390883555622622e+02
-2.702972340167640652e+00,1.539141979732172416e+01,-2.997197056330600962e+00,9.726792459822337922e-02,0.000000000000000000e+00,9.952572284798558711e-01,1.904624507256714310e+02
-2.239669441369703140e+00,1.648673383628010924e+01,-3.027817190633637079e+00,-4.015486972677396738e-01,-7.363974448213517210e-01,-5.444955894984053746e-01,1.919858130957805997e+02
-1.664504263727805577e+00,1.776472836409153544e+01,-3.058610335008841385e+00,-0.000000000000000000e+00,9.950482571503760365e-01,-9.938292580604153603e-02,1.938525587422797400e+02
-1.087459807823432101e+00,1.896804851160294092e+01,-3.075628229724225449e+00,8.622806498191047941e-01,4.096493585606521964e-02,-5.047692096195787181e-01,1.957193043887788804e+02
-2.624952302345576749e-01,2.056125569763158722e+01,-3.070983744817811889e+00,0.000000000000000000e+00,5.892782266480143250e-01,-8.079289396970370518e-01,1.984406693608128194e+02
1.786381645699934295e-01,2.136032414577429961e+01,-3.056189084837202863e+00,-9.983881034639606744e-01,0.000000000000000000e+00,-5.673794905025816848e-02,1.999363587990146698e+02
1.008744368623211374e+00,2.278696870008136344e+01,-3.013279815573151943e+00,-6.799996278746922671e-05,-9.702994690100205655e-02,9.952804553393405085e-01,2.029129500469389313e+02
1.662559220028092977e+00,2.383677162572663732e+01,-2.966535184129156733e+00,-3.999995304123653830e-06,1.561658166659436464e-01,9.877298404343403115e-01,2.055053673847398272e+02
2.061060996937341461e+00,2.445570153815781822e+01,-2.933159097556171879e+00,6.075376243260928177e-01,7.797075178639840676e-01,1.514999063192805362e-01,2.072214651416229287e+02
2.435652035445898367e+00,2.503012886643480783e+01,-2.898578773151394561e+00,0.000000000000000000e+00,9.999989999994883192e-07,9.999989999994882695e-01,2.089375628985060303e+02
2.785273485799637960e+00,2.556165996656995176e+01,-2.862547635623646780e+00,7.364161080998153919e-01,-4.016585135368463400e-01,-5.443893406703790294e-01,2.106536606553891318e+02
3.117828535686448355e+00,2.606483677027366497e+01,-2.823192222255145101e+00,-2.272997664908537208e-03,5.869383970276075280e-01,-8.096271682554198046e-01,2.124193393247330448e+02
3.422117314431054602e+00,2.652478032471195135e+01,-2.780490379278238944e+00,9.360262369457484910e-01,-2.510647953304598334e-01,2.466157989573086184e-01,2.141850179940769578e+02
3.665727829193238474e+00,2.689401206379303488e+01,-2.739592685714451914e+00,-7.127413081392339755e-01,-4.228955894936028970e-01,-5.596044567897725530e-01,2.157256422970113476e+02
3.890269671017684505e+00,2.723650311023805060e+01,-2.694104784689182797e+00,4.737066590283947609e-01,3.605097405069518368e-02,8.799433666213120064e-01,2.172662665999457374e+02
4.095820026625126786e+00,2.755320231427748467e+01,-2.642653981152754739e+00,0.000000000000000000e+00,-9.950635238632329349e-01,9.922995251858032772e-02,2.188068909028801272e+02
4.282594753409260768e+00,2.784504461514904960e+01,-2.583956593495204235e+00,5.119696326536157249e-01,1.099999210733006162e-05,-8.590023836520768175e-01,2.203475152058145170e+02
4.542606203360668005e+00,2.826302015619717878e+01,-2.464091980512609581e+00,9.497874378626629532e-01,-2.078098770064898404e-02,-3.122018152215010889e-01,2.229568572653024887e+02
4.668888091970123000e+00,2.847580308911492253e+01,-2.374963400680577763e+00,0.000000000000000000e+00,-4.977924468363392752e-01,-8.672950362326703466e-01,2.245814899898486487e+02
4.774810986440276572e+00,2.866341518523115539e+01,-2.273616410079481565e+00,0.000000000000000000e+00,-9.924842934884349210e-01,-1.223639128938158877e-01,2.262061227143948088e+02
4.860886634381603066e+00,2.882687838191445451e+01,-2.159353540490928314e+00,-4.595974337846781554e-01,-8.868719073906302652e-01,4.718494186904650251e-02,2.278307554389409688e+02
4.939675131591615198e+00,2.899896285054786915e+01,-1.990854388266090513e+00,0.000000000000000000e+00,-9.950534475060375250e-01,-9.933094484743763830e-02,2.299361849680944658e+02
4.979265512545401506e+00,2.912356992860877725e+01,-1.798274079588510155e+00,9.973505985893443837e-01,-0.000000000000000000e+00,-7.273089780338498622e-02,2.320416144972479628e+02
4.984236565076580305e+00,2.919875864944028976e+01,-1.605748599947045108e+00,0.000000000000000000e+00,1.466699169441394897e-02,9.998914337840699718e-01,2.339228117885992333e+02
4.963118371183389499e+00,2.924366674233296592e+01,-1.394618666370625704e+00,7.294162694264126889e-01,5.001404990659600314e-01,4.667005325589836939e-01,2.358040090799505037e+02
4.916733349126653607e+00,2.925992438005453167e+01,-1.166204463129969060e+00,9.973505985889575820e-01,0.000000000000000000e+00,-7.273089780335675880e-02,2.376852063713017742e+02
4.854613214443005198e+00,2.925244735337791013e+01,-9.477476173647358948e-01,9.948943568806407622e-01,-0.000000000000000000e+00,-1.009119347685325796e-01,2.393772263515389511e+02
4.774337954762166270e+00,2.922632643434919686e+01,-7.189083987984806745e-01,0.000000000000000000e+00,-9.999989999994946720e-07,9.999989999994948198e-01,2.410692463317761280e+02
4.676414247828866166e+00,2.918258962568079085e+01,-4.813867625378460136e-01,3.783536023998605446e-01,-7.581172033179969239e-01,-5.311354418461343707e-01,2.427612663120133050e+02
4.544470264013995120e+00,2.911196034352903084e+01,-2.047552574665117697e-01,7.268315228406733164e-01,-5.907656121669012661e-01,-3.502997700308845275e-01,2.446723705017103612e+02
4.390193460942413139e+00,2.901900317728837564e+01,7.775310546685418323e-02,9.994709311543642505e-01,-0.000000000000000000e+00,3.249396525058222129e-02,2.465834746914074174e+02
4.246636581386033171e+00,2.892678499791150770e+01,3.144795682073848186e-01,-2.172967494852036940e-01,3.431016044486226435e-01,9.138169464883080240e-01,2.481763902549058116e+02
4.091599381568699734e+00,2.882339001143807877e+01,5.487534996177956259e-01,9.546769266723577063e-01,0.000000000000000000e+00,-2.976406653674717462e-01,2.497693058184042059e+02
3.926107742162867176e+00,2.870954176518037215e+01,7.769313810360488626e-01,4.301035175189049653e-01,3.026596604827478873e-02,9.022709878513509585e-01,2.513622213819026001e+02
3.736398058504840414e+00,2.857499588403409163e+01,1.012195931222942047e+00,8.506807646962363245e-01,5.164672500195557348e-01,9.798885770689810815e-02,2.530850393346039482e+02
3.536921720574825567e+00,2.842901026743989945e+01,1.231000453483399149e+00,7.342455860436726267e-01,2.131448798322069238e-01,6.445546366100454172e-01,2.548078572873052963e+02
3.351464163927158513e+00,2.828946400436183239e+01,1.410513855082774493e+00,0.000000000000000000e+00,-2.786296520869204624e-02,9.996107518282695281e-01,2.563537788340681800e+02
3.161753282103736851e+00,2.814295060379522795e+01,1.571835910921517421e+00,5.752485914330272010e-01,-0.000000000000000000e+00,-8.179774190362865127e-01,2.578997003808310637e+02
2.969355346402180906e+00,2.799002864542653768e+01,1.713038977764845816e+00,0.000000000000000000e+00,2.016697227947478882e-02,9.997956257302551553e-01,2.594456219275939475e+02
2.775889716972147259e+00,2.783122999063529690e+01,1.833097719832119665e+00,5.179124917786148696e-01,7.186022948440916602e-01,4.640855445983597116e-01,2.609915434743568312e+02
2.514009130433260797e+00,2.760437784511275439e+01,1.961505502526502021e+00,9.997494087566204390e-01,0.000000000000000000e+00,-2.234098678772858740e-02,2.630983951370834575e+02
2.321515372391482757e+00,2.742764783380784266e+01,2.031806428112238994e+00,0.000000000000000000e+00,1.519999199372511559e-02,9.998834733324896140e-01,2.646719166653975890e+02
2.132980090532519135e+00,2.724642309987241262e+01,2.082720350039328761e+00,-0.000000000000000000e+00,2.016697227560538402e-02,9.997956255384259361e-01,2.662454381937117205e+02
1.817596116627903990e+00,2.690949173196278110e+01,2.136528379406958056e+00,6.355972790763313451e-01,2.092487626604288553e-01,7.431211571178032438e-01,2.690423153242666103e+02
1.597738425389428230e+00,2.663938706865090822e+01,2.157176833884639322e+00,5.764363129605389879e-01,-1.163998612660303638e-03,-8.171400260720387276e-01,2.711813290364380578e+02
1.398731109386615712e+00,2.636203242039210437e+01,2.175165576761727504e+00,-8.217572942062997265e-01,1.566598654474418359e-02,5.696205107623980579e-01,2.733203427486095052e+02
1.238866901719581914e+00,2.610592873952588988e+01,2.202120769159092273e+00,5.227064052948993123e-01,-8.494460335494575798e-01,-7.223191781870373640e-02,2.752575089428830779e+02
1.115569502328500828e+00,2.587998099809599495e+01,2.244523675784543482e+00,0.000000000000000000e+00,1.705397561330242173e-02,9.998535702379790502e-01,2.769460215713796742e+02
1.093784172682112033e+00,2.583726588063725060e+01,2.254797271142559456e+00,8.370268619317428049e-01,-1.940497361591902448e-01,5.115943044079409585e-01,2.772638023249403432e+02
9.647059841842815509e-01,2.555509452130892356e+01,2.350785646192345091e+00,8.834658593426382156e-01,-2.710829417918147466e-01,3.820996127280219534e-01,2.793519319047393878e+02
9.215545152061505041e-01,2.544697853123810916e+01,2.400925469829165326e+00,9.079422324352073304e-01,-3.413771352460047703e-01,2.431060552373816852e-01,2.801474229694475184e+02
8.953654771109286203e-01,2.537972095884788004e+01,2.434871121096399804e+00,9.098474999581322997e-01,-4.031848328573453544e-01,9.806894194777159013e-02,2.806420738369828314e+02
8.124951509243190095e-01,2.514667175483415207e+01,2.579354970525498558e+00,8.891342810086462212e-01,-4.549695159725486437e-01,-4.940617240429782259e-02,2.823526598806212746e+02
7.431693243101895607e-01,2.491286298635740692e+01,2.773651230366271925e+00,8.463174765518114429e-01,-4.954438281340339256e-01,-1.956531166304424085e-01,2.840632459242597179e+02
6.801495403393283956e-01,2.464755327335854673e+01,3.058258623737220017e+00,7.824614742056862360e-01,-5.236015796501105601e-01,-3.370362401459892077e-01,2.860001234538141830e+02
6.326160975709694823e-01,2.438202684528809172e+01,3.415765423633237319e+00,6.991536932645218139e-01,-5.387427636406402209e-01,-4.700407937818407156e-01,2.879370009833686481e+02
6.222218499404468250e-01,2.431279317328058198e+01,3.519847383018848141e+00,5.878531675450539007e-01,-5.446294309037942316e-01,-5.981684013700879765e-01,2.884420932743479966e+02
6.006211765000871727e-01,2.415912446448569284e+01,3.763218866712090716e+00,4.595995113947056177e-01,-5.348094314382125791e-01,-7.090452462062019068e-01,2.895637433614400038e+02
5.707526657216015487e-01,2.388096090780138425e+01,4.255858693326942443e+00,-4.199765354728743905e-01,-5.494543922601671238e-01,-7.223002010790892102e-01,2.915982218871575924e+02
5.564769989250545335e-01,2.367266057379787370e+01,4.664881844903205455e+00,-4.009946305235110864e-01,-5.246204071039505257e-01,-7.509825129400772292e-01,2.931261772873576206e+02
5.478388638632024632e-01,2.346497031579259129e+01,5.098241629997207980e+00,-3.812910496701046870e-01,-4.988422549246444015e-01,-7.783132660719760398e-01,2.946541326875576488e+02
5.446596920135070574e-01,2.325801422924256201e+01,5.548702141044164371e+00,-3.609012537533910492e-01,-4.721663290634237620e-01,-8.042432733560895830e-01,2.961820880877576769e+02
5.468602668257409594e-01,2.305190774929476660e+01,6.008095409600821668e+00,-3.398619385615431199e-01,-4.446406385405217154e-01,-8.287258685934870694e-01,2.977100434879577051e+02
5.584131056337157117e-01,2.279285867444522040e+01,6.587663547524591934e+00,-3.182109687909005502e-01,-4.163147216561960962e-01,-8.517169904810394376e-01,2.996424975149617467e+02
5.807268450723124253e-01,2.253603366943401198e+01,7.149342996692880980e+00,-2.959873099038150546e-01,-3.872395568404953803e-01,-8.731752619002116633e-01,3.015749515419657882e+02
6.138115781702581097e-01,2.228168689579125683e+01,7.674855695838975755e+00,-2.732309580061095255e-01,-3.574674709120903016e-01,-8.930620643759397126e-01,3.035074055689698298e+02
6.523344295374515767e-01,2.205542169616870396e+01,8.101759771080919492e+00,-2.499828678702822049e-01,-3.270520449111877781e-01,-9.113416075717164500e-01,3.052431107428334940e+02
6.987121886718361541e-01,2.183126704534496554e+01,8.473311716314100295e+00,-2.262848792339085258e-01,-2.960480176758898962e-01,-9.279809936959403371e-01,3.069788159166971582e+02
7.115080754924150153e-01,2.177469493171844306e+01,8.558944632479484227e+00,-2.021796415057952045e-01,-2.645111873354176746e-01,-9.429502767037140076e-01,3.074191170015756143e+02
7.631751940981363891e-01,2.156203458792578687e+01,8.846440013656515333e+00,-1.777105370152934349e-01,-2.324983108973540380e-01,-9.562225161876284352e-01,3.090826228308427517e+02
8.208819794139076143e-01,2.135145554918890554e+01,9.065433124680543742e+00,-1.529216029427994117e-01,-2.000670021094866358e-01,-9.677738258606055632e-01,3.107461286601098891e+02
8.885605083176659758e-01,2.112952946713719626e+01,9.216645658538402230e+00,-1.278574520718368523e-01,-1.672756277799287150e-01,-9.775834165435831613e-01,3.125187012298287641e+02
9.621381349345966560e-01,2.091029993950039767e+01,9.277262463384507996e+00,-1.025631925052360865e-01,-1.341832027419704032e-01,-9.856336335806918925e-01,3.142912737995476391e+02
1.047693464222722248e+00,2.067691377097675698e+01,9.235222999663623256e+00,-7.708434648978824966e-02,-1.008492836525490682e-01,-9.919099886145804623e-01,3.162045701443610142e+02
1.139058377612447659e+00,2.044710962984340696e+01,9.076814456085351424e+00,-5.146676849535877091e-02,-6.733386181533121406e-02,-9.964011856646739496e-01,3.181178664891743892e+02
1.143785566139214227e+00,2.043564696430656369e+01,9.065865035505247249e+00,-2.575656269578949914e-02,-3.369725522115502025e-02,-9.990991414613770161e-01,3.182140563109689992e+02
1.232113958397355269e+00,2.022671369337216518e+01,8.815147655462432397e+00,-0.000000000000000000e+00,-0.000000000000000000e+00,-9.999989999995539947e-01,3.199792790965235554e+02
1.323027880130509759e+00,2.002064245576676882e+01,8.467674150574501013e+00,-0.000000000000000000e+00,-0.000000000000000000e+00,-9.999989992938940198e-01,3.217445018820781115e+02
1.422805856900054788e+00,1.980066576171382309e+01,7.988777023111460984e+00,-0.000000000000000000e+00,9.968731427319694749e-01,-7.900593205829621601e-02,3.236579681635880661e+02
1.521494998058192438e+00,1.958437530268791704e+01,7.414062481095029966e+00,9.968779763718003117e-01,0.000000000000000000e+00,-7.894491893667313076e-02,3.255714344450980207e+02
1.616294321419871061e+00,1.937177087399611608e+01,6.756110852584206405e+00,0.000000000000000000e+00,-9.968312352734686188e-01,-7.953293898571152376e-02,3.274849007266079752e+02
1.694609287886733595e+00,1.918751531209091610e+01,6.118540912802218124e+00,-9.968817776734339997e-01,-0.000000000000000000e+00,-7.889690326056408853e-02,3.291690459113141287e+02
1.766474108748546046e+00,1.900575914322640969e+01,5.435938529496688432e+00,9.968779763664620264e-01,-0.000000000000000000e+00,-7.894491893625038559e-02,3.308531910960202822e+02
1.830095383604366521e+00,1.882652015720433170e+01,4.717027233050306023e+00,0.000000000000000000e+00,9.968731427319725835e-01,-7.900593205829646581e-02,3.325373362807264357e+02
1.883532189360816345e+00,1.864981410833671660e+01,3.971237728343283369e+00,9.968779763718003117e-01,0.000000000000000000e+00,-7.894491893667313076e-02,3.342214814654325892e+02
1.926474683910185393e+00,1.846506348559412913e+01,3.160827890922238481e+00,6.008035540476738268e-01,8.946493359377623300e-02,-7.943734103685508030e-01,3.360098362883581444e+02
1.952412951393827534e+00,1.828341044570975527e+01,2.342394999910197839e+00,0.000000000000000000e+00,2.192496970815314972e-02,-9.997586187194160701e-01,3.377981911112836997e+02
1.958756045425995129e+00,1.810488491645313403e+01,1.526731778518902294e+00,-5.106349454926627507e-01,1.863720733784935968e-01,-8.393541580919633427e-01,3.395865459342092549e+02
1.931090496347544372e+00,1.788573347695911409e+01,5.229709388934623560e-01,-8.611752724019982042e-01,2.923876578908962132e-01,-4.157939486282307140e-01,3.418331500898481181e+02
1.858524604475554121e+00,1.767293304859618530e+01,-4.388950583527326255e-01,-9.417184699332693532e-01,3.067333702985962085e-01,1.381266192013151650e-01,3.440797542454869813e+02
1.763753160749466975e+00,1.749381992519362328e+01,-1.222238948663120217e+00,-7.270129289258798755e-01,2.249116686481656135e-01,6.487410442401840838e-01,3.460221404963771192e+02
1.646065816794491710e+00,1.731890452182067008e+01,-1.949669704999497100e+00,-6.990157650874758710e-01,2.092268035598835729e-01,6.838121853497226565e-01,3.479645267472672572e+02
1.515579102255030453e+00,1.715406736857136138e+01,-2.592845536455824718e+00,-6.694389358236172427e-01,1.930691194344592576e-01,7.173380139973741798e-01,3.498381785749494952e+02
1.394255906819453328e+00,1.701549148425093705e+01,-3.097944496997109720e+00,-6.383492803558061812e-01,1.764751301422056440e-01,7.492427675407578036e-01,3.514450610823338934e+02
1.267347048534063658e+00,1.687927079551897336e+01,-3.560702612840894510e+00,-6.058170565777879490e-01,1.594823355014574340e-01,7.794543467221822786e-01,3.530519435897182916e+02
1.139231156546671508e+00,1.674759893016984336e+01,-3.975080354581153053e+00,-5.719157822835960747e-01,1.421291365362909731e-01,8.079044785889734070e-01,3.546314714484562955e+02
1.009657583251323709e+00,1.661806370723639503e+01,-4.350352449818857714e+00,-5.367220690304232988e-01,1.244547486983356155e-01,8.345288707671597583e-01,3.562109993071942995e+02
8.802582983162799968e-01,1.649059837250801763e+01,-4.687231085660708452e+00,-5.003154490117470710e-01,1.064991132487426023e-01,8.592673567401573065e-01,3.577905271659323034e+02
7.520827947573271999e-01,1.636466146725125625e+01,-4.987356214552609579e+00,-4.627781953318786390e-01,8.830280700051516829e-02,8.820640318044027373e-01,3.593760263130449175e+02
6.270093262442787418e-01,1.624065930617036102e+01,-5.250055686497678842e+00,-4.241951360879792077e-01,6.990695062509694191e-02,9.028673793949246740e-01,3.609615254601575316e+02
5.064400361320757771e-01,1.611882583850706752e+01,-5.475653486489716393e+00,-3.846534626795549694e-01,5.135311573035042376e-02,9.216303874955955600e-01,3.625427489596182227e+02
3.908579525462675397e-01,1.599872323865303514e+01,-5.666070710759119500e+00,-3.442425327784557898e-01,3.268323091982402312e-02,9.383106548711807049e-01,3.641239724590789137e+02
2.088312673090884086e-01,1.579482432324775587e+01,-5.917529739447012105e+00,-3.030536684044466966e-01,1.393948704550310169e-02,9.528704868812847284e-01,3.668740225112421740e+02
1.813744640026097033e-01,1.576195593432524866e+01,-5.950127634031317392e+00,-2.611799495624601564e-01,-4.835758131943978209e-03,9.652769806597913949e-01,3.673254196823474444e+02
8.483277294445347450e-02,1.564242360916486874e+01,-6.050796181323210732e+00,-2.187160039076521401e-01,-2.360007566007523913e-02,9.755020994674092893e-01,3.689782095755043656e+02
-4.070028577452591660e-03,1.552423515725010184e+01,-6.117411486608308913e+00,-1.757577929133467276e-01,-4.231106127254059823e-02,9.835227360493516979e-01,3.706309994686612868e+02
-8.508010660319477447e-02,1.540720735042759237e+01,-6.148462005771320626e+00,-1.324023950248533477e-01,-6.092643121133778372e-02,9.893207648549946498e-01,3.722837893618182079e+02
-1.941561641096217483e-01,1.521832753653819914e+01,-6.116350103539705430e+00,-8.874778628894799959e-02,-7.940411777701611440e-02,9.928830830014944153e-01,3.749852023376957391e+02
-2.095063173658151534e-01,1.518699988307420945e+01,-6.101500868948737555e+00,-4.489261895451823747e-02,-9.770236439099315440e-02,9.942016398887315587e-01,3.754370040723335933e+02
-2.824261718895212381e-01,1.500207638397893639e+01,-5.957086246606414726e+00,-9.359985444645878413e-04,-1.157798199552456941e-01,9.932734553985721471e-01,3.781144303587176410e+02
-3.182658252134027976e-01,1.484094565306918057e+01,-5.746811285021989235e+00,-0.000000000000000000e+00,-9.993865585873512591e-01,3.499294952975939843e-02,3.804547655798012897e+02
-3.264497041261963939e-01,1.465338843107649147e+01,-5.417100446086545951e+00,-5.517134353487229692e-01,-8.267481538643596251e-01,1.099898874308174873e-01,3.831657672742510385e+02
-3.149826883215555706e-01,1.453508798716225137e+01,-5.171469970572947439e+00,1.182598423660817244e-01,0.000000000000000000e+00,9.929816764095968917e-01,3.848621306390451764e+02
-2.956676121115162093e-01,1.442223048696273224e+01,-4.917699911755041065e+00,0.000000000000000000e+00,1.173078338867183656e-01,9.930945937324349160e-01,3.864687383325978089e+02
-2.689672848514725878e-01,1.430836886673686870e+01,-4.648767988942145379e+00,1.270998419732385096e-03,1.158168560016881454e-01,9.932687650413736247e-01,3.880753460261504415e+02
-2.372975070762994854e-01,1.419797781211125631e+01,-4.381396717421528031e+00,-1.738662462831551958e-01,-4.055479373441179397e-02,9.839328417680760497e-01,3.896170804303950490e+02
-2.008057185543916656e-01,1.408630945756811315e+01,-4.109712118107839096e+00,-3.394039435929974702e-01,-1.946873423201738451e-01,9.202715913331560582e-01,3.911588148346396565e+02
-1.606904223144722810e-01,1.397317710382406908e+01,-3.838036068970219095e+00,-4.862023514268623003e-01,-3.380707578085297982e-01,8.057998735309933602e-01,3.927005492388842640e+02
-1.069196716259353391e-01,1.382815778876002355e+01,-3.503263075935822979e+00,-6.061563526892965736e-01,-4.627884783989482664e-01,6.468379243336117579e-01,3.946400530238337865e+02
-5.201066921148977951e-02,1.367947925798591413e+01,-3.183704912287156130e+00,-6.926429665506024236e-01,-5.619545105879052427e-01,4.521624143141427798e-01,3.965795568087833090e+02
1.350926228768041526e-03,1.352672888619680336e+01,-2.886588900240993016e+00,-7.408870318238186536e-01,-6.300936322199834905e-01,2.325218714693527422e-01,3.985190605937328314e+02
4.841321181830737785e-02,1.338230850632456104e+01,-2.637948280126657608e+00,-7.482248662556548746e-01,-6.634437034513104292e-01,4.322145712225863683e-05,4.003049848893569447e+02
9.382518068679654433e-02,1.323416477675862524e+01,-2.417126549383154632e+00,-7.142513392296236940e-01,-6.601633892676328497e-01,-2.324377849664478191e-01,4.020909091849810579e+02
1.381085384652160075e-01,1.308206267029939696e+01,-2.227281792637035185e+00,-0.000000000000000000e+00,8.080491350128618522e-02,9.967289330380171286e-01,4.038768334806051712e+02
1.757689908330838657e-01,1.294829636295987996e+01,-2.090458054682365674e+00,-0.000000000000000000e+00,-5.697617808899569924e-01,-8.218086839617149142e-01,4.054108889543014698e+02
2.135981254842023724e-01,1.281173765262452058e+01,-1.979018719322386488e+00,4.177774092705652809e-01,-5.569856665256978090e-01,-7.177931481896000498e-01,4.069449444279977683e+02
2.520346347968534517e-01,1.267226393012533059e+01,-1.894484733508848606e+00,7.580482962512340439e-01,-4.408772008981697299e-01,-4.806121869859080187e-01,4.084789999016940669e+02
2.915231198134941581e-01,1.252975576965754101e+01,-1.837472801218285934e+00,9.576854863922882322e-01,-2.429771135162180906e-01,-1.542680506856083933e-01,4.100130553753903655e+02
3.325515191025063544e-01,1.238410159869646598e+01,-1.806791312005576522e+00,9.796526068684299204e-01,-0.000000000000000000e+00,2.006957145972623480e-01,4.115471108490866641e+02
3.970846247970028497e-01,1.216518192269452214e+01,-1.806051502141599485e+00,3.588155418937448160e-01,-5.920762440856113251e-01,-7.215920787304161976e-01,4.137753540583346989e+02
4.701108875784968388e-01,1.193595023437101510e+01,-1.852254106437229986e+00,0.000000000000000000e+00,-9.950635238630662904e-01,9.922995251856368826e-02,4.160035972675827338e+02
5.357784024003541257e-01,1.174479862950630782e+01,-1.916104615571876169e+00,9.796526068684432431e-01,-0.000000000000000000e+00,2.006957145972650403e-01,4.177925781126367610e+02
6.135519987117065144e-01,1.153323041232930812e+01,-1.997953911144263239e+00,-5.759863546496520881e-01,0.000000000000000000e+00,-8.174580840983390884e-01,4.197100005893018988e+02
6.993162248221205246e-01,1.131433358357443630e+01,-2.076680421926789588e+00,-9.546707119066457636e-01,0.000000000000000000e+00,-2.976605983802228517e-01,4.216274230659670366e+02
7.927990739466485026e-01,1.108794920790283811e+01,-2.133731876012301409e+00,-5.741094903284836848e-01,1.828998376288161953e-03,-8.187752731239562598e-01,4.235448455426321743e+02
8.814362741732520989e-01,1.088181692486541863e+01,-2.154544861774494002e+00,-9.994701503667330345e-01,0.000000000000000000e+00,3.251797235700227412e-02,4.252399311707904985e+02
9.757772256546046741e-01,1.067034338953490114e+01,-2.140922871654706849e+00,-8.621719962351805933e-01,4.187652368947287207e-01,2.851194929799017452e-01,4.269350167989488227e+02
1.086547874996205643e+00,1.043279843859122202e+01,-2.081019867346051821e+00,-5.024135394087879680e-01,7.294793312445962963e-01,4.641535744838849453e-01,4.287874910091637730e+02
1.198117222096306334e+00,1.020495823893973508e+01,-1.980139757906789866e+00,-0.000000000000000000e+00,9.993857527526200935e-01,3.501595629959740330e-02,4.305164043920318591e+02
1.318751975227485218e+00,9.971384171552285736e+00,-1.837437800768728868e+00,-9.999989999999999712e-01,0.000000000000000000e+00,0.000000000000000000e+00,4.322453177748999451e+02
1.430223036610955623e+00,9.766470778741867420e+00,-1.684611368715285717e+00,-0.000000000000000000e+00,9.997078536730039655e-01,-2.412897233222459359e-02,4.337302406261237024e+02
1.480656739713975156e+00,9.676227935351692011e+00,-1.611056808618176683e+00,-0.000000000000000000e+00,9.997078529671034053e-01,-2.412897231518696187e-02,4.343771228829025404e+02
1.608688013225428870e+00,9.454480180796339894e+00,-1.417309953728424832e+00,-4.272875887421053731e-01,2.998997113510264850e-02,9.036171302820669160e-01,4.359482980328901931e+02
1.746631275410750472e+00,9.228463327932342253e+00,-1.202442764093024863e+00,-7.865503881701002564e-01,1.676563589489233827e-02,6.172968494361915637e-01,4.375194731828778458e+02
1.881165175828607428e+00,9.018697018094757212e+00,-9.926504556302332416e-01,-9.796745246595200962e-01,0.000000000000000000e+00,2.005886979235262102e-01,4.389529461146747735e+02
2.057594981277565349e+00,8.757545801735053814e+00,-7.251624951223994975e-01,-9.796745239680101358e-01,-0.000000000000000000e+00,2.005886977819393013e-01,4.407046881510376579e+02
2.247876457714677034e+00,8.490772979183640601e+00,-4.527125240236418158e-01,-0.000000000000000000e+00,1.466699169441368529e-02,9.998914337840518751e-01,4.424564301874005423e+02
2.451305718525019994e+00,8.218479283921045209e+00,-1.838376506438545999e-01,-0.000000000000000000e+00,-9.987387149172149980e-01,5.018943021682267108e-02,4.442081722237634267e+02
2.667013842685484803e+00,7.940775178937408363e+00,7.403689936053496623e-02,-0.000000000000000000e+00,-8.566789209152041173e-02,-9.963227450178829825e-01,4.459599142601263111e+02
2.996558201885056061e+00,7.534204995497977286e+00,4.116730964223708211e-01,-3.571165318402182987e-01,-5.924852232850398304e-01,-7.220990533685643920e-01,4.484558067237550745e+02
3.210002687397913501e+00,7.278635415105367379e+00,5.987318652200768199e-01,4.896725565857756868e-01,1.691298468474925973e-02,-8.717412106103404890e-01,4.499873625635356689e+02
3.428379992894594164e+00,7.019663824425048659e+00,7.698619758849238881e-01,-9.796745246594487089e-01,0.000000000000000000e+00,2.005886979235116108e-01,4.515189184033162633e+02
3.650593215139015246e+00,6.757398143695011683e+00,9.253530611635684133e-01,4.662972870393036207e-01,1.652197473817896070e-02,-8.844726476562219109e-01,4.530504742430968577e+02
3.875576025603018060e+00,6.491950251608083811e+00,1.065494855517141959e+00,-8.937831490306600291e-01,2.429597686784381455e-02,4.478385736136938355e-01,4.545820300828774521e+02
4.102292677574919111e+00,6.223435873411401253e+00,1.190577193235369480e+00,-9.618223635428995166e-01,2.639169007279958817e-02,2.723953371194886564e-01,4.561135859226580465e+02
4.329738013064788227e+00,5.951974468980450794e+00,1.300890006550024625e+00,-9.957994773798768406e-01,2.755276455569131283e-02,8.730547529176245491e-02,4.576451417624386409e+02
4.556937469506460836e+00,5.677689120868378403e+00,1.396723323747736556e+00,-9.945112281995713843e-01,2.773808211327084480e-02,-1.008762399486305972e-01,4.591766976022192353e+02
4.782947086256238656e+00,5.400706422331328582e+00,1.478367267282336472e+00,-9.580032276475985986e-01,2.694107961987408234e-02,-2.854855408702810515e-01,4.607082534419998296e+02
5.006853510888176650e+00,5.121156365330545412e+00,1.546112051886913363e+00,-8.875683493731688634e-01,2.518998153463011813e-02,-4.599846628109104940e-01,4.622398092817804240e+02
5.227774005285996672e+00,4.839172228511968044e+00,1.600247982685598869e+00,-5.335776174011365169e-01,1.795098712834449980e-02,-8.455593936963387014e-01,4.637713651215610184e+02
5.444856451531549624e+00,4.554890465164073809e+00,1.641065453304773269e+00,-6.390793712071383137e-01,8.820158521007935570e-02,-7.640654668706708952e-01,4.653029209613416128e+02
5.657279357589675151e+00,4.268450591154691054e+00,1.668854943983638650e+00,-7.300694839204748821e-01,1.564493676814406875e-01,-6.652218757683607819e-01,4.668344768011222072e+02
5.864251862789466863e+00,3.979995072847548165e+00,1.683907019684335982e+00,-8.044818500671548911e-01,2.211446314156241544e-01,-5.512730765322919613e-01,4.683660326409028016e+02
6.076103864688191969e+00,3.673015919431477538e+00,1.686173261676209290e+00,-8.606267973462778942e-01,2.808183429002592546e-01,-4.248065135814039772e-01,4.699849865328579313e+02
6.279822573303230016e+00,3.364059225922278795e+00,1.674635383969889091e+00,-8.972294511744590695e-01,3.341154943643144803e-01,-2.886938661833575170e-01,4.716039404248130609e+02
6.474544583545981169e+00,3.053312897545257698e+00,1.649642954544898954e+00,-9.134586807703134470e-01,3.798258705155654336e-01,-1.460258422796610334e-01,4.732228943167681905e+02
6.659446670708024207e+00,2.740968102466226686e+00,1.611545639146551689e+00,-9.089459700191115932e-01,4.169115275726834047e-01,-4.199995240734904031e-05,4.748418482087233201e+02
6.833745137659324342e+00,2.427218899709404187e+00,1.561179159091809376e+00,-9.234575471476310637e-01,3.793247835472849383e-01,-5.776562301975905755e-02,4.764608021006784497e+02
6.996695086611941505e+00,2.112261870549585474e+00,1.500351245542758782e+00,-9.333930446454427043e-01,3.398583452160138241e-01,-1.152029921250205952e-01,4.780797559926335794e+02
7.147590970918826336e+00,1.796296185272814538e+00,1.431355666022069872e+00,-9.387032294025746681e-01,2.987077819359678643e-01,-1.720694863131673746e-01,4.796987098845887090e+02
7.285767221721531683e+00,1.479523666807949667e+00,1.356486247396146316e+00,-9.393617875975941445e-01,2.560770081884136684e-01,-2.280833134595189882e-01,4.813176637765438386e+02
7.410598252924895490e+00,1.162148636059185502e+00,1.278036859204835674e+00,-9.353654550809512580e-01,2.121772732331111688e-01,-2.829669064827441960e-01,4.829366176684989682e+02
7.521498465874886463e+00,8.443777572200386050e-01,1.198301396990862910e+00,-9.267340335826361741e-01,1.672261144274354017e-01,-3.364482986327326786e-01,4.845555715604540978e+02
7.617922253739608074e+00,5.264198830699420295e-01,1.119573765629110040e+00,-9.135102926619006469e-01,1.214462793904124011e-01,-3.882624710456922812e-01,4.861745254524092275e+02
7.699364005593448468e+00,2.084859002545842166e-01,1.044147862655746772e+00,-8.957597578815787998e-01,7.506462234618246909e-02,-4.381526658954009168e-01,4.877934793443643571e+02
7.764078479364520113e+00,-1.014367501792533682e-01,9.759112911643733623e-01,-8.735703862515963314e-01,2.831098010942321302e-02,-4.858716586388920899e-01,4.893727520113143896e+02
7.814103954385649864e+00,-4.109578705208518645e-01,9.150169471140743305e-01,-9.558486701187393075e-01,3.130908297830151815e-02,-2.921832663852163559e-01,4.909520246782644222e+02
7.832994994786853127e+00,-5.539057004198455481e-01,8.894559141998477081e-01,-9.957886045323572910e-01,3.292038168116044605e-02,-8.555292837607406109e-02,4.916820883707489998e+02
7.868359814401363117e+00,-9.402556872093861262e-01,8.314984901282244101e-01,-9.916210973836402376e-01,3.307350563539709909e-02,1.248668989316172595e-01,4.936592775981091563e+02
7.876874940860138175e+00,-1.324964142838388037e+00,7.948314352477082734e-01,-9.435307302473816549e-01,3.176167194036799007e-02,3.297559055943272699e-01,4.956364668254693129e+02
7.864201005331226568e+00,-1.654999977970299296e+00,7.836709215628557823e-01,-8.536475879972215131e-01,2.904298598275086019e-02,5.200387490095298437e-01,4.973401002483557249e+02
7.834654195977322821e+00,-1.983630344182315985e+00,7.940722990657734792e-01,-9.058623899042146377e-01,1.881479910172026773e-02,4.231516677165008122e-01,4.990437336712421370e+02
7.783451807476295947e+00,-2.339202185450616422e+00,8.319347981194021857e-01,-9.470092329443425827e-01,8.356734183090417170e-03,3.210944996597717149e-01,5.008965341539060887e+02
7.712653753234950393e+00,-2.692625822466896857e+00,8.989852709117124308e-01,-9.765853927468930440e-01,-2.203431137569596826e-03,2.151141919183696682e-01,5.027493346365700404e+02
7.623436127581094013e+00,-3.043735113048573915e+00,9.959842154091681499e-01,-9.942295157246312520e-01,-1.273667211753948432e-02,1.065056207231379615e-01,5.046021351192339921e+02
7.517397615649180409e+00,-3.392384992839146296e+00,1.122497143365749572e+00,-9.997260328080500580e-01,-2.311429325199596332e-02,-3.404228805217926652e-03,5.064549356018979438e+02
7.376264325977818892e+00,-3.789454366928081352e+00,1.303115167286992282e+00,-9.930077922742797103e-01,-3.320950056666924916e-02,-1.132724748345578097e-01,5.085831919509165573e+02
7.216123254819247101e+00,-4.182500043639098664e+00,1.518735069625161582e+00,-9.741568796139712383e-01,-4.289895066155566955e-02,-2.217567449557006354e-01,5.107114482999352276e+02
7.100638979408576468e+00,-4.442870530565965481e+00,1.678921220472215481e+00,-8.384479280486415442e-01,5.561892889148582070e-02,5.421343068840803747e-01,5.121325121927999362e+02
