-5.988512487886449520e+00,-1.152416748255360890e+00,-3.736570253143991494e+00,1.605879757512839179e-01,-9.856611963872896620e-01,-5.178327896770528599e-02,8.350007531457241328e+01
-5.945394998752853155e+00,-1.031574003553531682e+00,-3.688212859518518183e+00,0.000000000000000000e+00,-9.950534475070934581e-01,-9.933094484754305398e-02,8.435532562772920073e+01
-5.831461144367371396e+00,-7.099417571362915957e-01,-3.570915596086400967e+00,7.364161080998669062e-01,-4.016585135368744286e-01,-5.443893406704171101e-01,8.646411939583471451e+01
-5.741590679730362190e+00,-4.602806734299149105e-01,-3.488953945874344598e+00,6.342538868548471820e-01,-5.371807005875148811e-01,-5.560187963778437936e-01,8.799682483877838024e+01
-5.643323980946827412e+00,-1.965387308465973704e-01,-3.412543502774253223e+00,5.137372051343598311e-01,-6.571575736329152706e-01,-5.515578006674967115e-01,8.952953028172204597e+01
-5.532227658349576416e+00,8.672873586871211737e-02,-3.341920113803356518e+00,3.783536023995333064e-01,-7.581172033173414482e-01,-5.311354418456750714e-01,9.110419438554150418e+01
-5.409351000610115534e+00,3.797323573987070322e-01,-3.281128852854041433e+00,5.119696326534558528e-01,1.099999210732662775e-05,-8.590023836518086986e-01,9.267885848936096238e+01
-5.273013940359116525e+00,6.796945177218429723e-01,-3.232006434549306473e+00,0.000000000000000000e+00,9.999989999985466304e-07,9.999989999985468003e-01,9.425352259318042059e+01
-5.121556685920879204e+00,9.838253651851629478e-01,-3.196389493331960985e+00,0.000000000000000000e+00,-6.092642978931015474e-01,7.929659610019628158e-01,9.582818669699987879e+01
-4.953339754988427046e+00,1.289322924900188294e+00,-3.176114570828284300e+00,0.000000000000000000e+00,-9.662535585532791016e-01,2.575889372152513901e-01,9.740285080081933700e+01
-4.767609818051686155e+00,1.593529739798312583e+00,-3.172330941939000226e+00,0.000000000000000000e+00,-9.231455782620088257e-01,-3.844479696014450054e-01,9.897751490463879520e+01
-4.565363992186210140e+00,1.894098036869816148e+00,-3.184813445663013276e+00,0.000000000000000000e+00,-4.977924468358578824e-01,-8.672950362318315731e-01,1.005521790084582534e+02
-4.348481709995446032e+00,2.188846088705266091e+00,-3.212649647928910390e+00,3.032566099331343579e-01,-6.821402158969659402e-01,-6.653706894556894458e-01,1.021268431122777116e+02
-4.113516119359541534e+00,2.482251707769967730e+00,-3.255912791699080877e+00,5.559538578516824980e-01,-7.527599114535294955e-01,-3.525135793773969128e-01,1.037381329339357450e+02
-3.867489095597032023e+00,2.765205002038451543e+00,-3.313012596122847597e+00,7.159609931182473463e-01,-6.978770862250416318e-01,1.911619342960860224e-02,1.053494227555937783e+02
-3.612418353633709778e+00,3.035465001488886649e+00,-3.382992302018036135e+00,7.566006451068759686e-01,-5.266416921108485472e-01,3.875590173776391478e-01,1.069607125772518117e+02
-3.350338307562367390e+00,3.290805882002103111e+00,-3.464895057508070142e+00,6.710972395287733150e-01,-2.676029390031045008e-01,6.913864058045594563e-01,1.085720023989098451e+02
-3.083300027815948141e+00,3.529017059967715753e+00,-3.557763924905033015e+00,4.737066590285227141e-01,3.605097405070491201e-02,8.799433666215495942e-01,1.101832922205678784e+02
-2.813371198130299344e+00,3.747903286700646319e+00,-3.660641887594611177e+00,4.185242220736978269e-01,3.376032036438197242e-02,9.075768376864237208e-01,1.117945820422259118e+02
-2.542636072299332195e+00,3.945284742666905320e+00,-3.772571856921318911e+00,3.617455563874195645e-01,3.134090634630536110e-02,9.317488395602357976e-01,1.134058718638839451e+02
-2.273195430722334098e+00,4.118997131517639687e+00,-3.892596679073892840e+00,3.035872109297504950e-01,2.880195945374101202e-02,9.523671836482331399e-01,1.150171616855419785e+02
-2.007166536742114538e+00,4.266891773930519882e+00,-4.019759141971328553e+00,2.442709962289007497e-01,2.615316300315888992e-02,9.693532341024131416e-01,1.166284515072000119e+02
-1.746683092775020762e+00,4.386835701257576936e+00,-4.153101982149286719e+00,1.840231385680196619e-01,2.340461924526931331e-02,9.826422076564933494e-01,1.182397413288580452e+02
-1.493895196234694467e+00,4.476711748978932093e+00,-4.291667891646531174e+00,1.230734173425587219e-01,2.056681084333342527e-02,9.921834206605641970e-01,1.198510311505160786e+02
-1.250969295248920421e+00,4.534418649961379444e+00,-4.434499524891501565e+00,6.165428887181820944e-02,1.765056090136933598e-02,9.979404823744408848e-01,1.214623209721741119e+02
-1.028615172755827922e+00,4.557814583449247614e+00,-4.574802130161199187e+00,0.000000000000000000e+00,1.466699169439773104e-02,9.998914337829643006e-01,1.230130338369359322e+02
-8.193428465555114837e-01,4.549497756041947838e+00,-4.715999993912933341e+00,-0.000000000000000000e+00,1.466699168405816503e-02,9.998914330780861448e-01,1.245637467016977524e+02
-6.246329805874872854e-01,4.510680133376690826e+00,-4.855809864201987125e+00,-0.000000000000000000e+00,1.466699168405874096e-02,9.998914330781253357e-01,1.261144595664595727e+02
-4.459577982778749616e-01,4.442584024038826129e+00,-4.991948498318305560e+00,-0.000000000000000000e+00,1.466699168405926137e-02,9.998914330781606408e-01,1.276651724312213929e+02
-2.847810550257263706e-01,4.346442033681273465e+00,-5.122132678007565332e+00,-0.000000000000000000e+00,1.466699168405971414e-02,9.998914330781916160e-01,1.292158852959832132e+02
-1.425580107864716506e-01,4.223497019027258048e+00,-5.244079224692452357e+00,-0.000000000000000000e+00,1.466699168406010965e-02,9.998914330782184834e-01,1.307665981607450192e+02
-2.073540275285877185e-02,4.075002041756857096e+00,-5.355505014694077914e+00,-0.000000000000000000e+00,1.466699168406043925e-02,9.998914330782411319e-01,1.323173110255068252e+02
7.924858186682519345e-02,3.902220322277730968e+00,-5.454126994453353916e+00,-0.000000000000000000e+00,1.466699168406071334e-02,9.998914330782597837e-01,1.338680238902686312e+02
1.559643329740260098e-01,3.706425193379122796e+00,-5.537662195753251027e+00,-0.000000000000000000e+00,1.466699168406092497e-02,9.998914330782742166e-01,1.354187367550304373e+02
2.079908446088529206e-01,3.488900053769435239e+00,-5.603827750941699826e+00,-0.000000000000000000e+00,1.466699168406107763e-02,9.998914330782845417e-01,1.369694496197922433e+02
2.348332712470440897e-01,3.251309181732784381e+00,-5.651113172265978868e+00,-0.000000000000000000e+00,1.466699168406116957e-02,9.998914330782907589e-01,1.385201624845540493e+02
2.378441154254033740e-01,2.996059644854770720e+00,-5.679552626056260323e+00,-0.000000000000000000e+00,1.466699168406119733e-02,9.998914330782927573e-01,1.400708753493158554e+02
2.188191998882446088e-01,2.718724439040927088e+00,-5.690223564535719980e+00,-0.000000000000000000e+00,1.466699168406116957e-02,9.998914330782907589e-01,1.416629677535833309e+02
1.800813966253325127e-01,2.428991017330681679e+00,-5.683200294706160172e+00,-0.000000000000000000e+00,1.466699168406107937e-02,9.998914330782845417e-01,1.432550601578508065e+02
1.240841286256372383e-01,2.129739383782796924e+00,-5.659334360759284088e+00,-0.000000000000000000e+00,1.466699168406092497e-02,9.998914330782742166e-01,1.448471525621182820e+02
5.330183375075225882e-02,1.823831004155020974e+00,-5.619477425224704170e+00,-0.000000000000000000e+00,1.466699168406071334e-02,9.998914330782597837e-01,1.464392449663857576e+02
-2.977008770861679435e-02,1.514108688415254145e+00,-5.564481262985417231e+00,-0.000000000000000000e+00,1.466699168406043925e-02,9.998914330782411319e-01,1.480313373706532332e+02
-1.226153257310484274e-01,1.203396473482885920e+00,-5.495197755292132058e+00,-0.000000000000000000e+00,1.466699168406010965e-02,9.998914330782184834e-01,1.496234297749207087e+02
-2.226967135172442103e-01,8.944995062017160325e-01,-5.412478883776778993e+00,-0.000000000000000000e+00,1.466699168405971414e-02,9.998914330781916160e-01,1.512155221791881843e+02
-3.274562806980826912e-01,5.902039265454690486e-01,-5.317176724465902282e+00,-0.000000000000000000e+00,1.466699168405926137e-02,9.998914330781606408e-01,1.528076145834556598e+02
-4.343153067974498405e-01,2.932767510568949909e-01,-5.210143441793593233e+00,-0.000000000000000000e+00,1.466699168405874096e-02,9.998914330781253357e-01,1.543997069877231354e+02
-5.406743749491650375e-01,6.465756521413054680e-03,-5.092231282613998822e+00,-0.000000000000000000e+00,1.466699168405816503e-02,9.998914330780861448e-01,1.559917993919906110e+02
-6.439134258676527667e-01,-2.675006361236533792e-01,-4.964292570213595823e+00,-0.000000000000000000e+00,1.466699168405752839e-02,9.998914330780426241e-01,1.575838917962580865e+02
-7.413918120719337201e-01,-5.259134776430850478e-01,-4.827179698323275758e+00,-3.771841852243715265e-01,-5.929110372812035346e-01,7.114679137439675616e-01,1.591759842005255621e+02
-8.332209075809855481e-01,-7.735455380771657508e-01,-4.677207705809107274e+00,-5.300915303214145391e-01,-8.479392486978489796e-01,0.000000000000000000e+00,1.608177560236051704e+02
-9.136660895995333265e-01,-9.999033881752245057e-01,-4.519974325075360788e+00,-4.595974337806965071e-01,-8.868719073829470778e-01,4.718494186863773227e-02,1.624595278466847788e+02
-9.802255318595474165e-01,-1.203361981307890849e+00,-4.357662719891440162e+00,-8.509987894274312695e-03,-3.496795025698991033e-01,9.368296673303051492e-01,1.641012996697643871e+02
-1.030119228473744597e+00,-1.381324208540489096e+00,-4.194156805971291035e+00,-0.000000000000000000e+00,-9.999989999976409404e-07,9.999989999976411914e-01,1.657303144908346439e+02
-1.061953308784047589e+00,-1.534746721654328017e+00,-4.031014302596646282e+00,2.187648692054317834e-01,-3.412217959912045018e-01,9.141704534381586145e-01,1.673593293119049008e+02
-1.074740226672525001e+00,-1.664113152166731391e+00,-3.871540717934773834e+00,-9.983881034639230379e-01,-0.000000000000000000e+00,-5.673794905025602436e-02,1.689883441329751577e+02
-1.065773380858303865e+00,-1.822559371395546135e+00,-3.646834554932970374e+00,-9.999989999833805987e-01,-0.000000000000000000e+00,-0.000000000000000000e+00,1.713957818958127746e+02
-1.037973008356478433e+00,-1.926610330609006994e+00,-3.481437956628431252e+00,-2.172967494852022785e-01,3.431016044486204231e-01,9.138169464883021398e-01,1.733093333169784671e+02
-9.917579778522723766e-01,-2.014209694851982757e+00,-3.332952589991080572e+00,-4.736693923808158457e-01,6.450330106500952454e-02,8.783362857546310742e-01,1.752228847381441597e+02
-9.329546122613160408e-01,-2.084834171597164332e+00,-3.213547299838776627e+00,-6.615480923704625260e-01,-2.234226246702097907e-01,7.158452711762812726e-01,1.769943616397087567e+02
-8.560320370594056705e-01,-2.147679824121206948e+00,-3.114142256991236479e+00,-7.537647468900192660e-01,-4.790410859775404706e-01,4.498403542253093246e-01,1.787658385412733537e+02
-7.575408909618148723e-01,-2.204702510722513775e+00,-3.035931080145472194e+00,-7.369842668875603575e-01,-6.653885299167466849e-01,1.187867611043614685e-01,1.805373154428379507e+02
-6.355721726206302602e-01,-2.258800467302854997e+00,-2.978108024298534939e+00,-6.136331710302367348e-01,-7.555183022609581744e-01,-2.294437324464677352e-01,1.823087923444025478e+02
-4.901429821148667321e-01,-2.312858246300080189e+00,-2.938084095665713935e+00,-4.015486972676965971e-01,-7.363974448212728952e-01,-5.444955894983470879e-01,1.840802692459671448e+02
-3.318799531467200303e-01,-2.366068064841060359e+00,-2.914259180592652321e+00,-4.723165323216749756e-01,-6.835883836414065051e-01,-5.564368922388335248e-01,1.857479976157101191e+02
-1.529969542192149146e-01,-2.423873510529157116e+00,-2.901476640220110426e+00,-5.393343926740082894e-01,-6.253519956977111605e-01,-5.639603659428060745e-01,1.874157259854530935e+02
2.817652653935866572e-02,-2.482410107643384212e+00,-2.897042736455853973e+00,-6.020702035104903427e-01,-5.621506433198264485e-01,-5.670062823801220731e-01,1.889390883555622622e+02
2.252768125337616389e-01,-2.547229218799229145e+00,-2.897042808539528558e+00,-6.600258854841102307e-01,-4.944861044114897686e-01,-5.655504602008426529e-01,1.904624507256714310e+02
4.357914740737893200e-01,-2.617867783816258065e+00,-2.899778864349642049e+00,-7.127413081385771676e-01,-4.228955894932131532e-01,-5.596044567892568544e-01,1.919858130957805997e+02
7.062192214509150912e-01,-2.709609129069187716e+00,-2.905356125765929054e+00,-8.162637039383380255e-01,-3.054692944632069751e-01,4.903061041553442578e-01,1.938525587422797400e+02
9.843734246592875659e-01,-2.803587553144882172e+00,-2.912005257433060823e+00,-3.999995304134481452e-06,1.561658166663663361e-01,9.877298404370138396e-01,1.957193043887788804e+02
1.392288014351619418e+00,-2.938098113742177997e+00,-2.921334700344918822e+00,-7.828344534522074794e-01,9.102111357163510108e-02,6.155350318002562604e-01,1.984406693608128194e+02
1.612013886894503090e+00,-3.006072587927960171e+00,-2.925062959753201852e+00,-9.741568796143648123e-01,-4.289895066157300985e-02,-2.217567449557902581e-01,1.999363587990146698e+02
2.027060597933634689e+00,-3.118593369858350783e+00,-2.925808340324746126e+00,-8.962736280301438763e-01,4.381243293416716145e-01,-6.883789462646959512e-02,2.029129500469389313e+02
2.354381732071582523e+00,-3.185043448905433117e+00,-2.915188971500358495e+00,-6.696665005625734857e-01,1.278249046681574075e-01,7.315774543893701631e-01,2.055053673847398272e+02
2.538746721581135013e+00,-3.200041075682544811e+00,-2.897043226495667145e+00,1.016999272028901863e-02,-9.999472842347653101e-01,0.000000000000000000e+00,2.072214651416229287e+02
2.683193502632852834e+00,-3.179966913475970269e+00,-2.867126623540450669e+00,-6.054196382682944799e-01,-6.902448590224553593e-01,3.962664459591295762e-01,2.089375628985060303e+02
2.784255755868856319e+00,-3.120510593901374641e+00,-2.827775734071306335e+00,-8.384479280489662845e-01,5.561892889150736596e-02,5.421343068842903179e-01,2.106536606553891318e+02
2.846664113027795207e+00,-3.015927503181780267e+00,-2.778767108195558944e+00,-8.404137095963416515e-01,5.230049751403945818e-02,5.394139918772342668e-01,2.124193393247330448e+02
2.873926783554674014e+00,-2.865763382212117349e+00,-2.720676762624064438e+00,-8.423607697599142519e-01,4.898090103079120322e-02,5.366816606278687063e-01,2.141850179940769578e+02
2.872133294396550074e+00,-2.693980474328534047e+00,-2.661511132907993460e+00,-8.442890652640607785e-01,4.566021318149503239e-02,5.339373738166715011e-01,2.157256422970113476e+02
2.848776841457455689e+00,-2.482156072456332296e+00,-2.593123551092887613e+00,-8.461985532678023558e-01,4.233850773138814194e-02,5.311811924013072339e-01,2.172662665999457374e+02
2.807376846847359886e+00,-2.231825610153897799e+00,-2.514651420099431434e+00,-8.480891913443707741e-01,3.901585846821275377e-02,5.284131776015116300e-01,2.188068909028801272e+02
2.751276278497680750e+00,-1.944907127334275510e+00,-2.425302967328610393e+00,-8.499609374821196495e-01,3.569233920063256266e-02,5.256333908977791625e-01,2.203475152058145170e+02
2.637914248335014644e+00,-1.402100923539577604e+00,-2.254102429102967875e+00,-8.518137500854299216e-01,3.236802375664872555e-02,5.228418940300449957e-01,2.229568572653024887e+02
2.559741186839794125e+00,-1.033335857519667833e+00,-2.134369251653132515e+00,-8.536475879756056928e-01,2.904298598201544152e-02,5.200387489963614884e-01,2.245814899898486487e+02
2.476502562170339594e+00,-6.385886384230766710e-01,-2.001091757628544521e+00,-9.804055912419543661e-01,3.279745399875970413e-02,1.942349187782714537e-01,2.262061227143948088e+02
2.390441007589510836e+00,-2.222565827490274870e-01,-1.853950431003513977e+00,-9.873285697273852524e-01,3.254308770709676835e-02,-1.553101504822749501e-01,2.278307554389409688e+02
2.278637349925976441e+00,3.392049770558382416e-01,-1.644762292184499097e+00,-8.735703862520669549e-01,2.831098010943846471e-02,-4.858716586391538805e-01,2.299361849680944658e+02
2.169865550374245888e+00,9.156874106027186322e-01,-1.416727408728894355e+00,-8.452403154532339702e-01,2.746913287323242414e-02,-5.336780451453205787e-01,2.320416144972479628e+02
2.077201198356198653e+00,1.437760596871331176e+00,-1.196352353518168155e+00,-8.142995068181617668e-01,2.654244028108174863e-02,-5.798360216976746750e-01,2.339228117885992333e+02
1.990012272396693760e+00,1.961185166878231856e+00,-9.600426850009770030e-01,-7.808435287175470307e-01,2.553376465599628553e-02,-6.242030202755196600e-01,2.358040090799505037e+02
1.908660717220060477e+00,2.481363186478443783e+00,-7.089997607364429966e-01,-7.449757177108881079e-01,2.444622152871915241e-02,-6.666420045817887940e-01,2.376852063713017742e+02
1.840638082085162663e+00,2.942636471614644478e+00,-4.712691304401077641e-01,-7.068068594056977627e-01,2.328317001578626352e-02,-7.070218932181543403e-01,2.393772263515389511e+02
1.777106059660278570e+00,3.394505518275154010e+00,-2.231117338980609377e-01,-6.664548463249383436e-01,2.204820244574363236e-02,-7.452179644758863963e-01,2.410692463317761280e+02
1.716439527528226483e+00,3.835617566656341015e+00,3.351117558812926472e-02,-6.240443138369753395e-01,2.074513326548887635e-02,-7.811122414942136549e-01,2.427612663120133050e+02
1.648763931591602061e+00,4.320925839540264768e+00,3.303499140063548278e-01,-5.797062552705321004e-01,1.937798726094011256e-02,-8.145938565987195235e-01,2.446723705017103612e+02
1.579422644976421042e+00,4.793162273496261783e+00,6.309815851538972398e-01,-5.335776174010802286e-01,1.795098712834260549e-02,-8.455593936962494395e-01,2.465834746914074174e+02
1.518186032652174555e+00,5.176882749636404490e+00,8.812262627925150360e-01,-8.875683493725092799e-01,2.518998153461140393e-02,-4.599846628105687674e-01,2.481763902549058116e+02
1.452078967704421686e+00,5.552413879107843009e+00,1.127276389021773850e+00,-7.597787949678806996e-01,2.856543748780321704e-02,-6.495523062069372688e-01,2.497693058184042059e+02
1.380322838831104626e+00,5.921406229426611212e+00,1.365454073239486643e+00,-5.922698624999988004e-01,3.044756205157407580e-02,-8.051629375100725072e-01,2.513622213819026001e+02
1.296278682028199958e+00,6.314936972391873127e+00,1.610856665057894155e+00,-3.937985186057808562e-01,3.073796245104583325e-02,-9.186816120989989010e-01,2.530850393346039482e+02
1.206404072706260155e+00,6.704268155103238591e+00,1.840770091074717119e+00,-1.747403682034724126e-01,2.942145755021353254e-02,-9.841738573831245729e-01,2.548078572873052963e+02
1.122200861040519859e+00,7.050482253126538090e+00,2.031161187273274216e+00,5.345276159967278506e-02,2.656687135588815460e-02,-9.982159103242385090e-01,2.563537788340681800e+02
1.036725614503838377e+00,7.393186378736582576e+00,2.204575220689463322e+00,2.788514973763285831e-01,2.232343490115354379e-02,-9.600736985596330930e-01,2.578997003808310637e+02
9.523186096790967614e-01,7.731549731880200227e+00,2.360231861180948965e+00,4.896725565858324192e-01,1.691298468475121997e-02,-8.717412106104414082e-01,2.594456219275939475e+02
8.709879206499387960e-01,8.064559052049490973e+00,2.497576864593203716e+00,4.838606244995389272e-01,1.681634508519099999e-02,-8.749823464078338997e-01,2.609915434743568312e+02
7.666020536228386195e-01,8.509111526004623727e+00,2.659524687551224620e+00,4.780272641022016988e-01,1.671896069572938182e-02,-8.781847249053709170e-01,2.630983951370834575e+02
6.946948634662193367e-01,8.832343636126974928e+00,2.761773190610869122e+00,4.721727323223930406e-01,1.662083580582001535e-02,-8.813482050798151501e-01,2.646719166653975890e+02
6.294469708459283774e-01,9.144930038880126233e+00,2.845761194604273570e+00,4.662972870224132982e-01,1.652197473758049845e-02,-8.844726476241844271e-01,2.662454381937117205e+02
5.257981994892151345e-01,9.677961801401236741e+00,2.964651334699693663e+00,5.564926453069906076e-01,-1.202404257099042445e-01,-8.221047231014597667e-01,2.690423153242666103e+02
4.549496325842889988e-01,1.006500714577321531e+01,3.035576909367360354e+00,6.295875639642395383e-01,-2.533079807199871136e-01,-7.344743468673999853e-01,2.711813290364380578e+02
3.918388409292862251e-01,1.042820956851652170e+01,3.091553206750574212e+00,6.833359094384706678e-01,-3.785916771610151055e-01,-6.242742801502143557e-01,2.733203427486095052e+02
3.438619019054349191e-01,1.073342477847589826e+01,3.136573428560374133e+00,7.160860319781832128e-01,-4.922416762770984167e-01,-4.948908232548988595e-01,2.752575089428830779e+02
3.130452453829958293e-01,1.097792825071527290e+01,3.180407997631280015e+00,7.268315228414715667e-01,-5.907656121675500804e-01,-3.502997700312692197e-01,2.769460215713796742e+02
3.095932527243107635e-01,1.102017503548593425e+01,3.190465268855717351e+00,9.796526068681459254e-01,-0.000000000000000000e+00,2.006957145972041445e-01,2.772638023249403432e+02
3.026906547918138402e-01,1.127291412769967138e+01,3.275516245501207457e+00,3.588155418937448160e-01,-5.920762440856113251e-01,-7.215920787304161976e-01,2.793519319047393878e+02
3.057507978357093537e-01,1.135906633242207953e+01,3.318906977493843335e+00,9.796526068684218158e-01,-0.000000000000000000e+00,2.006957145972606549e-01,2.801474229694475184e+02
3.107429793363091219e-01,1.140662091135506273e+01,3.353154342643997143e+00,9.969265735217056612e-01,1.237348186384753732e-02,7.734535509308596013e-02,2.806420738369828314e+02
3.366323127194684739e-01,1.155021971936139735e+01,3.499756184510633528e+00,9.985818554224957788e-01,2.455311065364407241e-02,-4.721676375809008563e-02,2.823526598806212746e+02
3.674087435917509636e-01,1.167261526586850451e+01,3.679478399028602187e+00,9.845925174251731748e-01,3.634807075008189559e-02,-1.710391545366056476e-01,2.840632459242597179e+02
4.027500725636417034e-01,1.178815837328092897e+01,3.922519942973721196e+00,9.551777228406169717e-01,4.757357286898546839e-02,-2.921819175699156834e-01,2.860001234538141830e+02
4.334155313424866707e-01,1.188237413969302381e+01,4.205791445551025021e+00,9.107983006361806133e-01,5.805374902483229765e-02,-4.087471318352697280e-01,2.879370009833686481e+02
4.390070649240253586e-01,1.190202761639570816e+01,4.289130581520872454e+00,8.521495268940568746e-01,6.762440777044485818e-02,-5.189085885672628518e-01,2.884420932743479966e+02
4.446383982446794336e-01,1.193547894454989411e+01,4.494078321140960064e+00,7.801502334519764270e-01,7.613560655527953913e-02,-6.209404018583390972e-01,2.895637433614400038e+02
4.418652078260454363e-01,1.197835865878389328e+01,4.900927476350322998e+00,6.959284141592327888e-01,8.345400090247497016e-02,-7.132440480646629055e-01,2.915982218871575924e+02
4.308374655791155083e-01,1.199867286414508172e+01,5.226823310654646448e+00,6.008035540478099401e-01,8.946493359379650845e-02,-7.943734103687308812e-01,2.931261772873576206e+02
4.124540963526082682e-01,1.200858919405300362e+01,5.565769548860545868e+00,0.000000000000000000e+00,2.192496970815314972e-02,-9.997586187194160701e-01,2.946541326875576488e+02
3.883710249378701795e-01,1.200941398729289666e+01,5.910805149521529245e+00,4.770202322144586060e-01,1.844162797650683236e-02,-8.786976752087577447e-01,2.961820880877576769e+02
3.602533890687390494e-01,1.200244156595998746e+01,6.254969031761544507e+00,8.384982794343323054e-01,1.049141407014996669e-02,-5.448014001613514790e-01,2.977100434879577051e+02
3.218429016834665202e-01,1.198549502634192798e+01,6.679674572769077834e+00,9.968779763717973141e-01,0.000000000000000000e+00,-7.894491893667290872e-02,2.996424975149617467e+02
2.830556413330887477e-01,1.196244985695577689e+01,7.083137337544035184e+00,9.649608887084646369e-01,-0.000000000000000000e+00,-2.623899450513361153e-01,3.015749515419657882e+02
2.463785686179923440e-01,1.193561511264998742e+01,7.454156281047134236e+00,8.995877910866412197e-01,-0.000000000000000000e+00,-4.367376857210154006e-01,3.035074055689698298e+02
2.174650941642396196e-01,1.191019025276119692e+01,7.748557276044254927e+00,8.030252251752200143e-01,-0.000000000000000000e+00,-5.959433595010397156e-01,3.052431107428334940e+02
1.942653276506687565e-01,1.188536080460561806e+01,7.995363640968937702e+00,6.786210963136768415e-01,-0.000000000000000000e+00,-7.344871732298102751e-01,3.069788159166971582e+02
1.900369000515604034e-01,1.187952777956856387e+01,8.045946883663452454e+00,5.306885990792497010e-01,-0.000000000000000000e+00,-8.475656970455929251e-01,3.074191170015756143e+02
1.805493957019818352e-01,1.185983463467129795e+01,8.187913714465123505e+00,3.643566758920477877e-01,-0.000000000000000000e+00,-9.312584027722659030e-01,3.090826228308427517e+02
1.776604256161893880e-01,1.184270338624237873e+01,8.270689834631300030e+00,1.853921931628668973e-01,-0.000000000000000000e+00,-9.826635918335872022e-01,3.107461286601098891e+02
1.816509667637069836e-01,1.182676894377414811e+01,8.291270139434468334e+00,0.000000000000000000e+00,-0.000000000000000000e+00,-9.999989999999968626e-01,3.125187012298287641e+02
1.928755515030305956e-01,1.181238471146243185e+01,8.240361985603994910e+00,-0.000000000000000000e+00,9.968731427319694749e-01,-7.900593205829621601e-02,3.142912737995476391e+02
2.133212823413499770e-01,1.179787355548150529e+01,8.105271415392762080e+00,-9.968817776734337777e-01,0.000000000000000000e+00,-7.889690326056407466e-02,3.162045701443610142e+02
2.426650703279837062e-01,1.178422434231639215e+01,7.888278593026015528e+00,-0.000000000000000000e+00,9.968731427319725835e-01,-7.900593205829646581e-02,3.181178664891743892e+02
2.445847160638680851e-01,1.178356977053353738e+01,7.875023315138697022e+00,9.968779763718003117e-01,0.000000000000000000e+00,-7.894491893667313076e-02,3.182140563109689992e+02
2.880113649128402953e-01,1.177213553511036537e+01,7.589832877980357217e+00,9.968779756678982640e-01,-0.000000000000000000e+00,-7.894491888092960985e-02,3.199792790965235554e+02
3.398139747486568218e-01,1.176148533063800805e+01,7.233213480239593984e+00,0.000000000000000000e+00,-9.968312352734686188e-01,-7.953293898571152376e-02,3.217445018820781115e+02
4.042766214689346715e-01,1.175063333377501351e+01,6.775260632761061608e+00,-9.796745246597646783e-01,-0.000000000000000000e+00,2.005886979235762813e-01,3.236579681635880661e+02
4.753712203886660825e-01,1.174025021584728812e+01,6.253502146560208530e+00,-0.000000000000000000e+00,-0.000000000000000000e+00,-9.999989999999792101e-01,3.255714344450980207e+02
5.508734687587144574e-01,1.172992975346831734e+01,5.676536774308434730e+00,-0.000000000000000000e+00,-4.287337313167139535e-02,-9.990795132804637380e-01,3.274849007266079752e+02
6.191500232485356303e-01,1.172030043195530524e+01,5.127803668738626364e+00,-0.000000000000000000e+00,-8.566789209172613606e-02,-9.963227450202754021e-01,3.291690459113141287e+02
6.872384389129474469e-01,1.170943782645434084e+01,4.545464700441863570e+00,-1.897944589642378832e-01,-3.604137342227722862e-01,-9.132787107619113609e-01,3.308531910960202822e+02
7.531863806756921020e-01,1.169667529817881935e+01,3.936480687622202712e+00,-3.571165318402182987e-01,-5.924852232850398304e-01,-7.220990533685643920e-01,3.325373362807264357e+02
8.150361844174621728e-01,1.168136163488915535e+01,3.307812658006663131e+00,-7.276310544702175864e-01,-4.777519535019162378e-01,-4.922439633936577796e-01,3.342214814654325892e+02
8.742426360142182551e-01,1.166169686937653793e+01,2.626836640591720062e+00,-9.502337949370633918e-01,-2.659020387987073297e-01,-1.623263402045622139e-01,3.360098362883581444e+02
9.249080190575121874e-01,1.163790670338804389e+01,1.940059739480456624e+00,-9.796745246597435841e-01,-0.000000000000000000e+00,2.005886979235719514e-01,3.377981911112836997e+02
9.651624947066066440e-01,1.160923650409430152e+01,1.254974252194845930e+00,-9.796745239680101358e-01,-0.000000000000000000e+00,2.005886977819393013e-01,3.395865459342092549e+02
1.000283166325188766e+00,1.156603643123597358e+01,4.063746469531217542e-01,-9.546707119062373126e-01,-0.000000000000000000e+00,-2.976605983800955091e-01,3.418331500898481181e+02
1.018723146751827180e+00,1.151470192273694337e+01,-4.195890859027159858e-01,9.546769266717656244e-01,-0.000000000000000000e+00,-2.976406653672871716e-01,3.440797542454869813e+02
1.021475277420376804e+00,1.146280774796624158e+01,-1.105741095312074540e+00,-5.741094903288209705e-01,1.828998376289236397e-03,-8.187752731244372084e-01,3.460221404963771192e+02
1.013651947047809587e+00,1.140313667333802172e+01,-1.757305663609921353e+00,-0.000000000000000000e+00,-9.950635238632307145e-01,9.922995251858010568e-02,3.479645267472672572e+02
9.989485608848843734e-01,1.133833382557242508e+01,-2.348339153139200608e+00,-5.759863546499147668e-01,0.000000000000000000e+00,-8.174580840987117902e-01,3.498381785749494952e+02
9.829955163355039716e-01,1.127752404829394273e+01,-2.821371703741476278e+00,5.764363129605208913e-01,-1.163998612660267209e-03,-8.171400260720130815e-01,3.514450610823338934e+02
9.661503228850029101e-01,1.121314580674901862e+01,-3.259736091764938948e+00,0.000000000000000000e+00,8.080491350123117367e-02,9.967289330373387823e-01,3.530519435897182916e+02
9.504164441243270200e-01,1.114907708866587122e+01,-3.656285459974009999e+00,5.752485914330329742e-01,0.000000000000000000e+00,-8.179774190362946173e-01,3.546314714484562955e+02
9.364469375251929240e-01,1.108802789012530354e+01,-4.018499767296878744e+00,-4.272875887400616746e-01,2.998997113495920769e-02,9.036171302777449288e-01,3.562109993071942995e+02
9.251424095634521727e-01,1.103411222357544474e+01,-4.346389765832221919e+00,4.301035175187842285e-01,3.026596604826629205e-02,9.022709878510976056e-01,3.577905271659323034e+02
9.179202310511036522e-01,1.099121428013806678e+01,-4.641080030036902393e+00,9.997494087566847210e-01,0.000000000000000000e+00,-2.234098678773002375e-02,3.593760263130449175e+02
9.160565874241395345e-01,1.096363534894895153e+01,-4.901440449602180394e+00,0.000000000000000000e+00,9.997078536730038545e-01,-2.412897233222458665e-02,3.609615254601575316e+02
9.197881475683550301e-01,1.095563307063439495e+01,-5.127157420493195339e+00,-0.000000000000000000e+00,9.997078529671034053e-01,-2.412897231518696187e-02,3.625427489596182227e+02
9.285115298366941605e-01,1.097127759201814889e+01,-5.319480188559472467e+00,8.506807646962084579e-01,5.164672500195388594e-01,9.798885770689490238e-02,3.641239724590789137e+02
9.492338173737123741e-01,1.104673261132017714e+01,-5.597400617565397418e+00,0.000000000000000000e+00,9.993857527529492746e-01,3.501595629960892880e-02,3.668740225112421740e+02
9.528033323493402262e-01,1.106756893516008056e+01,-5.635060297552080932e+00,-5.024135394086214346e-01,7.294793312443546007e-01,4.641535744837311239e-01,3.673254196823474444e+02
9.641205273086154159e-01,1.117612383107323559e+01,-5.744453219598206317e+00,7.294162694264941793e-01,5.001404990660159866e-01,4.667005325590358189e-01,3.689782095755043656e+02
9.709019410014800844e-01,1.131856319068153738e+01,-5.821258098693171235e+00,5.179124917774815540e-01,7.186022948425190293e-01,4.640855445973440796e-01,3.706309994686612868e+02
9.696019290140420743e-01,1.149481115748327831e+01,-5.864738168565119203e+00,1.270998420255520234e-03,1.158168560493576527e-01,9.932687654501971553e-01,3.722837893618182079e+02
9.482319114347931288e-01,1.183733865343548253e+01,-5.879921123380241532e+00,0.000000000000000000e+00,1.173078338390019654e-01,9.930945933284813787e-01,3.749852023376957391e+02
9.403490015188066264e-01,1.190313260921581318e+01,-5.874027650328575767e+00,1.182598423654877134e-01,0.000000000000000000e+00,9.929816764046089927e-01,3.754370040723335933e+02
8.661178079828929510e-01,1.234187796842388352e+01,-5.790002598175939319e+00,-9.994701503669238818e-01,0.000000000000000000e+00,3.251797235700848443e-02,3.781144303587176410e+02
7.818753426718424437e-01,1.276904861147511028e+01,-5.671232418395888430e+00,-9.359985444648430625e-04,-1.157798199552772800e-01,9.932734553988429305e-01,3.804547655798012897e+02
6.730191645174844473e-01,1.331506518543921125e+01,-5.487899280945431890e+00,9.994709311547940178e-01,-0.000000000000000000e+00,3.249396525059618929e-02,3.831657672742510385e+02
6.049263009326001361e-01,1.368900611707831416e+01,-5.349959950819409116e+00,-9.999989999702542098e-01,-0.000000000000000000e+00,0.000000000000000000e+00,3.848621306390451764e+02
5.441066050295830792e-01,1.407229633580301886e+01,-5.202176202732104571e+00,-5.517134353490509291e-01,-8.267481538648510098e-01,1.099898874308828656e-01,3.864687383325978089e+02
4.889148826943354176e-01,1.448216481597116179e+01,-5.041454652980700502e+00,-2.883779608520256610e-01,-9.545120556963128111e-01,7.578183968180839114e-02,3.880753460261504415e+02
4.422925564784431773e-01,1.489791833002264454e+01,-4.878601254127145737e+00,-0.000000000000000000e+00,-9.993865585865699952e-01,3.499294952973203837e-02,3.896170804303950490e+02
4.020144076871353667e-01,1.533253040171438641e+01,-4.710512853714048376e+00,5.227064052945151751e-01,-8.494460335488333014e-01,-7.223191781865063998e-02,3.911588148346396565e+02
3.675335810868269881e-01,1.578199225675726680e+01,-4.540083178541580722e+00,6.700438330943858656e-01,-7.271290721280836422e-01,1.494074101229715956e-01,3.927005492388842640e+02
3.306706273451573419e-01,1.636023300805835845e+01,-4.325843972057687559e+00,7.598955713732464812e-01,-5.424288664971953500e-01,3.582284821161559885e-01,3.946400530238337865e+02
2.992234226704104105e-01,1.694443446732685743e+01,-4.114869330930330804e+00,7.845528956076698313e-01,-3.111915698471528491e-01,5.363157287000197559e-01,3.965795568087833090e+02
2.716868704292351167e-01,1.752733578225212341e+01,-3.910439022389789354e+00,7.419003579199097143e-01,-5.325592670882686730e-02,6.683903539025736196e-01,3.985190605937328314e+02
2.484178427395783706e-01,1.805634292219741965e+01,-3.731168144184624502e+00,6.355972790766489799e-01,2.092487626605334106e-01,7.431211571181745024e-01,4.003049848893569447e+02
2.260691552851610553e-01,1.857123029340819187e+01,-3.563372089745183935e+00,7.342455860396148726e-01,2.131448798310290049e-01,6.445546366064833776e-01,4.020909091849810579e+02
2.042352401637010928e-01,1.906551203472432476e+01,-3.408867764906319042e+00,0.000000000000000000e+00,2.016697227948333407e-02,9.997956257306789274e-01,4.038768334806051712e+02
1.857043497179462765e-01,1.946693589219244203e+01,-3.288767424874170064e+00,-0.000000000000000000e+00,2.016697226524963651e-02,9.997956250250304988e-01,4.054108889543014698e+02
1.671484365459796062e-01,1.984016757320243940e+01,-3.182383691538563486e+00,-0.000000000000000000e+00,1.705397560833250836e-02,9.998535699465991300e-01,4.069449444279977683e+02
1.487139548780127551e-01,2.018054019418168110e+01,-3.090652140223929312e+00,-0.000000000000000000e+00,1.678912439550576952e-02,9.998580521495251672e-01,4.084789999016940669e+02
1.311247736554435328e-01,2.048377272364026425e+01,-3.014184070640550051e+00,-0.000000000000000000e+00,1.652427199267321803e-02,9.998624643325838557e-01,4.100130553753903655e+02
1.153795741318935641e-01,2.074577179075328814e+01,-2.953428592915755324e+00,-0.000000000000000000e+00,1.625941839447164403e-02,9.998668063594333688e-01,4.115471108490866641e+02
9.704297504458206380e-02,2.105965861292875729e+01,-2.888892860048422939e+00,-0.000000000000000000e+00,1.599456359786360568e-02,9.998710782300859190e-01,4.137753540583346989e+02
8.564088823800815320e-02,2.129950215883174280e+01,-2.847634855078875038e+00,-0.000000000000000000e+00,1.572970759981139055e-02,9.998752799445366213e-01,4.160035972675827338e+02
8.380066387881281165e-02,2.142828968727697614e+01,-2.829623716474265027e+00,-0.000000000000000000e+00,1.546485039727701731e-02,9.998794115027618279e-01,4.177925781126367610e+02
9.086083991742055499e-02,2.149543704268734956e+01,-2.819719896513871227e+00,-0.000000000000000000e+00,1.519999198722226698e-02,9.998834729047203496e-01,4.197100005893018988e+02
1.075354556412944917e-01,2.149025398338264736e+01,-2.811149029693098989e+00,8.370268619317425829e-01,-1.940497361591901893e-01,5.115943044079408475e-01,4.216274230659670366e+02
1.344302135106459906e-01,2.141267670651000898e+01,-2.796818080928713535e+00,0.000000000000000000e+00,-2.786296520869569956e-02,9.996107518284006455e-01,4.235448455426321743e+02
1.684029655780811541e-01,2.128119158863489346e+01,-2.775566162567503437e+00,6.991536932645192604e-01,-5.387427636406384446e-01,-4.700407937818390502e-01,4.252399311707904985e+02
2.140773976381638855e-01,2.108815847508149233e+01,-2.743833562206793975e+00,4.595995113947056177e-01,-5.348094314382125791e-01,-7.090452462062019068e-01,4.269350167989488227e+02
2.782999149094674274e-01,2.081172812113966231e+01,-2.695680740644034401e+00,-4.199765354728743905e-01,-5.494543922601671238e-01,-7.223002010790892102e-01,4.287874910091637730e+02
3.529551392680113642e-01,2.049538357881418449e+01,-2.636467292248817262e+00,-8.217572942078683607e-01,1.566598654477408675e-02,5.696205107634852993e-01,4.305164043920318591e+02
4.435846885337809686e-01,2.012426213489954918e+01,-2.561553596049146897e+00,-8.124784207468892516e-01,4.212909528074874205e-02,5.814653516300491987e-01,4.322453177748999451e+02
5.361400981842077140e-01,1.976155410093454989e+01,-2.482738678159642554e+00,-8.024466305158267643e-01,6.855315426832334080e-02,5.927713473243773068e-01,4.337302406261237024e+02
5.833294153729569054e-01,1.958579497951875936e+01,-2.442175340818808493e+00,-7.916712200141434730e-01,9.491367808447349896e-02,6.035280218093767024e-01,4.343771228829025404e+02
7.148724165939268627e-01,1.911739432724747800e+01,-2.328082781958768166e+00,-7.801621746499253218e-01,1.211862402296333824e-01,6.137254079961460551e-01,4.359482980328901931e+02
8.630475854672807756e-01,1.860820967999360320e+01,-2.197200248854280780e+00,-7.679301594871857928e-01,1.473464957438258838e-01,6.233540569673506893e-01,4.375194731828778458e+02
1.013223540802208555e+00,1.810792904842330486e+01,-2.062306317744186046e+00,-7.549865093677484706e-01,1.733702037470828128e-01,6.324050467233119921e-01,4.389529461146747735e+02
1.214430435649956230e+00,1.745389219514824219e+01,-1.880033004386028050e+00,-7.413432184142337844e-01,1.992332498833895016e-01,6.408699904409976833e-01,4.407046881510376579e+02
1.433575069240765609e+00,1.675757393778229343e+01,-1.685155413092122467e+00,-7.270129289238149717e-01,2.249116686475268190e-01,6.487410442383414466e-01,4.424564301874005423e+02
1.671820026057169395e+00,1.601935384178895916e+01,-1.484288173814267919e+00,-8.833083786843737295e-01,-4.189862841558845696e-01,-2.102731600406161361e-01,4.442081722237634267e+02
1.929817322974416216e+00,1.523987057329767580e+01,-1.283259078898964178e+00,-0.000000000000000000e+00,-5.697617808903334691e-01,-8.218086839622579243e-01,4.459599142601263111e+02
2.323916949731176462e+00,1.407193416902991068e+01,-1.003233600369435319e+00,-7.142513392295073427e-01,-6.601633892675252691e-01,-2.324377849664099327e-01,4.484558067237550745e+02
2.581065094563784523e+00,1.332209172850482659e+01,-8.382629951758623355e-01,-7.792609455781506211e-01,-6.071405740675446250e-01,-1.553406000317441304e-01,4.499873625635356689e+02
2.852846812482586980e+00,1.254198397667105525e+01,-6.813001751026931396e-01,-8.341544377335228244e-01,-5.462360682119525856e-01,-7.622684431726375887e-02,4.515189184033162633e+02
3.137620074145149207e+00,1.173437404702882247e+01,-5.325044276438949398e-01,-8.782192114986940856e-01,-4.782405144367783967e-01,3.876455428092505894e-03,4.530504742430968577e+02
3.433763360112801255e+00,1.090203644907006009e+01,-3.920349871664929875e-01,-9.108832367271777475e-01,-4.040366075625673736e-01,8.392942749491363874e-02,4.545820300828774521e+02
3.739675690836701261e+00,1.004775695705898819e+01,-2.600510338762105356e-01,-9.317224826957318795e-01,-3.245876358318353638e-01,1.628928540645060430e-01,4.561135859226580465e+02
4.053776656406628653e+00,9.174332498686332826e+00,-1.367116927827993489e-01,-9.404664223638338205e-01,-2.409249761744624019e-01,2.397416615074553503e-01,4.576451417624386409e+02
4.374506446063835874e+00,8.284571043598019102e+00,-2.217603266541564450e-02,-9.370015441083904273e-01,-1.541347056911980817e-01,3.134782270601338405e-01,4.591766976022192353e+02
4.700325877478448433e+00,7.381291491803519733e+00,8.339693496130402839e-02,-9.213728253640963706e-01,-6.534350310406965290e-02,3.831453291942362727e-01,4.607082534419998296e+02
5.029716425792072343e+00,6.467323561963631562e+00,1.798482568804695980e-01,-8.937831490311479721e-01,2.429597686785708172e-02,4.478385736139383622e-01,4.622398092817804240e+02
5.361180252426443360e+00,5.545507679555627512e+00,2.670190392058537365e-01,-9.241325611954082087e-01,1.083556543586387533e-01,3.663823979214446136e-01,4.637713651215610184e+02
5.693240233659767391e+00,4.618694864915203091e+00,3.447504484151870940e-01,-9.409690694337842221e-01,1.908309044523144038e-01,2.795689114955250965e-01,4.653029209613416128e+02
6.024439988968169679e+00,3.689746621157446338e+00,4.128837123837113543e-01,-9.440464974518757435e-01,2.705157665155980551e-01,1.886675136725022295e-01,4.668344768011222072e+02
6.353343909128406075e+00,2.761534821981051380e+00,4.712601214165810237e-01,-9.333198499414820937e-01,3.462450816379840091e-01,9.500737417002060037e-02,4.683660326409028016e+02
6.696974235343317261e+00,1.784191003069491188e+00,5.224694074030051816e-01,-9.089459700185579250e-01,4.169115275724294412e-01,-4.199995240732345313e-05,4.699849865328579313e+02
7.034921329123922540e+00,8.138981540134649917e-01,5.634075131556488536e-01,-9.785014043029179875e-01,2.062353018611232658e-01,-4.521426972516520812e-05,4.716039404248130609e+02
7.365634693224973439e+00,-1.459269954301946892e-01,5.951474826681110164e-01,-9.998925241434287736e-01,-1.459239623889466500e-02,-4.620302630824805166e-05,4.732228943167681905e+02
7.687583730161202666e+00,-1.091799538322772989e+00,6.191793149143874908e-01,-9.720663717170556772e-01,-2.347018682492093000e-01,-4.491755154107168811e-05,4.748418482087233201e+02
7.999264281240558994e+00,-2.020222826617523726e+00,6.369930648858870281e-01,-8.963925930718692481e-01,-4.432587476524788572e-01,-4.142111846973430949e-05,4.764608021006784497e+02
8.299198660338312550e+00,-2.927688622074283931e+00,6.500788327615598661e-01,-7.765960327446176370e-01,-6.299973020876569185e-01,-3.588582989985976353e-05,4.780797559926335794e+02
8.585935687336053945e+00,-3.810677247323994266e+00,6.599267530778001323e-01,-6.185733925642343811e-01,-7.857257518974135602e-01,-2.858414729563038372e-05,4.796987098845887090e+02
8.858050721225202651e+00,-4.665657737080745271e+00,6.680269838981812702e-01,-4.301029769516611090e-01,-9.027787263901672077e-01,-1.987547934695063349e-05,4.813176637765438386e+02
9.114145692875476712e+00,-5.489087989500809783e+00,6.758696959831838047e-01,-2.204618134999584977e-01,-9.753945810209699863e-01,-1.018849042855558623e-05,4.829366176684989682e+02
9.352849137468671969e+00,-6.277414917687773155e+00,6.849450619602458490e-01,3.099996898510142554e-05,-9.999989995194007442e-01,-0.000000000000000000e+00,4.845555715604540978e+02
9.572816226596337685e+00,-7.027074601340121518e+00,6.967432454940782893e-01,2.499997267777621953e-05,-7.954151306986418923e-01,-6.060633376393507188e-01,4.861745254524092275e+02
9.772728800020244577e+00,-7.734492438540155668e+00,7.127543904551786325e-01,1.249998704530147521e-05,-7.954196756453777439e-01,-6.060573718961056455e-01,4.877934793443643571e+02
9.946956681173938719e+00,-8.379889694841876846e+00,7.339237570168788416e-01,0.000000000000000000e+00,-7.954242209842218303e-01,-6.060514064505511111e-01,4.893727520113143896e+02
1.009936730329954102e+01,-8.977708647625028959e+00,7.620555352875825195e-01,-0.000000000000000000e+00,-6.060633378291391260e-01,7.954151309477258680e-01,4.909520246782644222e+02
1.015966375411815115e+01,-9.231706718982421123e+00,7.786757072766269383e-01,-2.327097549703582013e-01,-7.626911969311694905e-01,-6.034453646076352040e-01,4.916820883707489998e+02
1.029463922928325204e+01,-9.859151471016611268e+00,8.350238361729603875e-01,-5.163343074801883814e-01,-6.993530620110968155e-01,-4.942693370742496928e-01,4.936592775981091563e+02
1.039977363894847961e+01,-1.042710236742901309e+01,9.053797433339109135e-01,-8.058157105163935574e-01,-5.538986047993098571e-01,-2.094167526438344140e-01,4.956364668254693129e+02
1.046382028723640722e+01,-1.086800408175356303e+01,9.803162122403724643e-01,-9.453365554637100932e-01,-3.053647430282114827e-01,1.144079132774531438e-01,4.973401002483557249e+02
1.050012313023030153e+01,-1.126395063918211825e+01,1.071390967693696350e+00,-9.089321683888433867e-01,-2.999997255206412577e-06,4.169416185267573183e-01,4.990437336712421370e+02
1.050773294878278818e+01,-1.165026241470974711e+01,1.188916401059626926e+00,-7.742447476626014291e-01,3.056282090361985282e-01,5.541971387141507721e-01,5.008965341539060887e+02
1.048176566216404915e+01,-1.199756249325303870e+01,1.324848058303508269e+00,-5.386031923324989812e-01,5.714084050104533130e-01,6.191906296878761928e-01,5.027493346365700404e+02
1.042061786735443363e+01,-1.231131067644420440e+01,1.478766933579003684e+00,-2.327328258595024180e-01,7.626824293289000689e-01,6.034475484751410379e-01,5.046021351192339921e+02
1.032188705170330145e+01,-1.259657356498220437e+01,1.649721144675837081e+00,-9.089459700190846148e-01,4.169115275726710257e-01,-4.199995240734779347e-05,5.064549356018979438e+02
1.016047931403224247e+01,-1.289655458600461202e+01,1.863266368795927663e+00,-7.655588836089527449e-01,6.205717417684705195e-01,1.697301064837873630e-01,5.085831919509165573e+02
9.949055500061165347e+00,-1.317373969812494927e+01,2.090769306025615837e+00,-5.526130236044405342e-01,7.678467639836310532e-01,3.240805350272543683e-01,5.107114482999352276e+02
9.777568326261448561e+00,-1.334647563751422972e+01,2.249777412794070841e+00,-2.894566032810570455e-01,8.453551578259258514e-01,4.489850019262019987e-01,5.121325121927999362e+02
9.378297205247738688e+00,-1.366882069216021023e+01,2.577262311455265742e+00,-0.000000000000000000e+00,8.460544322754661728e-01,5.330946422796267736e-01,5.149820309329513748e+02
9.082253172445618361e+00,-1.386126417203465522e+01,2.791481884651788370e+00,-0.000000000000000000e+00,5.332983833111852867e-01,8.459260217988052721e-01,5.168399083536106673e+02
8.749699351679000259e+00,-1.403321564234162899e+01,3.001475501472276708e+00,-0.000000000000000000e+00,9.900799502825340381e-01,1.404980143735206355e-01,5.186977857742699598e+02
8.254622855873732234e+00,-1.422665850034182000e+01,3.268649340967020755e+00,-0.000000000000000000e+00,7.475867697530766964e-01,-6.641626470116499537e-01,5.211701687080599186e+02
7.891483638187945182e+00,-1.432264952773004651e+01,3.431369873066550724e+00,-0.000000000000000000e+00,-2.291096583323577046e-02,-9.997365091086141131e-01,5.227942044743847418e+02
7.488733861819983240e+00,-1.438322985546291299e+01,3.577385035340815200e+00,-0.000000000000000000e+00,2.371197228132256377e-02,-9.997178313559172969e-01,5.244182402407095651e+02
6.738033236958702155e+00,-1.443138309175593292e+01,3.791976522087361801e+00,2.467465232155975352e-01,3.802238382244655934e-01,-8.913719684441564484e-01,5.271845382986685991e+02
6.290235243984495739e+00,-1.443424606222108864e+01,3.889679392413114556e+00,4.442119517835491083e-01,6.607960370785164184e-01,-6.049978010494152514e-01,5.287163247841320981e+02
5.814069867886871634e+00,-1.441833534496016256e+01,3.965437328665770700e+00,5.529576574120685928e-01,8.093914985370842530e-01,-1.977908774575835027e-01,5.302481112695955972e+02
5.202578179434082628e+00,-1.437940531588825799e+01,4.031076543383299793e+00,6.251335082034850110e-01,6.896522921546467400e-01,-3.654939299730944890e-01,5.321191770996987316e+02
4.567288819271920985e+00,-1.432447236083169884e+01,4.070621476521536941e+00,6.675084704846109274e-01,5.370364989596068117e-01,-5.157734392314420324e-01,5.339902429298018660e+02
4.040046544090174052e+00,-1.427026248055216762e+01,4.082756492296711670e+00,6.780624737610042585e-01,3.588195133768258271e-01,-6.414653837092972877e-01,5.355018928250600538e+02
3.503802402940161542e+00,-1.420892868807477427e+01,4.076473624897057668e+00,6.562924008750601335e-01,1.634971751996023293e-01,-7.365778697841200984e-01,5.370135427203182417e+02
2.963433861185088780e+00,-1.414275941597620800e+01,4.053137769209365970e+00,6.032360701589598584e-01,-3.961924596461139508e-02,-7.965767753385978311e-01,5.385251926155764295e+02
2.423801762802254789e+00,-1.407407757076664190e+01,4.014113928152702293e+00,5.214227561253226284e-01,-2.408469375197301587e-01,-8.186018947465673046e-01,5.400368425108346173e+02
