2.287455907986637005e+00,-4.699472014285891674e+00,-2.897042947245330957e+00,3.143997210390435913e-03,3.833196598876786876e-02,9.992591133761918876e-01,2.963371091153083725e+01
2.079143135730835645e+00,-4.630610890453422002e+00,-3.378235083961235397e+00,-9.741568796143644793e-01,-4.289895066157298903e-02,-2.217567449557901749e-01,3.140311632410006126e+01
1.837249283102782682e+00,-4.563211685881449320e+00,-3.843321837743479907e+00,-8.962736280301438763e-01,4.381243293416716145e-01,-6.883789462646959512e-02,3.317252173666928883e+01
1.520046091528666654e+00,-4.485676802129203722e+00,-4.364616904833248157e+00,-8.679186793953150847e-01,4.767305573875189606e-01,1.394386661284757467e-01,3.524485360914150789e+01
1.174758117346214492e+00,-4.409110908884626312e+00,-4.857555411156438296e+00,-7.999227061989339083e-01,4.935627555986968340e-01,3.413465546847512244e-01,3.731718548161372695e+01
7.263097994896555720e-01,-4.315663575392375328e+00,-5.418229406880165300e+00,-6.953913218118569217e-01,4.878521336430078348e-01,5.276639131592594234e-01,3.984732668583496462e+01
3.845556915383312457e-01,-4.246613133798049944e+00,-5.792654914064507388e+00,-5.590988380652673895e-01,4.598595074236505043e-01,6.898809482133662074e-01,4.169401875091510590e+01
3.275635349055625034e-02,-4.176020095603761639e+00,-6.128176589017676257e+00,-3.972702142425185712e-01,4.108633903831756529e-01,8.205886005301080699e-01,4.354071081599524717e+01
-3.442880633430778770e-01,-4.098939890828063426e+00,-6.436808034825643787e+00,-2.172967494851983650e-01,3.431016044486143168e-01,9.138169464882857085e-01,4.548502801563778775e+01
-6.741270016031803980e-01,-4.028730936789623129e+00,-6.663037708948595039e+00,-4.377986525612363455e-01,3.204125834895536484e-01,8.400393539343378180e-01,4.717159914931144726e+01
-1.004082564494712226e+00,-3.954322272869218224e+00,-6.846493393528252369e+00,-6.344058903833712515e-01,2.802357242802827608e-01,7.204131488842012709e-01,4.885817028298509967e+01
-1.014930806669366969e+00,-3.951723531651759824e+00,-6.851677222607698958e+00,-7.963878204240721903e-01,2.247638403034501187e-01,5.614674127439683859e-01,4.891389638844230348e+01
-1.323891668760786899e+00,-3.872751449821590697e+00,-6.976506106133395946e+00,-9.149036058949063799e-01,1.570245324327629866e-01,3.718772487472177812e-01,5.051398453533273170e+01
-1.629148094952195036e+00,-3.788494731720777331e+00,-7.064312504598284193e+00,-9.834847410430418435e-01,8.071494869532976069e-02,1.619903120359321991e-01,5.211407268222315992e+01
-2.098298613562980197e+00,-3.647619213823614981e+00,-7.147881069229540252e+00,-9.983881034639477958e-01,0.000000000000000000e+00,-5.673794905025742602e-02,5.461353278951893486e+01
-2.640068021370679308e+00,-3.469728420884294451e+00,-7.189737353682857268e+00,-9.999989999833805987e-01,-0.000000000000000000e+00,-0.000000000000000000e+00,5.755889355606510804e+01
-3.097508560985936743e+00,-3.305989546534357615e+00,-7.183403308386152375e+00,-8.509987894274916378e-03,-3.496795025699239168e-01,9.368296673303716515e-01,6.010633580849721369e+01
-3.601298009205980311e+00,-3.110340679875414516e+00,-7.135110345604598336e+00,2.039378542714231635e-01,3.347537607938489979e-01,9.199713426129004779e-01,6.299307464477005425e+01
-3.980991322748919092e+00,-2.951186303339420114e+00,-7.070641273918194969e+00,-5.300915303213683538e-01,-8.479392486977754828e-01,0.000000000000000000e+00,6.524293661838004255e+01
-4.346308080437138344e+00,-2.786650408114626831e+00,-6.984035278883457210e+00,-2.272997664908240137e-03,5.869383970275309226e-01,-8.096271682553140003e-01,6.749279859199003795e+01
-4.717661557601974920e+00,-2.606756768995654117e+00,-6.872896016736731895e+00,2.187648692053255350e-01,-3.412217959910388010e-01,9.141704534377146363e-01,6.988417700898770590e+01
-4.959543670276326033e+00,-2.480454803396630936e+00,-6.786124921011732702e+00,-6.799996278733307802e-05,-9.702994690080778140e-02,9.952804553373478802e-01,7.152344036060237897e+01
-5.247761768120136061e+00,-2.317319612008112539e+00,-6.665142619064158502e+00,9.726792459778155209e-02,0.000000000000000000e+00,9.952572284753349319e-01,7.359432021803705481e+01
-5.599220171714788918e+00,-2.099146482671421676e+00,-6.494809502759540720e+00,5.293393743997391043e-01,8.484089973069909307e-01,0.000000000000000000e+00,7.629843917353215943e+01
-5.723807029378480848e+00,-2.013697494931936838e+00,-6.426009772970028067e+00,0.000000000000000000e+00,9.950482571498744377e-01,-9.938292580599143722e-02,7.733463552839180011e+01
-5.785277303182470021e+00,-1.966965450834901485e+00,-6.387618312172022250e+00,-0.000000000000000000e+00,-9.924842934851726417e-01,-1.223639128934136816e-01,7.789101077776658144e+01
-5.889104594359293010e+00,-1.878858029387502571e+00,-6.314186047528979273e+00,-0.000000000000000000e+00,-9.983890695156890649e-01,-5.672094713688979190e-02,7.892104193766662945e+01
-6.028277461759151912e+00,-1.745840534843729142e+00,-6.202319082860199728e+00,6.075376243257392117e-01,7.797075178635303194e-01,1.514999063191923567e-01,8.044738639663522406e+01
-6.153063757970308245e+00,-1.610462781349477623e+00,-6.087999589269886158e+00,9.360262369457210685e-01,-2.510647953304525060e-01,2.466157989573014020e-01,8.197373085560381867e+01
-6.263911857239413905e+00,-1.473015528679365804e+00,-5.971848912144686494e+00,0.000000000000000000e+00,5.892782266480394160e-01,-8.079289396970713577e-01,8.350007531457241328e+01
-6.318493136241745134e+00,-1.395056839524460912e+00,-5.906057109774682345e+00,9.984358225271768861e-01,0.000000000000000000e+00,-5.589193408566485444e-02,8.435532562772920073e+01
-6.434864654795106276e+00,-1.200847305070778859e+00,-5.742879559423941238e+00,9.973505985314402578e-01,-0.000000000000000000e+00,-7.273089779916236397e-02,8.646411939583471451e+01
-6.506458431642523799e+00,-1.058586493988152855e+00,-5.624294357221715224e+00,9.973505978851086029e-01,-0.000000000000000000e+00,-7.273089775202921936e-02,8.799682483877838024e+01
-6.565445803176547912e+00,-9.157490434358958042e-01,-5.506418351381920040e+00,9.948943568806407622e-01,-0.000000000000000000e+00,-1.009119347685325796e-01,8.952953028172204597e+01
-6.613346087139962748e+00,-7.688927248210055687e-01,-5.386668459366050321e+00,9.887563034377863103e-01,-1.207085410479332016e-01,-8.825202847759057445e-02,9.110419438554150418e+01
-6.648800740914306395e+00,-6.224165499653959710e-01,-5.268904582537619952e+00,9.680157721594163656e-01,-2.396343957239190914e-01,-7.428876925155118716e-02,9.267885848936096238e+01
-6.672077363716261367e+00,-4.768132008551786982e-01,-5.153764075759734276e+00,9.329790693645811928e-01,-3.550212048212111338e-01,-5.922837373371064862e-02,9.425352259318042059e+01
-6.683446787659703681e+00,-3.325733759278791668e-01,-5.041884275823343309e+00,8.841636343885642679e-01,-4.651648752002055520e-01,-4.329326165807781401e-02,9.582818669699987879e+01
-6.683144804565737118e+00,-1.902242504180178262e-01,-4.933835276735869968e+00,8.222903979860266555e-01,-5.684387466144192880e-01,-2.671877107175865337e-02,9.740285080081933700e+01
-6.671334273028779016e+00,-5.036831455744553154e-02,-4.830052705472013486e+00,7.482731354656405598e-01,-6.633176150431487894e-01,-9.749682765262080233e-03,9.897751490463879520e+01
-6.648143952274308432e+00,8.635455784083782838e-02,-4.730904939311283641e+00,6.632049717992319904e-01,-7.484002577488034769e-01,7.363394760492982492e-03,1.005521790084582534e+02
-6.613706957138131060e+00,2.193054216686101954e-01,-4.636760323638235981e+00,5.683422379746663200e-01,-8.224301273931303724e-01,2.436772640445684576e-02,1.021268431122777116e+02
-6.567097231273710811e+00,3.508305855540528317e-01,-4.545924847002598135e+00,4.650859169831897955e-01,-8.843139095762102553e-01,4.101218299437809495e-02,1.037381329339357450e+02
-6.509258559339411221e+00,4.771726304512358685e-01,-4.460972002444090201e+00,3.549609534363070695e-01,-9.331376697074797999e-01,5.705095011017594780e-02,1.053494227555937783e+02
-6.440344148326619944e+00,5.976656098091156499e-01,-4.382287425061779373e+00,2.395937323678591357e-01,-9.681803507143501575e-01,7.224715842611025007e-02,1.069607125772518117e+02
-6.360511860615567947e+00,7.116446758336942846e-01,-4.310256704806352701e+00,1.206880598263613547e-01,-9.889244222163133813e-01,8.637638195385384521e-02,1.085720023989098451e+02
-6.269924210974428647e+00,8.184461056839912318e-01,-4.245265383706712470e+00,0.000000000000000000e+00,-9.950635238632341562e-01,9.922995251858043875e-02,1.101832922205678784e+02
-6.168918301134165283e+00,9.174557194904644497e-01,-4.187508706594127439e+00,2.067225300446990099e-01,-9.452323274342820936e-01,-2.525859116123365666e-01,1.117945820422259118e+02
-6.058175265595034276e+00,1.008159017138733127e+00,-4.136801373196001386e+00,3.785105759732517172e-01,-7.356643634469051118e-01,-5.617167330877304021e-01,1.134058718638839451e+02
-5.938549591573430320e+00,1.090095387428481777e+00,-4.092767785974263717e+00,4.863333243975502818e-01,-4.017750290448531825e-01,-7.759218540656876995e-01,1.150171616855419785e+02
-5.810898920819650648e+00,1.162810594384517282e+00,-4.055032299333901413e+00,5.119696326536157249e-01,1.099999210733006162e-05,-8.590023836520768175e-01,1.166284515072000119e+02
-5.676084031686205122e+00,1.225856794934388372e+00,-4.023219222329247557e+00,4.639411960357346376e-01,-6.047385564793490709e-02,-8.837983250740418795e-01,1.182397413288580452e+02
-5.534968821157678853e+00,1.278792556506681777e+00,-3.996952821370432396e+00,4.128600380680439441e-01,-1.205607797674749238e-01,-9.027788695733858226e-01,1.198510311505160786e+02
-5.388420286841059337e+00,1.321182874550040021e+00,-3.975857322930589799e+00,3.590622728541050801e-01,-1.798544028239848491e-01,-9.158191295216199235e-01,1.214623209721741119e+02
-5.242983307761998724e+00,1.351432074026016616e+00,-3.960172753866797013e+00,3.029018887921278158e-01,-2.379645757689746177e-01,-9.228333037149544227e-01,1.230130338369359322e+02
-5.093966235950845522e+00,1.370749171954427581e+00,-3.948754173805659740e+00,2.447484194211141939e-01,-2.945089370113931904e-01,-9.237752417182359954e-01,1.245637467016977524e+02
-4.942180442379680017e+00,1.378748886812068752e+00,-3.941253536063415108e+00,1.849845120344106308e-01,-3.491154281194046582e-01,-9.186387473630459599e-01,1.261144595664595727e+02
-4.788439998573934986e+00,1.375051727572885740e+00,-3.937322767819590119e+00,1.240034100501749004e-01,-4.014247417214903968e-01,-9.074576194126738882e-01,1.276651724312213929e+02
-4.633561661002445931e+00,1.359284008400688748e+00,-3.936613772438109837e+00,6.220636569331573079e-02,-4.510926855142924907e-01,-8.903054291326348846e-01,1.292158852959832132e+02
-4.478364855435978953e+00,1.331077863275996309e+00,-3.938778431788052536e+00,0.000000000000000000e+00,-4.977924468361116794e-01,-8.672950362322737750e-01,1.307665981607450192e+02
-4.323567613071669591e+00,1.290319513965242804e+00,-3.943400129327019776e+00,3.593608275565005061e-01,-7.060348159645355448e-01,-6.102234297880881897e-01,1.323173110255068252e+02
-4.169680088525876904e+00,1.237396520986544957e+00,-3.949925273645967128e+00,6.329816456489846255e-01,-7.458232707355123559e-01,-2.075569442285203070e-01,1.338680238902686312e+02
-4.017104968677778665e+00,1.172948003402032979e+00,-3.957731781407425764e+00,7.555779954875633253e-01,-6.076637744114020689e-01,2.446316210122588264e-01,1.354187367550304373e+02
-3.866240303500127151e+00,1.097615856367106568e+00,-3.966197560735932548e+00,6.978988629173457081e-01,-3.245201447617960810e-01,6.384527020693985255e-01,1.369694496197922433e+02
-3.717479498753449185e+00,1.012044725742698104e+00,-3.974700515366176745e+00,4.737066590285227141e-01,3.605097405070491201e-02,8.799433666215495942e-01,1.385201624845540493e+02
-3.571211308733270862e+00,9.168819826767293790e-01,-3.982618548791662771e+00,3.617700049690371622e-01,2.753240619251674098e-02,9.318596622414062614e-01,1.400708753493158554e+02
-3.424001547071343410e+00,8.099969650744305305e-01,-3.989504048795262658e+00,2.442991422435318583e-01,1.859265891397807180e-02,9.695206249134471488e-01,1.416629677535833309e+02
-3.280156075580631381e+00,6.946054575655326024e-01,-3.994493859510553246e+00,1.230910819812673779e-01,9.368488045267138464e-03,9.923501483687248159e-01,1.432550601578508065e+02
-3.140069734344201002e+00,5.713984504330523739e-01,-3.996932135586078072e+00,0.000000000000000000e+00,9.999989999983950115e-07,9.999989999983950328e-01,1.448471525621182820e+02
-3.004132298338009210e+00,4.410697714993969121e-01,-3.996163049610355955e+00,0.000000000000000000e+00,-2.747990072749235124e-01,9.615006529387323253e-01,1.464392449663857576e+02
-2.872728469676860019e+00,3.043160577145415102e-01,-3.991530796721682428e+00,0.000000000000000000e+00,-5.284402640968749454e-01,8.489693087985639153e-01,1.480313373706532332e+02
-2.746237869920852059e+00,1.618367267104950658e-01,-3.982379599217954258e+00,0.000000000000000000e+00,-7.413930676517200835e-01,6.710695338326773118e-01,1.496234297749207087e+02
-2.624747980258728575e+00,1.450165923594720109e-02,-3.968278230343022184e+00,0.000000000000000000e+00,-8.972605769031739564e-01,4.414991020779061026e-01,1.512155221791881843e+02
-2.507765403386567282e+00,-1.364839910579170590e-01,-3.949244536494305624e+00,0.000000000000000000e+00,-9.840413476176346208e-01,1.779343310858235716e-01,1.528076145834556598e+02
-2.394500400847780597e+00,-2.897518572629639300e-01,-3.925520917920635622e+00,0.000000000000000000e+00,-9.950534475071146634e-01,-9.933094484754517728e-02,1.543997069877231354e+02
-2.284153120055998798e+00,-4.439395598499826234e-01,-3.897349807843422109e+00,3.783536023996662001e-01,-7.581172033176075686e-01,-5.311354418458615889e-01,1.559917993919906110e+02
-2.175913611242526802e+00,-5.976907634238248779e-01,-3.864973670755388113e+00,5.760832163300317887e-01,-5.993410883361652841e-01,-5.558024718319491964e-01,1.575838917962580865e+02
-2.068961844526916227e+00,-7.496552334022680286e-01,-3.828635000718268344e+00,7.364161080991873387e-01,-4.016585135365037806e-01,-5.443893406699148452e-01,1.591759842005255621e+02
-1.959147407577485067e+00,-9.031287404205351477e-01,-3.787327662732550504e+00,0.000000000000000000e+00,-9.999989999993079012e-07,9.999989999993077472e-01,1.608177560236051704e+02
-1.848928791224498935e+00,-1.052050337243292777e+00,-3.742560325856866488e+00,-0.000000000000000000e+00,1.466699169343334101e-02,9.998914337172190026e-01,1.624595278466847788e+02
-1.737398312103821452e+00,-1.195263197557841606e+00,-3.694949146786696392e+00,8.099657546648428852e-01,-5.213932608140816466e-03,5.864522923278308042e-01,1.641012996697643871e+02
-1.624521742619074782e+00,-1.330643952853305390e+00,-3.645614701751887399e+00,9.497874378631101511e-01,-2.078098770065877135e-02,-3.122018152216480824e-01,1.657303144908346439e+02
-1.508604596910126494e+00,-1.458385899083380455e+00,-3.594982508556892498e+00,7.092725363573432196e-01,-6.355550115855039817e-01,-3.049594996344377473e-01,1.673593293119049008e+02
-1.388991618895788704e+00,-1.577828110995300293e+00,-3.543986074049785717e+00,1.596228938687389021e-01,-9.733237207642927435e-01,-1.648012935353452835e-01,1.689883441329751577e+02
-1.206177564470429120e+00,-1.741632761368654414e+00,-3.469664653123866405e+00,-4.595974337851156388e-01,-8.868719073914744788e-01,4.718494186909142490e-02,1.713957818958127746e+02
-1.055571386524535082e+00,-1.861414690323312193e+00,-3.412764624204190689e+00,-9.281503004578539606e-02,-9.281903668367810223e-01,3.603415228777862578e-01,1.733093333169784671e+02
-8.990021282779436795e-01,-1.970336519210680759e+00,-3.359223106702375894e+00,2.957144658908048007e-01,-7.520299403345206413e-01,5.890686916683925967e-01,1.752228847381441597e+02
-7.480368242562754899e-01,-2.060943086958360038e+00,-3.313607150241490995e+00,6.149568470186489444e-01,-3.996656341762991893e-01,6.797745634869846176e-01,1.769943616397087567e+02
-5.906442060425818319e-01,-2.141309747381737072e+00,-3.272669907895559227e+00,7.901121582997779891e-01,4.634195063228717382e-02,6.112063488867192085e-01,1.787658385412733537e+02
-4.265344314857216768e-01,-2.211591673781956313e+00,-3.236953339736110546e+00,-4.015486972676823862e-01,-7.363974448212466939e-01,-5.444955894983276590e-01,1.805373154428379507e+02
-2.557846347478104909e-01,-2.272151629060807920e+00,-3.206530302120260245e+00,-4.607674798717336651e-01,-6.927786666427586670e-01,-5.547513393724544661e-01,1.823087923444025478e+02
-7.892696357786657679e-02,-2.323344596954822983e+00,-3.181052331221932317e+00,-5.174452738985226841e-01,-6.453394680936742622e-01,-5.619478262606659724e-01,1.840802692459671448e+02
9.266612157536216476e-02,-2.362957670483812223e+00,-3.161282791154777172e+00,-5.712695287348824591e-01,-5.943414575233728625e-01,-5.660453669155655065e-01,1.857479976157101191e+02
2.687131629885757267e-01,-2.394212518988586780e+00,-3.145303449118956429e+00,-6.219434293472205777e-01,-5.400658669718058080e-01,-5.670213664601986281e-01,1.874157259854530935e+02
4.329252601901989461e-01,-2.415210437942355792e+00,-3.133704071190038576e+00,-6.691875326500141830e-01,-4.828120015921122943e-01,-5.648704429007574968e-01,1.889390883555622622e+02
5.997030563962375549e-01,-2.428526626567698798e+00,-3.124472049113832028e+00,-7.127413081385771676e-01,-4.228955894932131532e-01,-5.596044567892568544e-01,1.904624507256714310e+02
7.680511444155275758e-01,-2.433828926640007051e+00,-3.116882174142399542e+00,-3.999995304134481452e-06,1.561658166663663361e-01,9.877298404370138396e-01,1.919858130957805997e+02
9.748083848715771715e-01,-2.429832986637280534e+00,-3.108615679600908788e+00,-6.822513259049461931e-02,1.516543468963352792e-01,9.860751950797062015e-01,1.938525587422797400e+02
1.180326426708079079e+00,-2.414414977922850980e+00,-3.100280774470674849e+00,-1.361271606143152346e-01,1.464335558825679839e-01,9.798084556971796699e-01,1.957193043887788804e+02
1.475095020755168518e+00,-2.373669097578242848e+00,-3.086147904417860577e+00,-2.033924924581866078e-01,1.405278623177337316e-01,9.689589330436304548e-01,1.984406693608128194e+02
1.632460498981896269e+00,-2.339870527621629837e+00,-3.076167425532207567e+00,-2.697065143922902641e-01,1.339648882857359946e-01,9.535773722157546706e-01,1.999363587990146698e+02
1.932155073420535940e+00,-2.247102876496270607e+00,-3.049306460557152931e+00,-3.347590620063417011e-01,1.267753300761835233e-01,9.337357153336260929e-01,2.029129500469389313e+02
2.176927755289414623e+00,-2.141458698202167277e+00,-3.016815648945427419e+00,-3.982458708473711195e-01,1.189928146221028021e-01,9.095267650938800852e-01,2.055053673847398272e+02
2.325077345334062073e+00,-2.053039422427958893e+00,-2.987239144469599594e+00,-4.598699994726253015e-01,1.106537422319032321e-01,8.810637507671259527e-01,2.072214651416229287e+02
2.456931817095071136e+00,-1.944744654795698358e+00,-2.947863808149852272e+00,-5.193432182642863104e-01,1.017971163506289634e-01,8.484797986671178682e-01,2.089375628985060303e+02
2.570449244923169729e+00,-1.815736735414280822e+00,-2.897043450456666669e+00,-5.763873575122806514e-01,9.246436114615676216e-02,8.119273095655320516e-01,2.106536606553891318e+02
2.666238755623849155e+00,-1.661203302663734727e+00,-2.832288967695608672e+00,-6.307356084613261471e-01,8.269912777292727502e-02,7.715772459610671374e-01,2.124193393247330448e+02
2.739968047538379192e+00,-1.484559341434446011e+00,-2.755935476423320374e+00,-6.821337712376561724e-01,7.254709021876146191e-02,7.276183325329916851e-01,2.141850179940769578e+02
2.785909228912807567e+00,-1.311056957286047986e+00,-2.679894687303574941e+00,-7.303414438185810154e-01,6.205573168906991510e-02,6.802561735152333755e-01,2.157256422970113476e+02
2.815024660634904308e+00,-1.118540096982516330e+00,-2.594587410579844988e+00,-7.751331464830677476e-01,5.127412252707751888e-02,6.297122911157547742e-01,2.172662665999457374e+02
2.828780829181015477e+00,-9.076064985614330505e-01,-2.500127661135663093e+00,-8.162993764825871024e-01,4.025269070835171825e-02,5.762230894754624133e-01,2.188068909028801272e+02
2.828602043078311201e+00,-6.789745874695978234e-01,-2.396645983984088790e+00,-8.536475879972051928e-01,2.904298598275030160e-02,5.200387490095198517e-01,2.203475152058145170e+02
2.807870337277178052e+00,-2.636806080313206513e-01,-2.206405962981848656e+00,-8.016202404217060984e-01,2.886870400717867977e-02,5.971344807285309253e-01,2.229568572653024887e+02
2.784065596154175370e+00,1.073128801988947750e-02,-2.078911536478096345e+00,-7.426583680688956246e-01,2.844468919891925129e-02,6.690646067409821152e-01,2.245814899898486487e+02
2.750540387556311472e+00,2.993253533046532633e-01,-1.942672773851252588e+00,-6.772720301483921013e-01,2.777460962807681844e-02,7.352068880516644533e-01,2.262061227143948088e+02
2.708442081297483650e+00,6.005626258143865748e-01,-1.797995735594473343e+00,-6.060268607188059597e-01,2.686426196176460932e-02,7.949891543389463466e-01,2.278307554389409688e+02
2.644378348082776053e+00,1.005231700369232373e+00,-1.600061190364712393e+00,-5.295391756079406154e-01,2.572152131583578527e-02,8.478942533345172894e-01,2.299361849680944658e+02
2.572476547763681509e+00,1.421785747084091556e+00,-1.392288291839356651e+00,-4.484706409750310874e-01,2.435627312873772654e-02,8.934645242777007335e-01,2.320416144972479628e+02
2.502431946794699602e+00,1.802322014982411957e+00,-1.198420283683053311e+00,-3.635225496280706792e-01,2.278032764692277529e-02,9.313057567653354463e-01,2.339228117885992333e+02
2.427611424201385759e+00,2.189125542774192024e+00,-9.969274735139038723e-01,-2.754297545974198624e-01,2.100731776150408653e-02,9.610906007671126128e-01,2.358040090799505037e+02
2.348916609769850172e+00,2.580352660885273597e+00,-7.885149715821462291e-01,-1.849543124277791550e-01,1.905258107970593875e-02,9.825613983199884549e-01,2.376852063713017742e+02
2.275272048990272467e+00,2.934649009963078203e+00,-5.955118158470174006e-01,-9.287889115893785408e-02,1.693302725089373961e-02,9.955324124131230690e-01,2.393772263515389511e+02
2.199207063505162374e+00,3.290016474889743137e+00,-3.976545027353211581e-01,-0.000000000000000000e+00,1.466699169441148046e-02,9.998914337839015509e-01,2.410692463317761280e+02
2.120958437910319905e+00,3.645469723857994726e+00,-1.957287799175031484e-01,-5.997774009038151499e-01,4.583813991939530291e-02,7.988516347161966902e-01,2.427612663120133050e+02
2.030333403652810009e+00,4.046092885296962649e+00,3.595831758406857481e-02,-9.589712208786084213e-01,5.862258804264504353e-02,2.773726549082560222e-01,2.446723705017103612e+02
1.937680468484154428e+00,4.445001882428224249e+00,2.701276390189459864e-01,-9.334980015239883189e-01,4.789207085142484221e-02,-3.553671772909953175e-01,2.465834746914074174e+02
1.858718005752898028e+00,4.775547414851498473e+00,4.663021998714883543e-01,-5.335776174011942485e-01,1.795098712834644616e-02,-8.455593936964301838e-01,2.481763902549058116e+02
1.777998932987985947e+00,5.103817831164183083e+00,6.623850535626667480e-01,-8.937831490312949656e-01,2.429597686786107505e-02,4.478385736140119699e-01,2.497693058184042059e+02
1.695735764676978619e+00,5.429570133793562903e+00,8.573281244017277869e-01,-8.875683493731688634e-01,2.518998153463011813e-02,-4.599846628109104940e-01,2.513622213819026001e+02
1.605507040940008956e+00,5.778894275528156044e+00,1.065858031670235295e+00,-7.918795229189958818e-01,2.793934667819043816e-02,-6.100362399802502500e-01,2.530850393346039482e+02
1.514488911401675519e+00,6.124916822891491641e+00,1.271014200540469652e+00,-6.711043900458678602e-01,2.980360868287140405e-02,-7.407622037949311844e-01,2.548078572873052963e+02
1.432412443065982810e+00,6.432056497884534707e+00,1.451207021624513205e+00,-5.290690441685905743e-01,3.072370876857779404e-02,-8.480212262806617884e-01,2.563537788340681800e+02
1.350222005707772732e+00,6.735295409615678075e+00,1.626828624187005801e+00,-3.702730910554342669e-01,3.067049876583036877e-02,-9.284154019329290408e-01,2.578997003808310637e+02
1.268262781779438741e+00,7.034024502268083623e+00,1.797303173474217308e+00,-1.997471022406238084e-01,2.964566448976601459e-02,-9.793978914231274979e-01,2.594456219275939475e+02
1.186875509194430300e+00,7.327632159856318772e+00,1.962054870572385923e+00,-2.289324798002133343e-02,2.768167229200014026e-02,-9.993536031939541653e-01,2.609915434743568312e+02
1.077628388097880308e+00,7.719872436954529960e+00,2.178216374522590204e+00,1.546858412111156988e-01,2.484074049541623933e-02,-9.876503572323549474e-01,2.630983951370834575e+02
9.980938003646691037e-01,8.005993013484957288e+00,2.333441433494317874e+00,3.273645626610381387e-01,2.121286831004426388e-02,-9.446589105770385464e-01,2.646719166653975890e+02
9.214428151754494589e-01,8.284286962127513476e+00,2.482950146082393061e+00,4.896725565858324192e-01,1.691298468475121997e-02,-8.717412106104414082e-01,2.662454381937117205e+02
7.928845642902196955e-01,8.763427679699073991e+00,2.740263580109532970e+00,4.819185392894427267e-01,1.678396616534519672e-02,-8.760541192743348526e-01,2.690423153242666103e+02
7.021799607777037266e-01,9.116499116043351947e+00,2.932561757807186975e+00,4.741265793927953998e-01,1.665362611414406696e-02,-8.802980423581512337e-01,2.711813290364380578e+02
6.202544450962459432e-01,9.454684392130038972e+00,3.122447952383233805e+00,4.662972870224132982e-01,1.652197473758049845e-02,-8.844726476241844271e-01,2.733203427486095052e+02
5.550820005994864248e-01,9.746432644337103213e+00,3.294053863096243706e+00,5.564926453069906076e-01,-1.202404257099042445e-01,-8.221047231014597667e-01,2.752575089428830779e+02
5.066704490368799663e-01,9.987365963587468087e+00,3.444858672270837197e+00,6.295875639642395383e-01,-2.533079807199871136e-01,-7.344743468673999853e-01,2.769460215713796742e+02
4.990996592269185683e-01,1.003009915926755369e+01,3.473662218921244715e+00,6.833359094384706678e-01,-3.785916771610151055e-01,-6.242742801502143557e-01,2.772638023249403432e+02
4.594218900473154843e-01,1.029352027193102259e+01,3.666626491956254785e+00,7.160860319781832128e-01,-4.922416762770984167e-01,-4.948908232548988595e-01,2.793519319047393878e+02
4.480077589985472786e-01,1.038721921637070089e+01,3.741930252186733252e+00,7.268315228414715667e-01,-5.907656121675500804e-01,-3.502997700312692197e-01,2.801474229694475184e+02
4.429698988845831575e-01,1.044132191025904710e+01,3.789979633287902328e+00,2.255525049570100415e-01,-7.218680675530935176e-01,-6.542404455212731396e-01,2.806420738369828314e+02
4.321960285969874138e-01,1.061413511079448568e+01,3.960364616986153941e+00,-3.571165318403980438e-01,-5.924852232853380363e-01,-7.220990533689277679e-01,2.823526598806212746e+02
4.270622902445336821e-01,1.077291502782368759e+01,4.134712899979511747e+00,3.588155418935747853e-01,-5.920762440853308828e-01,-7.215920787300742489e-01,2.840632459242597179e+02
4.258111906137609926e-01,1.093728183547186106e+01,4.335911649008050262e+00,0.000000000000000000e+00,-8.566789209259183246e-02,-9.963227450303434596e-01,2.860001234538141830e+02
4.271053723378704370e-01,1.108696859517492683e+01,4.539800225111628507e+00,-1.358651742884951497e-01,-8.724766392266622428e-02,-9.868771451183837584e-01,2.879370009833686481e+02
4.275880545699964896e-01,1.112236437212084361e+01,4.593379999894779075e+00,-2.692099071973064195e-01,-8.720889576942957022e-02,-9.591238889564114301e-01,2.884420932743479966e+02
4.283869169608510163e-01,1.119316990702312964e+01,4.712693207479205171e+00,-3.975605040634543341e-01,-8.555230662836706135e-02,-9.135778283434504710e-01,2.895637433614400038e+02
4.293242444425598991e-01,1.130806050004953178e+01,4.927755233198358731e+00,-5.185359167385725776e-01,-8.230862800163986359e-02,-8.510838929329698210e-01,2.915982218871575924e+02
4.298235205997296693e-01,1.138481480596867534e+01,5.085916670945235474e+00,-6.298919154178093116e-01,-7.753803380030752090e-02,-7.728014157641388548e-01,2.931261772873576206e+02
4.303743225924720472e-01,1.145267480505029312e+01,5.238225447687148595e+00,-7.295627222330253181e-01,-7.132902402961407984e-02,-6.801826259618535264e-01,2.946541326875576488e+02
4.312996606727690918e-01,1.151223576729153919e+01,5.382290779046599916e+00,-8.156993341485915261e-01,-6.379678297005281218e-02,-5.749457076574511216e-01,2.961820880877576769e+02
4.329268305655463167e-01,1.156409051523696085e+01,5.515721934047465247e+00,-8.867038241513682806e-01,-5.508104231956625907e-02,-4.590429250232720970e-01,2.977100434879577051e+02
4.363503698397391273e-01,1.162072118223669293e+01,5.667786723865779308e+00,-9.412589843823729874e-01,-4.534348894846861044e-02,-3.346244048648026603e-01,2.996424975149617467e+02
4.416579892778127459e-01,1.166932401909827632e+01,5.799557192490391699e+00,-9.783527613232414488e-01,-3.476476536758923985e-02,-2.039982487716318071e-01,3.015749515419657882e+02
4.493339664596021632e-01,1.171093906038156085e+01,5.907321070884354874e+00,-9.972970298129807398e-01,-2.354111856483003667e-02,-6.958771489833759372e-02,3.035074055689698298e+02
4.587609135182208475e-01,1.174297985051970805e+01,5.979345077400328279e+00,-9.977403577283816549e-01,-1.188075938580817996e-02,6.611373623065332217e-02,3.052431107428334940e+02
4.710258676170378522e-01,1.177056679477577106e+01,6.023710481153174534e+00,-9.796745246597445833e-01,-0.000000000000000000e+00,2.005886979235721457e-01,3.069788159166971582e+02
4.748768154227976934e-01,1.177661105847020906e+01,6.027599577906466166e+00,-0.000000000000000000e+00,9.968731427319724725e-01,-7.900593205829645194e-02,3.074191170015756143e+02
4.921885576022917985e-01,1.179618711026937916e+01,6.013413531708343029e+00,-0.000000000000000000e+00,0.000000000000000000e+00,-9.999989999999968626e-01,3.090826228308427517e+02
5.121927087810880241e-01,1.181273286429316016e+01,5.968795172284463213e+00,-0.000000000000000000e+00,-9.968312352734655102e-01,-7.953293898571126008e-02,3.107461286601098891e+02
5.362741137826675386e-01,1.182743859554395982e+01,5.887811635442212754e+00,-0.000000000000000000e+00,-0.000000000000000000e+00,-9.999989999999967516e-01,3.125187012298287641e+02
5.630860417261831508e-01,1.183951725037391078e+01,5.772666034929087253e+00,9.968779763717972031e-01,-0.000000000000000000e+00,-7.894491893667289484e-02,3.142912737995476391e+02
5.949390557120058931e-01,1.185010728949411529e+01,5.611053717197334478e+00,-9.968817776680953813e-01,-0.000000000000000000e+00,-7.889690326014157928e-02,3.162045701443610142e+02
6.296034042776292861e-01,1.185878217820266833e+01,5.412010415975027300e+00,-0.000000000000000000e+00,9.968731427319725835e-01,-7.900593205829646581e-02,3.181178664891743892e+02
6.314811176219677913e-01,1.185914922125571636e+01,5.400597395265924305e+00,9.968779763718003117e-01,0.000000000000000000e+00,-7.894491893667313076e-02,3.182140563109689992e+02
6.682875918714583641e-01,1.186488849838026738e+01,5.165904598242767598e+00,0.000000000000000000e+00,2.192496970816739527e-02,-9.997586187200654395e-01,3.199792790965235554e+02
7.071869675288796619e-01,1.186991087928550570e+01,4.898841028217577609e+00,9.968779763717973141e-01,0.000000000000000000e+00,-7.894491893667290872e-02,3.217445018820781115e+02
7.511194069390435546e-01,1.187506868442755170e+01,4.576714730418480315e+00,6.008035540476738268e-01,8.946493359377623300e-02,-7.943734103685508030e-01,3.236579681635880661e+02
7.960792227802008236e-01,1.188043352426663546e+01,4.224957072992325813e+00,7.394889314637235200e-01,7.995153089775990096e-02,-6.684024782646601492e-01,3.255714344450980207e+02
8.411783827209438069e-01,1.188646891847261067e+01,3.846956906141122623e+00,8.521495268940568746e-01,6.762440777044487206e-02,-5.189085885672628518e-01,3.274849007266079752e+02
8.801846654095232259e-01,1.189271121927325403e+01,3.494235106310157768e+00,9.348205202346947518e-01,5.291739346619585976e-02,-3.511528789831132591e-01,3.291690459113141287e+02
9.177184973112780808e-01,1.190017397945741529e+01,3.124458266205072832e+00,9.845925174251732859e-01,3.634807075008190946e-02,-1.710391545366057586e-01,3.308531910960202822e+02
9.530255702812131524e-01,1.190913383875957976e+01,2.740488401652669381e+00,9.997139295386805458e-01,1.849956042777991735e-02,1.509388458719029477e-02,3.325373362807264357e+02
9.853537063327126866e-01,1.191987343707384639e+01,2.345187640093687076e+00,9.796526068683385491e-01,0.000000000000000000e+00,2.006957145972436130e-01,3.342214814654325892e+02
1.015712082923293957e+00,1.193347469899539348e+01,1.916479553480026521e+00,-9.796745246582524436e-01,-0.000000000000000000e+00,2.005886979232666678e-01,3.360098362883581444e+02
1.041293600552925414e+00,1.194958319106770261e+01,1.481996559318143003e+00,9.796526068669312304e-01,-0.000000000000000000e+00,2.006957145969553158e-01,3.377981911112836997e+02
1.061324090943979837e+00,1.196849723783086361e+01,1.044946409113673980e+00,-9.796745246582524436e-01,-0.000000000000000000e+00,2.005886979232666678e-01,3.395865459342092549e+02
1.078527573364532754e+00,1.199615983860963198e+01,4.969608571572687317e-01,-2.494317181454654975e-01,-0.000000000000000000e+00,-9.683913556866029504e-01,3.418331500898481181e+02
1.086718029372038874e+00,1.202823713951786466e+01,-4.531420314791358844e-02,9.546769266639086871e-01,-0.000000000000000000e+00,-2.976406653648375755e-01,3.440797542454869813e+02
1.085444597412573486e+00,1.206032038153568742e+01,-5.053731317307359472e-01,-9.546707119065337421e-01,-0.000000000000000000e+00,-2.976605983801879352e-01,3.460221404963771192e+02
1.076044251560086318e+00,1.209717474206081356e+01,-9.534151561845776168e-01,5.752485914334223294e-01,-0.000000000000000000e+00,-8.179774190368480635e-01,3.479645267472672572e+02
1.059825219033759813e+00,1.213770147187480042e+01,-1.371580750098852830e+00,0.000000000000000000e+00,-9.950635238632309365e-01,9.922995251858011956e-02,3.498381785749494952e+02
1.040393050584677237e+00,1.217714285720623835e+01,-1.716619625297591600e+00,5.764363129605547531e-01,-1.163998612660335514e-03,-8.171400260720611541e-01,3.514450610823338934e+02
1.015973293305415526e+00,1.222178361038095851e+01,-2.046856507755439480e+00,0.000000000000000000e+00,-5.697617808903234771e-01,-8.218086839622436024e-01,3.530519435897182916e+02
9.875164729643702843e-01,1.227139947878080228e+01,-2.355960935787254407e+00,-5.741094903286485529e-01,1.828998376288687141e-03,-8.187752731241914050e-01,3.546314714484562955e+02
9.549542919193430013e-01,1.232749016066781955e+01,-2.648714916463615232e+00,-0.000000000000000000e+00,8.080491350123071570e-02,9.967289330373328982e-01,3.562109993071942995e+02
9.184985444643080088e-01,1.239090221496654998e+01,-2.924325888844505617e+00,4.301035175183444137e-01,3.026596604823533765e-02,9.022709878501748992e-01,3.577905271659323034e+02
8.781455065131114068e-01,1.246280842077511686e+01,-3.182996796858034383e+00,-5.759863546471207796e-01,0.000000000000000000e+00,-8.174580840947464067e-01,3.593760263130449175e+02
8.340754530809960654e-01,1.254385656778839575e+01,-3.422965500537417771e+00,-0.000000000000000000e+00,9.997078536730036324e-01,-2.412897233222458318e-02,3.609615254601575316e+02
7.862394787094597604e-01,1.263465140034252876e+01,-3.643027615225876037e+00,-0.000000000000000000e+00,9.997078529671034053e-01,-2.412897231518696187e-02,3.625427489596182227e+02
7.341557000647205289e-01,1.273616868823549453e+01,-3.843350322118868068e+00,-7.142513392294299601e-01,-6.601633892674538817e-01,-2.324377849663847861e-01,3.641239724590789137e+02
6.353537240589212098e-01,1.293244839573846505e+01,-4.156836623676470666e+00,-0.000000000000000000e+00,9.993857527527760798e-01,3.501595629960285727e-02,3.668740225112421740e+02
6.175744801595044464e-01,1.296797965354469184e+01,-4.202639335961158906e+00,-9.994701503669276565e-01,0.000000000000000000e+00,3.251797235700860933e-02,3.673254196823474444e+02
5.468225852289676503e-01,1.311056929623236833e+01,-4.349559144920055687e+00,-5.024135394087879680e-01,7.294793312445962963e-01,4.641535744838849453e-01,3.689782095755043656e+02
4.716305258909399001e-01,1.326640592236833172e+01,-4.475061350695392015e+00,-9.999989999998434298e-01,0.000000000000000000e+00,0.000000000000000000e+00,3.706309994686612868e+02
3.932645752292616148e-01,1.343614522065604433e+01,-4.578956121227667708e+00,8.506807646955818480e-01,5.164672500191584970e-01,9.798885770682272400e-02,3.722837893618182079e+02
2.628725083561276321e-01,1.373728235092882244e+01,-4.713274581062402824e+00,7.294162694253270018e-01,5.001404990652157379e-01,4.667005325582890829e-01,3.749852023376957391e+02
2.410245536862065108e-01,1.379167852727253596e+01,-4.729925455964274050e+00,9.997494087563426612e-01,0.000000000000000000e+00,-2.234098678772238403e-02,3.754370040723335933e+02
1.133503416134254566e-01,1.413787994484050436e+01,-4.794643026973972155e+00,1.270998420255764830e-03,1.158168560493799404e-01,9.932687654503882246e-01,3.781144303587176410e+02
6.116704788219434752e-03,1.446084595223724456e+01,-4.822155493902132051e+00,5.179124917785871141e-01,7.186022948440531355e-01,4.640855445983348426e-01,3.804547655798012897e+02
-1.101639371464633033e-01,1.485703004114394332e+01,-4.822856123857669708e+00,-5.517134353487262999e-01,-8.267481538643646211e-01,1.099898874308181534e-01,3.831657672742510385e+02
-1.767048437180195886e-01,1.511735688132695721e+01,-4.805685435650839388e+00,1.182598423660817244e-01,0.000000000000000000e+00,9.929816764095968917e-01,3.848621306390451764e+02
-2.333102320708884958e-01,1.537404489979004829e+01,-4.774433872642967813e+00,-9.359985444601274336e-04,-1.157798199546939688e-01,9.932734553938388222e-01,3.864687383325978089e+02
-2.830866328019242539e-01,1.563909948583206244e+01,-4.729708976409514598e+00,9.994709311547940178e-01,-0.000000000000000000e+00,3.249396525059618929e-02,3.880753460261504415e+02
-3.240795422048391439e-01,1.589961156637574469e+01,-4.675270346594464499e+00,5.227064052948847683e-01,-8.494460335494338210e-01,-7.223191781870171024e-02,3.896170804303950490e+02
-3.582615953293069588e-01,1.616427224929247686e+01,-4.610632540452027861e+00,0.000000000000000000e+00,-9.993865585864855072e-01,3.499294952972908240e-02,3.911588148346396565e+02
-3.856798773907682554e-01,1.643093980647702779e+01,-4.537007695086622050e+00,-0.000000000000000000e+00,1.173078338873073667e-01,9.930945937374210386e-01,3.927005492388842640e+02
-4.116056124914798109e-01,1.676590722132560884e+01,-4.434525776866763636e+00,1.377902180660006415e-01,1.421190229504277758e-01,9.802112216873717365e-01,3.946400530238337865e+02
-4.289540770332324060e-01,1.709689078484045410e+01,-4.323716375961494940e+00,2.728566191931534046e-01,1.641208352653311664e-01,9.479512734287701692e-01,3.965795568087833090e+02
-4.379103860648203006e-01,1.742020606973374086e+01,-4.206207427460663340e+00,4.025292633757876493e-01,1.828783477478118369e-01,8.969524525034694440e-01,3.985190605937328314e+02
-4.386793676184929658e-01,1.770753359842713337e+01,-4.093305469091129467e+00,5.242448288633874132e-01,1.980207678129620175e-01,8.282228775669721044e-01,4.003049848893569447e+02
-4.321411026506845054e-01,1.798126963684739366e+01,-3.977033831841197742e+00,6.355972790763052549e-01,2.092487626604202511e-01,7.431211571177727127e-01,4.020909091849810579e+02
-4.182408229626630725e-01,1.823824301454929042e+01,-3.858522795767815428e+00,0.000000000000000000e+00,2.016697227947948992e-02,9.997956257304881911e-01,4.038768334806051712e+02
-3.999354231258269721e-01,1.844193833314417574e+01,-3.755670881412910056e+00,7.342455860439258686e-01,2.131448798322804206e-01,6.445546366102676838e-01,4.054108889543014698e+02
-3.752477472961068261e-01,1.862615120631195964e+01,-3.652569708461111730e+00,0.000000000000000000e+00,2.016697227948333407e-02,9.997956257306789274e-01,4.069449444279977683e+02
-3.440394344846354757e-01,1.878859812899304771e+01,-3.549943593000563169e+00,-0.000000000000000000e+00,1.954438748777086177e-02,9.998079897345129030e-01,4.084789999016940669e+02
-3.060275786533448450e-01,1.892713560095587511e+01,-3.448421980636485085e+00,-0.000000000000000000e+00,1.892179528651349515e-02,9.998199663352184130e-01,4.100130553753903655e+02
-2.608640469234942971e-01,1.903968833974903063e+01,-3.348586876074491681e+00,-0.000000000000000000e+00,1.829919581164993203e-02,9.998315552392269545e-01,4.115471108490866641e+02
-1.842172306325548237e-01,1.916201270686758207e+01,-3.206965817664212182e+00,-0.000000000000000000e+00,1.767658920498766870e-02,9.998427564439242854e-01,4.137753540583346989e+02
-9.571928575989521737e-02,1.923933379174773961e+01,-3.069521808921098938e+00,-0.000000000000000000e+00,1.705397560833250836e-02,9.998535699465991300e-01,4.160035972675827338e+02
-1.457660239139835397e-02,1.926273185584599901e+01,-2.962463039241652218e+00,-0.000000000000000000e+00,1.519999198722226698e-02,9.998834729047203496e-01,4.177925781126367610e+02
8.366622810218757311e-02,1.924445071643837935e+01,-2.850403734642102282e+00,8.370268619317425829e-01,-1.940497361591901893e-01,5.115943044079408475e-01,4.197100005893018988e+02
1.934258656241563124e-01,1.918132229286360158e+01,-2.739719799426385549e+00,6.991536932645218139e-01,-5.387427636406402209e-01,-4.700407937818407156e-01,4.216274230659670366e+02
3.145965456668797233e-01,1.907241880807411860e+01,-2.628642985352578343e+00,4.595995113947056177e-01,-5.348094314382125791e-01,-7.090452462062019068e-01,4.235448455426321743e+02
4.314623393578117527e-01,1.893539282442452532e+01,-2.528358145552974001e+00,0.000000000000000000e+00,-2.786296520868954824e-02,9.996107518281799331e-01,4.252399311707904985e+02
5.576716690334052595e-01,1.875751014195966704e+01,-2.424325227411141093e+00,-8.217572942076931675e-01,1.566598654477074914e-02,5.696205107633640630e-01,4.269350167989488227e+02
7.052793559617485109e-01,1.851846694058394149e+01,-2.304764713017632083e+00,-4.199765354729848021e-01,-5.494543922603116748e-01,-7.223002010792790584e-01,4.287874910091637730e+02
8.517739375720912998e-01,1.825414463804586873e+01,-2.186409823695534271e+00,-6.700329530875901440e-01,-5.017630852290707599e-01,-5.470718856595225832e-01,4.305164043920318591e+02
1.007344709348506617e+00,1.794940021382639728e+01,-2.061003791258767315e+00,-8.560959950234255933e-01,-4.061494645563338279e-01,-3.195938981682519553e-01,4.322453177748999451e+02
1.149556192814415123e+00,1.765371691811115440e+01,-1.947764299074440597e+00,-9.603951479999112140e-01,-2.717453951402715728e-01,-6.159220664479968244e-02,4.337302406261237024e+02
1.215704067462931803e+00,1.751047586075861062e+01,-1.896325172858805530e+00,-9.729690513895132842e-01,-1.113875512190103112e-01,2.022919634414412360e-01,4.343771228829025404e+02
1.386952466834925568e+00,1.712809291983092663e+01,-1.766923340598348879e+00,-8.926168705467079079e-01,5.960862058154383497e-02,4.468556084121925176e-01,4.359482980328901931e+02
1.568847625695459991e+00,1.671182173620080391e+01,-1.633911996969622082e+00,-7.270129289260709449e-01,2.249116686482247607e-01,6.487410442403546140e-01,4.375194731828778458e+02
1.744968620238999790e+00,1.630195330280284338e+01,-1.510231398826493709e+00,-7.048555614933745828e-01,2.084583563869539524e-01,6.780278394606329417e-01,4.389529461146747735e+02
1.972621846093335574e+00,1.576531448334240793e+01,-1.357451241424844968e+00,-6.815567662507796554e-01,1.916674716855963634e-01,7.062166485398159166e-01,4.407046881510376579e+02
2.212231002454092099e+00,1.519400187485093312e+01,-1.204330247263075027e+00,-6.571542721527412478e-01,1.745662048500515873e-01,7.332618241222103039e-01,4.424564301874005423e+02
2.463383870565014178e+00,1.458927256263665839e+01,-1.052223898902678645e+00,-6.316875953116850573e-01,1.571822487680369362e-01,7.591195706875913940e-01,4.442081722237634267e+02
2.725541393359360853e+00,1.395248859499054461e+01,-9.023215491102029029e-01,-6.051979750222116206e-01,1.395437540752539896e-01,7.837480154532354693e-01,4.459599142601263111e+02
3.112663530865312111e+00,1.300168533721206821e+01,-6.932086303262312565e-01,-5.777283069979232133e-01,1.216792835811219137e-01,8.071072761657448469e-01,4.484558067237550745e+02
3.357695713942810745e+00,1.239346585312388527e+01,-5.682103407466868594e-01,-5.493230739277732422e-01,1.036177660274044537e-01,8.291595256722884555e-01,4.499873625635356689e+02
3.609857267102955181e+00,1.176258682603965333e+01,-4.467363949962109837e-01,-5.200282734640767623e-01,8.538844925442215517e-02,8.498690531668982029e-01,4.515189184033162633e+02
3.868172975828216842e+00,1.111081023571188986e+01,-3.287770776904196390e-01,-4.898913437584651032e-01,6.702085285049891317e-02,8.692023220127942373e-01,4.530504742430968577e+02
4.131680582358069564e+00,1.043990478703199720e+01,-2.143226505801638371e-01,-4.589610866660126520e-01,4.854472036112841837e-02,8.871280240472129153e-01,4.545820300828774521e+02
4.399430803331573436e+00,9.751645839709315311e+00,-1.033633526157639454e-01,-4.272875887415352736e-01,2.998997113506263190e-02,9.036171302808612138e-01,4.561135859226580465e+02
4.670487347281063961e+00,9.047815337875427133e+00,4.110599988890438657e-03,-5.174850761714677727e-01,8.086807969581613631e-02,8.518612267423493201e-01,4.576451417624386409e+02
4.943926931976733385e+00,8.330201739616747147e+00,1.081090136920317413e-01,-6.007467698583809357e-01,1.306623183926693688e-01,7.886879465656507771e-01,4.591766976022192353e+02
5.218839301622803184e+00,7.600599946436402909e+00,2.086417175592278628e-01,-6.759567277682233533e-01,1.787053026866724514e-01,7.149439956930934148e-01,4.607082534419998296e+02
5.494327243905266833e+00,6.860811232644558721e+00,3.057185631988816321e-01,-7.421069247483282894e-01,2.243531203761786608e-01,6.316177559404059227e-01,4.622398092817804240e+02
5.769506606891879663e+00,6.112643174676382962e+00,3.993494246980714979e-01,-7.983107624543231973e-01,2.669939616627030055e-01,5.398260377070108751e-01,4.637713651215610184e+02
6.043506315784652472e+00,5.357909580338769295e+00,4.895441985578479760e-01,-8.438149518086619505e-01,3.060563189172508247e-01,4.407991115646633373e-01,4.653029209613416128e+02
6.315468389524059312e+00,4.598430417985921892e+00,5.763128036280908972e-01,-8.780096087926055892e-01,3.410166462756229477e-01,3.358642193387291197e-01,4.668344768011222072e+02
6.584547957244808458e+00,3.836031745623663891e+00,6.596651810422812234e-01,-9.004364283121899515e-01,3.714063764317550587e-01,2.264277856523515542e-01,4.683660326409028016e+02
6.864962897837985523e+00,3.028976074976538868e+00,7.441727404757338959e-01,-9.107948266244700886e-01,3.968182006107422444e-01,1.139565683026271536e-01,4.699849865328579313e+02
7.140375363967661926e+00,2.222767445057236557e+00,8.250891652573495438e-01,-9.089459700191639957e-01,4.169115275727074410e-01,-4.199995240735145943e-05,4.716039404248130609e+02
7.409874142083481274e+00,1.419469182689266473e+00,9.025130606340378003e-01,-9.405087705244216112e-01,3.310424222993818555e-01,-7.649945885996201067e-02,4.732228943167681905e+02
7.672538744921986620e+00,6.211551932003992471e-01,9.767179230519206223e-01,-9.587017836044035013e-01,2.404673806278007642e-01,-1.518694471206060159e-01,4.748418482087233201e+02
7.927451886799597780e+00,-1.700917414332122346e-01,1.048064705256017470e+00,-9.632663832888085365e-01,1.464739690619996093e-01,-2.250805438366579869e-01,4.764608021006784497e+02
8.173711940955422861e+00,-9.521817910068465229e-01,1.116914380754261638e+00,-9.541376776963228501e-01,5.039834890342206192e-02,-2.950920168843328417e-01,4.780797559926335794e+02
8.410432959821156018e+00,-1.723018166529940220e+00,1.183627941192936461e+00,-9.314454319927653048e-01,-4.639371777721814499e-02,-3.609086174799840396e-01,4.796987098845887090e+02
8.636744695093254265e+00,-2.480497209758068866e+00,1.248566393732236435e+00,-8.955122242064371685e-01,-1.425262831033116961e-01,-4.215947282903419469e-01,4.813176637765438386e+02
8.851792617606550451e+00,-3.222508482814215203e+00,1.312090758421916581e+00,-8.468488600544741285e-01,-2.366327732997585420e-01,-4.762876639442258364e-01,4.829366176684989682e+02
9.054737937008889404e+00,-3.946934857897599347e+00,1.374562065576759418e+00,-7.861471119059895152e-01,-3.273754154740285971e-01,-5.242099348405889758e-01,4.845555715604540978e+02
9.244757621237130962e+00,-4.651652607079848067e+00,1.436341353152373435e+00,-7.142698850609588979e-01,-4.134642550763473756e-01,-5.646802998774025362e-01,4.861745254524092275e+02
