7.361471297621303700e-01,-4.072928785002649654e+00,-2.897606381053543068e+00,-9.741568796142693332e-01,-4.289895066156880488e-02,-2.217567449557684978e-01,1.592017012358805106e+00
5.635348582370124371e-01,-3.854094659825985314e+00,-2.897744758622267991e+00,-3.999995304135467398e-06,1.561658166664048331e-01,9.877298404372573115e-01,3.184034024717610212e+00
3.909522485323340679e-01,-3.633910257472425798e+00,-2.897042639760887273e+00,-4.815606154927769000e-01,-8.808213976910984899e-02,8.719741454078132614e-01,4.776051037076415540e+00
1.440399117821499486e-01,-3.317495969649399967e+00,-2.897042628914422657e+00,-8.162637039383380255e-01,-3.054692944632069751e-01,4.903061041553442578e-01,7.039065214331573728e+00
-1.020253851036879017e-01,-3.003073407777768100e+00,-2.906554467463255520e+00,-9.020435406535016742e-01,-4.297022488561674236e-01,-4.088310277553076910e-02,9.256851247010271067e+00
-2.367191980812699825e-01,-2.832063474459237451e+00,-2.917745532449624424e+00,-7.127413081393232375e-01,-4.228955894936559101e-01,-5.596044567898427191e-01,1.045350786399987086e+01
-5.263801689254793414e-01,-2.477691258215362513e+00,-2.965384127786660606e+00,-5.712695287348824591e-01,-5.943414575233728625e-01,-5.660453669155655065e-01,1.294687750341608279e+01
-7.530755914384698047e-01,-2.218392741513114608e+00,-3.025884093066055769e+00,-4.015486972673014687e-01,-7.363974448205481416e-01,-5.444955894978111832e-01,1.480903517212450460e+01
-9.896372327005413805e-01,-1.968846855514950311e+00,-3.106098133254292293e+00,-4.401103734246038512e-01,-8.226710802958678848e-01,-3.598793587421665330e-01,1.667119284083292641e+01
-1.118171135425960028e+00,-1.841656619226872404e+00,-3.155234440087506087e+00,-4.597414088882684213e-01,-8.735588334318998838e-01,-1.597836083165407317e-01,1.765361083562638811e+01
-1.323045818666132689e+00,-1.651707805570477250e+00,-3.239319950954709260e+00,-4.595974337848381386e-01,-8.868719073909389072e-01,4.718494186906293381e-02,1.918144668493096106e+01
-1.535392835028522418e+00,-1.475050533724863611e+00,-3.333561606159675783e+00,-3.910312438274416436e-01,-7.545621957973610572e-01,5.269994867413163586e-01,2.070928253423553400e+01
-1.755294102416104396e+00,-1.313599486658831195e+00,-3.436918649115212610e+00,-2.237571261383854704e-01,-4.317785211446010241e-01,8.737837588223004159e-01,2.223711838354010695e+01
-1.982572528463491857e+00,-1.168699967889726521e+00,-3.548193840633615981e+00,-0.000000000000000000e+00,-9.999989999994989072e-07,9.999989999994989276e-01,2.376495423284467989e+01
-2.300699098102015228e+00,-1.008822789793221597e+00,-3.708735692046511545e+00,-0.000000000000000000e+00,-4.999994371469631278e-07,9.999989992939574135e-01,2.581462986590314657e+01
-2.634952525598376560e+00,-8.970513716326942166e-01,-3.879394382131095664e+00,-0.000000000000000000e+00,0.000000000000000000e+00,9.999989992941449302e-01,2.786430549896161324e+01
-2.934680558088020863e+00,-8.397136054897680335e-01,-4.030566541856537732e+00,-0.000000000000000000e+00,4.999994371469631278e-07,9.999989992939574135e-01,2.963371091153083725e+01
-3.242734655939005339e+00,-8.185374395958248117e-01,-4.181258590619828297e+00,-0.000000000000000000e+00,9.999989992933948781e-07,9.999989992933948635e-01,3.140311632410006126e+01
-3.557839458426986123e+00,-8.340750466051328749e-01,-4.327935147078540545e+00,-8.509987894259095700e-03,-3.496795025692738812e-01,9.368296673286302667e-01,3.317252173666928883e+01
-3.934500458429231795e+00,-8.976416377932190382e-01,-4.488589312933160436e+00,1.058206595632397301e-01,-3.477287357426051551e-01,9.316033030980279683e-01,3.524485360914150789e+01
-4.317535767522721279e+00,-1.004674102641751166e+00,-4.630409114449657970e+00,2.187648692050080668e-01,-3.412217959905435860e-01,9.141704534363880308e-01,3.731718548161372695e+01
-4.789594952040082454e+00,-1.183886876322184589e+00,-4.763456990020771720e+00,-9.999989999999751022e-01,-0.000000000000000000e+00,0.000000000000000000e+00,3.984732668583496462e+01
-5.134493585937125459e+00,-1.339031189553239409e+00,-4.828803704059804858e+00,-9.983881034473690574e-01,-0.000000000000000000e+00,-5.673794904931526994e-02,4.169401875091510590e+01
-5.476922186880362808e+00,-1.503268132723085904e+00,-4.867919166605068959e+00,-0.000000000000000000e+00,-9.983890695298435203e-01,-5.672094713769394725e-02,4.354071081599524717e+01
-5.831970703241177389e+00,-1.679771059446956372e+00,-4.876953047945794317e+00,-0.000000000000000000e+00,-9.924842934746124223e-01,-1.223639128921116953e-01,4.548502801563778775e+01
-6.133662219164105700e+00,-1.831318532703394730e+00,-4.857459623696556150e+00,-6.799996278746930803e-05,-9.702994690100216757e-02,9.952804553393418407e-01,4.717159914931144726e+01
-6.428115742457038984e+00,-1.977474625139265196e+00,-4.813400312467603470e+00,9.360262369457754694e-01,-2.510647953304670499e-01,2.466157989573156684e-01,4.885817028298509967e+01
-6.437711276531120852e+00,-1.982185906903996875e+00,-4.811532131036452498e+00,-5.300915303213918905e-01,-8.479392486978128973e-01,0.000000000000000000e+00,4.891389638844230348e+01
-6.709083011396507423e+00,-2.113210242832843644e+00,-4.747224592523986431e+00,9.726792459839350702e-02,0.000000000000000000e+00,9.952572284815965897e-01,5.051398453533273170e+01
-6.971483949728751739e+00,-2.235007786987774914e+00,-4.661839703517982159e+00,0.000000000000000000e+00,5.892782266476764841e-01,-8.079289396965738668e-01,5.211407268222315992e+01
-7.351814939568174445e+00,-2.397112937539068955e+00,-4.474480568028444516e+00,6.075376243260788289e-01,7.797075178639661930e-01,1.514999063192770667e-01,5.461353278951893486e+01
-7.729501183791245289e+00,-2.529892425558336821e+00,-4.153185107645994023e+00,-2.272997664908447436e-03,5.869383970275843243e-01,-8.096271682553878302e-01,5.755889355606510804e+01
-7.982250390139564722e+00,-2.593699521093280946e+00,-3.794989505399585461e+00,5.293393743996591683e-01,8.484089973068630330e-01,-0.000000000000000000e+00,6.010633580849721369e+01
-8.165240363586276473e+00,-2.614208654584634139e+00,-3.314839957127712733e+00,9.984358225270002496e-01,0.000000000000000000e+00,-5.589193408565497345e-02,6.299307464477005425e+01
-8.222552074897262031e+00,-2.597586864625809788e+00,-2.897040723529323625e+00,9.973505985314402578e-01,-0.000000000000000000e+00,-7.273089779916236397e-02,6.524293661838004255e+01
-8.202405191885448588e+00,-2.560224732037673867e+00,-2.459185625484028748e+00,9.973505978851086029e-01,-0.000000000000000000e+00,-7.273089775202921936e-02,6.749279859199003795e+01
-8.086253888965856618e+00,-2.500523812142576130e+00,-1.987673606362190704e+00,9.948943568806407622e-01,-0.000000000000000000e+00,-1.009119347685325796e-01,6.988417700898770590e+01
-7.956951763836307201e+00,-2.450037081130609362e+00,-1.665797659698031064e+00,9.902617612453884499e-01,1.085131574452595764e-03,-1.392065612826602627e-01,7.152344036060237897e+01
-7.746575824200173876e+00,-2.377041767248818882e+00,-1.263753588182017440e+00,9.841545475885535854e-01,2.168647185417127508e-03,-1.772938899954358827e-01,7.359432021803705481e+01
-7.378018168106899033e+00,-2.262480146492468425e+00,-7.546053329461414050e-01,9.765818105505695845e-01,3.248933356862865503e-03,-2.151172046430252227e-01,7.629843917353215943e+01
-7.211858673493203753e+00,-2.213569163487430824e+00,-5.647256436271806956e-01,9.675548270284346497e-01,4.324381422548642315e-03,-2.526201821291230165e-01,7.733463552839180011e+01
-7.120561359623694742e+00,-2.187010529722304142e+00,-4.633529748385347702e-01,9.570870394146127058e-01,5.393389921350246266e-03,-2.897469763939410914e-01,7.789101077776658144e+01
-6.947917811636095564e+00,-2.137418918673740009e+00,-2.767389703054511374e-01,9.451940355783011727e-01,6.454366981850719227e-03,-3.264423015692107244e-01,7.892104193766662945e+01
-6.679519830867046259e+00,-2.062534863396050966e+00,-3.978166118640603412e-03,9.318935256526005295e-01,7.505732692645082117e-03,-3.626515142988798179e-01,8.044738639663522406e+01
-6.394841401430805483e+00,-1.986524140321439758e+00,2.636330309762924262e-01,9.172053156621563508e-01,8.545921454832300021e-03,-3.983206951030093257e-01,8.197373085560381867e+01
-6.095138705902427567e+00,-1.910616248296142183e+00,5.258980013940020015e-01,9.011512780305465098e-01,9.573384313193921205e-03,-4.333967286637991356e-01,8.350007531457241328e+01
-5.921975102602720753e+00,-1.868502386847775476e+00,6.707637648259388019e-01,8.837553190113148771e-01,1.058659126259051293e-02,-4.678273829142783891e-01,8.435532562772920073e+01
-5.475916547585832461e+00,-1.768371046839778638e+00,1.017002020871304424e+00,8.650433430911295130e-01,1.158403352614393797e-02,-5.015613868119741525e-01,8.646411939583471451e+01
-5.134478762618965852e+00,-1.700000463203330980e+00,1.256941175584278314e+00,8.450432144180378691e-01,1.256422580181541272e-02,-5.345485066818292941e-01,8.799682483877838024e+01
-4.782625232915095559e+00,-1.636414605868682814e+00,1.486436537864880725e+00,8.237847153122158650e-01,1.352570847403630934e-02,-5.667396210147658264e-01,8.952953028172204597e+01
-4.411452671672654091e+00,-1.577437007484271181e+00,1.708882949847223554e+00,8.012995019209389058e-01,1.446704978710053324e-02,-5.980867936105835891e-01,9.110419438554150418e+01
-4.031675521371143489e+00,-1.526302838549875363e+00,1.915101493338220884e+00,7.776210570837516212e-01,1.538684797708411017e-02,-6.285433449563434527e-01,9.267885848936096238e+01
-3.644673564068078964e+00,-1.484375837115534669e+00,2.102404523527305891e+00,7.527846404779567901e-01,1.628373335911917005e-02,-6.580639217340052971e-01,9.425352259318042059e+01
-3.251833657490492246e+00,-1.453003355602859425e+00,2.268104525636981617e+00,7.268272361185884600e-01,1.715637036691581782e-02,-6.866045643538661869e-01,9.582818669699987879e+01
-2.854549683839154195e+00,-1.433516317017293096e+00,2.409514133398910740e+00,6.997874972909685631e-01,1.800345954149621883e-02,-7.141227724132787058e-01,9.740285080081933700e+01
-2.454389588212865903e+00,-1.427075772461480430e+00,2.523977321491974291e+00,6.717056889977651712e-01,1.882373946618060012e-02,-7.405775679832050651e-01,9.897751490463879520e+01
-2.053261319420873310e+00,-1.434516780171197770e+00,2.608900597765138496e+00,6.426236280061664585e-01,1.961598864494473043e-02,-7.659295566283909062e-01,1.005521790084582534e+02
-1.653302875244655468e+00,-1.456497427827315061e+00,2.662485636678770806e+00,4.311522475395230258e-01,2.213055235305591215e-02,-9.020066397174716366e-01,1.021268431122777116e+02
-1.247702219764364351e+00,-1.494872099984481117e+00,2.684594043694028098e+00,1.924133021948648270e-01,2.324550093096783288e-02,-9.810375975595015952e-01,1.037381329339357450e+02
-8.484323662843220593e-01,-1.550126830375543774e+00,2.674869191920008493e+00,-5.849451477090683582e-02,2.289032172417582167e-02,-9.980242606838447550e-01,1.053494227555937783e+02
-4.581570015769519943e-01,-1.622890960577055619e+00,2.635343843279805753e+00,-3.057029253156085535e-01,2.108747779315156903e-02,-9.518923467148163731e-01,1.069607125772518117e+02
-7.954342579936229951e-02,-1.713761558751533576e+00,2.568050974200994929e+00,-5.335776174016323425e-01,1.795098712836118091e-02,-8.455593936971244062e-01,1.085720023989098451e+02
2.847375505831800657e-01,-1.823303396047640357e+00,2.475023760980280763e+00,-6.153266050159427181e-01,2.047669785328527781e-02,-7.880049961790439594e-01,1.101832922205678784e+02
6.320117099287768658e-01,-1.952048923471398245e+00,2.358295565147152661e+00,-6.909212001616467091e-01,2.279760415751042740e-02,-7.225691416124607747e-01,1.117945820422259118e+02
9.596015306047152027e-01,-2.100498249228676784e+00,2.219899918826555574e+00,-7.596053347615805418e-01,2.489049323535139080e-02,-6.499062999748064229e-01,1.134058718638839451e+02
1.264811375288457329e+00,-2.268547670744288425e+00,2.061773449692620108e+00,-8.206920540945418230e-01,2.673443274103668235e-02,-5.707432193645706198e-01,1.150171616855419785e+02
1.544916859410016219e+00,-2.454917964991069734e+00,1.885658806620302608e+00,-8.735703862512503859e-01,2.831098010941199977e-02,-4.858716586386996883e-01,1.166284515072000119e+02
1.797186140572960333e+00,-2.657725481005783319e+00,1.693201707549830237e+00,-8.081871976257191115e-01,2.582158815030537527e-02,-5.883576286383036535e-01,1.182397413288580452e+02
2.018897028900616508e+00,-2.875053514477526662e+00,1.486047988049194801e+00,-7.308553647830172695e-01,2.295043714023469253e-02,-6.821449356265469888e-01,1.198510311505160786e+02
2.207337092544347623e+00,-3.104952367961957282e+00,1.265843589467988251e+00,-6.427181838537846525e-01,1.973997493348369700e-02,-7.658470275004367611e-01,1.214623209721741119e+02
2.355403763831972697e+00,-3.336084849562861443e+00,1.043303757832495515e+00,-8.536475879973397518e-01,2.904298598275488127e-02,5.200387490096018972e-01,1.230130338369359322e+02
2.469063108949354657e+00,-3.574949992450826564e+00,8.120098437916094536e-01,-6.814910863542296138e-01,5.479192654282214608e-02,-7.297710216273981532e-01,1.245637467016977524e+02
2.546013304284030276e+00,-3.819792042878217053e+00,5.733741208874274520e-01,-8.553084287800751806e-01,6.547528302176400250e-02,-5.139634996502217001e-01,1.261144595664595727e+02
2.583960923750894256e+00,-4.068828205583707280e+00,3.288089116084944030e-01,-9.633528547157023114e-01,7.112361346149909114e-02,-2.586323818106204819e-01,1.276651724312213929e+02
2.580621022101373008e+00,-4.320248693512229288e+00,7.972657797503372723e-02,-9.973157975799052943e-01,7.130256396146500419e-02,1.658747333961183706e-02,1.292158852959832132e+02
2.533717218127479409e+00,-4.572216777901076945e+00,-1.724604878760208626e-01,-9.545855137899356135e-01,6.599837276823752874e-02,2.905317739180688363e-01,1.307665981607450192e+02
2.440981777760219185e+00,-4.822868838731730889e+00,-4.263398731061425195e-01,-8.384479280489542941e-01,5.561892889150656799e-02,5.421343068842825463e-01,1.323173110255068252e+02
2.300259241486648953e+00,-5.069904653676070794e+00,-6.808420670486856618e-01,2.499997267779052761e-05,-7.954151306990970838e-01,-6.060633376396975525e-01,1.338680238902686312e+02
2.109612935725552862e+00,-5.310179324245008381e+00,-9.355833817958560950e-01,3.099996898508438324e-05,-9.999989995188509617e-01,-0.000000000000000000e+00,1.354187367550304373e+02
1.867225830728715286e+00,-5.540115565177130108e+00,-1.190523041296074336e+00,1.016999271930584155e-02,-9.999472841380963040e-01,-0.000000000000000000e+00,1.369694496197922433e+02
1.573563937759334674e+00,-5.756123327223752639e+00,-1.443703015028614534e+00,0.000000000000000000e+00,-6.060633378289832507e-01,7.954151309475213649e-01,1.385201624845540493e+02
1.233641478555861593e+00,-5.954788292591358889e+00,-1.689288358200107254e+00,-3.860612733938648122e-01,-2.757035322430529956e-01,8.803080457970771100e-01,1.400708753493158554e+02
8.437251708573975106e-01,-6.137210858331878960e+00,-1.924988994047368562e+00,-6.696665005626396550e-01,1.278249046681700085e-01,7.315774543894424387e-01,1.416629677535833309e+02
4.197819841751241898e-01,-6.294469587731415849e+00,-2.135235062074876566e+00,-8.962736280308324366e-01,4.381243293420082896e-01,-6.883789462652249724e-02,1.432550601578508065e+02
-3.005018811320621028e-02,-6.423530105846889882e+00,-2.311272201184324970e+00,-6.504039234045615459e-01,3.481757282461465097e-01,6.750899189599171013e-01,1.448471525621182820e+02
-4.976179727153036136e-01,-6.521456236481082414e+00,-2.444346290693631296e+00,-0.000000000000000000e+00,4.167097442644270705e-02,9.991303868317565895e-01,1.464392449663857576e+02
-9.747528271000970301e-01,-6.585410097872679280e+00,-2.525703511864440642e+00,3.143997209739320901e-03,3.833196598082939943e-02,9.992591131692473150e-01,1.480313373706532332e+02
-1.453271350385624938e+00,-6.612652196983193065e+00,-2.546590409428101776e+00,-2.172967494848507541e-01,3.431016044480654226e-01,9.138169464868238778e-01,1.496234297749207087e+02
-1.924985443287978937e+00,-6.600543744082869146e+00,-2.498544891059097051e+00,0.000000000000000000e+00,8.584009604373576963e-01,5.129773787610407698e-01,1.512155221791881843e+02
-2.381711864239589804e+00,-6.546460731653118259e+00,-2.373863299289129536e+00,2.039378542714145037e-01,3.347537607938348425e-01,9.199713426128616200e-01,1.528076145834556598e+02
-2.816229569280224165e+00,-6.447741135262393897e+00,-2.170571538504505238e+00,4.292840466619881612e-01,2.518583073605329958e-01,8.673411095382573821e-01,1.543997069877231354e+02
-3.224186148377191419e+00,-6.301812143969758750e+00,-1.899546866496635955e+00,6.286916907373669705e-01,1.537449591087760303e-01,7.623039062911496355e-01,1.559917993919906110e+02
-3.604078721824738540e+00,-6.106221195000236079e+00,-1.581758661011277933e+00,7.901121582994576897e-01,4.634195063226839023e-02,6.112063488864715177e-01,1.575838917962580865e+02
-3.955338355793659222e+00,-5.858548120551455796e+00,-1.240679482254428478e+00,0.000000000000000000e+00,9.950482571507357488e-01,-9.938292580607746562e-02,1.591759842005255621e+02
-4.286479790816057012e+00,-5.545128428243861762e+00,-8.897350524236059544e-01,5.805297106654012940e-02,-9.983125024434718053e-01,-0.000000000000000000e+00,1.608177560236051704e+02
-4.584947076888510331e+00,-5.171981397871633135e+00,-5.647310300956195350e-01,6.818411546864252548e-01,5.506893172821086813e-02,-7.294230956966438750e-01,1.624595278466847788e+02
-4.850094568352858460e+00,-4.744579667197389661e+00,-2.833134168317782420e-01,8.622806498169501843e-01,4.096493585596285708e-02,-5.047692096183175048e-01,1.641012996697643871e+02
-5.079796378182845018e+00,-4.275191973085178176e+00,-5.081135301204035143e-02,9.497874378597731537e-01,-2.078098770058576031e-02,-3.122018152205512376e-01,1.657303144908346439e+02
-5.275849616205046999e+00,-3.768980223416362296e+00,1.378923515336281658e-01,8.067610110634285681e-01,-5.008968508125558605e-01,-3.134278479557670583e-01,1.673593293119049008e+02
-5.437780065766523840e+00,-3.234148094218882719e+00,2.852745479082636759e-01,4.612619272224951494e-01,-8.553027301751170430e-01,-2.359929538146210704e-01,1.689883441329751577e+02
-5.596537170343093948e+00,-2.404746369503953041e+00,4.132325314236828251e-01,0.000000000000000000e+00,-9.950534475071183271e-01,-9.933094484754553810e-02,1.713957818958127746e+02
-5.650390098758825808e+00,-1.729012874737105854e+00,4.392301547407180817e-01,7.364161080998669062e-01,-4.016585135368744286e-01,-5.443893406704171101e-01,1.733093333169784671e+02
-5.646905029994568004e+00,-1.063294075081505419e+00,4.115401453175764335e-01,5.760832163300317887e-01,-5.993410883361652841e-01,-5.558024718319491964e-01,1.752228847381441597e+02
-5.593635447027570429e+00,-4.718929919115937843e-01,3.431399716968577263e-01,3.783536023995333064e-01,-7.581172033173414482e-01,-5.311354418456750714e-01,1.769943616397087567e+02
-5.494449943372358369e+00,8.020799983303265879e-02,2.387225391475884251e-01,5.119696326534558528e-01,1.099999210732662775e-05,-8.590023836518086986e-01,1.787658385412733537e+02
-5.351842647720815194e+00,5.804128647407124086e-01,1.016767305675565641e-01,0.000000000000000000e+00,-9.950635238632306034e-01,9.922995251858007792e-02,1.805373154428379507e+02
-5.169416978992189549e+00,1.022450860524680261e+00,-6.454908520769608860e-02,0.000000000000000000e+00,-9.600386797802232808e-01,-2.798637763738622830e-01,1.823087923444025478e+02
-4.950858925520488008e+00,1.403207790989609238e+00,-2.564224941266073365e-01,0.000000000000000000e+00,-7.858668508820809695e-01,-6.183941240710429943e-01,1.840802692459671448e+02
-4.716154081466241266e+00,1.704603103402567488e+00,-4.567994796069855812e-01,0.000000000000000000e+00,-4.977924468363123522e-01,-8.672950362326234952e-01,1.857479976157101191e+02
-4.457287831891827423e+00,1.949848746872612892e+00,-6.727909151023474532e-01,2.619044045108202545e-01,-6.622388156446814556e-01,-7.020283711862518317e-01,1.874157259854530935e+02
-4.202874579356612905e+00,2.126786474882517375e+00,-8.803835153864207896e-01,4.916079583908023465e-01,-7.452630743070411956e-01,-4.504470727165065247e-01,1.889390883555622622e+02
-3.934275098964825190e+00,2.264837170518303022e+00,-1.093444974164498040e+00,6.608684244428684185e-01,-7.366570529038454218e-01,-1.434827933162041158e-01,1.904624507256714310e+02
-3.653497057900892742e+00,2.369801321064469057e+00,-1.307682284366195269e+00,7.488748351380319912e-01,-6.374785682380120777e-01,1.811230419636478128e-01,1.919858130957805997e+02
-3.294335246540263995e+00,2.458317211918260803e+00,-1.564329251127168252e+00,7.448065684321366620e-01,-4.599216656565937034e-01,4.834596540317939173e-01,1.938525587422797400e+02
-2.920848913369382238e+00,2.510238922850566823e+00,-1.805612188195029999e+00,6.491639641663708993e-01,-2.258173288600601181e-01,7.263543774302863021e-01,1.957193043887788804e+02
-2.356316259062042562e+00,2.543271605569780380e+00,-2.093743015968255072e+00,4.737066590285227141e-01,3.605097405070491201e-02,8.799433666215495942e-01,1.984406693608128194e+02
-2.039321811492138981e+00,2.549855561184284802e+00,-2.215100827674843398e+00,3.231130308860172273e-01,2.966096776122240097e-02,9.458943895920182143e-01,1.999363587990146698e+02
-1.414883649816457867e+00,2.590513784510197315e+00,-2.354876269062191607e+00,1.637731169484087090e-01,2.246807354469908952e-02,9.862411225631508849e-01,2.029129500469389313e+02
-8.921116317310657795e-01,2.687649631913805237e+00,-2.351895068147805912e+00,0.000000000000000000e+00,1.466699169439773104e-02,9.998914337829643006e-01,2.055053673847398272e+02
-5.617700087113847163e-01,2.791406150868846581e+00,-2.298941857269415134e+00,-0.000000000000000000e+00,1.466699168406079140e-02,9.998914330782650017e-01,2.072214651416229287e+02
-2.452312420452118502e-01,2.927179267156227560e+00,-2.215057585836071929e+00,-0.000000000000000000e+00,1.466699168406078967e-02,9.998914330782650017e-01,2.089375628985060303e+02
5.464262005757294927e-02,3.099628045892466766e+00,-2.100217908680395151e+00,-0.000000000000000000e+00,1.466699168405752839e-02,9.998914330780426241e-01,2.106536606553891318e+02
3.426331373892149146e-01,3.319295440355541693e+00,-1.949163657704477748e+00,-0.000000000000000000e+00,3.847562801285162593e-01,9.230171205898846098e-01,2.124193393247330448e+02
6.066232198190202318e-01,3.585243861148696531e+00,-1.764143804469531451e+00,-0.000000000000000000e+00,6.998730157412103026e-01,7.142658901544736150e-01,2.141850179940769578e+02
8.169105267630708545e-01,3.854200402541261283e+00,-1.577059960988322684e+00,-0.000000000000000000e+00,9.149946751465929395e-01,4.034634363293613801e-01,2.157256422970113476e+02
1.009136867319877728e+00,4.154891467235501068e+00,-1.369433275031971320e+00,-0.000000000000000000e+00,9.993857527531184726e-01,3.501595629961485462e-02,2.172662665999457374e+02
1.182993046139753757e+00,4.486473822903211506e+00,-1.143374537135374291e+00,-0.000000000000000000e+00,9.997942891154746325e-01,2.023312684888299920e-02,2.188068909028801272e+02
1.338164369891194694e+00,4.847765671807153787e+00,-9.010486747118037210e-01,-0.000000000000000000e+00,9.999841710804819872e-01,5.445875370944270287e-03,2.203475152058145170e+02
1.536735014162873059e+00,5.547797729112928344e+00,-4.485833665183542873e-01,-0.000000000000000000e+00,9.999553572012952474e-01,-9.342567865892730319e-03,2.229568572653024887e+02
1.618783439707092819e+00,6.036448686356021831e+00,-1.435928561578746765e-01,-0.000000000000000000e+00,9.997078536570985774e-01,-2.412897233184069928e-02,2.245814899898486487e+02
1.677404764360555633e+00,6.549290784093126483e+00,1.699820362782146488e-01,-8.937831490312991845e-01,2.429597686786118954e-02,4.478385736140141349e-01,2.262061227143948088e+02
1.712047437647952641e+00,7.081869178455940883e+00,4.888360832010200663e-01,-4.272875887418396967e-01,2.998997113508399676e-02,9.036171302815050321e-01,2.278307554389409688e+02
1.713400459158697098e+00,7.795787024628854311e+00,9.037519748972620004e-01,-0.000000000000000000e+00,9.997078536730038545e-01,-2.412897233222459012e-02,2.299361849680944658e+02
1.658118774139544005e+00,8.527363516686662592e+00,1.312342610284547018e+00,8.114887729584123466e-02,9.966732847296848607e-01,-7.431232808970064836e-03,2.320416144972479628e+02
1.561769874128371427e+00,9.184155122798392412e+00,1.664557142350957086e+00,1.617400034607267834e-01,9.867884038297569660e-01,9.317582784757333370e-03,2.339228117885992333e+02
1.422194529941748220e+00,9.832669501184852834e+00,1.997504217782575253e+00,2.412194608521750494e-01,9.701211517902619264e-01,2.600235675175383010e-02,2.358040090799505037e+02
1.238652749304572698e+00,1.046204747199797858e+01,2.304712842789698346e+00,3.190409726238706001e-01,9.467860860476775553e-01,4.250841158032624828e-02,2.376852063713017742e+02
1.038781688161295680e+00,1.100401234495455682e+01,2.556826518833331452e+00,3.946696574276917224e-01,9.169435932525584754e-01,5.872229815302700690e-02,2.393772263515389511e+02
8.096172725069649134e-01,1.151623598116302283e+01,2.785287102605469745e+00,4.675857057832358277e-01,8.807987868612990878e-01,7.453257551078325271e-02,2.410692463317761280e+02
5.527936992872227728e-01,1.199107790988578515e+01,2.988188754247092849e+00,5.372879528442208175e-01,8.386000973047078588e-01,8.983057681243181158e-02,2.427612663120133050e+02
2.293322739504343732e-01,1.246803292779102001e+01,3.181229248748324689e+00,6.032973230039384571e-01,7.906375644265563052e-01,1.045111562246870129e-01,2.446723705017103612e+02
-1.293076737914388430e-01,1.286626117353186949e+01,3.330015622287289201e+00,6.651601226636100206e-01,7.372408439319172446e-01,1.184734116087947375e-01,2.465834746914074174e+02
-4.513703610572775138e-01,1.313422342962430278e+01,3.420114457037983779e+00,7.224511585319652873e-01,6.787769415508602133e-01,1.316213780366546626e-01,2.481763902549058116e+02
-7.903794793546643493e-01,1.334270829406577619e+01,3.479573714390641115e+00,7.747766600243621848e-01,6.156476904944075956e-01,1.438646873698619377e-01,2.497693058184042059e+02
-1.143095423630841267e+00,1.349080734813126270e+01,3.504897658191140408e+00,8.217769856770210657e-01,5.482869895437142427e-01,1.551191893685477385e-01,2.513622213819026001e+02
-1.534144124080128568e+00,1.358893351407346906e+01,3.486323143990214479e+00,8.631290949771394105e-01,4.771578207581200215e-01,1.653075300614639809e-01,2.530850393346039482e+02
-1.927727352574547748e+00,1.363335413969899435e+01,3.411415679621649932e+00,8.985487686225250847e-01,4.027490673017499190e-01,1.743596834026340248e-01,2.548078572873052963e+02
-2.276655954362523548e+00,1.363983314234143229e+01,3.293235853217388431e+00,9.277925619538311963e-01,3.255721532613741753e-01,1.822134325610547390e-01,2.563537788340681800e+02
-2.615698786290416411e+00,1.362517151438385810e+01,3.124630635137120027e+00,9.506594781365854674e-01,2.461575285508447175e-01,1.888147975361670339e-01,2.578997003808310637e+02
-2.939136670158407405e+00,1.359675481921660278e+01,2.901064666161163430e+00,9.669923495963458349e-01,1.650510230613024543e-01,1.941184061607341971e-01,2.594456219275939475e+02
-3.241744134426735702e+00,1.356098246367825233e+01,2.621442913383829509e+00,9.766789182152768589e-01,8.281009511421096037e-02,1.980878059418390846e-01,2.609915434743568312e+02
-3.603451767904416236e+00,1.350818488701539799e+01,2.147299276322527373e+00,9.796526068684435762e-01,0.000000000000000000e+00,2.006957145972651235e-01,2.630983951370834575e+02
-3.830676265071732534e+00,1.346979759321416914e+01,1.734278846991345491e+00,9.796526061767043547e-01,-0.000000000000000000e+00,2.006957144555525374e-01,2.646719166653975890e+02
-4.022151157223427198e+00,1.343632838387348549e+01,1.291695012348035743e+00,9.994220091165006981e-01,-0.000000000000000000e+00,3.396538964094672486e-02,2.662454381937117205e+02
-4.206119919061572787e+00,1.340951175899677850e+01,4.553541782144460148e-01,9.910178181062265779e-01,-0.000000000000000000e+00,-1.337224147093227788e-01,2.690423153242666103e+02
-4.189719212616911825e+00,1.342547259375340296e+01,-1.967189721119808055e-01,9.546769266714698610e-01,-0.000000000000000000e+00,-2.976406653671949121e-01,2.711813290364380578e+02
-4.046224453634683194e+00,1.347340665404733429e+01,-8.142132814059819257e-01,8.084226177786713041e-01,-6.145873609065115881e-04,-5.886004530636448351e-01,2.733203427486095052e+02
-3.814532762502671037e+00,1.354125892095441230e+01,-1.320556748520061996e+00,5.764363129601857150e-01,-1.163998612659590233e-03,-8.171400260715380170e-01,2.752575089428830779e+02
-3.547435612329543630e+00,1.361419525960737253e+01,-1.709891532944541215e+00,5.752485911879960945e-01,-0.000000000000000000e+00,-8.179774186878632225e-01,2.769460215713796742e+02
-3.491922063758315264e+00,1.362889753207118559e+01,-1.778035747852621418e+00,7.342455860441522431e-01,2.131448798323461735e-01,6.445546366104665248e-01,2.772638023249403432e+02
-3.079855647103738825e+00,1.373158803796529526e+01,-2.158714411942596723e+00,9.997494087563408849e-01,0.000000000000000000e+00,-2.234098678772234586e-02,2.793519319047393878e+02
-2.902892326376986798e+00,1.377303368606188094e+01,-2.274426697246958895e+00,4.301035175188680504e-01,3.026596604827218664e-02,9.022709878512734649e-01,2.801474229694475184e+02
-2.790809885304924354e+00,1.379880550915273041e+01,-2.342683600195854865e+00,9.994709311546686736e-01,0.000000000000000000e+00,3.249396525059211616e-02,2.806420738369828314e+02
-2.383318599897479739e+00,1.388443828323795692e+01,-2.533521060657382140e+00,8.506807646955678592e-01,5.164672500191499482e-01,9.798885770682111418e-02,2.823526598806212746e+02
-1.946529676050339885e+00,1.395771072959389691e+01,-2.644214613974561257e+00,5.179124917781990911e-01,7.186022948435146773e-01,4.640855445979871208e-01,2.840632459242597179e+02
-1.433229104714162538e+00,1.400984473748052217e+01,-2.674233183086819565e+00,1.182598423660614628e-01,0.000000000000000000e+00,9.929816764094265835e-01,2.860001234538141830e+02
-9.188972747059523938e-01,1.402012484780598989e+01,-2.603037350010714679e+00,7.294162694263679469e-01,5.001404990659293892e-01,4.667005325589550502e-01,2.879370009833686481e+02
-7.862560472857860194e-01,1.401691356872388461e+01,-2.570659994287518568e+00,5.227064052949724760e-01,-8.494460335495763736e-01,-7.223191781871383943e-02,2.884420932743479966e+02
-4.951838885885974095e-01,1.400589636354914980e+01,-2.487219678515433685e+00,6.355972790766489799e-01,2.092487626605334106e-01,7.431211571181745024e-01,2.895637433614400038e+02
2.138415824994080710e-04,1.396774104616990542e+01,-2.262779027085289663e+00,-9.359985444644440761e-04,-1.157798199552279167e-01,9.932734553984196024e-01,2.915982218871575924e+02
3.361635829240019469e-01,1.392642407845150387e+01,-2.029401151407722814e+00,-0.000000000000000000e+00,-9.993865585873512591e-01,3.499294952975939843e-02,2.931261772873576206e+02
6.368972510328321235e-01,1.388064665004347731e+01,-1.750627853350821939e+00,-0.000000000000000000e+00,8.080491350128959915e-02,9.967289330380592061e-01,2.946541326875576488e+02
8.951053211957815670e-01,1.383435596670867263e+01,-1.427457111557698166e+00,-0.000000000000000000e+00,-5.697617808899569924e-01,-8.218086839617149142e-01,2.961820880877576769e+02
1.105166881574192628e+00,1.379075029171333711e+01,-1.062579397788122826e+00,1.270998420254336068e-03,1.158168560492497529e-01,9.932687654492716733e-01,2.977100434879577051e+02
1.287690958744631242e+00,1.374347161027725051e+01,-5.456449878076391480e-01,-9.994701503669272125e-01,0.000000000000000000e+00,3.251797235700859545e-02,2.996424975149617467e+02
1.366407554703035210e+00,1.370837943113216006e+01,2.224109353441763165e-02,-0.000000000000000000e+00,1.173078338873076720e-01,9.930945937374238142e-01,3.015749515419657882e+02
1.340399712771465746e+00,1.368783203479122612e+01,6.213424888656099432e-01,-5.024135394087749784e-01,7.294793312445776445e-01,4.641535744838730104e-01,3.035074055689698298e+02
1.234728939830124883e+00,1.368183670556250320e+01,1.170763940794948388e+00,-5.517134353491384147e-01,-8.267481538649823491e-01,1.099898874309003377e-01,3.052431107428334940e+02
1.063046689358206898e+00,1.368580224789357658e+01,1.718670055524218032e+00,-7.142513392286112817e-01,-6.601633892666970427e-01,-2.324377849661183326e-01,3.069788159166971582e+02
1.011245113423618003e+00,1.368803168119337954e+01,1.856761654039433385e+00,-6.703970622275307045e-01,-6.153208142105288658e-01,-4.146638090754259931e-01,3.074191170015756143e+02
7.915355856805839085e-01,1.369913328511650796e+01,2.371078708514284372e+00,-6.016439490510739896e-01,-5.476249593818283135e-01,-5.814890045679479424e-01,3.090826228308427517e+02
5.309314248416581172e-01,1.371340397343800177e+01,2.868569778184876462e+00,-5.105455351423705546e-01,-4.595900920418058977e-01,-7.267174167752807890e-01,3.107461286601098891e+02
2.154012276403577952e-01,1.372802915764974152e+01,3.373422663318970116e+00,-4.004852658097483031e-01,-3.544858749633713058e-01,-8.449552155719676216e-01,3.125187012298287641e+02
-1.314354403337207877e-01,1.373726192184151351e+01,3.845862669837170955e+00,-2.755508299481164713e-01,-2.362159264450936769e-01,-9.318110195797457695e-01,3.142912737995476391e+02
-5.307365236448754464e-01,1.373422662178707121e+01,4.311639062504679210e+00,-1.403823404044267920e-01,-1.091728373644994809e-01,-9.840589870968521335e-01,3.162045701443610142e+02
-9.447943090156447621e-01,1.370994287088133312e+01,4.724216372037859379e+00,-0.000000000000000000e+00,2.192496970816692342e-02,-9.997586187200437902e-01,3.181178664891743892e+02
-9.658222915300821443e-01,1.370809155409058100e+01,4.743547062187390750e+00,3.169908213566581257e-01,5.877059338972136920e-02,-9.466048999073018999e-01,3.182140563109689992e+02
-1.349942879948315966e+00,1.366106410959170780e+01,5.074786888448051592e+00,6.008035540474822023e-01,8.946493359374771415e-02,-7.943734103682975611e-01,3.199792790965235554e+02
-1.725885965684928358e+00,1.358463114398969118e+01,5.358609041589173394e+00,9.968779763714677999e-01,0.000000000000000000e+00,-7.894491893664680460e-02,3.217445018820781115e+02
-2.112115226514548194e+00,1.345856194464133182e+01,5.609521916079211579e+00,7.026966977436853723e-01,-7.026635675997120467e-01,-1.117106160978652146e-01,3.236579681635880661e+02
-2.463974046752910319e+00,1.328007352461578883e+01,5.799474080076855387e+00,0.000000000000000000e+00,-9.968312352734686188e-01,-7.953293898571152376e-02,3.255714344450980207e+02
-2.770820533940576258e+00,1.305008631693933197e+01,5.930348098231990939e+00,-9.968817776734339997e-01,-0.000000000000000000e+00,-7.889690326056408853e-02,3.274849007266079752e+02
-2.998800713324293099e+00,1.281100947927235012e+01,6.001329577831096884e+00,-6.786388523889902435e-01,-0.000000000000000000e+00,-7.344707673076221743e-01,3.291690459113141287e+02
-3.183612196622280344e+00,1.254345001621853228e+01,6.035542381000883694e+00,-0.000000000000000000e+00,-0.000000000000000000e+00,-9.999989999999968626e-01,3.308531910960202822e+02
-3.320636361778625201e+00,1.225167465035977976e+01,6.035022372997441487e+00,-0.000000000000000000e+00,-0.000000000000000000e+00,-9.999989992938940198e-01,3.325373362807264357e+02
-3.407789959448228156e+00,1.194233966852346462e+01,6.002558910601628384e+00,9.968779763717972031e-01,-0.000000000000000000e+00,-7.894491893667289484e-02,3.342214814654325892e+02
-3.442957234501767161e+00,1.160330910031872342e+01,5.935746289224585581e+00,9.968779756678982640e-01,-0.000000000000000000e+00,-7.894491888092960985e-02,3.360098362883581444e+02
-3.418138345773151343e+00,1.126207413327521500e+01,5.838785938991895463e+00,7.027111920888708951e-01,7.027076675327708077e-01,-1.113414321112484451e-01,3.377981911112836997e+02
-3.338025209428485685e+00,1.092700143455711803e+01,5.716547241286663805e+00,0.000000000000000000e+00,9.968731427319725835e-01,-7.900593205829646581e-02,3.395865459342092549e+02
-3.160272438838595654e+00,1.053140733879330604e+01,5.531986416375074711e+00,-0.000000000000000000e+00,9.968731420280737554e-01,-7.900593200250984049e-02,3.418331500898481181e+02
-2.901341325717068820e+00,1.018426182921245804e+01,5.319425217826905694e+00,5.805320424197147888e-01,7.230074668699207896e-01,-3.744873169728483719e-01,3.440797542454869813e+02
-2.626503956435544129e+00,9.935210662136851667e+00,5.121371295651703015e+00,8.711870275155541021e-01,8.812176377229025137e-02,-4.829758977807657727e-01,3.460221404963771192e+02
-2.317078148030280893e+00,9.743748986234342269e+00,4.916070083176173888e+00,7.268315228415382911e-01,-5.907656121676043703e-01,-3.502997700313013607e-01,3.479645267472672572e+02
-1.993045828204861092e+00,9.624706250965722631e+00,4.713382652200411194e+00,4.662972870393005120e-01,1.652197473817885315e-02,-8.844726476562162487e-01,3.498381785749494952e+02
-1.700925690424203829e+00,9.577092769623556379e+00,4.536486655418163316e+00,3.588155418935190522e-01,-5.920762440852388453e-01,-7.215920787299621164e-01,3.514450610823338934e+02
-1.400571925955243158e+00,9.578005366063592874e+00,4.356676400676044558e+00,-9.796745246596161305e-01,-0.000000000000000000e+00,2.005886979235458889e-01,3.530519435897182916e+02
-1.100932287801109855e+00,9.622298068397887150e+00,4.176240010199222752e+00,4.896725565856746565e-01,1.691298468474576946e-02,-8.717412106101605218e-01,3.546314714484562955e+02
-8.006650625226499063e-01,9.703867685999227888e+00,3.990758214203655729e+00,0.000000000000000000e+00,-8.566789209255404325e-02,-9.963227450299039223e-01,3.562109993071942995e+02
-5.034759044451420085e-01,9.817834727767985825e+00,3.798398618926638548e+00,-7.720558983033835865e-02,-1.986752441925719870e-01,-9.770186509195452063e-01,3.577905271659323034e+02
-2.120507414551206782e-01,9.960179619628805270e+00,3.596314962376761404e+00,-1.529362229924076388e-01,-3.078870697671455825e-01,-9.390495535209300026e-01,3.593760263130449175e+02
6.858160645021076085e-02,1.012598319640770761e+01,3.382865904691864767e+00,-2.257451494547983162e-01,-4.112169984228210007e-01,-8.831408198620530614e-01,3.609615254601575316e+02
3.337173502099441968e-01,1.031027078359923443e+01,3.155841835400507112e+00,-2.942414351449701981e-01,-5.066910261853334596e-01,-8.103605258326835870e-01,3.625427489596182227e+02
5.801852561853997337e-01,1.050907559566981142e+01,2.911688130118368800e+00,-3.571165318402182987e-01,-5.924852232850398304e-01,-7.220990533685643920e-01,3.641239724590789137e+02
9.271172571654315853e-01,1.088643159227607704e+01,2.419694684597790690e+00,-6.463403735424584351e-01,-5.168413016604888055e-01,-5.613529998393678166e-01,3.668740225112421740e+02
9.733288995166556878e-01,1.095186672757626489e+01,2.330323831862508133e+00,-8.610980435139656830e-01,-3.816511123333345967e-01,-3.359324156926402627e-01,3.673254196823474444e+02
1.128047803680101158e+00,1.119532443633063679e+01,1.994247624811736008e+00,-9.766469516045874766e-01,-2.024901932016721917e-01,-7.180845062134155743e-02,3.689782095755043656e+02
1.257052582213274095e+00,1.144695441552261705e+01,1.645425048383581057e+00,-9.796745246597435841e-01,-0.000000000000000000e+00,2.005886979235719514e-01,3.706309994686612868e+02
1.362914480967418074e+00,1.170812004422037411e+01,1.290480161839421713e+00,-9.796745239680101358e-01,-0.000000000000000000e+00,2.005886977819393013e-01,3.722837893618182079e+02
1.476789758535679287e+00,1.216836358648472682e+01,7.182585109028359893e-01,-9.987421919058823150e-01,-0.000000000000000000e+00,-5.012019659993331017e-02,3.749852023376957391e+02
1.488807660207623229e+00,1.224966595275723158e+01,6.243757510085333751e-01,-9.546707119062373126e-01,-0.000000000000000000e+00,-2.976605983800955091e-01,3.754370040723335933e+02
1.528877546109892016e+00,1.275816898562594304e+01,9.548723118983178104e-02,-0.000000000000000000e+00,-9.950635238632338231e-01,9.922995251858041099e-02,3.781144303587176410e+02
1.522072062740096765e+00,1.324280826296513425e+01,-3.200426795829847681e-01,-5.741094903288476159e-01,1.828998376289320965e-03,-8.187752731244751780e-01,3.804547655798012897e+02
1.479067971496939027e+00,1.385067646377917150e+01,-7.338537950413399624e-01,-5.759863544736036900e-01,0.000000000000000000e+00,-8.174580838484853951e-01,3.831657672742510385e+02
1.438610397308490718e+00,1.425350101775683420e+01,-9.570900670696984580e-01,-7.619800937893803638e-01,8.751966350382844179e-03,-6.475397592058866891e-01,3.848621306390451764e+02
1.396119910975538003e+00,1.464505570892163355e+01,-1.150133598185853590e+00,-8.995557433714268525e-01,1.694781894233952924e-02,-4.364747827744642206e-01,3.864687383325978089e+02
1.350899378189576172e+00,1.504450118615136667e+01,-1.326223917967285226e+00,-9.799711777964007497e-01,2.406676769264385479e-02,-1.976746857275735736e-01,3.880753460261504415e+02
1.305858074540874325e+00,1.543342917396662273e+01,-1.480137981880623066e+00,-9.981163548444048628e-01,2.965644769243346718e-02,5.368647220696361883e-02,3.896170804303950490e+02
1.259919914907588367e+00,1.582587145960012975e+01,-1.620264868412732984e+00,-9.528381432164448883e-01,3.336166759709167928e-02,3.016363240104378285e-01,3.911588148346396565e+02
1.213597736973867525e+00,1.621980916623864744e+01,-1.747305421572249440e+00,-8.470136703055962668e-01,3.494698357671496142e-02,5.304192216072148858e-01,3.927005492388842640e+02
1.155260660040929643e+00,1.671351714603659389e+01,-1.887249078258013579e+00,-6.873674886046801102e-01,3.431166216797476576e-02,7.254975158094234544e-01,3.946400530238337865e+02
1.097476227695822315e+00,1.720008445408360132e+01,-2.004364761948086215e+00,-4.840441855709102237e-01,3.149608009857653157e-02,8.744753989402659355e-01,3.965795568087833090e+02
1.041288393902045639e+00,1.767379822378837773e+01,-2.100411525989908768e+00,-2.499636456374969562e-01,2.667915500286055855e-02,9.678865628509508712e-01,3.985190605937328314e+02
9.918834541760622736e-01,1.809448243668049372e+01,-2.172267728775061801e+00,-0.000000000000000000e+00,2.016697227947483739e-02,9.997956257302573757e-01,4.003049848893569447e+02
9.455880728953587333e-01,1.849652782704573184e+01,-2.230149974784240818e+00,-0.000000000000000000e+00,2.016697226524963651e-02,9.997956250250304988e-01,4.020909091849810579e+02
9.032109422979218705e-01,1.887578163163649947e+01,-2.275229437955831546e+00,-0.000000000000000000e+00,1.938874012711227016e-02,9.998110202311153438e-01,4.038768334806051712e+02
8.703371576633646134e-01,1.918176619872875932e+01,-2.305177236315930855e+00,-0.000000000000000000e+00,1.861049644941947454e-02,9.998258092494709537e-01,4.054108889543014698e+02
8.410195195282170744e-01,1.946841074952582318e+01,-2.328389854200252351e+00,-0.000000000000000000e+00,1.783224151750433320e-02,9.998399924897070079e-01,4.069449444279977683e+02
8.156948725703880854e-01,1.973351270410949709e+01,-2.345484423461787760e+00,-0.000000000000000000e+00,1.705397560833250836e-02,9.998535699465991300e-01,4.084789999016940669e+02
7.948584742323011598e-01,1.997501645749733612e+01,-2.357036923567215947e+00,2.002601114991937603e-01,-3.181231389952043215e-02,9.792251347000914263e-01,4.100130553753903655e+02
7.790299199871445479e-01,2.019093623304833329e+01,-2.363602773980776117e+00,3.919255055197626847e-01,-7.931328753785039931e-02,9.165706740589201207e-01,4.115471108490866641e+02
7.685460775319150617e-01,2.044076781205657412e+01,-2.363552150868445167e+00,5.667703804084698316e-01,-1.234103215599538506e-01,8.145791725951998519e-01,4.137753540583346989e+02
7.765235447422769166e-01,2.059778614441156108e+01,-2.351659216814770303e+00,7.172908256221005585e-01,-1.622108801710974713e-01,6.776278490691710621e-01,4.160035972675827338e+02
7.963572606078163085e-01,2.065881077982012215e+01,-2.334195256725132062e+00,8.370268619317428049e-01,-1.940497361591902448e-01,5.115943044079409585e-01,4.177925781126367610e+02
8.308571014977975677e-01,2.066273035477696141e+01,-2.306829765386955611e+00,0.000000000000000000e+00,1.519999199372266442e-02,9.998834733323284096e-01,4.197100005893018988e+02
8.801407335383995001e-01,2.059917717337953036e+01,-2.268096213338815392e+00,-0.000000000000000000e+00,-2.786296520808142704e-02,9.996107518063629405e-01,4.216274230659670366e+02
9.447085400898946883e-01,2.046724455934348086e+01,-2.215714669081442878e+00,6.991536932645192604e-01,-5.387427636406384446e-01,-4.700407937818390502e-01,4.235448455426321743e+02
1.014216717491298825e+00,2.029671018491028534e+01,-2.157603530012772275e+00,-4.199765354729590450e-01,-5.494543922602780350e-01,-7.223002010792348715e-01,4.252399311707904985e+02
1.095098349076186528e+00,2.007903325189012378e+01,-2.088592369977088747e+00,-8.217572942078683607e-01,1.566598654477408675e-02,5.696205107634852993e-01,4.269350167989488227e+02
1.197775202290411345e+00,1.978510060742564747e+01,-1.999630879740303957e+00,4.595995113953340039e-01,-5.348094314389438830e-01,-7.090452462071714645e-01,4.287874910091637730e+02
1.307657529983758060e+00,1.945846170519116569e+01,-1.903620213176744125e+00,1.800500927434366960e-01,-7.220537300620227805e-01,-6.679957896586860011e-01,4.305164043920318591e+02
1.431028853854302341e+00,1.908459147566360414e+01,-1.795636980389348158e+00,-1.201869919860249214e-01,-8.263388877556661072e-01,-5.501973550749101882e-01,4.322453177748999451e+02
1.547263721771999334e+00,1.872926094563833033e+01,-1.694229282209415599e+00,-4.066161868956451042e-01,-8.356821973508947732e-01,-3.691836149854780813e-01,4.337302406261237024e+02
1.600119273864396341e+00,1.856707016914137398e+01,-1.648230917708766174e+00,-6.463275088892388442e-01,-7.490094099402321293e-01,-1.457520327883229105e-01,4.343771228829025404e+02
1.734739819334838229e+00,1.815408447037407313e+01,-1.532386329587905438e+00,-8.117785688950222012e-01,-5.762788825383442504e-01,9.442565653943062187e-02,4.359482980328901931e+02
1.880448935655851361e+00,1.770916373693762580e+01,-1.410248268075607436e+00,-8.839599110631827239e-01,-3.373372813734993314e-01,3.237536628704546504e-01,4.375194731828778458e+02
2.022706838940682594e+00,1.727721192048043619e+01,-1.294552033904387001e+00,-8.545791539890988942e-01,-5.963844584200742038e-02,5.158834416239409526e-01,4.389529461146747735e+02
2.209457467096147987e+00,1.671446794702424654e+01,-1.148989581679213057e+00,-7.270129289250338855e-01,2.249116686479038785e-01,6.487410442394291321e-01,4.407046881510376579e+02
2.411380529726597999e+00,1.611106035500536748e+01,-1.000202886217014253e+00,-7.688436670264571227e-01,2.094549538862649496e-01,6.041572957160281643e-01,4.424564301874005423e+02
2.627825486479919981e+00,1.546821727017483283e+01,-8.502490935344917400e-01,-8.076171433271085442e-01,1.931653549625312327e-01,5.571711545364518292e-01,4.442081722237634267e+02
2.858028059188189918e+00,1.478732047498188784e+01,-7.009467593904638028e-01,-8.431791787849164388e-01,1.761076461164483020e-01,5.079694571960451377e-01,4.459599142601263111e+02
3.214077084659762829e+00,1.374034040377260268e+01,-4.932658436961228632e-01,-8.753883641370483470e-01,1.583496558372611829e-01,4.567478499465413289e-01,4.484558067237550745e+02
3.447258891101630418e+00,1.305609586340153427e+01,-3.694968034113852995e-01,-9.041166221553197380e-01,1.399619971712698363e-01,4.037100108881870875e-01,4.499873625635356689e+02
3.686719209525603169e+00,1.235084668876146274e+01,-2.481620160761992266e-01,-9.292497169014287683e-01,1.210177869593032640e-01,3.490668401310393354e-01,4.515189184033162633e+02
3.931629962123489808e+00,1.162627563118119234e+01,-1.293140011314268534e-01,-9.506877079590660973e-01,1.015923551198205793e-01,2.930356212436092123e-01,4.530504742430968577e+02
4.181172032483481793e+00,1.088407453125556223e+01,-1.300526184057408663e-02,-9.683453478374457468e-01,8.176294513263417107e-02,2.358391573203535707e-01,4.545820300828774521e+02
4.434535292736563328e+00,1.012594426362884192e+01,1.007117150504497627e-01,-9.821524209661660620e-01,6.160840691321414764e-02,1.777048851003608931e-01,4.561135859226580465e+02
4.690918630582069149e+00,9.353594681660608146e+00,2.117844596534918244e-01,-9.920540229329677384e-01,4.120888329779780895e-02,1.188639706568788978e-01,4.576451417624386409e+02
4.949529976192218683e+00,8.568744561974595442e+00,3.201605192782333020e-01,-9.980107788529817281e-01,2.064549138498054243e-02,5.955039025074272685e-02,4.591766976022192353e+02
5.209586328995460924e+00,7.773121548891071875e+00,4.257874587721834359e-01,-9.999989999995435586e-01,0.000000000000000000e+00,0.000000000000000000e+00,4.607082534419998296e+02
