9.821683675822011850e+00,-1.246136996712287015e+01,5.508884809441989105e+00,-0.000000000000000000e+00,2.371197228180496955e-02,-9.997178313762560276e-01,2.576751103812227939e+02
9.682897055567663003e+00,-1.247783478614559094e+01,5.643535807040714225e+00,-0.000000000000000000e+00,2.371197226506861419e-02,-9.997178306706364648e-01,2.590543606268399799e+02
9.089533193459859106e+00,-1.256022400733299804e+01,6.051506011928825757e+00,-0.000000000000000000e+00,2.371197226507009911e-02,-9.997178306706989703e-01,2.641570784951159681e+02
8.422634105107309921e+00,-1.264218257752561136e+01,6.350369454192866137e+00,-0.000000000000000000e+00,2.371197226506861419e-02,-9.997178306706364648e-01,2.692597963633919562e+02
8.392992869089157537e+00,-1.264496922438487658e+01,6.358852370091098827e+00,-0.000000000000000000e+00,2.371197226506416636e-02,-9.997178306704488371e-01,2.694701935292031294e+02
7.630132568351021050e+00,-1.269095688976596570e+01,6.470255088245901121e+00,1.127344578353428259e-03,2.107779791111337800e-02,-9.997762026851745309e-01,2.745729113974791176e+02
6.825167134781611189e+00,-1.270858125479018419e+01,6.468641625260490358e+00,2.254679629425051027e-03,1.844345105174025404e-02,-9.998263626547617688e-01,2.796756292657551057e+02
5.999983576460082624e+00,-1.269531788712713904e+01,6.372987510606368922e+00,3.381995949843771831e-03,1.580895320927670072e-02,-9.998683108431661859e-01,2.847783471340310939e+02
5.176515872956217734e+00,-1.264916592474504142e+01,6.202275055101915235e+00,4.509284336404342439e-03,1.317432589137929218e-02,-9.999020469119663801e-01,2.898810650023070821e+02
4.376740273135228954e+00,-1.256864887179701817e+01,5.975491980513670143e+00,5.636535586137018938e-03,1.053959060671535129e-02,-9.999275705885666277e-01,2.949837828705830702e+02
3.622670587604894354e+00,-1.245281532856517437e+01,5.711630048862067710e+00,6.763740496377216097e-03,7.904768864800151146e-03,-9.999448816662003248e-01,3.000865007388590584e+02
3.010076569478140840e+00,-1.231808634332988639e+01,5.459785659745459263e+00,7.890889864835156503e-03,5.269882175834097321e-03,-9.999539800039299875e-01,3.046363360441407622e+02
2.410965567118449115e+00,-1.213181827708637250e+01,5.176718332850961168e+00,9.017974489665523188e-03,2.634952050539948396e-03,-9.999548655266486952e-01,3.097390539124167503e+02
1.921499336471525154e+00,-1.190605630646938451e+01,4.899909307171559369e+00,1.014498516953709489e-02,0.000000000000000000e+00,-9.999475382250813116e-01,3.148417717806927385e+02
1.687191257971965452e+00,-1.172691336034459475e+01,4.715141387707714848e+00,5.073140141397822558e-03,1.512990912943642380e-02,-9.998716662852316084e-01,3.181628790913359808e+02
1.475602105456583546e+00,-1.138883904506083233e+01,4.401586729544405330e+00,0.000000000000000000e+00,3.025597526025509965e-02,-9.995411826938754851e-01,3.232655969596119689e+02
1.414347968496623142e+00,-1.098113176573206928e+01,4.039433217415414390e+00,-4.170116391331618599e-01,2.833750444238459718e-02,-9.084581876290001023e-01,3.283683148278879571e+02
1.455001634322891091e+00,-1.063434637390099802e+01,3.729606302530692474e+00,-7.580441342000368010e-01,2.125597572249138950e-02,-6.518552554836443136e-01,3.321363363200186996e+02
1.581496124280185267e+00,-1.011487838999245525e+01,3.252070290541501763e+00,-2.964650831193444414e-01,-3.651469748714774033e-01,-8.824818078773456476e-01,3.372390541882946877e+02
1.741238094955888327e+00,-9.553659304230555094e+00,2.719866272315087485e+00,2.883107282158098861e-01,-5.998124345699942239e-01,-7.463912963933211353e-01,3.423417720565706759e+02
1.817844168179338471e+00,-9.263784243229547855e+00,2.437741301618240097e+00,2.337193025931111889e-01,-7.670436647070613123e-01,-5.975092501616244833e-01,3.448145525317626152e+02
1.946018397213771456e+00,-8.632527555125090402e+00,1.809449482720592250e+00,1.667144711269536173e-01,-8.935352972032607477e-01,-4.168920217145787310e-01,3.499172704000386034e+02
2.024921610558691132e+00,-7.971239139184284284e+00,1.149997255700267784e+00,9.085501213059012093e-02,-9.725690699873311695e-01,-2.141326011494513737e-01,3.550199882683145916e+02
2.027443981448419752e+00,-7.902024160319093937e+00,1.083409026505048889e+00,1.016999272028653624e-02,-9.999472842345212831e-01,-0.000000000000000000e+00,3.555309778770503613e+02
2.009132021001338586e+00,-7.181988813657378401e+00,4.339111992268626650e-01,-4.685697646755084822e-01,-8.692209179255310225e-01,-1.577826716504279192e-01,3.606336957453263494e+02
1.969228431351809583e+00,-6.437976556167504860e+00,-1.782739907648982769e-01,-8.202441188815067230e-01,-5.027818501922054484e-01,-2.727782919484099122e-01,3.657364136136023376e+02
1.950964398210526252e+00,-6.084437688325756710e+00,-4.343953925345144240e-01,-9.494871526040852272e-01,-0.000000000000000000e+00,-3.138027199381347998e-01,3.681045877814036089e+02
1.928945675736768894e+00,-5.310999628010589113e+00,-9.102620095008594481e-01,-9.494871519338571320e-01,-0.000000000000000000e+00,-3.138027197166264326e-01,3.732073056496795971e+02
1.939296638870934952e+00,-4.534345615139185881e+00,-1.298526797201782434e+00,-9.494871519338571320e-01,-0.000000000000000000e+00,-3.138027197166263771e-01,3.783100235179555852e+02
1.949192313812052824e+00,-4.375588636933310127e+00,-1.358943066169808978e+00,-9.494871519336460786e-01,-0.000000000000000000e+00,-3.138027197165566551e-01,3.793598141183315420e+02
2.040841720694714034e+00,-3.611069701724351155e+00,-1.547259003114283660e+00,-9.839912472140299737e-01,8.046056728045888548e-03,-1.780294536798549543e-01,3.844625319866075301e+02
2.060717250648980592e+00,-3.501755348449685723e+00,-1.557404767928553202e+00,-9.991208579615935559e-01,1.593368839876698265e-02,-3.875085496323731060e-02,3.851959836842198115e+02
2.242794541056121638e+00,-2.742639412446249203e+00,-1.504139847339194924e+00,-9.945780913251712763e-01,2.350759078953929340e-02,1.012907371454820210e-01,3.902987015524957997e+02
2.458791279358962800e+00,-1.983466626986064574e+00,-1.329802567638460609e+00,-9.704523892051253320e-01,3.061863677775827214e-02,2.393379605662435961e-01,3.954014194207717878e+02
2.687796451372413298e+00,-1.221084582806994945e+00,-1.045974252484318967e+00,-9.272187685313375560e-01,3.712681243678668530e-02,3.726727184559578410e-01,4.005041372890477760e+02
2.795408233503540618e+00,-8.472235282254331201e-01,-8.598998329522440365e-01,-8.657284703648403523e-01,4.290397375221704362e-02,4.986696949239715071e-01,4.029835074213354460e+02
2.996971571836924753e+00,-6.603830495371545983e-02,-3.897377440680384053e-01,-9.365352003599087816e-01,4.270700952453115873e-02,3.479596669505872764e-01,4.080862252896114342e+02
3.172153857887643813e+00,7.350087262727300619e-01,1.478711764525020567e-01,-9.813744256783777375e-01,4.132589989042765449e-02,1.876017234006940870e-01,4.131889431578874223e+02
3.312641264741853497e+00,1.567075605779570946e+00,7.281012362865039167e-01,-9.990028962296166881e-01,3.879893960744808940e-02,2.204213262129014334e-02,4.182916610261634105e+02
3.410376758957701870e+00,2.441521935301311785e+00,1.326123665679894259e+00,-9.889318327401244169e-01,3.519619425801678164e-02,-1.441286165316751910e-01,4.233943788944393987e+02
3.457561929767059894e+00,3.369904272055183281e+00,1.917108409330143148e+00,-9.514404769804202244e-01,3.061755752712067360e-02,-3.063030916177446605e-01,4.284970967627153868e+02
3.446658786253631757e+00,4.363971497356149420e+00,2.476225918338738730e+00,-8.875683493732114959e-01,2.518998153463133244e-02,-4.599846628109326430e-01,4.335998146309913750e+02
3.430026751552592845e+00,4.589355148195561007e+00,2.583617375580477216e+00,-8.897705436263932954e-01,2.789092454120835340e-02,-4.555529341908284291e-01,4.346758570963635862e+02
3.326465843639597519e+00,5.363487699184027235e+00,2.887865143748286290e+00,-8.919444568366668991e-01,3.059098137115009997e-02,-4.511067252916023396e-01,4.381166199131892540e+02
3.094189548686806290e+00,6.588574727543191401e+00,3.278152432674939831e+00,-8.964331543043122519e-01,2.974197194140211151e-02,-4.421775828493478278e-01,4.432193377814652422e+02
2.834642498324722037e+00,7.623111022775428403e+00,3.543976500671400132e+00,-7.808602245848600409e-01,-2.020690281029293156e-01,-5.911204763360168313e-01,4.473147056441579821e+02
2.410361884457588477e+00,8.946538127465377244e+00,3.815597168244893922e+00,-5.955740570174652415e-01,-4.158397028170786602e-01,-6.872895199040488512e-01,4.524174235124339702e+02
1.885620231962334747e+00,1.025119300750393769e+01,4.018154909718071544e+00,-3.571165318403222710e-01,-5.924852232852122480e-01,-7.220990533687745572e-01,4.575201413807099584e+02
1.262212041271074225e+00,1.147079503882501328e+01,4.137867252108092586e+00,-2.897267083445626557e-01,-7.746660864630436905e-01,-5.620933098314428999e-01,4.626228592489859466e+02
5.440446124029795216e-01,1.253012136462932880e+01,4.159676089955666178e+00,-2.039875645086320077e-01,-9.077848464432184405e-01,-3.664883983092273034e-01,4.677255771172619347e+02
2.171190513058461058e-01,1.286113765567853662e+01,4.123136992159661673e+00,-1.053292181600222754e-01,-9.834106816487648839e-01,-1.476725669244029204e-01,4.697893172940536601e+02
-6.739204456497523976e-01,1.336717100714757933e+01,3.907373357112668977e+00,-0.000000000000000000e+00,-9.967539354451881994e-01,8.049591402861874800e-02,4.748920351623296483e+02
-1.616194702083005863e+00,1.352538782572082177e+01,3.541032948886114973e+00,2.976771479664085951e-01,-9.510689484114461800e-01,8.278992056438556901e-02,4.799947530306056365e+02
-2.536244767975217584e+00,1.337859802208587112e+01,2.979630459731654746e+00,5.683537453429119424e-01,-8.191179479535573016e-01,7.757452865389105612e-02,4.850974708988816246e+02
-3.345616360909798193e+00,1.301208294831128143e+01,2.198553894499322592e+00,7.874782406751857922e-01,-6.128694419693430095e-01,6.532279513413083438e-02,4.902001887671576128e+02
-3.982135357351443083e+00,1.249770938896595318e+01,1.238398693027756847e+00,9.351750865150362246e-01,-3.510310694401171383e-01,4.714600566588669078e-02,4.953029066354336010e+02
-4.130821916064329358e+00,1.228798164659858827e+01,8.729840972896065754e-01,9.980475578338483533e-01,-5.735271761593164347e-02,2.469287518765584527e-02,4.970480855765802630e+02
-4.350892543494943254e+00,1.161388051479638328e+01,-2.405231526392196673e-01,9.703928888894487459e-01,2.415277234480950608e-01,0.000000000000000000e+00,5.021508034448562512e+02
-4.321774045995136149e+00,1.091653058145362287e+01,-1.308614067219034727e+00,9.337004112386365628e-01,8.862287241148472661e-02,3.469114131008129709e-01,5.072535213131322394e+02
-4.192361003877933534e+00,1.063940180369870880e+01,-1.677916372415830137e+00,7.615522386263113841e-01,-7.713885395508116027e-02,6.434949767130212495e-01,5.092935532491214303e+02
-3.593272286628902634e+00,9.984015173755540928e+00,-2.400923406774091884e+00,4.789225235544178338e-01,-2.317097694886112447e-01,8.467241576550186277e-01,5.143962711173974185e+02
-2.810005168095057293e+00,9.418269663403940228e+00,-2.903697684744185104e+00,0.000000000000000000e+00,1.466999104714234586e-02,9.998913897824985852e-01,5.194989889856733498e+02
-2.359507573188464491e+00,9.195739293954302340e+00,-3.056736785952574920e+00,-0.000000000000000000e+00,1.466999103679914387e-02,9.998913890775166236e-01,5.221589158503056751e+02
-1.688759368280875917e+00,8.991682571278360570e+00,-3.139365875897995650e+00,-0.000000000000000000e+00,1.466999103680006154e-02,9.998913890775791291e-01,5.260877688296433234e+02
-8.597133793645157507e-01,8.885720948039708134e+00,-3.080937703492705904e+00,-0.000000000000000000e+00,1.466999103679914387e-02,9.998913890775166236e-01,5.311904866979192548e+02
-3.150409601868282006e-01,8.912093455559539024e+00,-2.934856418397057798e+00,-0.000000000000000000e+00,1.466999103679639260e-02,9.998913890773289959e-01,5.348946455001930644e+02
3.399042361025672032e-01,9.063689685750011549e+00,-2.616197237421844068e+00,-0.000000000000000000e+00,-7.950793855462741366e-02,9.968332296267479187e-01,5.399973633684689958e+02
8.962792866527303781e-01,9.305620380144716819e+00,-2.211703767062778603e+00,-0.000000000000000000e+00,1.466999104701379592e-02,9.998913897737367051e-01,5.451000812367449271e+02
1.222749422867482227e+00,9.532293317472660732e+00,-1.883962640690665991e+00,-4.934299560183251221e-01,-1.275901562869279360e-01,8.603752847003389714e-01,5.487578508758375619e+02
1.575132400072314809e+00,9.907322545118223189e+00,-1.404593753564359782e+00,-8.471320701136050291e-01,-2.337197434487285619e-01,4.772214761598884691e-01,5.538605687441134933e+02
1.829619051604118640e+00,1.032921486973853042e+01,-9.397502266178040520e-01,-8.932023255388162886e-01,-1.772407216365637916e-01,4.132473015571547781e-01,5.589632866123894246e+02
2.005117489248469553e+00,1.079628478057123964e+01,-5.359578596926175553e-01,-9.308719426991730606e-01,-1.190947660361049015e-01,3.453865414243466048e-01,5.640660044806653559e+02
2.066937487214606239e+00,1.106577056425737027e+01,-3.797950413707077422e-01,-9.597866540705102256e-01,-5.982873020192314151e-02,2.742774174252153307e-01,5.667325292824807548e+02
2.148165517178453943e+00,1.163236902755168067e+01,-2.240965885914395772e-01,-9.796745246581555211e-01,-0.000000000000000000e+00,2.005886979232468226e-01,5.718352471507566861e+02
2.181399369281183276e+00,1.196591398959285790e+01,-2.312622401970651498e-01,-9.546707119062373126e-01,-0.000000000000000000e+00,-2.976605983800955091e-01,5.745878449669344263e+02
2.228866985983192439e+00,1.263125659849387539e+01,-3.996639344016757467e-01,-9.384471207951480265e-01,-1.792881039501537099e-01,-2.952469767060207362e-01,5.796905628352103577e+02
2.255544504750810919e+00,1.333110109339067861e+01,-6.728309924056660174e-01,-8.918053434504999988e-01,-3.527648848920956759e-01,-2.832634204779646003e-01,5.847932807034862890e+02
2.248593146780987428e+00,1.405009188401173148e+01,-9.907451486159110088e-01,-8.162571742441897538e-01,-5.148074203667017956e-01,-2.620983506827333498e-01,5.898959985717622203e+02
2.240420815030156554e+00,1.416179005134899782e+01,-1.039353983524045066e+00,-7.142513392292927366e-01,-6.601633892673268722e-01,-2.324377849663400997e-01,5.906809412960609507e+02
2.131602385301595071e+00,1.487976988655681865e+01,-1.336276039571616669e+00,-8.971751246285712966e-01,-4.296103845413990485e-01,1.025168924770933632e-01,5.957836591643368820e+02
1.952926110153905714e+00,1.555792841960573014e+01,-1.618565071171020664e+00,-9.017308211791938977e-01,-1.136463540324677418e-01,4.170899571463849709e-01,6.008863770326128133e+02
1.682497223598824254e+00,1.615456415107357913e+01,-1.896096510906289723e+00,-7.270129289260844896e-01,2.249116686482289518e-01,6.487410442403667155e-01,6.059890949008887446e+02
1.409352588657849958e+00,1.650830160032157323e+01,-2.098157705552653240e+00,-5.766679590211620798e-01,1.840762286713729101e-01,7.959698531213631467e-01,6.097110450391924132e+02
9.437033047888481185e-01,1.687577099624050092e+01,-2.366456597797396366e+00,-3.998265333040793013e-01,1.347829435961762079e-01,9.066257780270718936e-01,6.148137629074683446e+02
4.160586749023338360e-01,1.713255436298513601e+01,-2.609818812239380392e+00,-2.046140494825976486e-01,7.929671018452973119e-02,9.756244782239158475e-01,6.199164807757442759e+02
-1.428222443675603026e-01,1.728448847237878638e+01,-2.810867674139905681e+00,-0.000000000000000000e+00,2.016697227948319876e-02,9.997956257306721550e-01,6.250191986440202072e+02
-7.020608433657725689e-01,1.733665299421793193e+01,-2.952229560605602821e+00,1.385579368567454450e-01,6.228477539240686450e-02,9.883927887683322533e-01,6.301219165122961385e+02
-1.228631241484554160e+00,1.729300035882996411e+01,-3.026365594870698228e+00,2.741919707132784434e-01,1.030882234004354553e-01,9.561326170534463209e-01,6.352246343805720699e+02
-1.400348829889470181e+00,1.724136684747315584e+01,-3.032257132042511127e+00,4.040399347418084375e-01,1.417162767469933027e-01,9.036958714300191708e-01,6.371174584142792128e+02
-1.772855866738569874e+00,1.700724881056249060e+01,-3.009251927917233616e+00,5.253617572762757648e-01,1.773538001814737586e-01,8.321890731999486146e-01,6.422201762825551441e+02
-1.831465838251445932e+00,1.693304368076239186e+01,-3.000076183287418985e+00,6.355972790763313451e-01,2.092487626604288553e-01,7.431211571178032438e-01,6.433725468516915953e+02
-1.969029061959310711e+00,1.651145023829113967e+01,-2.950043839482008323e+00,7.342455860396148726e-01,2.131448798310290049e-01,6.445546366064833776e-01,6.484752647199675266e+02
-2.007602787744403816e+00,1.600590018810390092e+01,-2.887789650581438217e+00,5.241988828511014997e-01,1.923146081642700123e-01,8.295954572588910558e-01,6.535779825882434579e+02
-2.012712995357782475e+00,1.543462657664368720e+01,-2.811526555417584117e+00,2.728487655501276588e-01,1.563311732317154423e-01,9.492692533810780375e-01,6.586807004565193893e+02
-2.041331539437782006e+00,1.506651927797619628e+01,-2.757064880347196656e+00,0.000000000000000000e+00,1.080298527117454360e-01,9.941466445772128013e-01,6.617323382391290352e+02
-2.184840423331695813e+00,1.442432565739291839e+01,-2.641219311229982658e+00,-0.000000000000000000e+00,-9.368677980391584281e-01,3.496808959445533160e-01,6.668350561074049665e+02
-2.247930146462292722e+00,1.426587593616771521e+01,-2.602358049749712965e+00,-0.000000000000000000e+00,-5.697617808899002600e-01,-8.218086839616330908e-01,6.680650890504787185e+02
-2.301633658296590390e+00,1.417119718137920970e+01,-2.570877873872505326e+00,-0.000000000000000000e+00,-9.705539409179420041e-01,-2.408797371486560701e-01,6.687884314097042306e+02
-2.779291113637231803e+00,1.348567900484370163e+01,-2.284503628663654418e+00,2.591653831582049206e-01,-7.845913347704015495e-01,-5.632474958459534609e-01,6.738911492779801620e+02
-3.310342463296992666e+00,1.276604091015414788e+01,-1.944325323657832172e+00,4.650282139614757559e-01,-4.372616060589473719e-01,-7.697720754140690014e-01,6.789938671462560933e+02
-3.807113144935494020e+00,1.206538513517874556e+01,-1.589219308897503291e+00,5.752485914334396488e-01,-0.000000000000000000e+00,-8.179774190368729325e-01,6.837170244028750403e+02
-4.307177205211133675e+00,1.128245477469831215e+01,-1.154613153999366038e+00,5.109553921734697468e-01,1.071485881297579244e-03,-8.596053973342436816e-01,6.888197422711509716e+02
-4.533939548938336728e+00,1.083484157023332273e+01,-8.721360801308785105e-01,4.436641016444131669e-01,2.136684285107464786e-03,-8.961894886082634182e-01,6.916667660166650649e+02
-4.787019059183421632e+00,1.001627651617142867e+01,-2.831835488670614298e-01,3.737695620515213979e-01,3.189345043692649005e-03,-9.275150362996261721e-01,6.967694838849409962e+02
-4.839298527814619888e+00,9.182554517819095707e+00,3.714710664413287122e-01,3.016818890322900959e-01,4.223291570045376031e-03,-9.533982387430411931e-01,7.018722017532169275e+02
-4.670340914005599586e+00,8.330369691904015994e+00,1.056562243056358374e+00,2.278240653989457576e-01,5.232457095352228103e-03,-9.736872273056234040e-01,7.069749196214928588e+02
-4.296228628349913592e+00,7.454463431676702001e+00,1.736829534340710524e+00,1.526294594562576101e-01,6.210920261605346743e-03,-9.882629572011510932e-01,7.120776374897687901e+02
-3.777031011059252652e+00,6.548910799225568624e+00,2.390665255726970528e+00,7.653928244303526141e-02,7.152939860790088165e-03,-9.970399057684993238e-01,7.171803553580447215e+02
-3.699619475822839565e+00,6.426942722283400578e+00,2.471744745098270357e+00,0.000000000000000000e+00,8.052988517097530233e-03,-9.999665741295148402e-01,7.178445399228132828e+02
-3.071925093090081660e+00,5.457646379725395569e+00,3.059462821687426892e+00,-0.000000000000000000e+00,8.052988511418718645e-03,-9.999665734243579074e-01,7.229472577910892142e+02
-2.447222688893078590e+00,4.456699136490184898e+00,3.597851635299645245e+00,-0.000000000000000000e+00,8.052988511419221715e-03,-9.999665734244203019e-01,7.280499756593651455e+02
-1.864782954873875465e+00,3.430171906446306540e+00,4.070033541974671820e+00,-0.000000000000000000e+00,8.052988511418718645e-03,-9.999665734243579074e-01,7.331526935276410768e+02
-1.363733386990838570e+00,2.385075478095099122e+00,4.459135673261924282e+00,-0.000000000000000000e+00,8.052988511417207701e-03,-9.999665734241701687e-01,7.382554113959170081e+02
-9.726019546845298125e-01,1.329728681705636184e+00,4.755375985457614973e+00,-0.000000000000000000e+00,8.052788524641460444e-03,-9.999665750348538662e-01,7.433581292641929394e+02
-8.786836491833781571e-01,9.729625175628912048e-01,4.825120911167838145e+00,-0.000000000000000000e+00,8.052588537912097957e-03,-9.999665766454169935e-01,7.450817012064642313e+02
-7.116156226745836699e-01,-7.710320206089886497e-02,4.949530044077037338e+00,-0.000000000000000000e+00,8.052388551197125002e-03,-9.999665782558599947e-01,7.501844190747401626e+02
-6.575784136462746732e-01,-1.113418917991854107e+00,5.000840408403842474e+00,-0.000000000000000000e+00,8.052188564464541135e-03,-9.999665798661829808e-01,7.552871369430160939e+02
-7.131149436845758416e-01,-2.125965158733024385e+00,4.990546799112228094e+00,-0.000000000000000000e+00,8.051988577682349379e-03,-9.999665814763863958e-01,7.603898548112920253e+02
-8.675528929898532748e-01,-3.109112458450884908e+00,4.930322475924426406e+00,1.495837106662298022e-01,1.875281609206454203e-02,-9.885702025617857380e-01,7.654925726795679566e+02
-1.053984023410183823e+00,-3.888340150729753475e+00,4.849973773921228748e+00,2.957838609822293630e-01,2.902945887513096873e-02,-9.548126507860260626e-01,7.696479731042927597e+02
-1.328683191714256306e+00,-4.826326092743457252e+00,4.723934861939572905e+00,4.352934668235581839e-01,3.864946375582331561e-02,-8.994575124447026226e-01,7.747506909725686910e+02
-1.620249721110701424e+00,-5.753628388349841138e+00,4.582129950497917825e+00,5.649568783448907228e-01,4.739523013955714709e-02,-8.237568923970823853e-01,7.798534088408446223e+02
-1.897459493272129816e+00,-6.679866784310172001e+00,4.436763622112278149e+00,6.818411546861097294e-01,5.506893172818538851e-02,-7.294230956963063672e-01,7.849561267091205536e+02
-2.129322016790498484e+00,-7.615409413717721065e+00,4.300040710507932573e+00,5.763266994874232108e-01,4.755555288182888168e-02,-8.158333192808475687e-01,7.900588445773964850e+02
-2.291730230264484192e+00,-8.562122837254827701e+00,4.179155397883676848e+00,4.600599922850104329e-01,3.915495283691874939e-02,-8.870229383548828839e-01,7.951615624456724163e+02
-2.299194910775515854e+00,-8.645401164973812058e+00,4.169744879236246149e+00,3.352101491854043158e-01,3.002385636690721449e-02,-9.416638062134655707e-01,7.956096880932685735e+02
-2.304361993078781534e+00,-9.581810474977581649e+00,4.072055042196738306e+00,2.041064170052013793e-01,2.033261666712874935e-02,-9.787365096066162895e-01,8.007124059615445049e+02
-2.223998716914266982e+00,-1.048680025844318919e+01,3.978849095103717648e+00,6.919472139869245475e-02,1.026203744273819496e-02,-9.975493878088879107e-01,8.058151238298204362e+02
-2.052703539458695214e+00,-1.133536914995754863e+01,3.882288336347286872e+00,-6.700796228890572304e-02,0.000000000000000000e+00,-9.977514384801853264e-01,8.109178416980963675e+02
-1.793150089722518103e+00,-1.210900474034513685e+01,3.777147009282144197e+00,-5.483311635950066654e-02,1.020819364701655019e-01,-9.932626075699103607e-01,8.160205595663722988e+02
-1.492796560707434272e+00,-1.274101422065048084e+01,3.673332012167833227e+00,-4.207763774494927000e-02,2.030829017939251302e-01,-9.782560029975043703e-01,8.206767168190084476e+02
-1.121012617814619139e+00,-1.335256108785400464e+01,3.553429172041071560e+00,-2.887659548072963808e-02,3.019333886723826743e-01,-9.528905346566457490e-01,8.257794346872843789e+02
-7.345423662747092575e-01,-1.388246768422489019e+01,3.429944913637849702e+00,-1.536977654330814493e-02,3.975866621444259508e-01,-9.174348020725420216e-01,8.308821525555603102e+02
-3.615762338051953240e-01,-1.432928800391522550e+01,3.305493506331394826e+00,-1.700205684751291465e-03,4.890298430413377306e-01,-8.722642500501918139e-01,8.359848704238362416e+02
-3.026585972031483815e-02,-1.469088598232726994e+01,3.182689284930555917e+00,1.198736900521985352e-02,5.752946329306889428e-01,-8.178571931000387929e-01,8.410875882921121729e+02
1.744413870449061932e-01,-1.490314889166624113e+01,3.090525065715877151e+00,2.554800877977225076e-02,6.554675670353757866e-01,-7.547897507333028999e-01,8.450502774749064656e+02
3.454871698655711532e-01,-1.508509107448981013e+01,2.978292927782012267e+00,3.883811893554740130e-02,7.286996866076032031e-01,-6.837297472359612494e-01,8.501529953431823969e+02
3.972168937415059276e-01,-1.517206601970231361e+01,2.874965607048733496e+00,5.171696928923958519e-02,7.942155283760216067e-01,-6.054296404815501242e-01,8.552557132114583283e+02
2.909166899408121565e-01,-1.517032062209196397e+01,2.787471884626746998e+00,3.556158741778280702e-02,6.655622587810245960e-01,-7.454932951983802569e-01,8.603584310797342596e+02
1.389569354483051189e-01,-1.513493861738901636e+01,2.756260335870723832e+00,1.811068452050565436e-02,5.126622518557344410e-01,-8.583981702145802029e-01,8.629342386695808500e+02
-3.526814559037945163e-01,-1.501352682988947862e+01,2.722222320791478634e+00,0.000000000000000000e+00,3.410856895397672561e-01,-9.400311443725232197e-01,8.680369565378567813e+02
-9.971769005279724762e-01,-1.485386494918632039e+01,2.711073025106736090e+00,-2.333627192094763492e-01,4.770028388653506091e-01,-8.473536056437975805e-01,8.731396744061327126e+02
-1.751712743848664822e+00,-1.467323771674156418e+01,2.717158655903722853e+00,-4.477014130561516314e-01,5.740342474317470245e-01,-6.855991011684057224e-01,8.782423922744086440e+02
-2.575501911198253779e+00,-1.448178426545948305e+01,2.735153527251565464e+00,-3.023033399101534568e-01,5.952574541986669354e-01,-7.444993310281868837e-01,8.833451101426845753e+02
-3.044551467317555993e+00,-1.437065319086702608e+01,2.749190160003727179e+00,-1.493294706095561752e-01,6.015633239693223278e-01,-7.847421719672428297e-01,8.861277674418493007e+02
-3.913188791055158600e+00,-1.414466687415102086e+01,2.779322365355035185e+00,7.386634079976750478e-03,5.927938340271414752e-01,-8.053191342429314448e-01,8.912304853101252320e+02
-4.757741701755501040e+00,-1.388352450988461761e+01,2.809990531946905623e+00,1.639176345563072013e-01,5.691687496265877000e-01,-8.057145546229738109e-01,8.963332031784011633e+02
-5.541709039572762840e+00,-1.357605892113018342e+01,2.836855351186226226e+00,3.163408283515752872e-01,5.312801168679111008e-01,-7.859185185118213735e-01,9.014359210466770946e+02
-6.228310402838891591e+00,-1.321197854984036013e+01,2.855577785463931928e+00,4.608364502591153489e-01,4.800774273061745867e-01,-7.464271095723888916e-01,9.065386389149530260e+02
-6.667653881495526846e+00,-1.287956923353443450e+01,2.860424087138934812e+00,6.001786382254946650e-01,3.704247014359944301e-01,-7.089211118203915252e-01,9.105434102222230877e+02
-7.084242283756031711e+00,-1.240606772853858253e+01,2.849137015104277637e+00,7.198068816811192816e-01,2.486047794752558882e-01,-6.481293981201834420e-01,9.156461280904990190e+02
-7.346868183000218266e+00,-1.189940807437801240e+01,2.814728883410864135e+00,8.157918265437976713e-01,1.186190280664991964e-01,-5.660487805180701715e-01,9.207488459587749503e+02
-7.389614817257847967e+00,-1.167977751429712363e+01,2.788501693964082762e+00,8.849807075424034331e-01,-1.526297770939940603e-02,-4.653753203491750035e-01,9.228909053869982699e+02
-7.332215326808963596e+00,-1.115429369419882200e+01,2.689986787207669039e+00,8.088906180207996455e-01,-1.744018261431335703e-01,-5.614961897617642972e-01,9.279936232552742013e+02
-7.131409664895476119e+00,-1.064412858668052131e+01,2.538979263323376312e+00,7.001583924300308626e-01,-3.265028571084726550e-01,-6.349583528158460055e-01,9.330963411235501326e+02
-6.882065411859628945e+00,-1.027254212694717062e+01,2.364688853596436768e+00,5.631717805595581883e-01,-4.654281828525229092e-01,-6.827972994881267299e-01,9.370807486005321607e+02
-6.467476595385376115e+00,-9.848681550636181115e+00,2.050666099465871195e+00,4.034587101639984241e-01,-5.855715793380563694e-01,-7.030824949207589158e-01,9.421834664688080920e+02
-5.983893075494846947e+00,-9.489296192002727892e+00,1.634825113509658090e+00,6.877940560136386328e-01,-3.163721979759179237e-01,-6.533344999774297612e-01,9.472861843370840234e+02
-5.463330088818807440e+00,-9.194284513332187103e+00,1.122676975109603292e+00,8.649778892689024001e-01,2.114748682807660735e-03,-5.018035262080495773e-01,9.523889022053599547e+02
-5.267716394760296517e+00,-9.105969605817413992e+00,9.020044266828652901e-01,9.074068334958677040e-01,3.202721269708035390e-01,-2.720966798986466650e-01,9.542783250778740012e+02
-4.754836181164507458e+00,-8.918699972919684527e+00,2.320330403483661930e-01,8.084710213413998092e-01,5.885342875760209980e-01,-0.000000000000000000e+00,9.593810429461499325e+02
-4.270938434765881198e+00,-8.772310594598627276e+00,-4.842556519450211261e-01,8.366578723087324532e-01,3.506067218085739956e-01,4.208046236974646859e-01,9.644837608144258638e+02
-3.807055384162126188e+00,-8.642314341717066029e+00,-1.184409189962424502e+00,6.686638965610974816e-01,3.046796626903194513e-02,7.429389587741198619e-01,9.695864786827017952e+02
-3.622131336294913240e+00,-8.586303060582263669e+00,-1.430916726034860975e+00,3.438800926658693857e-01,-2.968152257311827968e-01,8.908676689831256379e-01,9.716224547865216437e+02
-3.154402428276029458e+00,-8.415215226299190832e+00,-1.919557688119124750e+00,-6.153715308391902866e-02,-5.545003859337378493e-01,8.299039105753499568e-01,9.767251726547975750e+02
-2.709192361923408843e+00,-8.203965852713080764e+00,-2.263888662426120302e+00,-4.525244665822401036e-01,-6.821651958909240587e-01,5.743433229870396062e-01,9.818278905230735063e+02
-2.502866794385030236e+00,-8.068272561972740675e+00,-2.391804104022713595e+00,-7.844274623936443591e-01,4.435458037912078377e-01,4.335189455803467040e-01,9.846617216642423500e+02
-2.259726039795942221e+00,-7.808692673574546106e+00,-2.558880063699629837e+00,-2.031297923576306369e-02,9.495260293800222851e-01,-3.130266800193572951e-01,9.897644395325182813e+02
-2.183162200162499289e+00,-7.554519840226175731e+00,-2.724461303165698567e+00,-0.000000000000000000e+00,9.419726912662017559e-01,-3.356865336124749688e-01,9.948671574007942127e+02
-2.209154539242338622e+00,-7.489083551955480367e+00,-2.787129567007023301e+00,7.365736457431230899e-02,9.605724781019956415e-01,-2.680916018030795600e-01,9.963080721445891186e+02
-2.303578715768816121e+00,-7.411434573107381851e+00,-2.903568310456482671e+00,1.465530756393183254e-01,9.692395083634876007e-01,-1.977244836845678810e-01,9.982628499524549852e+02
-2.688178267802854293e+00,-7.234003767213529557e+00,-3.283533833502906507e+00,2.179333662214767431e-01,9.678841615375687324e-01,-1.253127995551065743e-01,1.003365567820730917e+03
-3.183156311579719233e+00,-7.070952574579182581e+00,-3.702801675939980441e+00,2.870601383785731930e-01,9.565204487243047504e-01,-5.160531102850275664e-02,1.008468285689006848e+03
-3.755548058616358098e+00,-6.909622944218384966e+00,-4.108769896227402185e+00,3.532185945317427023e-01,9.352658681415769726e-01,2.263582042035700015e-02,1.013571003557282779e+03
-3.921092365790769030e+00,-6.865293692036578577e+00,-4.201935986339571549e+00,4.157246280598060895e-01,9.043401909056060228e-01,9.664291353559165132e-02,1.014927113146262741e+03
-4.575183996081713111e+00,-6.689395372250368510e+00,-4.463115731071484404e+00,5.766167302931242133e-01,8.168623663267560175e-01,1.571689619207498889e-02,1.020029831014538672e+03
-5.238389049687879329e+00,-6.503794267263776518e+00,-4.589066107520680227e+00,7.143935556849774215e-01,6.966383939095278643e-01,-6.583916560701770504e-02,1.025132548882814717e+03
-5.754228377385350868e+00,-6.352439113831041873e+00,-4.555205691311623895e+00,8.235319588271781122e-01,5.484877832202453840e-01,-1.447558788075984371e-01,1.029186408249044007e+03
-6.371412802582403501e+00,-6.160727685645140284e+00,-4.356458206922027010e+00,8.996568405790260625e-01,3.783495494493540612e-01,-2.178696574371169481e-01,1.034289126117319938e+03
-6.939208519098782446e+00,-5.971066129461452654e+00,-4.040006693073253885e+00,9.397165309466334326e-01,1.930441351479849910e-01,-2.822495409233515828e-01,1.039391843985595870e+03
-7.439684030115985891e+00,-5.788107324704610868e+00,-3.646470567107404914e+00,9.421051217398639377e-01,0.000000000000000000e+00,-3.353146874090627283e-01,1.044494561853871801e+03
-7.719818515538856118e+00,-5.677592541819173277e+00,-3.352157029022058143e+00,9.784373774512843402e-01,8.422080822917440979e-02,-1.885872579693407547e-01,1.047937477491331720e+03
-8.028578936927274867e+00,-5.561726373122991340e+00,-2.897040314946635942e+00,9.854730899458079563e-01,1.659198547551929970e-01,-3.621313010073159977e-02,1.053040195359607651e+03
-8.205182917117616270e+00,-5.536286820879623427e+00,-2.464889292789593345e+00,9.630016031253502140e-01,2.426508935137643153e-01,1.172452824470547050e-01,1.058142913227883582e+03
-8.264909718824227980e+00,-5.648550828803772461e+00,-2.120392828455125667e+00,9.116957700735475179e-01,3.121164333817185721e-01,2.671931040357766740e-01,1.063245631096159514e+03
-8.269736406293375808e+00,-5.838124168982004036e+00,-1.970410788667626978e+00,8.330918042481386676e-01,3.722365293785711571e-01,4.091405771761535415e-01,1.066707081701501465e+03
-8.260229863667959194e+00,-6.276786612017366984e+00,-1.869745368152874621e+00,7.295432804412341765e-01,4.212110597067881823e-01,5.388374941900556658e-01,1.071809799569777397e+03
-8.234641942054887309e+00,-6.844327125077843021e+00,-1.875641250144479022e+00,6.041506632090486439e-01,4.575736241909001412e-01,6.524004556943233668e-01,1.076912517438053328e+03
-8.191872048598366263e+00,-7.507791015548724189e+00,-1.972885299578159835e+00,4.606684729586406069e-01,4.802354505724624745e-01,7.464291460257106436e-01,1.082015235306329259e+03
-8.129308714651575229e+00,-8.236134986101660616e+00,-2.141177674205902104e+00,4.606684726334089319e-01,4.802354502334165720e-01,7.464291454987322938e-01,1.087117953174605191e+03
-8.085934430211288770e+00,-8.611809761395937457e+00,-2.245405756951132759e+00,4.606684726334412394e-01,4.802354502334502673e-01,7.464291454987845853e-01,1.089610721660217450e+03
-7.966536042965794095e+00,-9.402758859051017382e+00,-2.477368774494281833e+00,4.606684726334642765e-01,4.802354502334742481e-01,7.464291454988218888e-01,1.094713439528493382e+03
-7.813400291920832075e+00,-1.019405950683691309e+01,-2.696999683496219546e+00,4.606684726334780988e-01,4.802354502334886810e-01,7.464291454988443153e-01,1.099816157396769313e+03
-7.619475229725396481e+00,-1.096070853356403774e+01,-2.868750051570653437e+00,4.606684726334827618e-01,4.802354502334935105e-01,7.464291454988517538e-01,1.104918875265045244e+03
-7.377093671124790752e+00,-1.167748576009736183e+01,-2.958886693637099885e+00,4.606684726334781543e-01,4.802354502334886810e-01,7.464291454988444263e-01,1.110021593133321176e+03
-7.077991225817521048e+00,-1.231961334830017663e+01,-2.955896151882550615e+00,4.606684726334642765e-01,4.802354502334742481e-01,7.464291454988218888e-01,1.115124311001597107e+03
-6.713353362482493480e+00,-1.286419474100062388e+01,-2.887263984117526494e+00,4.606684726334412394e-01,4.802354502334502118e-01,7.464291454987844743e-01,1.120227028869873038e+03
-6.654269225482210004e+00,-1.292201211337675382e+01,-2.874103017148407435e+00,4.606684726334089874e-01,4.802354502334166275e-01,7.464291454987322938e-01,1.120916268133958056e+03
-6.138141615584869371e+00,-1.322156264891089705e+01,-2.774016083889077500e+00,4.606684726333674651e-01,4.802354502333733843e-01,7.464291454986650143e-01,1.126018986002233987e+03
-5.542173991075605599e+00,-1.338497288143353181e+01,-2.693287289106061078e+00,3.476885354009764395e-01,4.845396353775505149e-01,8.027029488540211588e-01,1.131121703870509918e+03
-4.878920281543880577e+00,-1.341057242459983812e+01,-2.637834790720440026e+00,2.291630532251836272e-01,4.811155271784058884e-01,8.461738264354166095e-01,1.136224421738785850e+03
-4.245005683141371833e+00,-1.331406431384558786e+01,-2.604448585268022587e+00,1.069824616076523044e-01,4.700177385253682116e-01,8.761484339880338812e-01,1.140774273705619635e+03
-3.505450752184654295e+00,-1.307584180352443681e+01,-2.577947189089284663e+00,-1.690450652668869583e-02,4.514232709195241666e-01,8.921486805072937898e-01,1.145876991573895566e+03
-2.756938892447122758e+00,-1.271156949194912755e+01,-2.555114606920340758e+00,-1.405218985060698034e-01,4.256286925836522128e-01,8.939193543540933096e-01,1.150979709442171497e+03
-2.022238615545965068e+00,-1.223088713688084361e+01,-2.529629657716547797e+00,-1.082739884464854058e-01,5.552463642229278351e-01,8.246067053102311695e-01,1.156082427310447429e+03
-1.602630001952433103e+00,-1.188107829523440628e+01,-2.510405982610616427e+00,-7.357423546306832152e-02,6.722904537074556597e-01,7.366209186071924764e-01,1.159163147939665123e+03
-9.724650744462423058e-01,-1.122553906646394495e+01,-2.482533785226435974e+00,-3.720840817119418914e-02,7.741105450143723754e-01,6.319544275174542314e-01,1.164265865807941054e+03
-4.351278690108706382e-01,-1.052038590473822310e+01,-2.499010017323948674e+00,0.000000000000000000e+00,8.584009604371716229e-01,5.129773787609296365e-01,1.169368583676216986e+03
-2.458513689443967559e-02,-9.793845892860737479e+00,-2.611976141802532680e+00,0.000000000000000000e+00,7.016964381356632918e-01,7.124746372389531013e-01,1.174471301544492917e+03
-1.824250561710136567e-02,-9.779405565999223171e+00,-2.615654643090190135e+00,0.000000000000000000e+00,4.998337938806070024e-01,8.661201870962854654e-01,1.174572544216097185e+03
1.898804228076464151e-01,-9.065948405807963795e+00,-2.886082380750281562e+00,0.000000000000000000e+00,2.658039500808751510e-01,9.640260681754081462e-01,1.179675262084373117e+03
2.109791501590827512e-01,-8.386704886299394701e+00,-3.300651359948638675e+00,0.000000000000000000e+00,1.466799147870240586e-02,9.998914191179918420e-01,1.184777979952649048e+03
6.210954272331257325e-02,-7.758705776215482963e+00,-3.844788827409868048e+00,-2.952278191796333662e-01,6.194396006176400293e-01,7.274153668776508486e-01,1.189880697820924979e+03
-3.093517412031632219e-02,-7.577718066278687381e+00,-4.053061821249816177e+00,-4.348255654857680619e-01,8.976721029706270505e-01,7.148092857025152569e-02,1.191515502964395637e+03
-4.403927000725613716e-01,-7.079075907867118822e+00,-4.791321703453631287e+00,-3.639629108228187859e-01,8.615322638629435703e-01,3.539649105064401891e-01,1.196618220832671568e+03
-9.408936135167443870e-01,-6.640315449118617153e+00,-5.596932033509099291e+00,-2.617540090244680484e-01,7.511930418151491207e-01,6.059635737317855542e-01,1.201720938700947499e+03
-1.500540653158473292e+00,-6.254018632664530841e+00,-6.444202402220285286e+00,-1.370016151564946161e-01,5.761574634713769738e-01,8.057736249919571492e-01,1.206823656569223431e+03
-1.796186920798089393e+00,-6.085158626297898721e+00,-6.877073918123249641e+00,-4.499992964605593069e-04,3.515004504559623433e-01,9.361865363440402543e-01,1.209372830102821126e+03
-2.397249257856639559e+00,-5.783090512246059411e+00,-7.741480628045987800e+00,-5.507150556154006837e-01,5.722147404087913891e-01,6.076851309508730647e-01,1.214475547971097058e+03
-2.981604636844201295e+00,-5.487164792638078659e+00,-8.575196060188057245e+00,-8.479704324504528934e-01,5.300416452412911594e-01,0.000000000000000000e+00,1.219578265839372989e+03
-3.214094581824497698e+00,-5.353130526466427064e+00,-8.905685985580610975e+00,-7.713961562552216211e-01,5.181255177012342727e-01,3.694481262936623600e-01,1.221754794283229785e+03
-3.702799291872219456e+00,-5.014321339394464339e+00,-9.599234089337294051e+00,-5.848996295885400265e-01,4.323776440822644784e-01,6.862506802951378049e-01,1.226857512151505716e+03
-4.115962659424126535e+00,-4.654152206986979401e+00,-1.018545282945887642e+01,-3.150562158018470060e-01,2.850169212231611904e-01,9.052640142530919976e-01,1.231960230019781648e+03
-4.432506272847921203e+00,-4.278879263962981128e+00,-1.063436534198325489e+01,-3.179997568430842055e-04,9.704192579737919155e-02,9.952792389647324711e-01,1.237062947888057579e+03
-4.444399802502122299e+00,-4.258657546081811240e+00,-1.065129760399337400e+01,-2.562598766528049825e-04,4.858132309047945990e-02,9.988181963551184817e-01,1.237332328512091181e+03
-4.574720718448857859e+00,-3.884990793100192796e+00,-1.083995525966607332e+01,-1.939149851393380801e-04,6.028445133858096773e-06,9.999989811760258140e-01,1.242435046380367112e+03
-4.593755514072623392e+00,-3.562616591175121972e+00,-1.087486506669703168e+01,-1.311122608089810345e-04,-4.856928573834956575e-02,9.988188060327365392e-01,1.247523903139578806e+03
-4.566157541543342191e+00,-3.485645783426408961e+00,-1.083880104073925743e+01,-6.799996278718530127e-05,-9.702994690059690841e-02,9.952804553351848327e-01,1.249242141474109303e+03
-4.406559625264408808e+00,-3.375029252531802637e+00,-1.059661993012244352e+01,-0.000000000000000000e+00,-9.695091801188839009e-02,9.952881583184741698e-01,1.254344859342385234e+03
-4.215127420407251968e+00,-3.394719568266571841e+00,-1.022838338560005589e+01,-2.532105750929020127e-01,-4.864908572068821768e-01,8.361872102083393044e-01,1.259447577210661166e+03
-4.062460583729330388e+00,-3.540790576909748300e+00,-9.792412968503844795e+00,-4.453542056003191862e-01,-7.587035138824045344e-01,4.754225589698183874e-01,1.264106096728943839e+03
-3.974087498041375177e+00,-3.849560959658784309e+00,-9.224795093944390345e+00,-5.300915303214127627e-01,-8.479392486978463150e-01,0.000000000000000000e+00,1.269208814597219771e+03
-4.009551547460551646e+00,-4.294672687384678333e+00,-8.579826716046571988e+00,-3.033953789773732312e-01,-7.955179744763823946e-01,5.245001394666647387e-01,1.274311532465495702e+03
-4.161065566265846449e+00,-4.738400511995493503e+00,-7.976615500717393559e+00,2.319088134961608955e-02,-4.811800201317880110e-01,8.763138543057100716e-01,1.278571302737332417e+03
-4.498466962100567734e+00,-5.289004050173199190e+00,-7.169515476589387148e+00,3.421418352604577162e-01,-8.417995946778044150e-03,9.396095475828125654e-01,1.283674020605608348e+03
-4.764317935149869676e+00,-5.556878509855764037e+00,-6.686920485394742819e+00,9.334680231829169950e-01,2.330827560931791331e-01,2.725947147463356757e-01,1.286405957247521428e+03
-5.406435368655767348e+00,-5.917604354111773546e+00,-5.704957306031863240e+00,0.000000000000000000e+00,5.892782266480764974e-01,-8.079289396971222059e-01,1.291508675115797359e+03
-5.845227462322166723e+00,-6.000039726136204621e+00,-5.118688779149532131e+00,9.334680231831198327e-01,2.330827560932298148e-01,2.725947147463949061e-01,1.294483184371301149e+03
-6.652278931897813941e+00,-5.911283798392787503e+00,-4.153814538005611290e+00,7.364161080998709030e-01,-4.016585135368765935e-01,-5.443893406704199966e-01,1.299585902239577081e+03
-6.948889960391427145e+00,-5.803836792333082251e+00,-3.828142984447834962e+00,8.664785468158006099e-01,-2.073423519579342122e-01,-4.541168098540167564e-01,1.301485514201354135e+03
-7.669938691980757284e+00,-5.345798410802097500e+00,-3.084504895151774395e+00,9.421051217389178056e-01,-0.000000000000000000e+00,-3.353146874087259421e-01,1.306588232069630067e+03
-8.231198990288348227e+00,-4.761777937584710685e+00,-2.518345683016744552e+00,9.615008974889170945e-01,-2.990243813508867282e-02,-2.731663747998087644e-01,1.311690949937905998e+03
-8.563941853101656676e+00,-4.110254826877417500e+00,-2.168608889249432181e+00,9.759615039901524680e-01,-5.965139000179593698e-02,-2.096159688571595237e-01,1.316793667806181929e+03
-8.613454887429321971e+00,-3.761566761185931362e+00,-2.104347569150594843e+00,9.854127204234396364e-01,-8.909416230492883670e-02,-1.449896571163407089e-01,1.319465401882841434e+03
-8.485721488557683045e+00,-3.126743058629778194e+00,-2.205945992122463117e+00,9.898060372056277645e-01,-1.180796333616107030e-01,-7.961914905568868994e-02,1.324568119751117365e+03
-8.198642351477905876e+00,-2.685957676581520737e+00,-2.451453931465793712e+00,9.891189049072717232e-01,-1.464590286842759881e-01,-1.383997369010806638e-02,1.328549292295673922e+03
-7.600039961141054512e+00,-2.211344084234068141e+00,-2.897040932957107184e+00,9.833548499682088773e-01,-1.740866845177546640e-01,5.201024242771119799e-02,1.333652010163949853e+03
-6.885367367907449854e+00,-1.815989731190460033e+00,-3.342339901785227330e+00,9.725434566186763607e-01,-2.008207954155963315e-01,1.175935079691893814e-01,1.338754728032225785e+03
-6.791820740075634077e+00,-1.770465300516240736e+00,-3.392484172605832349e+00,9.567402150977737385e-01,-2.265241420224319013e-01,1.825732014704379291e-01,1.339408458587705582e+03
-6.082249902778095851e+00,-1.415453960626725793e+00,-3.736742041160528327e+00,9.360262369451904929e-01,-2.510647953303101199e-01,2.466157989571615694e-01,1.344511176455981513e+03
-5.428499642572385042e+00,-1.015418258394324980e+00,-4.021780577939447099e+00,0.000000000000000000e+00,-9.950534475070934581e-01,-9.933094484754305398e-02,1.349613894324257444e+03
-5.072161330480034813e+00,-7.151978001483235703e-01,-4.141504150309316401e+00,7.364161080998669062e-01,-4.016585135368744286e-01,-5.443893406704171101e-01,1.352784655488888802e+03
-4.589895835533027046e+00,-1.514012633675505815e-01,-4.210060056933476069e+00,2.505768424026932339e-01,-9.347684120885919601e-01,2.518278416158922228e-01,1.357887373357164734e+03
-4.211352513304936984e+00,4.695548616144099019e-01,-4.128852827189387398e+00,8.649910223442942581e-01,4.315195122752695650e-02,4.999264349583765754e-01,1.362990091225440665e+03
-3.992593018566640950e+00,9.993540745633766598e-01,-3.922760218688960521e+00,9.706853313246461834e-01,-2.248758588095765287e-01,8.484595262161960527e-02,1.367173645337965127e+03
-3.828552383445986251e+00,1.619721352326652486e+00,-3.496145863215847527e+00,8.285611161590273888e-01,-4.354923732465538766e-01,-3.518961063063235639e-01,1.372276363206241058e+03
-3.749184643896708025e+00,2.148484843430003455e+00,-2.897042531071996052e+00,4.749029647126578046e-01,-5.349264898730267115e-01,-6.987981286034381512e-01,1.377379081074516989e+03
-3.737771203650380958e+00,2.516578770476618487e+00,-2.160758243939497447e+00,9.999988887671178742e-07,-4.977924468360499510e-01,-8.672950362321663054e-01,1.382481798942792921e+03
-3.757414550195953051e+00,2.597758410607749369e+00,-1.770360603933567534e+00,9.999988880612954836e-07,-4.977924464846963937e-01,-8.672950356200092026e-01,1.384960561083046514e+03
-3.824807694295272231e+00,2.594049886470202626e+00,-9.437688869105662626e-01,9.999988880613753165e-07,-4.977924464847362507e-01,-8.672950356200785915e-01,1.390063278951322445e+03
-3.879815774518117433e+00,2.503046002859312225e+00,-1.142667304682749019e-01,9.999988880613755282e-07,-4.977924464847362507e-01,-8.672950356200785915e-01,1.395165996819598377e+03
-3.895891135834548269e+00,2.424326635414747688e+00,6.303076453307887572e-01,9.999988880612952719e-07,-4.977924464846964492e-01,-8.672950356200092026e-01,1.399874300754311889e+03
-3.893328309236552709e+00,2.435777961027398408e+00,1.383783507379621636e+00,9.999988880611351826e-07,-4.977924464846166797e-01,-8.672950356198703137e-01,1.404977018622587821e+03
-3.899564331668540884e+00,2.604277094207450016e+00,1.974186480072171568e+00,8.847879010088804952e-01,3.147796090136466968e-02,-4.649274225157148388e-01,1.409504863411869792e+03
-3.923373603759436001e+00,3.016617177154385487e+00,2.528136396804955499e+00,8.849408408204051391e-01,2.539496673525969833e-02,-4.650083908878274164e-01,1.414607581280145723e+03
-3.932720316036324437e+00,3.178468123783837029e+00,2.640398954731971948e+00,8.879113103269395957e-01,2.637220329199171237e-02,-4.592559328029988119e-01,1.415902937209048787e+03
-3.975862922578766501e+00,4.021481154697979399e+00,2.980757214083396445e+00,8.908437146544673224e-01,2.734830903982466907e-02,-4.534837880025531232e-01,1.421005655077324718e+03
-4.014436994454602115e+00,5.027941197198606993e+00,3.233766892739198706e+00,8.937379289471057975e-01,2.832324238107112799e-02,-4.476922025567187102e-01,1.426108372945600649e+03
-4.039927089107279379e+00,6.142812066460595410e+00,3.419483859012883986e+00,8.965938298400745188e-01,2.929696176403466870e-02,-4.418814232930049490e-01,1.431211090813876581e+03
