2.275056754827973204e+00,-1.583362312313423725e+00,1.044295328754507812e+00,1.800843583859437491e-01,1.356471130152444790e-02,-9.835566188449599290e-01,3.783100235179555852e+02
2.260357077861926633e+00,-1.528067569275464388e+00,1.036506695263260891e+00,2.390900003367314453e-01,1.531217057137419617e-02,-9.708756404262600670e-01,3.793598141183315420e+02
2.190744383325738731e+00,-1.258468853631337092e+00,9.986966906585699189e-01,2.972240303789960292e-01,1.700380876951056511e-02,-9.546553023234817248e-01,3.844625319866075301e+02
2.180991112811398569e+00,-1.219628225158433832e+00,9.932697371850344181e-01,3.542745195075907017e-01,1.863345898969029704e-02,-9.349547363565229308e-01,3.851959836842198115e+02
2.114919321839799693e+00,-9.489727100713133412e-01,9.555683042934188798e-01,4.100334887861406541e-01,2.019518030336533640e-02,-9.118457615014333717e-01,3.902987015524957997e+02
2.052150853676060205e+00,-6.778034442937457271e-01,9.179005653741575399e-01,4.642976675159852240e-01,2.168327941679305815e-02,-8.854126220778009149e-01,3.954014194207717878e+02
1.992716020675442179e+00,-4.064637547481275703e-01,8.802586306694983875e-01,5.168692342426068898e-01,2.309233142547007997e-02,-8.557516806436989976e-01,4.005041372890477760e+02
1.965032927615746772e+00,-2.747715566433070467e-01,8.619813027392783100e-01,5.675565378989859688e-01,2.441719959025100486e-02,-8.229710667174010563e-01,4.029835074213354460e+02
1.910533456335588465e+00,-4.298766812585129264e-03,8.243803362642179167e-01,6.161747964576539394e-01,2.565305406307630612e-02,-7.871902826059650193e-01,4.080862252896114342e+02
1.859412467340840980e+00,2.654866858967652732e-01,7.867710389997610854e-01,6.625467705451164591e-01,2.679538949405896320e-02,-7.485397677770417868e-01,4.131889431578874223e+02
1.811679364437490225e+00,5.342379931387146730e-01,7.491357490721611834e-01,7.065034095634611377e-01,2.784004145575245254e-02,-7.071604233612794888e-01,4.182916610261634105e+02
1.767336062556411402e+00,8.016079968847044102e-01,7.114568054592766977e-01,7.478844679640640480e-01,2.878320162473002597e-02,-6.632030985179724336e-01,4.233943788944393987e+02
1.726376983786015229e+00,1.067249323738046263e+00,6.737165493147518891e-01,7.865390894269616018e-01,2.962143166513026699e-02,-6.168280405355703877e-01,4.284970967627153868e+02
1.688789054340852580e+00,1.330814519298938015e+00,6.358973252920969710e-01,8.223263568163043935e-01,3.035167576355080402e-02,-5.682043106708521973e-01,4.335998146309913750e+02
1.681292267691856912e+00,1.385861340009262754e+00,6.279044263226886136e-01,8.551158059069072781e-01,3.097127176958347841e-02,-5.175091678554627483e-01,4.346758570963635862e+02
1.658317019255120872e+00,1.560012657867073660e+00,6.022869162645401175e-01,8.847879010088409713e-01,3.147796090136326108e-02,-4.649274225156940776e-01,4.381166199131892540e+02
1.627004370142888012e+00,1.815468849410219132e+00,5.641936160238513187e-01,5.311272568399232341e-01,-2.799224751334314365e-01,-7.997157275922082142e-01,4.432193377814652422e+02
1.604241138384933762e+00,2.018030356073569731e+00,5.335345057028970661e-01,9.999988887671562024e-07,-4.977924468360690469e-01,-8.672950362321995010e-01,4.473147056441579821e+02
1.578802001489804985e+00,2.267058352332588012e+00,4.952287527543340340e-01,0.000000000000000000e+00,8.052988517095573465e-03,-9.999665741292721455e-01,4.524174235124339702e+02
1.556570238054158173e+00,2.512458376572439533e+00,4.568210337779122776e-01,8.849408409610504123e-01,2.539496673929576842e-02,-4.650083909617320210e-01,4.575201413807099584e+02
1.537510273858223364e+00,2.753917767017345142e+00,4.183201919352359521e-01,6.618620479866259565e-01,4.090737414553542728e-02,-7.485073253991485487e-01,4.626228592489859466e+02
1.521584110163896497e+00,2.991134223913171741e+00,3.797416470711537095e-01,3.524916543205666719e-01,5.108641804053513230e-02,-9.344184349241477783e-01,4.677255771172619347e+02
1.516035079583294420e+00,3.085234704740712708e+00,3.641156337929162268e-01,-2.835766934184932083e-03,5.460497539617075596e-02,-9.985030070496305754e-01,4.697893172940536601e+02
1.504476372957934016e+00,3.313152618283810469e+00,3.254346681091417337e-01,-3.577936347203390377e-01,5.100429370651723970e-02,-9.324056397170340516e-01,4.748920351623296483e+02
1.495904950640910558e+00,3.536114087576629483e+00,2.867209940741298757e-01,-6.661033719983059376e-01,4.075381660384019833e-02,-7.447438648582694887e-01,4.799947530306056365e+02
1.490263269729491968e+00,3.753823778723599514e+00,2.479933296293539702e-01,-8.875683493731850726e-01,2.518998153463057957e-02,-4.599846628109188762e-01,4.850974708988816246e+02
1.487487623912081558e+00,3.965995518361964844e+00,2.092749818949446727e-01,-8.890396178661473803e-01,2.699070456368854107e-02,-4.570317927216883680e-01,4.902001887671576128e+02
1.487508590092534666e+00,4.172360869281355633e+00,1.705984340793149645e-01,-8.904983270335102841e-01,2.879104605421274263e-02,-4.540724667323164931e-01,4.953029066354336010e+02
1.488156616375998498e+00,4.240881580808366635e+00,1.573962698323993492e-01,-8.919444568366668991e-01,3.059098137115009997e-02,-4.511067252916023396e-01,4.970480855765802630e+02
1.491856391636078527e+00,4.435041819688994913e+00,1.188940305489528948e-01,-8.922929328923112635e-01,3.052578108702900389e-02,-4.504214675217229624e-01,5.021508034448562512e+02
1.498115420014114907e+00,4.622797897153603230e+00,8.052118717233443246e-02,-8.926408777426861896e-01,3.046056264412167619e-02,-4.497359417606054399e-01,5.072535213131322394e+02
1.501319478257487683e+00,4.695232169134829547e+00,6.524542208481765027e-02,-8.929882911796088729e-01,3.039532607938796524e-02,-4.490501483953925899e-01,5.092935532491214303e+02
1.510995148032246327e+00,4.869681853453840858e+00,2.722788437030595338e-02,-8.933351730047316419e-01,3.033007143012493925e-02,-4.483640878182001410e-01,5.143962711173974185e+02
1.522939797773686710e+00,5.037185752478988476e+00,-1.056768393634965365e-02,-8.936815230199725013e-01,3.026479873363865578e-02,-4.476777604212769379e-01,5.194989889856733498e+02
1.530054528776382705e+00,5.120803620905765463e+00,-3.013980012580490253e-02,-8.940273410275166865e-01,3.019950802724418251e-02,-4.469911665970051629e-01,5.221589158503056751e+02
1.541669121140318621e+00,5.238756882742948484e+00,-5.884539917311254476e-02,-8.943726268298151094e-01,3.013419934826553140e-02,-4.463043067378998363e-01,5.260877688296433234e+02
1.558654904802163399e+00,5.384548781633960779e+00,-9.585343273382504470e-02,-8.947173802295860234e-01,3.006887273403574881e-02,-4.456171812366090945e-01,5.311904866979192548e+02
1.572322641255820441e+00,5.484892615524842086e+00,-1.225147815831652692e-01,-8.950616010298133585e-01,3.000352822189679067e-02,-4.449297904859137454e-01,5.348946455001930644e+02
1.592955313390723937e+00,5.615403349679665368e+00,-1.589624390058955172e-01,-8.954052890337486081e-01,2.993816584919961263e-02,-4.442421348787275459e-01,5.399973633684689958e+02
1.615595476461559654e+00,5.737999105286675672e+00,-1.951371082391508693e-01,-8.957484440449093865e-01,2.987278565330407643e-02,-4.435542148080965918e-01,5.451000812367449271e+02
1.633066731671835248e+00,5.820123561289476832e+00,-2.208830483476300621e-01,-8.960910658670800943e-01,2.980738767157899496e-02,-4.428660306671995950e-01,5.487578508758375619e+02
1.659116746351709137e+00,5.926523925828157680e+00,-2.565575391535392380e-01,-8.964331543043122519e-01,2.974197194140211151e-02,-4.421775828493478278e-01,5.538605687441134933e+02
1.687000810161153552e+00,6.024566407898115372e+00,-2.920063126544005239e-01,-9.154081809067009523e-01,3.110813659465965636e-02,-4.013205030487725922e-01,5.589632866123894246e+02
1.716658566265691688e+00,6.114096091072845240e+00,-3.272498271099546496e-01,-9.325238097297191553e-01,3.241111372155033865e-02,-3.596482503712365442e-01,5.640660044806653559e+02
1.732902147944229920e+00,6.156412041627897125e+00,-3.455721174842718568e-01,-9.477452750815640314e-01,3.364825668689788024e-02,-3.172454702325250286e-01,5.667325292824807548e+02
1.765348114229456478e+00,6.228731153271787058e+00,-3.804721043289212012e-01,-9.610416586068782907e-01,3.481705257446023744e-02,-2.741982918850459083e-01,5.718352471507566861e+02
1.783571570760110081e+00,6.263017954102289231e+00,-3.992210770584658230e-01,-9.723859521787113769e-01,3.591512729413002397e-02,-2.305941535195747683e-01,5.745878449669344263e+02
1.818622343989567236e+00,6.317727347392162685e+00,-4.338488114065989221e-01,-9.817551127612798023e-01,3.694025040428450257e-02,-1.865216246647194986e-01,5.796905628352103577e+02
1.855083854658984510e+00,6.363392360944366111e+00,-4.683582854625142344e-01,-9.891301092195334821e-01,3.789033964239266195e-02,-1.420702262878994482e-01,5.847932807034862890e+02
1.892883950062418164e+00,6.399908867473176777e+00,-5.027644144885826671e-01,-9.944959609803719625e-01,3.876346515467499892e-02,-9.733024896315259356e-02,5.898959985717622203e+02
1.898856175850752948e+00,6.404137559451181794e+00,-5.080439834381581532e-01,-9.978417684668987597e-01,3.955785341622261586e-02,-5.239256947501847589e-02,5.906809412960609507e+02
1.938630992312861734e+00,6.422551140491283839e+00,-5.422877361607512103e-01,-9.991607352437945622e-01,4.027189083361033123e-02,-7.348466230937844915e-03,5.957836591643368820e+02
1.979492960819743574e+00,6.431623549183904665e+00,-5.764562962308489302e-01,-9.984501818287229158e-01,4.090412702268253486e-02,3.771056614296133813e-02,6.008863770326128133e+02
2.021364388217551156e+00,6.431281644629606831e+00,-6.105647154604340043e-01,-9.957115511415955966e-01,4.145327775485017907e-02,8.269300264614248830e-02,6.059890949008887446e+02
2.052571700898292661e+00,6.424184420080107039e+00,-6.354156339748379123e-01,-9.909504055805115064e-01,4.191822756590971727e-02,1.275074738105508587e-01,6.097110450391924132e+02
2.096194168805816549e+00,6.405057560995278898e+00,-6.694686889622495363e-01,-9.841764157301802207e-01,4.229803202208025359e-02,1.720629512925094806e-01,6.148137629074683446e+02
2.140589234024751875e+00,6.376469813489721972e+00,-7.035253780097556753e-01,-9.754033407256428312e-01,4.259191963865109620e-02,2.162689327726541322e-01,6.199164807757442759e+02
2.185682724370101138e+00,6.338428381320782456e+00,-7.376111981197469580e-01,-9.646490003110493872e-01,4.279929344733689189e-02,2.600356257883039146e-01,6.250191986440202072e+02
2.231400916850578842e+00,6.290940938566709661e+00,-7.717516432745579191e-01,-9.519352386501236385e-01,4.291973220915169113e-02,3.032741301248459975e-01,6.301219165122961385e+02
2.277664743716460105e+00,6.234028795980470328e+00,-8.059738248095018598e-01,-9.372878799617125889e-01,4.295299127033262027e-02,3.458966183955958784e-01,6.352246343805720699e+02
2.295056171321514960e+00,6.209500830811595762e+00,-8.187114487060892509e-01,-9.207366760704214226e-01,4.289900305956939608e-02,3.878165144432782485e-01,6.371174584142792128e+02
2.342473945254141654e+00,6.134206358989198193e+00,-8.531881051582579367e-01,-9.023152459787726620e-01,4.275787722552439052e-02,4.289486692006759805e-01,6.422201762825551441e+02
2.353305695241867834e+00,6.115149752300556685e+00,-8.610106223593289032e-01,-8.820610075835443320e-01,4.252990041435928542e-02,4.692095336531408867e-01,6.433725468516915953e+02
2.401723868537846585e+00,6.021726729503678932e+00,-8.958306844934134094e-01,-8.600151016749116861e-01,4.221553568771542475e-02,5.085173285515441899e-01,6.484752647199675266e+02
2.450181772796717450e+00,5.919131709941609643e+00,-9.308475670767013543e-01,-8.362223083727046147e-01,4.181542158232604695e-02,5.467922105308270497e-01,6.535779825882434579e+02
2.498563177465989771e+00,5.807485481302633978e+00,-9.660949641078442340e-01,-8.107309561694753253e-01,4.133037081316721928e-02,5.839564342966109267e-01,6.586807004565193893e+02
2.527522262386330265e+00,5.735442513826920496e+00,-9.873349925224814694e-01,-7.835928237650974237e-01,4.076136862277830036e-02,6.199345105503064612e-01,6.617323382391290352e+02
2.575877240371964305e+00,5.606279105060981927e+00,-1.023149302549430040e+00,-7.548630348922872324e-01,4.010957078010288224e-02,6.546533593318125677e-01,6.668350561074049665e+02
2.587555464019068108e+00,5.573100311331335988e+00,-1.031862671196340786e+00,-7.245999463466740176e-01,3.937630123291303852e-02,6.880424584682109934e-01,6.680650890504787185e+02
2.594511071874463060e+00,5.552432179424520164e+00,-1.037038370371489160e+00,-6.928650294488885031e-01,3.856304941858463425e-02,7.200339868267927601e-01,6.687884314097042306e+02
2.643571790206450167e+00,5.398332563679782758e+00,-1.073914497284230052e+00,-6.597227451794797082e-01,3.767146723868576574e-02,7.505629620813194514e-01,6.738911492779801620e+02
2.691852166721095063e+00,5.235879258980610018e+00,-1.111169053848717114e+00,-6.252404132403418524e-01,3.670336570352420585e-02,7.795673727115745022e-01,6.789938671462560933e+02
2.735742621886736448e+00,5.078038808295112894e+00,-1.146038284482036484e+00,-5.894880753086906289e-01,3.566071125347070742e-02,8.069883039679713876e-01,6.837170244028750403e+02
2.782145632928756385e+00,4.899715959403493137e+00,-1.184162350827188126e+00,-5.525383527614308177e-01,3.454562176453242206e-02,8.327700575452670062e-01,6.888197422711509716e+02
2.807587183042237644e+00,4.796070580684334672e+00,-1.205708369604616914e+00,-5.144662991590032153e-01,3.336036224629255337e-02,8.568602647222073321e-01,6.916667660166650649e+02
2.852245797434127095e+00,4.603101533964399472e+00,-1.244847423515466067e+00,-4.753492477884580514e-01,3.210734024095789063e-02,8.792099927372274415e-01,6.967694838849409962e+02
2.895376568990120969e+00,4.403093950870706763e+00,-1.284532887530404510e+00,-4.352666545755365934e-01,3.078910093286369928e-02,8.997738441840755774e-01,7.018722017532169275e+02
2.936814390671672381e+00,4.196378426259347982e+00,-1.324803027783467702e+00,-3.942999366849714304e-01,2.940832197837386572e-02,9.185100492254275606e-01,7.069749196214928588e+02
2.976401756396415799e+00,3.983288518200904349e+00,-1.365696066521073782e+00,-3.525323071369574901e-01,2.796780806668252087e-02,9.353805504371619506e-01,7.120776374897687901e+02
3.013982316001199369e+00,3.764163863119112996e+00,-1.407245945191136549e+00,-3.100486057758599645e-01,2.647048522257059583e-02,9.503510801109535944e-01,7.171803553580447215e+02
3.018728205705555112e+00,3.734916877883621034e+00,-1.412745270116223750e+00,-2.669351269346205147e-01,2.491939486269473258e-02,9.633912298581757128e-01,7.178445399228132828e+02
3.053959541275734324e+00,3.504846019738060647e+00,-1.455706706564176001e+00,-2.232794441450410561e-01,2.331768761748716223e-02,9.744745123737593717e-01,7.229472577910892142e+02
3.086787577953222783e+00,3.269490251314911333e+00,-1.499374268942114563e+00,-1.791702322501108613e-01,2.166861693122083821e-02,9.835784152345973252e-01,7.280499756593651455e+02
3.117061273251747533e+00,3.029208992637993703e+00,-1.543769013392980449e+00,-1.346970872798222973e-01,1.997553245324511922e-02,9.906844466232769264e-01,7.331526935276410768e+02
3.144637608871708512e+00,2.784364527259567623e+00,-1.588911941603130540e+00,-8.995034445644997656e-02,1.824187323382097173e-02,9.957781728843382307e-01,7.382554113959170081e+02
3.169377187562860243e+00,2.535321454750513404e+00,-1.634815955603636795e+00,-4.502089469905241198e-02,1.647116073838157668e-02,9.988492478368645733e-01,7.433581292641929394e+02
3.177033937462650393e+00,2.449917412527001126e+00,-1.650584401712189120e+00,-0.000000000000000000e+00,1.466699169441230792e-02,9.998914337839580613e-01,7.450817012064642313e+02
3.197528430533605359e+00,2.193517228773298466e+00,-1.698039546040485792e+00,-8.715435360490830785e-02,1.819314047856727262e-02,9.960276744584772857e-01,7.501844190747401626e+02
3.214837286623789758e+00,1.933782008024001131e+00,-1.746237324422816650e+00,-1.736442988655742536e-01,2.158059792819560715e-02,9.845709396811170855e-01,7.552871369430160939e+02
3.228834749833310980e+00,1.671084570362953103e+00,-1.795166299798091947e+00,-2.588105020473462359e-01,2.480354066704260410e-02,9.656085689348795631e-01,7.603898548112920253e+02
3.239403161999049985e+00,1.405800253598117555e+00,-1.844814980037041252e+00,-3.420037210420897034e-01,2.783739946567559062e-02,9.392851185792827629e-01,7.654925726795679566e+02
3.245346925750191236e+00,1.187960303827539033e+00,-1.885828579532870197e+00,-4.225897545517376397e-01,3.065904653140901631e-02,9.058012597771492036e-01,7.696479731042927597e+02
3.249281948451051338e+00,9.185847617280279431e-01,-1.936896633180840821e+00,-4.999542765960372503e-01,3.324697180978165162e-02,8.654122486878813580e-01,7.747506909725686910e+02
3.249496039179109896e+00,6.476926189537450806e-01,-1.988651752569705833e+00,-5.735075195017929062e-01,3.558144695412473330e-02,8.184259805918634445e-01,7.798534088408446223e+02
3.245902605065901891e+00,3.756675353822998553e-01,-2.041082237413938572e+00,-6.426887696862271238e-01,3.764467571373304733e-02,7.652006427792596988e-01,7.849561267091205536e+02
3.238419114303368929e+00,1.028915621749273840e-01,-2.094167791987040061e+00,-7.069706419736102587e-01,3.942092959461526019e-02,7.061419840920504232e-01,7.900588445773964850e+02
3.226962878413808689e+00,-1.702582975205791660e-01,-2.147870982430650333e+00,-7.658630998712322446e-01,4.089666775897130707e-02,6.417002219275913522e-01,7.951615624456724163e+02
3.225719914024839596e+00,-1.942601945917984685e-01,-2.152641465729644210e+00,-8.189171911653139180e-01,4.206064024957522490e-02,5.723666102732702932e-01,7.956096880932685735e+02
3.208828199295143069e+00,-4.675169955980630898e-01,-2.207554641005269769e+00,-8.657284703650010016e-01,4.290397375222500947e-02,4.986696949240640997e-01,8.007124059615445049e+02
3.187806476692507829e+00,-7.403494988250728381e-01,-2.262989287433524677e+00,-8.906290218508020606e-01,3.866941167036098276e-02,4.530812532399567383e-01,8.058151238298204362e+02
3.162585242682025122e+00,-1.012386046825395125e+00,-2.318891813539313951e+00,-9.131103728724292434e-01,3.432981309400984921e-02,4.062621209085853224e-01,8.109178416980963675e+02
3.133088329513994630e+00,-1.283267982947369656e+00,-2.375193677952591287e+00,-9.331114588581294056e-01,2.989696555244500745e-02,3.583394714484191002e-01,8.160205595663722988e+02
3.102319516762732654e+00,-1.529090363769845418e+00,-2.426868293516042829e+00,-9.505779522248386515e-01,2.538290984957409374e-02,3.094434756642835960e-01,8.206767168190084476e+02
3.064311262768574462e+00,-1.796666564339340910e+00,-2.483754960488306907e+00,-9.654624099200466159e-01,2.079990735968188093e-02,2.597069480873531178e-01,8.257794346872843789e+02
3.021827569937796554e+00,-2.062052620956041693e+00,-2.540819459237382283e+00,-9.777244022672886281e-01,1.616040672440489240e-02,2.092649862381453230e-01,8.308821525555603102e+02
2.974806520390467668e+00,-2.324901934406735204e+00,-2.597977646394383555e+00,-9.873306227655554990e-01,1.147701004132537471e-02,1.582546036915934984e-01,8.359848704238362416e+02
2.923178891860708895e+00,-2.584889798959138396e+00,-2.655129267586238573e+00,-9.942549785448441257e-01,6.762438635960317350e-03,1.068143579401915760e-01,8.410875882921121729e+02
2.879699122572542791e+00,-2.784395479528433359e+00,-2.699436123860411652e+00,-9.984786612324979549e-01,2.029498510048113359e-03,5.508397406528057344e-02,8.450502774749064656e+02
2.819294738467068573e+00,-3.037930061197418041e+00,-2.756295483831979976e+00,-9.999901980380734301e-01,-2.708954440089691214e-03,3.203965237880559026e-03,8.501529953431823969e+02
2.754111914956834717e+00,-3.287719033680531311e+00,-2.812847569715041018e+00,-9.987854829180716765e-01,-7.440049340711377308e-03,-4.868474892094139944e-02,8.552557132114583283e+02
2.684093931705796354e+00,-3.533457831516420455e+00,-2.868976777324204086e+00,-9.948677877358486077e-01,-1.215093529857420862e-02,-1.004412250843635807e-01,8.603584310797342596e+02
2.646632444537928563e+00,-3.655445821972479692e+00,-2.897043180479389690e+00,-9.882477533862281671e-01,-1.682881630472922788e-02,-1.519248790299486118e-01,8.629342386695808500e+02
2.568342194014653579e+00,-3.892832485560385525e+00,-2.952046353243186427e+00,-9.789433609086330978e-01,-2.146098598945412120e-02,-2.029958674765960924e-01,8.680369565378567813e+02
2.485552455875978062e+00,-4.125495508909363451e+00,-3.006506832322736855e+00,-9.494871525968816561e-01,-0.000000000000000000e+00,-3.138027199357540376e-01,8.731396744061327126e+02
2.398517734716091976e+00,-4.353198012839390785e+00,-3.060573121455018253e+00,-9.494871519337624299e-01,-0.000000000000000000e+00,-3.138027197165950133e-01,8.782423922744086440e+02
2.307497043603109699e+00,-4.575734358660399792e+00,-3.114380975552538455e+00,-9.494871519338399235e-01,-0.000000000000000000e+00,-3.138027197166207150e-01,8.833451101426845753e+02
2.256111649897571958e+00,-4.694319884309516411e+00,-3.143659475669011716e+00,-9.494871519338786703e-01,-0.000000000000000000e+00,-3.138027197166335380e-01,8.861277674418493007e+02
2.158888072789204138e+00,-4.906557565430156309e+00,-3.197331143315856661e+00,-9.494871519338786703e-01,-0.000000000000000000e+00,-3.138027197166335380e-01,8.912304853101252320e+02
2.058377216380085528e+00,-5.113157336656797725e+00,-3.251073704637257311e+00,-9.494871519338399235e-01,-0.000000000000000000e+00,-3.138027197166207150e-01,8.963332031784011633e+02
1.954845384526872953e+00,-5.313957686476929787e+00,-3.305009266940346357e+00,-9.494871519337624299e-01,-0.000000000000000000e+00,-3.138027197165951243e-01,9.014359210466770946e+02
1.848552019661770629e+00,-5.508824272497734320e+00,-3.359245379048054314e+00,-9.494871519336460786e-01,-0.000000000000000000e+00,-3.138027197165566551e-01,9.065386389149530260e+02
1.763331568407580985e+00,-5.657125983155238735e+00,-3.402132148882734519e+00,-9.789178170295371739e-01,1.608565704876507158e-02,-2.036152232523608663e-01,9.105434102222230877e+02
1.652690822384030200e+00,-5.840079839273689011e+00,-3.457274782477322006e+00,-9.953619384151429772e-01,3.195791713177374704e-02,-9.072652912889780930e-02,9.156461280904990190e+02
1.540011225205999645e+00,-6.016793557952971661e+00,-3.512989444685469476e+00,-9.986013679369691864e-01,4.740621575594468340e-02,2.336575834150997691e-02,9.207488459587749503e+02
1.492172346481536849e+00,-6.088495015843182756e+00,-3.536661563708461742e+00,-9.885931318702220194e-01,6.222561283152120565e-02,1.371480686248605918e-01,9.228909053869982699e+02
1.377101300419260044e+00,-6.253349274615120024e+00,-3.593777935405329860e+00,-9.654700015343395947e-01,7.621951137854433844e-02,2.491109436039221914e-01,9.279936232552742013e+02
1.260561922831649140e+00,-6.411813107103295550e+00,-3.651635087584094386e+00,-9.295387319504938572e-01,8.920226555700962179e-02,3.577690618598169392e-01,9.330963411235501326e+02
1.168705446076998111e+00,-6.530653446865532175e+00,-3.697437336853452106e+00,-8.812759925739120925e-01,1.010016434304075589e-01,4.616809427925728238e-01,9.370807486005321607e+02
1.050131265362831412e+00,-6.676560941842240027e+00,-3.756931239789047083e+00,-8.213220440593016480e-01,1.114611117978593358e-01,5.594680692403811717e-01,9.421834664688080920e+02
9.306077557864073091e-01,-6.816005902865468258e+00,-3.817284557504702747e+00,-7.504722449006544505e-01,1.204419127881039275e-01,6.498331749596450990e-01,9.472861843370840234e+02
8.103040744015553853e-01,-6.948974033887181712e+00,-3.878529178940470779e+00,-6.696665005626823985e-01,1.278249046681781687e-01,7.315774543894890680e-01,9.523889022053599547e+02
7.656897624874954289e-01,-6.995978166086396222e+00,-3.901558448862480155e+00,-6.846736690043678797e-01,2.970046601189043067e-01,6.655886108101779497e-01,9.542783250778740012e+02
6.451251101291620715e-01,-7.116900520824966492e+00,-3.964708638147470321e+00,-6.769485812131338376e-01,4.563233530488065570e-01,5.775011825585194547e-01,9.593810429461499325e+02
5.241635708405525396e-01,-7.231349499945695314e+00,-4.028776540901433556e+00,-6.467477350573743733e-01,6.004913646404886896e-01,4.702398198697863574e-01,9.644837608144258638e+02
4.029417812439415325e-01,-7.339333050126532143e+00,-4.093763400745628722e+00,-5.950738531315689084e-01,7.247221067385317683e-01,3.473657687862821142e-01,9.695864786827017952e+02
3.546607301743694429e-01,-7.380019020852374823e+00,-4.120073873362240846e+00,-5.236425890115218307e-01,8.248909379771768302e-01,2.129586331128541232e-01,9.716224547865216437e+02
2.339673494176418289e-01,-7.475995978987229229e+00,-4.186957316511438876e+00,-4.348255654857151598e-01,8.976721029705179156e-01,7.148092857024282432e-02,9.767251726547975750e+02
1.133426160438613661e-01,-7.565567160250247447e+00,-4.254719805525105869e+00,-0.000000000000000000e+00,1.466799147870492641e-02,9.998914191181637046e-01,9.818278905230735063e+02
4.657435434174048150e-02,-7.611949024968884814e+00,-4.292845653064150113e+00,-0.000000000000000000e+00,8.214213259095616282e-01,5.703200902487662871e-01,9.846617216642423500e+02
-7.316013360265580245e-02,-7.689445353044768616e+00,-4.362358605053441529e+00,-0.000000000000000000e+00,9.419726912952220976e-01,-3.356865336228168073e-01,9.897644395325182813e+02
-1.925204758701299923e-01,-7.760636951450136323e+00,-4.432666308075301487e+00,-2.031297923515115039e-02,9.495260293514184990e-01,-3.130266800099275049e-01,9.948671574007942127e+02
-2.260095536660684246e-01,-7.779114646964981006e+00,-4.452751723976956733e+00,-1.116670984610143580e-02,9.938767570202490242e-01,1.099194998492506459e-01,9.963080721445891186e+02
-2.710311458987631483e-01,-7.802154344379590434e+00,-4.480325503598578507e+00,0.000000000000000000e+00,8.584009604375509861e-01,5.129773787611562330e-01,9.982628499524549852e+02
-3.877011304784492851e-01,-7.856520728780938434e+00,-4.553065859498066636e+00,4.659640811496574830e-01,8.339443662692610504e-01,2.956556595899289541e-01,1.003365567820730917e+03
-5.036627630275585243e-01,-7.904711441918105486e+00,-4.626463902893446445e+00,8.084710213412715785e-01,5.885342875759276282e-01,0.000000000000000000e+00,1.008468285689006848e+03
-6.188304364506509447e-01,-7.946766582871394924e+00,-4.700453251915710950e+00,-4.525244665822401036e-01,-6.821651958909240587e-01,5.743433229870396062e-01,1.013571003557282779e+03
-6.491549665159597193e-01,-7.956456337746703689e+00,-4.720276094774427555e+00,-3.394275864880478277e-01,-8.628151537643583557e-01,3.746157017086546026e-01,1.014927113146262741e+03
-7.621285487701654482e-01,-7.987353687890390574e+00,-4.795422382782319914e+00,-1.973718657740109739e-01,-9.698526657329137324e-01,1.429270911079137674e-01,1.020029831014538672e+03
-8.740790202911682405e-01,-8.012223219517718320e+00,-4.871008588587661059e+00,-3.847699454576117284e-02,-9.941456020758616674e-01,-1.009556475120603480e-01,1.025132548882814717e+03
-9.621213787323152911e-01,-8.027333023270577073e+00,-4.931370101466094447e+00,1.237006489037182494e-01,-9.336213013905596547e-01,-3.362252445177209559e-01,1.029186408249044007e+03
-1.071750494235359952e+00,-8.040540580087579769e+00,-5.007679299378908766e+00,2.753245800237534846e-01,-7.934434530055056722e-01,-5.428092321596615921e-01,1.034289126117319938e+03
-1.180153823628754539e+00,-8.047841022999419280e+00,-5.084234354708559778e+00,4.034587101641474716e-01,-5.855715793382726408e-01,-7.030824949210187080e-01,1.039391843985595870e+03
-1.287270546488950007e+00,-8.049275724179169700e+00,-5.160967288545516674e+00,4.608364502591712486e-01,4.800774273062328734e-01,-7.464271095724793748e-01,1.044494561853871801e+03
-1.358630770755104189e+00,-8.046450479250376375e+00,-5.212841149564598098e+00,-1.405218985061423009e-01,4.256286925838717594e-01,8.939193543545544962e-01,1.047937477491331720e+03
-1.462995934562707934e+00,-8.036674007009926513e+00,-5.289819715755593066e+00,7.820092943406794506e-01,4.310641620522354667e-01,4.501590294091450395e-01,1.053040195359607651e+03
-1.565932192801661405e+00,-8.021137646591808945e+00,-5.366806904288608848e+00,8.849807075426796565e-01,-1.526297770940416784e-02,-4.653753203493201651e-01,1.058142913227883582e+03
-1.667402434942070411e+00,-7.999877193021406541e+00,-5.443737564883512903e+00,9.749222939673823918e-01,2.201008603730866542e-01,-3.286536155594085157e-02,1.063245631096159514e+03
-1.735236868527145093e+00,-7.981724809050856351e+00,-5.495863266166987948e+00,8.205960710383516377e-01,4.003182415011931616e-01,4.078791410691464114e-01,1.066707081701501465e+03
-1.833744736534961062e+00,-7.949493723575987048e+00,-5.572554647636691172e+00,4.606684729586478788e-01,4.802354505724701350e-01,7.464291460257225230e-01,1.071809799569777397e+03
-1.930719311378282121e+00,-7.911627600135049398e+00,-5.648997247404144773e+00,4.705095396928393736e-01,5.487471824014762412e-01,6.910103493183579193e-01,1.076912517438053328e+03
-2.026148953161885036e+00,-7.868151935378451256e+00,-5.725113097580484478e+00,4.766514775704812634e-01,6.129446787607618630e-01,6.301588606926178393e-01,1.082015235306329259e+03
-2.120030218348377460e+00,-7.819082355738874668e+00,-5.800813728340009412e+00,4.790459999384090173e-01,6.723232250497293006e-01,5.643530907175413613e-01,1.087117953174605191e+03
-2.165184740471417957e+00,-7.792522763649612827e+00,-5.837578227544699239e+00,4.776742815500978345e-01,7.264159924461106588e-01,4.941103992680302981e-01,1.089610721660217450e+03
-2.256158297409144087e+00,-7.732866012366939046e+00,-5.912322689831405853e+00,4.725471065378159530e-01,7.747977078052626920e-01,4.199830283274191833e-01,1.094713439528493382e+03
-2.345556631326764396e+00,-7.667647061752436599e+00,-5.986418806034255802e+00,4.637047836486377639e-01,8.170879969216862104e-01,3.425537606104976929e-01,1.099816157396769313e+03
-2.433379496577312118e+00,-7.596874807794897322e+00,-6.059772960675188891e+00,4.512168294090954102e-01,8.529543748840016093e-01,2.624313381146035629e-01,1.104918875265045244e+03
-2.519633255855666221e+00,-7.520557491599682010e+00,-6.132286119360299992e+00,4.351814217043992183e-01,8.821148600231402126e-01,1.802456765914072223e-01,1.110021593133321176e+03
-2.604342987503617479e+00,-7.438710042565431557e+00,-6.203842957854065254e+00,4.157246280599509181e-01,9.043401909059209931e-01,9.664291353562531883e-02,1.115124311001597107e+03
-2.687551011741614371e+00,-7.351361098550146522e+00,-6.274311921699245786e+00,4.436353211235202210e-01,8.683884417123937105e-01,2.215563498350789640e-01,1.120227028869873038e+03
-2.698638067720450007e+00,-7.338881239730456585e+00,-6.283682150135532218e+00,4.637047836486377639e-01,8.170879969216862104e-01,3.425537606104975819e-01,1.120916268133958056e+03
-2.779606221606241157e+00,-7.241463036813472698e+00,-6.351879139758211501e+00,4.755782962245362899e-01,7.513455941639032298e-01,4.574965380101969070e-01,1.126018986002233987e+03
-2.859128664458232993e+00,-7.138622027401813952e+00,-6.418696100323177056e+00,4.790459999384090728e-01,6.723232250497294116e-01,5.643530907175413613e-01,1.131121703870509918e+03
-2.937253967835186330e+00,-7.030389271900401305e+00,-6.483996349193254183e+00,4.740466048338535798e-01,5.814175975091621096e-01,6.612347493536737675e-01,1.136224421738785850e+03
-3.005759909229872573e+00,-6.929151984339840809e+00,-6.540758248127754193e+00,4.606684729584659133e-01,4.802354505722803979e-01,7.464291460254276478e-01,1.140774273705619635e+03
-3.081340310408192451e+00,-6.810353592227872177e+00,-6.602634466807687730e+00,3.892367323543395874e-01,4.670929679600990259e-01,7.939250124967717204e-01,1.145876991573895566e+03
-3.155661555834713194e+00,-6.686300427215447151e+00,-6.662564173346963159e+00,3.148736405690358287e-01,4.504327721066005430e-01,8.354417444006012605e-01,1.150979709442171497e+03
-3.228775154178501250e+00,-6.557046553298697233e+00,-6.720392548384475084e+00,2.381392277507298483e-01,4.303803338665044276e-01,8.706666850335982311e-01,1.156082427310447429e+03
-3.272361739612766218e+00,-6.476005250667813407e+00,-6.753979881590343126e+00,1.596113804684670123e-01,4.070866697139120527e-01,8.993345598643656125e-01,1.159163147939665123e+03
-3.343665824602255032e+00,-6.336845252039883469e+00,-6.807278121867169851e+00,7.988149028054811196e-02,3.807272044917111575e-01,9.212294737310112724e-01,1.164265865807941054e+03
-3.413860921796941117e+00,-6.192648145008823768e+00,-6.858032848365809286e+00,-4.499992964601419974e-04,3.515004504556364373e-01,9.361865363431721709e-01,1.169368583676216986e+03
-3.482990241554118960e+00,-6.043481601075928467e+00,-6.906065018891387908e+00,-5.507150556154006837e-01,5.722147404087913891e-01,6.076851309508730647e-01,1.174471301544492917e+03
-3.484355311955821932e+00,-6.040432431708812722e+00,-6.906963743156558699e+00,-8.479704324504528934e-01,5.300416452412911594e-01,0.000000000000000000e+00,1.174572544216097185e+03
-3.552828293370866142e+00,-5.882269614380407852e+00,-6.949427241524873899e+00,9.421051217393071608e-01,0.000000000000000000e+00,-3.353146874088645535e-01,1.179675262084373117e+03
-3.620252970834081818e+00,-5.719278088703937613e+00,-6.988781995780976253e+00,0.000000000000000000e+00,5.892782266480556252e-01,-8.079289396970935622e-01,1.184777979952649048e+03
-3.686651478054159270e+00,-5.551534811929719204e+00,-7.024824924367996992e+00,4.906017469256677699e-01,6.501574562075849162e-01,-5.801751529086531800e-01,1.189880697820924979e+03
-3.707779416152067853e+00,-5.496377583850385662e+00,-7.035284569557647139e+00,8.358535979592253140e-01,5.184152997113600225e-01,-1.805334866581066178e-01,1.191515502964395637e+03
-3.773273335202098622e+00,-5.319844377915918798e+00,-7.064397585639440535e+00,9.334680231831198327e-01,2.330827560932298148e-01,2.725947147463949061e-01,1.196618220832671568e+03
-3.837744415551793686e+00,-5.138739036688075856e+00,-7.089709785811510123e+00,9.334680225242026896e-01,2.330827559287011463e-01,2.725947145539755478e-01,1.201720938700947499e+03
-3.901203185830341091e+00,-4.953143269304085550e+00,-7.111004776324103993e+00,9.334680225242026896e-01,2.330827559287011463e-01,2.725947145539754923e-01,1.206823656569223431e+03
-3.932632727900568614e+00,-4.858311493391808789e+00,-7.119573761039950099e+00,9.334680225239950779e-01,2.330827559286493267e-01,2.725947145539149297e-01,1.209372830102821126e+03
-3.994998270236641780e+00,-4.664311979826968546e+00,-7.132421350992229847e+00,-3.179997568430700024e-04,9.704192579737484781e-02,9.952792389646879512e-01,1.214475547971097058e+03
-4.056349179683953032e+00,-4.466021663523044971e+00,-7.140709270372986417e+00,8.709890714587299743e-02,7.134662431000976524e-02,9.936404981534840974e-01,1.219578265839372989e+03
-4.082327430754524755e+00,-4.379731695964826699e+00,-7.142252001639399772e+00,1.737924780706121830e-01,4.505881557915750180e-02,9.837499060746081048e-01,1.221754794283229785e+03
-4.142781211686607179e+00,-4.173477257149211361e+00,-7.141046415962910565e+00,2.590427729322898331e-01,1.839680463461968937e-02,9.656895978354748111e-01,1.226857512151505716e+03
-4.202210769170372728e+00,-3.963135789371357909e+00,-7.134765236490799190e+00,3.421418352598457613e-01,-8.417995946762986750e-03,9.396095475811320208e-01,1.231960230019781648e+03
-4.260623548385756187e+00,-3.748796748749974928e+00,-7.123199517660355085e+00,2.308392531387944979e-01,-3.865272908298337390e-02,9.722228169208518844e-01,1.237062947888057579e+03
-4.263707222408189779e+00,-3.737291435888954627e+00,-7.122308002194838394e+00,1.162204510105647737e-01,-6.833216726898852511e-02,9.908690739346059928e-01,1.237332328512091181e+03
-4.322111060340922961e+00,-3.515793386843959034e+00,-7.099993726936083327e+00,-6.799996278734420465e-05,-9.702994690082364371e-02,9.952804553375105279e-01,1.242435046380367112e+03
-4.379299771068280833e+00,-3.291075265126402805e+00,-7.072058649210359427e+00,7.364161080998413711e-01,-4.016585135368604398e-01,-5.443893406703982363e-01,1.247523903139578806e+03
-4.398486693590601959e+00,-3.214003721267021163e+00,-7.060681316433304211e+00,0.000000000000000000e+00,-9.695091808014430490e-02,9.952881590191823280e-01,1.249242141474109303e+03
-4.455033830058177990e+00,-2.981596680785016495e+00,-7.020993658564504081e+00,8.161331494345478443e-01,-8.398728483931620914e-02,5.717261742998307472e-01,1.254344859342385234e+03
-4.510316305071333076e+00,-2.745481580596401905e+00,-6.975181936625956425e+00,9.421051217398740407e-01,-0.000000000000000000e+00,-3.353146874090663365e-01,1.259447577210661166e+03
-4.559651641293714697e+00,-2.526609480788761353e+00,-6.927631417472916553e+00,-5.300915303213327157e-01,-8.479392486977183063e-01,-0.000000000000000000e+00,1.264106096728943839e+03
-4.612365485365816475e+00,-2.283291459633334686e+00,-6.869122192706182517e+00,4.404124339128678151e-02,-9.878133655301613025e-01,1.492753287078808222e-01,1.269208814597219771e+03
-4.663564099811154939e+00,-2.036423174657133739e+00,-6.804024669058267527e+00,6.018138284556441286e-01,-7.607373584018127799e-01,2.430983081216883945e-01,1.274311532465495702e+03
-4.705141946735346359e+00,-1.827461224803345941e+00,-6.744073195857595238e+00,9.360262369457714726e-01,-2.510647953304659397e-01,2.466157989573146414e-01,1.278571302737332417e+03
-4.753473147305093072e+00,-1.573762309863540043e+00,-6.665397539040612607e+00,8.866727569302820244e-01,-4.085418126707789366e-01,2.165710262660815455e-01,1.283674020605608348e+03
-4.778726204721320592e+00,-1.436197425033973074e+00,-6.619551277409755130e+00,8.123705047158625847e-01,-5.545234732320807325e-01,1.804324823942194123e-01,1.286405957247521428e+03
-4.824666589718358267e+00,-1.176051562065911993e+00,-6.526966361805470740e+00,7.152101585541615902e-01,-6.849022206465287255e-01,1.392170149621116682e-01,1.291508675115797359e+03
-4.850669498752155917e+00,-1.022551849539947488e+00,-6.469053344466242805e+00,5.979255637563619663e-01,-7.960095227835458642e-01,9.408432305676626972e-02,1.294483184371301149e+03
-4.893895132743302234e+00,-7.560846417867017610e-01,-6.363203979732679372e+00,4.638168109640583014e-01,-8.847190939404420140e-01,4.630432684679390565e-02,1.299585902239577081e+03
-4.909564743595362657e+00,-6.557522874069523500e-01,-6.321478307944239816e+00,3.166573820495248714e-01,-9.485348607062616955e-01,-2.778564157580901747e-03,1.301485514201354135e+03
-4.950481048159645070e+00,-3.832423979551018989e-01,-6.203383248550928819e+00,1.605879757512839179e-01,-9.856611963872896620e-01,-5.178327896770528599e-02,1.306588232069630067e+03
-4.989326352191592484e+00,-1.076495133658976339e-01,-6.079472755725496391e+00,0.000000000000000000e+00,-9.950534475070934581e-01,-9.933094484754305398e-02,1.311690949937905998e+03
-5.026056314398204883e+00,1.709368342554508369e-01,-5.950063879907741438e+00,2.505768424023802621e-01,-9.347684120874247826e-01,2.518278416155778077e-01,1.316793667806181929e+03
-5.044511583114026365e+00,3.182737626485990790e-01,-5.879599360192227842e+00,7.364161080998806730e-01,-4.016585135368818671e-01,-5.443893406704273241e-01,1.319465401882841434e+03
-5.078240184868518803e+00,6.024126943051352212e-01,-5.740079185376710136e+00,8.970774680909271437e-01,-3.249158437653796860e-01,-2.994657087468409751e-01,1.324568119751117365e+03
-5.103059993060554689e+00,8.262176789453792303e-01,-5.627538567116538992e+00,9.754864388704420630e-01,-2.183818854147351052e-01,-2.708430733903490276e-02,1.328549292295673922e+03
-5.132918324444339930e+00,1.115697295097141772e+00,-5.478832255914726446e+00,9.644537749387965819e-01,-9.182464636169580807e-02,2.477804478327557958e-01,1.333652010163949853e+03
-5.160465830977631008e+00,1.407744446030323449e+00,-5.325916470443234019e+00,8.649910223442792701e-01,4.315195122752620016e-02,4.999264349583678047e-01,1.338754728032225785e+03
-5.163860306919621834e+00,1.445459811095160640e+00,-5.305825455779811683e+00,9.629616193361363319e-01,-1.386742592781192718e-01,2.312409338759622013e-01,1.339408458587705582e+03
-5.189273454537119967e+00,1.742128929146062655e+00,-5.145248579289588342e+00,9.503349541578963722e-01,-3.045736295474487654e-01,-6.400296157447907253e-02,1.344511176455981513e+03
-5.212266921388738261e+00,2.041114542691488953e+00,-4.981036450138764060e+00,8.285611161590273888e-01,-4.354923732465538766e-01,-3.518961063063235639e-01,1.349613894324257444e+03
-5.225387255248495677e+00,2.228233514281680705e+00,-4.876905942066307453e+00,6.116259718382536237e-01,-5.163942622422466044e-01,-5.993735367001721270e-01,1.352784655488888802e+03
-5.244592163477582503e+00,2.531396284701331822e+00,-4.706173076771252184e+00,3.244448717455263309e-01,-5.379876109939509821e-01,-7.780121179105403684e-01,1.357887373357164734e+03
-5.261278068276843634e+00,2.836498363859706551e+00,-4.532486971404618536e+00,9.999988887671178742e-07,-4.977924468360499510e-01,-8.672950362321663054e-01,1.362990091225440665e+03
-5.273098344336338172e+00,3.088095013515167242e+00,-4.387881983476423109e+00,9.585821764715694504e-07,-4.767918352420913997e-01,-8.790150998958576878e-01,1.367173645337965127e+03
-5.285216930661703394e+00,3.396593441182623963e+00,-4.209053452046050303e+00,9.166110372674390625e-07,-4.555154557581962971e-01,-8.902267517683495335e-01,1.372276363206241058e+03
-5.294725388448876302e+00,3.706567208874277153e+00,-4.028007940751160199e+00,8.741097465915125565e-07,-4.339756143009913525e-01,-9.009235074027480694e-01,1.377379081074516989e+03
-5.301596105302299300e+00,4.017844717907753882e+00,-3.845007281019505729e+00,8.311028864791266856e-07,-4.121847691528961466e-01,-9.110991801540186952e-01,1.382481798942792921e+03
-5.304037458294483365e+00,4.169606418490632294e+00,-3.755288369450695996e+00,7.876153313467610066e-07,-3.901555237566939338e-01,-9.207478847552352796e-01,1.384960561083046514e+03
-5.307195045683092971e+00,4.483025887347865890e+00,-3.569091464926627211e+00,7.436722336065606527e-07,-3.679006194266624674e-01,-9.298640407203179192e-01,1.390063278951322445e+03
-5.307640043155969600e+00,4.797303856602876060e+00,-3.381575231358635580e+00,6.992990091202408004e-07,-3.454329279800475994e-01,-9.384423755705507686e-01,1.395165996819598377e+03
-5.305636922309282077e+00,5.087910296573591395e+00,-3.207562978351526262e+00,6.545213225007819638e-07,-3.227654442931389145e-01,-9.464779278830212084e-01,1.399874300754311889e+03
-5.300821838312406165e+00,5.403343320953257312e+00,-3.018126534565074959e+00,6.093650722704037017e-07,-2.999112787862464047e-01,-9.539660501592232000e-01,1.404977018622587821e+03
-5.294229906069974234e+00,5.683498646326762938e+00,-2.849475392712045529e+00,5.638563758833889253e-07,-2.768836498419181558e-01,-9.609024115121703735e-01,1.409504863411869792e+03
-5.284162658076570374e+00,5.999319073416365278e+00,-2.658993242838559645e+00,5.180215546224149518e-07,-2.536958761607814861e-01,-9.672830001704689762e-01,1.414607581280145723e+03
-5.281191222508113903e+00,6.079483774763313697e+00,-2.610581245887165114e+00,4.718871183771079091e-07,-2.303613690594184249e-01,-9.731041257979086145e-01,1.415902937209048787e+03
-5.267831168012453880e+00,6.395099735814159914e+00,-2.419768596715044406e+00,4.254797503136179344e-07,-2.068936247147274143e-01,-9.783624216272325258e-01,1.421005655077324718e+03
-5.251592793042656915e+00,6.710290781081290845e+00,-2.228958376689011978e+00,3.788262914440632202e-07,-1.833062163592477090e-01,-9.830548464068551429e-01,1.426108372945600649e+03
-5.232453526495690177e+00,7.024810999065365991e+00,-2.038325008791709969e+00,3.319537251047551760e-07,-1.596127864319537015e-01,-9.871786861594066265e-01,1.431211090813876581e+03
-5.210396015283834004e+00,7.338413924646293829e+00,-1.848042900332369509e+00,2.848891613521710796e-07,-1.358270386890535197e-01,-9.907315557510875115e-01,1.436313808682152512e+03
-5.205437719334712554e+00,7.403755034949053737e+00,-1.808377243185313343e+00,2.376598212856787073e-07,-1.119627302793450851e-01,-9.937114002709306337e-01,1.437380408982179233e+03
-5.180050607668362339e+00,7.715205921597407368e+00,-1.619235059476191063e+00,1.902930213060703449e-07,-8.803366378870668141e-02,-9.961164962191694228e-01,1.442483126850455164e+03
-5.151734017826626655e+00,8.025196198912651013e+00,-1.430829269404414239e+00,1.428161573189936273e-07,-6.405367925831619014e-02,-9.979454525040317714e-01,1.447585844718731096e+03
-5.120485796298215320e+00,8.333476701344066484e+00,-1.243328560266601102e+00,9.525668889239907608e-08,-4.003664618120605923e-02,-9.991972112463780586e-01,1.452688562587007027e+03
-5.086305940734084707e+00,8.639794734672497256e+00,-1.056890414250286625e+00,4.764212337715585263e-08,-1.599645548177775975e-02,-9.998710483917210290e-01,1.457791280455282958e+03
-5.071740273555008116e+00,8.762300000005936340e+00,-9.823102734005458858e-01,0.000000000000000000e+00,8.052988517095573465e-03,-9.999665741292721455e-01,1.459845759992455896e+03
-5.033576056300487878e+00,9.064342588576835169e+00,-7.983840143595311023e-01,8.965938298732633038e-01,2.929696176511913802e-02,-4.418814233093619204e-01,1.464948477860731828e+03
-4.992511585432849230e+00,9.363812481514182551e+00,-6.158849351616084711e-01,8.482662597559522677e-01,4.159706739686251653e-02,5.279318483890930169e-01,1.470051195729007759e+03
-4.948560181183796480e+00,9.660456813231558471e+00,-4.349589775044111484e-01,0.000000000000000000e+00,1.466999104715329023e-02,9.998913897832444331e-01,1.475153913597283690e+03
-4.920076262627665287e+00,9.841341484313936405e+00,-3.245750796648321779e-01,4.789225235540516823e-01,-2.317097694884340808e-01,8.467241576543712567e-01,1.478296608368356374e+03
-4.871544344509846525e+00,1.013189693509947098e+01,-1.471490869100140486e-01,7.316823111941642699e-01,-2.537534609074876268e-01,6.326517024109854503e-01,1.483399326236632305e+03
-4.820173806380325665e+00,1.041897724323260732e+01,2.836119068539477012e-02,9.038102623225684473e-01,-2.478333434142906411e-01,3.488604930521583269e-01,1.488502044104908236e+03
-4.766006258786821270e+00,1.070234533696645585e+01,2.018290704890806364e-01,9.763376512967393284e-01,-2.146017890647517468e-01,2.662447727868633846e-02,1.493604761973184168e+03
-4.709127299550752710e+00,1.098178648061962015e+01,3.731317702492398802e-01,9.412718042646517347e-01,-1.577209262945140078e-01,-2.985456412424588035e-01,1.498707479841460099e+03
-4.707490255695385706e+00,1.098955026826644676e+01,3.778923561716229784e-01,8.024769910411198026e-01,-8.345908325291008512e-02,-5.908157583139140856e-01,1.498851174709319821e+03
-4.648174208538560670e+00,1.126140877446155919e+01,5.446329674870689086e-01,5.752485914333934636e-01,-0.000000000000000000e+00,-8.179774190368073183e-01,1.503953892577595752e+03
-4.586413334451307833e+00,1.152893563498832030e+01,7.089637515273048418e-01,9.703928888892788818e-01,2.415277234480527890e-01,0.000000000000000000e+00,1.509056610445871684e+03
-4.522317596853797639e+00,1.179194025700052961e+01,8.707686474916862540e-01,9.836225664229077958e-01,1.100047044064252633e-01,-1.427711869860670557e-01,1.514159328314147615e+03
-4.522018004158639748e+00,1.179313213735000154e+01,8.715020657103320634e-01,9.596152324049520566e-01,-2.568275130205938811e-02,-2.801374698668231411e-01,1.514182834178953954e+03
-4.456102168136614416e+00,1.204752360951672507e+01,1.028071314148634174e+00,8.992797426959560081e-01,-1.603979231085229384e-01,-4.068985753731344523e-01,1.519285552047229885e+03
-4.388089906473089385e+00,1.229705531147295972e+01,1.181904057630186911e+00,8.049002249604311210e-01,-2.890409020755691505e-01,-5.182557137046914786e-01,1.524388269915505816e+03
-4.318068501958827632e+00,1.254157120940826076e+01,1.332899962423792939e+00,6.800496063493924881e-01,-4.067416565135780204e-01,-6.099932440299763448e-01,1.529490987783781748e+03
-4.246109252768044406e+00,1.278093395481667294e+01,1.480963430925931856e+00,5.294543529899132794e-01,-5.090443944128930642e-01,-6.786382634499835698e-01,1.534593705652057679e+03
-4.187728243460568933e+00,1.296671816586577819e+01,1.596036256150897392e+00,3.588155418937449270e-01,-5.920762440856115472e-01,-7.215920787304164197e-01,1.538641903423643043e+03
-4.112573450176499001e+00,1.319560262785161164e+01,1.737986374227625808e+00,5.613705101099384365e-01,-5.706199044583383229e-01,-5.993780735196794218e-01,1.543744621291918975e+03
-4.035678589027893892e+00,1.341898101395371690e+01,1.876744514596830671e+00,7.322500315490821921e-01,-5.169661700302240481e-01,-4.433439639170185798e-01,1.548847339160194906e+03
-3.957115504976529863e+00,1.363672842868875001e+01,2.012218199616757186e+00,8.618121689833001531e-01,-4.341424363528966768e-01,-2.622939769619067052e-01,1.553950057028470837e+03
