9.312659916548637895e+00,-9.950557010614996756e+00,6.678469573525518399e+00,-2.971009514804584528e-01,-4.155937883758283879e-01,-8.596573897167861800e-01,1.042098452591400246e+02
9.668751242542958479e+00,-9.493894069717207174e+00,6.145826848194549719e+00,-4.207350067413735961e-01,-5.766865479522472748e-01,-7.002947090439316513e-01,1.093125631274159986e+02
9.761027744938751027e+00,-9.341255628101986730e+00,5.908815189797440581e+00,-5.163343074812717370e-01,-6.993530620125641972e-01,-4.942693370752867521e-01,1.111781184873513268e+02
9.889482181602017974e+00,-9.059382550635893594e+00,5.182072103680666508e+00,-5.589011582956602275e-01,-7.570082629922790796e-01,-3.384759740616171686e-01,1.162808363556273008e+02
9.896480535462567119e+00,-8.984952303819639496e+00,4.629693952731299689e+00,-5.850320182661185031e-01,-7.924016012174839307e-01,-1.727288047516869762e-01,1.196977088128511326e+02
9.948982582892995197e+00,-9.028170429423266086e+00,3.709313709331742981e+00,-5.939584362330480038e-01,-8.044922364008854077e-01,-1.901998194682220878e-03,1.248004266811271066e+02
1.002161816611515732e+01,-9.105300310990648072e+00,3.202175893032594534e+00,-2.327097549702372981e-01,-7.626911969307731409e-01,-6.034453646073216770e-01,1.273911243274876597e+02
1.032087271609758083e+01,-9.228418620939434547e+00,2.158999401748646019e+00,-5.263484776507382223e-01,-7.247512959434592172e-01,-4.446243797906320183e-01,1.324938421957636479e+02
1.071816524392322556e+01,-9.359325605371260792e+00,1.063166630051276984e+00,-7.605689945537787988e-01,-6.049961052540177020e-01,-2.356109444662113084e-01,1.375965600640396360e+02
1.093199188283520940e+01,-9.639131122267242446e+00,-6.551141361870015112e-02,-9.089308576323877897e-01,-4.169444759734897143e-01,-0.000000000000000000e+00,1.426992779323156242e+02
1.093602463328253194e+01,-9.670854905110576993e+00,-1.585388325191759984e-01,-8.408884039309241221e-01,-3.843519368877716391e-01,3.810226774702731301e-01,1.431156141482020701e+02
1.076149386854523549e+01,-1.017103437612656514e+01,-1.260915604920589850e+00,-6.459805756366608920e-01,-2.937719737058942515e-01,7.045602340229750737e-01,1.482183320164780582e+02
1.016126124946665854e+01,-1.083785974314394807e+01,-2.211438456990096224e+00,-3.536132220421598915e-01,-1.588704345246518268e-01,9.218003440183171193e-01,1.533210498847540464e+02
9.311121197798396310e+00,-1.156676088787980916e+01,-2.857818497832052440e+00,-7.895990730979508126e-03,-0.000000000000000000e+00,9.999678261482836117e-01,1.584237677530300346e+02
8.537768602527089357e+00,-1.226746211282956800e+01,-3.115741334501611615e+00,-6.112225613887134479e-03,1.620506729121875267e-01,9.867624942747121874e-01,1.635264856213060227e+02
8.207298611265850141e+00,-1.262365832319842696e+01,-3.123252580243123688e+00,-4.166865967388627169e-03,3.198169896502408016e-01,9.474691184201297078e-01,1.663264260758911064e+02
7.850269680479101453e+00,-1.317387486142072106e+01,-2.984742092851136341e+00,-2.111342934898795959e-03,4.691279594128291985e-01,8.831265480829681991e-01,1.714291439441670946e+02
7.937821966145809149e+00,-1.353540869349772535e+01,-2.693032631731213655e+00,-0.000000000000000000e+00,6.060361314468605265e-01,7.954358600047460870e-01,1.765318618124430827e+02
8.168933578523972727e+00,-1.366364167737067881e+01,-2.494348639738948492e+00,-7.893632733865620088e-02,6.671183697422240488e-01,7.407564626627539672e-01,1.794648759035239607e+02
8.662438856385470842e+00,-1.383320286165278468e+01,-2.108727007686506116e+00,-1.568503023480224967e-01,7.195602053436924717e-01,6.764828848806795358e-01,1.845675937717999489e+02
8.972254493725335678e+00,-1.404214458175130531e+01,-1.642696453395944056e+00,-2.327328258590702914e-01,7.626824293274838684e-01,6.034475484740206008e-01,1.896703116400759370e+02
8.976803201897229911e+00,-1.405429641266115937e+01,-1.619628679955718242e+00,-2.342221229111244862e-01,6.874385542774594793e-01,6.874345286837894031e-01,1.898994675367348748e+02
8.996652503665769629e+00,-1.412173728456743405e+01,-1.493256272589425837e+00,-2.327326561483562817e-01,6.034521084276577296e-01,7.626788731775399066e-01,1.911467155104153335e+02
8.868732042964486695e+00,-1.437249126358483053e+01,-9.285748145225035666e-01,-1.382754467733406378e-01,7.078746855896901335e-01,6.926697122859741818e-01,1.962494333786913216e+02
8.788395702875277493e+00,-1.442519474232949683e+01,-7.748824979653846645e-01,-4.039896372713496636e-02,7.947932863819529015e-01,6.055324563128597903e-01,1.975325835370915115e+02
8.517621994816312991e+00,-1.449013618132043391e+01,-1.666202944462213120e-01,-2.725877949399257635e-02,7.174963522392445725e-01,6.960272577001459515e-01,2.026353014053674997e+02
8.440847535441212912e+00,-1.437863283717301854e+01,3.604419490608926080e-01,-1.372779641792679778e-02,6.299128392934081333e-01,7.765432135410819114e-01,2.077380192736434878e+02
8.516060189775744860e+00,-1.429840135051306582e+01,5.902696225873911295e-01,-0.000000000000000000e+00,5.332983833109052885e-01,8.459260217983610719e-01,2.106030028449035569e+02
8.906851993465519257e+00,-1.419549672078789904e+01,8.402875290901574701e-01,-2.480593117118688185e-01,5.954978989937238509e-01,7.640987044672039596e-01,2.157057207131795451e+02
9.576432085560753649e+00,-1.409313335580248250e+01,9.226364029364838570e-01,-4.782340119996940087e-01,6.147631740794150534e-01,6.271813689547045545e-01,2.208084385814555333e+02
1.032739036834879975e+01,-1.388254935270102663e+01,9.742585070551299520e-01,-6.739289716563334753e-01,5.897052274905495439e-01,4.450454873762472729e-01,2.259111564497315214e+02
1.054160778466884985e+01,-1.379621159306685563e+01,9.964056823461910906e-01,-8.210349776881072925e-01,5.221306850352523954e-01,2.308226877034356417e-01,2.273938973369207019e+02
1.113882034924754727e+01,-1.336272242954891176e+01,1.187790802983043514e+00,-9.089459700192238367e-01,4.169115275727349190e-01,-4.199995240735423092e-05,2.324966152051966901e+02
1.143245378506310139e+01,-1.272465193758934987e+01,1.623126782328440321e+00,-9.464852909784671198e-01,2.874823039912553502e-01,-1.466885096158187518e-01,2.375993330734726783e+02
1.143018818819157723e+01,-1.211262361006916244e+01,2.248034498834243333e+00,-9.464809472554572833e-01,1.466497067771089791e-01,-2.875163995053563459e-01,2.423669567763948578e+02
1.117687776570607916e+01,-1.172808052434277748e+01,3.109348428390999342e+00,-9.089331001746140393e-01,0.000000000000000000e+00,-4.169395872382412604e-01,2.474696746446708460e+02
1.071000604947341550e+01,-1.177581617776674250e+01,4.106340865476886925e+00,-6.892901598918245165e-01,9.682737513708034732e-03,-7.244192985224008341e-01,2.525723925129468341e+02
1.011573119550492272e+01,-1.213517436017787965e+01,5.107986798131992856e+00,-3.711609605295455028e-01,1.798199547694426942e-02,-9.283933375562010148e-01,2.576751103812227939e+02
9.944593437067737796e+00,-1.225684976824520511e+01,5.366748522090966311e+00,-0.000000000000000000e+00,2.371197228180496955e-02,-9.997178313762560276e-01,2.590543606268399799e+02
9.305883283469340128e+00,-1.267388576808777145e+01,6.199942022176474943e+00,-0.000000000000000000e+00,2.371197226506944339e-02,-9.997178306706712148e-01,2.641570784951159681e+02
8.642606927196510469e+00,-1.297433596500925113e+01,6.761943950571883910e+00,-0.000000000000000000e+00,2.371197226506943992e-02,-9.997178306706712148e-01,2.692597963633919562e+02
8.614449329670256006e+00,-1.298326285169961736e+01,6.778772406486317514e+00,-0.000000000000000000e+00,2.371197226506416636e-02,-9.997178306704488371e-01,2.694701935292031294e+02
7.905970191856112272e+00,-1.310096347642943293e+01,7.030599667339728853e+00,1.268262169502823054e-03,2.074851354567654529e-02,-9.997829217499720755e-01,2.745729113974791176e+02
7.151133010238170051e+00,-1.304684252781849452e+01,7.004409574691488949e+00,2.536510825032016296e-03,1.778483990566506745e-02,-9.998376195706933922e-01,2.796756292657551057e+02
6.357880346719318787e+00,-1.287140233332253736e+01,6.768229116216921248e+00,3.804732862608981112e-03,1.482098198273726006e-02,-9.998819242428100829e-01,2.847783471340310939e+02
5.533203964068487579e+00,-1.262536952108060717e+01,6.390100431774585310e+00,5.072915178548672265e-03,1.185697040056640089e-02,-9.999158353137571620e-01,2.898810650023070821e+02
4.683142787503857818e+00,-1.235967610670996031e+01,5.938075901070975604e+00,6.341044669585116193e-03,8.892835784346986641e-03,-9.999393524364118546e-01,2.949837828705830702e+02
3.812781002752333670e+00,-1.212544055183861502e+01,5.480213230770869082e+00,7.609108232996923682e-03,5.928608760501371221e-03,-9.999524753690959278e-01,3.000865007388590584e+02
3.023656597846576588e+00,-1.197900867333167874e+01,5.117329055845282859e+00,8.877092766732812279e-03,2.964319956386394540e-03,-9.999552039755795763e-01,3.046363360441407622e+02
2.127166595830878304e+00,-1.193345308156856355e+01,4.825597044245262701e+00,1.014498516953709489e-02,0.000000000000000000e+00,-9.999475382250813116e-01,3.097390539124167503e+02
1.297443840085308553e+00,-1.198436387345564569e+01,4.674963807976499908e+00,6.763962590197613971e-03,1.008684358461462739e-02,-9.999252493751229487e-01,3.148417717806927385e+02
8.605571394426929643e-01,-1.200328481056652130e+01,4.620000278996434950e+00,3.382173788399762179e-03,2.017254766666757085e-02,-9.997897924873986319e-01,3.181628790913359808e+02
6.090508526863843697e-01,-1.178442219578539785e+01,4.493308480843014152e+00,0.000000000000000000e+00,3.025597526025509965e-02,-9.995411826938754851e-01,3.232655969596119689e+02
9.746229010582735386e-01,-1.116892690245059150e+01,4.243211595120614632e+00,-4.170116391331618599e-01,2.833750444238459718e-02,-9.084581876290001023e-01,3.283683148278879571e+02
1.475249758129950628e+00,-1.055288571259812436e+01,3.970670243761975193e+00,-7.580441342000368010e-01,2.125597572249138950e-02,-6.518552554836443136e-01,3.321363363200186996e+02
2.105297353153265938e+00,-9.723218199542829510e+00,3.480212807625092886e+00,-7.932228509061529653e-01,3.471170087023257161e-02,-6.079396406017557597e-01,3.372390541882946877e+02
2.518684265600810157e+00,-9.019757340441378446e+00,2.819910411639356074e+00,-8.257465010185791598e-01,4.805123874631071768e-02,-5.619891409114007308e-01,3.423417720565706759e+02
2.630637712521031624e+00,-8.739584027072838879e+00,2.445332885920835420e+00,-8.555062347819392121e-01,6.122994523212333534e-02,-5.141575401054723216e-01,3.448145525317626152e+02
2.669561976290995897e+00,-8.265253818826595378e+00,1.564580988293055031e+00,-6.198064535033912525e-01,-6.882739953649211762e-01,-3.769839088084357415e-01,3.499172704000386034e+02
2.514404603309571051e+00,-7.775484846733555777e+00,5.429919016155887457e-01,1.016999272028908802e-02,-9.999472842347719714e-01,-0.000000000000000000e+00,3.550199882683145916e+02
2.494488900893214733e+00,-7.717614898254962164e+00,4.350555082581830102e-01,-6.674278510729814151e-01,-7.105082036378794763e-01,-2.229712003285945765e-01,3.555309778770503613e+02
2.337290403036683450e+00,-7.045159546037339737e+00,-6.557962149399448881e-01,-9.494871526040852272e-01,-0.000000000000000000e+00,-3.138027199381347998e-01,3.606336957453263494e+02
2.316025806143062304e+00,-6.306849397893936171e+00,-1.724025903170422147e+00,-9.494871519337624299e-01,-0.000000000000000000e+00,-3.138027197165950133e-01,3.657364136136023376e+02
2.354981972284083458e+00,-5.984365183518485232e+00,-2.192736400792562712e+00,-9.494871519338399235e-01,-0.000000000000000000e+00,-3.138027197166207150e-01,3.681045877814036089e+02
2.426394813225834834e+00,-5.338762550882219848e+00,-2.897042868189372289e+00,-9.494871519338786703e-01,-0.000000000000000000e+00,-3.138027197166335380e-01,3.732073056496795971e+02
2.460425938062916984e+00,-4.701689447628949026e+00,-2.960342093545937026e+00,-9.494871519338786703e-01,-0.000000000000000000e+00,-3.138027197166335380e-01,3.783100235179555852e+02
2.464687854266820022e+00,-4.565085178276431677e+00,-2.897042996332436893e+00,-9.494871519338399235e-01,-0.000000000000000000e+00,-3.138027197166207150e-01,3.793598141183315420e+02
2.484988043343612674e+00,-3.805489952226596806e+00,-2.459865414627789626e+00,-9.494871519337624299e-01,-0.000000000000000000e+00,-3.138027197165951243e-01,3.844625319866075301e+02
2.488075099006060054e+00,-3.682595483868096320e+00,-2.380359989814369470e+00,-9.494871519336460786e-01,-0.000000000000000000e+00,-3.138027197165566551e-01,3.851959836842198115e+02
2.577358862284386820e+00,-2.756432490719359585e+00,-1.861103284492580112e+00,-9.789433609016954252e-01,-2.146098598930203105e-02,-2.029958674751574932e-01,3.902987015524957997e+02
2.761953009609398269e+00,-1.752548397896235510e+00,-1.379999723844473447e+00,-9.873306227655554990e-01,1.147701004132537471e-02,1.582546036915934984e-01,3.954014194207717878e+02
2.965689265873364899e+00,-7.891512078596963908e-01,-8.818891602067294722e-01,-8.657284703647016855e-01,4.290397375221016718e-02,4.986696949238915710e-01,4.005041372890477760e+02
3.057260092247108929e+00,-3.535689819445662074e-01,-6.252702042847836372e-01,-9.212032363015311143e-01,4.286804308096123228e-02,3.867103933307330932e-01,4.029835074213354460e+02
3.213740323393107889e+00,4.683955733983360403e-01,-6.681218906148085612e-02,-9.622958336399897172e-01,4.216284093335938982e-02,2.687136457340829621e-01,4.080862252896114342e+02
3.319729301976243274e+00,1.198159684240142520e+00,5.231081333702946035e-01,-9.883647173058913715e-01,4.079937743406591988e-02,1.465216584198309746e-01,4.131889431578874223e+02
3.381441718863682055e+00,1.878893227956780487e+00,1.117094271154787544e+00,-9.990028962296166881e-01,3.879893960744808940e-02,2.204213262129014334e-02,4.182916610261634105e+02
3.405877109041083983e+00,2.553527953688588870e+00,1.687749438203813845e+00,-9.940442865795278138e-01,3.619275902046886068e-02,-1.027815183455406123e-01,4.233943788944393987e+02
3.400817391018881697e+00,3.264742055535442056e+00,2.207678531471219063e+00,-9.735663042458356786e-01,3.302152418735419814e-02,-2.260005092422219808e-01,4.284970967627153868e+02
3.374824295986946776e+00,4.054944781930807096e+00,2.649490108136281830e+00,-9.378886561670679578e-01,2.933474534805535078e-02,-3.456911068406425813e-01,4.335998146309913750e+02
3.367766406860123407e+00,4.232735093627272960e+00,2.732467054905580284e+00,-8.875683493732114959e-01,2.518998153463133244e-02,-4.599846628109326430e-01,4.346758570963635862e+02
3.345146116302439410e+00,4.824516099173030703e+00,2.979382846393208162e+00,-8.919444568366668991e-01,3.059098137115009997e-02,-4.511067252916023396e-01,4.381166199131892540e+02
3.277224470468765194e+00,5.816534205953125536e+00,3.281240333282752442e+00,-8.942000504666580696e-01,3.016685593199477239e-02,-4.466477698972693422e-01,4.432193377814652422e+02
3.151089523070271792e+00,6.730447820918071145e+00,3.484831308774685166e+00,-8.964331543043122519e-01,2.974197194140211151e-02,-4.421775828493478278e-01,4.473147056441579821e+02
2.827202844845497776e+00,8.017865887353083920e+00,3.715834660895331432e+00,-7.808602245848600409e-01,-2.020690281029293156e-01,-5.911204763360168313e-01,4.524174235124339702e+02
2.284232449408218013e+00,9.431359167266268884e+00,3.895296497653736534e+00,-5.955740570174652415e-01,-4.158397028170786602e-01,-6.872895199040488512e-01,4.575201413807099584e+02
1.526758734866566991e+00,1.088344304302434651e+01,3.975791121342721723e+00,-3.571165318403222710e-01,-5.924852232852122480e-01,-7.220990533687745572e-01,4.626228592489859466e+02
5.707513044498566668e-01,1.221508023366461337e+01,3.914521101866017094e+00,-7.398248526899568744e-02,-5.827912571543687470e-01,-8.092459097572480831e-01,4.677255771172619347e+02
1.424318198091959753e-01,1.269016384534248942e+01,3.851214965948499547e+00,2.156512978463138719e-01,-5.218969419603761706e-01,-8.252975825180872693e-01,4.697893172940536601e+02
-9.844513093129105830e-01,1.344402394159686054e+01,3.579122495727539821e+00,4.863394120686883593e-01,-4.151520154622233560e-01,-7.688437944905475163e-01,4.748920351623296483e+02
-2.159779061917455945e+00,1.344417828963138817e+01,3.085339403615459553e+00,7.143008325620131549e-01,-2.719343978449380583e-01,-6.448441702226213046e-01,4.799947530306056365e+02
-3.216928770143286709e+00,1.288385475546344416e+01,2.345790252858744651e+00,8.795082259530526692e-01,-1.048263167644486460e-01,-4.641925503439364720e-01,4.850974708988816246e+02
-4.016172632432462031e+00,1.209008918643073116e+01,1.384061390131880342e+00,9.674474895549283193e-01,7.149111338888762546e-02,-2.427599136202014396e-01,4.902001887671576128e+02
-4.517991799022368582e+00,1.132971681657240026e+01,2.641421144037721658e-01,9.703928888893355031e-01,2.415277234480669166e-01,0.000000000000000000e+00,4.953029066354336010e+02
-4.626914949826320012e+00,1.109886579091326197e+01,-1.405589312684143166e-01,9.337004112386365628e-01,8.862287241148472661e-02,3.469114131008129709e-01,4.970480855765802630e+02
-4.516165714184647406e+00,1.041683084683738869e+01,-1.279617878221249061e+00,7.615522386263113841e-01,-7.713885395508116027e-02,6.434949767130212495e-01,5.021508034448562512e+02
-3.757227631774489929e+00,9.734742861864031482e+00,-2.228616056792426026e+00,4.789225235544178338e-01,-2.317097694886112447e-01,8.467241576550186277e-01,5.072535213131322394e+02
-3.344350361540770145e+00,9.469370707554567446e+00,-2.537847738407585929e+00,0.000000000000000000e+00,1.466999104714234586e-02,9.998913897824985852e-01,5.092935532491214303e+02
-2.272477654273435732e+00,8.877708387865149930e+00,-3.088239144343202902e+00,-0.000000000000000000e+00,1.466999103679914387e-02,9.998913890775166236e-01,5.143962711173974185e+02
-1.274926559196155162e+00,8.493277371703175760e+00,-3.299867975144048948e+00,-0.000000000000000000e+00,1.466999103680006154e-02,9.998913890775791291e-01,5.194989889856733498e+02
-8.291772184547085978e-01,8.392432865176886025e+00,-3.316720212859722849e+00,-0.000000000000000000e+00,1.466999103679914387e-02,9.998913890775166236e-01,5.221589158503056751e+02
-2.947420817326916187e-01,8.418279120466735321e+00,-3.271909464867686967e+00,-0.000000000000000000e+00,1.466999103679639260e-02,9.998913890773289959e-01,5.260877688296433234e+02
2.149844169698937046e-01,8.867471066932116841e+00,-3.051906474858306240e+00,-0.000000000000000000e+00,1.466999103679639260e-02,9.998913890773289959e-01,5.311904866979192548e+02
5.683575354686857262e-01,9.366422372792051476e+00,-2.773693899273764973e+00,-0.000000000000000000e+00,-7.950793855462741366e-02,9.968332296267479187e-01,5.348946455001930644e+02
1.173339822360376594e+00,9.957125756064931110e+00,-2.229218548261168831e+00,-4.900249582288330186e-01,-1.811870599021652151e-01,8.526692146651831949e-01,5.399973633684689958e+02
1.736051080293478543e+00,1.038681042045314307e+01,-1.522844083934862258e+00,-8.471320701135924836e-01,-2.337197434487250924e-01,4.772214761598813637e-01,5.451000812367449271e+02
1.993688805569679978e+00,1.063052394571118420e+01,-9.663549852380886040e-01,-8.846475748560580499e-01,-1.886871362989887280e-01,4.263728801119481826e-01,5.487578508758375619e+02
2.132576934104111643e+00,1.091348761622043284e+01,-2.240747690285069815e-01,-9.168366575326880596e-01,-1.425184734810049370e-01,3.729571397890494855e-01,5.538605687441134933e+02
2.074069968588237778e+00,1.114204490049151985e+01,3.635192367513396250e-01,-9.435055197044234232e-01,-9.549172764997805596e-02,3.172958623060997407e-01,5.589632866123894246e+02
1.937969397608215516e+00,1.133835642710392122e+01,6.578112808026260749e-01,-9.644935968535400805e-01,-4.789003678870967090e-02,2.597241729292261714e-01,5.640660044806653559e+02
1.867678033201177534e+00,1.143456094589127048e+01,6.834538597019251815e-01,-9.796745246581555211e-01,-0.000000000000000000e+00,2.005886979232468226e-01,5.667325292824807548e+02
1.794834601657551820e+00,1.164337225664778153e+01,4.640636007703334287e-01,-9.987421919058823150e-01,-0.000000000000000000e+00,-5.012019659993331017e-02,5.718352471507566861e+02
1.791200497968003180e+00,1.178076452351770165e+01,2.147784314649346105e-01,-9.546707119062373126e-01,-0.000000000000000000e+00,-2.976605983800955091e-01,5.745878449669344263e+02
1.845111722506575846e+00,1.215238871834647050e+01,-3.499979899853009613e-01,-9.384471207951480265e-01,-1.792881039501537099e-01,-2.952469767060207362e-01,5.796905628352103577e+02
1.986024739356272217e+00,1.274039165502284909e+01,-9.615475804602107157e-01,-8.918053434504999988e-01,-3.527648848920956759e-01,-2.832634204779646003e-01,5.847932807034862890e+02
2.204243460273474842e+00,1.359139701585454674e+01,-1.455556416752897375e+00,-8.162571742441897538e-01,-5.148074203667017956e-01,-2.620983506827333498e-01,5.898959985717622203e+02
2.243694941432333056e+00,1.374486451169179269e+01,-1.515652756991376915e+00,-7.142513392292927366e-01,-6.601633892673268722e-01,-2.324377849663400997e-01,5.906809412960609507e+02
2.493282069568942827e+00,1.484174256210810938e+01,-1.787713760273870855e+00,-8.971751246285712966e-01,-4.296103845413990485e-01,1.025168924770933632e-01,5.957836591643368820e+02
2.642127842455517239e+00,1.600582581932357229e+01,-1.906407637979867786e+00,-9.017308211791938977e-01,-1.136463540324677418e-01,4.170899571463849709e-01,6.008863770326128133e+02
2.519056539462912081e+00,1.699184644033354274e+01,-2.025498035487471871e+00,-7.270129289260844896e-01,2.249116686482289518e-01,6.487410442403667155e-01,6.059890949008887446e+02
2.220736376229128339e+00,1.752684899128465545e+01,-2.165225555332650043e+00,-5.766679590211620798e-01,1.840762286713729101e-01,7.959698531213631467e-01,6.097110450391924132e+02
1.556073512865519870e+00,1.799534510100709284e+01,-2.422281468587939468e+00,-3.998265333040793013e-01,1.347829435961762079e-01,9.066257780270718936e-01,6.148137629074683446e+02
6.527223194476198254e-01,1.817762073616232499e+01,-2.705705135866887101e+00,-2.046140494825976486e-01,7.929671018452973119e-02,9.756244782239158475e-01,6.199164807757442759e+02
-3.677999114275081749e-01,1.814537874860925371e+01,-2.941598596146664413e+00,-0.000000000000000000e+00,2.016697227948319876e-02,9.997956257306721550e-01,6.250191986440202072e+02
-1.382719226102015808e+00,1.796609733311825963e+01,-3.056067316576320358e+00,1.728538902530533661e-01,7.264310897177578275e-02,9.822639723334278816e-01,6.301219165122961385e+02
-2.263230482309259717e+00,1.769406968577004946e+01,-3.019278952868412969e+00,3.400140207114686342e-01,1.227264034429659811e-01,9.323769064163389686e-01,6.352246343805720699e+02
-2.544999065868065458e+00,1.757884243898111620e+01,-2.977004989584023154e+00,4.959742341692127687e-01,1.687671411466512006e-01,8.517776770438031386e-01,6.371174584142792128e+02
-3.084323604922083906e+00,1.724411854075742667e+01,-2.856020959863046382e+00,6.355972790763313451e-01,2.092487626604288553e-01,7.431211571178032438e-01,6.422201762825551441e+02
-3.157960808479425729e+00,1.716323985694270604e+01,-2.828536040069740576e+00,6.865937718539617540e-01,2.117124940274092426e-01,6.955320354324947552e-01,6.433725468516915953e+02
-3.146138241609593766e+00,1.667860429096440456e+01,-2.768586616976304704e+00,7.342455860396148726e-01,2.131448798310290049e-01,6.445546366064833776e-01,6.484752647199675266e+02
-2.569449287889970623e+00,1.596077249952369215e+01,-2.799852786254471759e+00,5.812959914901835168e-01,1.990286530683558486e-01,7.889743757153016013e-01,6.535779825882434579e+02
-1.741416797587017617e+00,1.519113496103187089e+01,-2.802194294305691002e+00,4.025079073448499245e-01,1.760656198896312363e-01,8.983241519732182434e-01,6.586807004565193893e+02
-1.279593083872011983e+00,1.479826813764903370e+01,-2.747204292034169715e+00,2.058284601293040306e-01,1.452764952999834602e-01,9.677434499469058649e-01,6.617323382391290352e+02
-9.242274449009311166e-01,1.433722066370669523e+01,-2.649914551761769932e+00,0.000000000000000000e+00,1.080298527117454360e-01,9.941466445772128013e-01,6.668350561074049665e+02
-9.292108873919907586e-01,1.426154476377507763e+01,-2.636209842216513888e+00,-0.000000000000000000e+00,-7.531993749848340247e-01,6.577907733643384436e-01,6.680650890504787185e+02
-9.372558873470160368e-01,1.421852265690174377e+01,-2.630299821319137532e+00,-0.000000000000000000e+00,-9.705539409183779886e-01,-2.408797371487642613e-01,6.687884314097042306e+02
-1.335546152239237561e+00,1.403829139067323872e+01,-2.645786266863394687e+00,-0.000000000000000000e+00,-5.697617808902302183e-01,-8.218086839621091544e-01,6.738911492779801620e+02
-2.137107375134777332e+00,1.389267069060145410e+01,-2.560984395172962280e+00,2.131312961374292048e-01,-4.060027702931307547e-01,-8.886702431840003413e-01,6.789938671462560933e+02
-2.866803438438142226e+00,1.337688625435493073e+01,-2.207851180906378552e+00,4.099126642819997390e-01,-2.110983224603022457e-01,-8.873596260341958253e-01,6.837170244028750403e+02
-3.599819821900794192e+00,1.219009596802693807e+01,-1.591429965007115976e+00,5.752485914332494676e-01,-0.000000000000000000e+00,-8.179774190366023712e-01,6.888197422711509716e+02
-4.054779897157112956e+00,1.135365393414039481e+01,-1.182801349038157479e+00,4.709154863899659427e-01,1.711760687080880576e-03,-8.821755350002339346e-01,6.916667660166650649e+02
-4.765308051714606918e+00,9.903136038811078734e+00,-3.421543808203716397e-01,3.595141124387770115e-01,3.397827433232037883e-03,-9.331323902459025543e-01,6.967694838849409962e+02
-4.922453847717244813e+00,8.609361699116469424e+00,6.246467742141182944e-01,2.427165697002918177e-01,5.032893072465072226e-03,-9.700831597241998949e-01,7.018722017532169275e+02
-4.387769179236128636e+00,7.506365329363447358e+00,1.608896533740918677e+00,1.222759447479798700e-01,6.592416007160969982e-03,-9.924732406405569751e-01,7.069749196214928588e+02
-3.484187875414912039e+00,6.567029134477127883e+00,2.502106081765656409e+00,0.000000000000000000e+00,8.052988517097530233e-03,-9.999665741295148402e-01,7.120776374897687901e+02
-2.600903455836143241e+00,5.743915615335605018e+00,3.256815357026145552e+00,-0.000000000000000000e+00,8.052988511418326598e-03,-9.999665734243091686e-01,7.171803553580447215e+02
-2.498333882506187820e+00,5.642530417190283920e+00,3.345483568617907189e+00,-0.000000000000000000e+00,8.052988511418999670e-03,-9.999665734243926574e-01,7.178445399228132828e+02
-1.791628006134484696e+00,4.876753707593343812e+00,3.957049605801196801e+00,-0.000000000000000000e+00,8.052988511419221715e-03,-9.999665734244203019e-01,7.229472577910892142e+02
-1.231442336844640550e+00,4.110152426060779796e+00,4.435136339267836902e+00,-0.000000000000000000e+00,8.052988511418999670e-03,-9.999665734243926574e-01,7.280499756593651455e+02
-7.944044759300347147e-01,3.287267922018220823e+00,4.786575761751715952e+00,-0.000000000000000000e+00,8.052988511418326598e-03,-9.999665734243091686e-01,7.331526935276410768e+02
-4.582137979582636689e-01,2.351849026869502257e+00,5.018209004149723818e+00,-0.000000000000000000e+00,8.052988511417207701e-03,-9.999665734241701687e-01,7.382554113959170081e+02
-2.129606408289098918e-01,1.281867166386055468e+00,5.139037285224323348e+00,-0.000000000000000000e+00,8.052788524641460444e-03,-9.999665750348538662e-01,7.433581292641929394e+02
-1.482696217940462080e-01,8.973286249335694631e-01,5.160243288724574384e+00,-0.000000000000000000e+00,8.052588537912097957e-03,-9.999665766454169935e-01,7.450817012064642313e+02
-2.608110634269586794e-02,-2.544024085774954647e-01,5.175324557600736064e+00,-0.000000000000000000e+00,8.052388551197125002e-03,-9.999665782558599947e-01,7.501844190747401626e+02
-3.822750578559585416e-02,-1.381693555184492661e+00,5.113609633314259106e+00,-0.000000000000000000e+00,8.052188564464541135e-03,-9.999665798661829808e-01,7.552871369430160939e+02
-2.058487942829201611e-01,-2.400286811959433830e+00,4.990575989054764960e+00,-0.000000000000000000e+00,8.051988577682349379e-03,-9.999665814763863958e-01,7.603898548112920253e+02
-5.287277218532422385e-01,-3.263042065757488341e+00,4.822884953979208689e+00,1.247972250289109963e-01,1.699235512925417746e-02,-9.920357415402588641e-01,7.654925726795679566e+02
-8.755417562092820960e-01,-3.872906059919304145e+00,4.667064015900829865e+00,2.476329703994841480e-01,2.566564820055045049e-02,-9.685128736752772749e-01,7.696479731042927597e+02
-1.350512521623204565e+00,-4.569754064562207674e+00,4.470396083817266941e+00,3.665766141487061813e-01,3.393554879529345897e-02,-9.297676938291558058e-01,7.747506909725686910e+02
-1.833451749852993418e+00,-5.264779932090412728e+00,4.284752816410374976e+00,4.797587063238945015e-01,4.167207799635477133e-02,-8.764091633608867005e-01,7.798534088408446223e+02
-2.267235916642372562e+00,-6.029728122579272487e+00,4.130338440037835568e+00,5.854003491875983123e-01,4.875363971606190561e-02,-8.092759194405271250e-01,7.849561267091205536e+02
-2.596075385341139796e+00,-6.938288038574666139e+00,4.027354920752932443e+00,6.818411546861097294e-01,5.506893172818538851e-02,-7.294230956963063672e-01,7.900588445773964850e+02
-2.788882556519872047e+00,-8.025896424422619191e+00,3.984394682787389286e+00,5.538667687647388371e-01,4.594161604438350144e-02,-8.313356544585928098e-01,7.951615624456724163e+02
-2.799709679174251065e+00,-8.129240146789303623e+00,3.983205798602254433e+00,4.110227253992250751e-01,3.558090620350256444e-02,-9.109293706538053037e-01,7.956096880932685735e+02
-2.874337494301384410e+00,-9.348924338144653845e+00,3.984823153406214402e+00,2.571439275820315284e-01,2.426495386222960252e-02,-9.660673954347365200e-01,8.007124059615445049e+02
-2.870301057415764578e+00,-1.061093100214900176e+01,4.003303816349299993e+00,9.636152976960503380e-02,1.229755608674137392e-02,-9.952694236711179254e-01,8.058151238298204362e+02
-2.824070889477449331e+00,-1.182888766679184123e+01,4.012413828096460300e+00,-6.700796228890572304e-02,0.000000000000000000e+00,-9.977514384801853264e-01,8.109178416980963675e+02
-2.755456999718772337e+00,-1.293345794123296422e+01,3.992965362979169264e+00,-5.892218366669013663e-02,4.352630221651352521e-02,-9.973122065250981105e-01,8.160205595663722988e+02
-2.666470604684296752e+00,-1.381954693550466828e+01,3.946968336803523769e+00,-5.072091295148398182e-02,8.696727628173896163e-02,-9.949181282107568691e-01,8.206767168190084476e+02
-2.514396321448189475e+00,-1.464313984474728869e+01,3.867467216792982665e+00,-4.242022517674453458e-02,1.302377755075386778e-01,-9.905738974573647937e-01,8.257794346872843789e+02
-2.276785437669361922e+00,-1.529295428727670192e+01,3.758049801750664276e+00,-3.403639019117830206e-02,1.732529874753498400e-01,-9.842880302385126345e-01,8.308821525555603102e+02
-1.926121146091517966e+00,-1.575615396650208844e+01,3.620673284530930847e+00,-2.558584077957134009e-02,2.159286002107388969e-01,-9.760728478755477111e-01,8.359848704238362416e+02
-1.434622601917577400e+00,-1.602079524057409543e+01,3.457296871742767230e+00,-1.708514046512501355e-02,2.581809673762305857e-01,-9.659444528839150612e-01,8.410875882921121729e+02
-9.507807834024604166e-01,-1.609744953199167128e+01,3.315247429569219584e+00,-8.550951056079421700e-03,2.999272721598559288e-01,-9.539226974173350415e-01,8.450502774749064656e+02
-1.715671423719039024e-01,-1.602074035007383301e+01,3.114535248254988620e+00,-0.000000000000000000e+00,3.410856895394125399e-01,-9.400311443715456683e-01,8.501529953431823969e+02
7.422939609157547247e-01,-1.574714903496966656e+01,2.902887015316524266e+00,1.361932307946595554e-02,4.712848270909853476e-01,-8.818747789748837551e-01,8.552557132114583283e+02
1.566227550055729889e+00,-1.535581248202116988e+01,2.711111718105546409e+00,2.695918346259481777e-02,5.918134250527065099e-01,-8.056227853987800724e-01,8.603584310797342596e+02
1.889958778178203902e+00,-1.514287582910084851e+01,2.628950583604236613e+00,3.974585687968265613e-02,7.001983229031846223e-01,-7.128397964924939600e-01,8.629342386695808500e+02
2.114068460177293218e+00,-1.476206871985259461e+01,2.525611722083538346e+00,5.171696928920894304e-02,7.942155283755510942e-01,-6.054296404811914112e-01,8.680369565378567813e+02
1.617213189863505374e+00,-1.447461074681105941e+01,2.521580022175849756e+00,-7.789220674457224269e-02,7.603860132062070232e-01,-6.447820678709454967e-01,8.731396744061327126e+02
5.347055623334568963e-01,-1.429195031891069512e+01,2.591842784217246010e+00,-2.059830620600783535e-01,7.117353703972734147e-01,-6.715666315931738684e-01,8.782423922744086440e+02
-8.485487633624734238e-01,-1.420865924247275913e+01,2.689575004184259210e+00,-3.300589315464829143e-01,6.492118894645528826e-01,-6.852612817634652354e-01,8.833451101426845753e+02
-1.641063554760393339e+00,-1.419757979292874772e+01,2.741365399898639144e+00,-4.477014130561331462e-01,5.740342474317232657e-01,-6.855991011683773007e-01,8.861277674418493007e+02
-3.014534914693416390e+00,-1.422102528838759028e+01,2.811257421573639004e+00,-2.721940917617024502e-01,5.977225080430492721e-01,-7.540796906097539942e-01,8.912304853101252320e+02
-4.245210675772920439e+00,-1.425792665941067128e+01,2.844883634712186193e+00,-8.687321383704553479e-02,5.998607115754148733e-01,-7.953729762993495545e-01,8.963332031784011633e+02
-5.328534210657391412e+00,-1.421351818801442590e+01,2.850874229762069945e+00,1.015797551763798767e-01,5.803717728661993425e-01,-8.079901970938894173e-01,9.014359210466770946e+02
-6.258148384969895339e+00,-1.399320143607056721e+01,2.837861388761239834e+00,2.863704285890681933e-01,5.399583327148654854e-01,-7.914764535743896712e-01,9.065386389149530260e+02
-6.885714012560163688e+00,-1.365782360038110177e+01,2.820190796470172678e+00,4.608364502591153489e-01,4.800774273061745867e-01,-7.464271095723888916e-01,9.105434102222230877e+02
-7.514692736844065912e+00,-1.299429142446164143e+01,2.796029738801474540e+00,6.424538629126651523e-01,3.309793815974775288e-01,-6.911611121778108435e-01,9.156461280904990190e+02
-7.834567203046723272e+00,-1.211448801770080586e+01,2.777514109200855952e+00,7.866357260411992458e-01,1.625953795456500095e-01,-5.956215048729832651e-01,9.207488459587749503e+02
-7.871092767053396777e+00,-1.171140383229277226e+01,2.772513148388032977e+00,8.849807075424034331e-01,-1.526297770939940603e-02,-4.653753203491750035e-01,9.228909053869982699e+02
-7.693313283200922115e+00,-1.077382208501771466e+01,2.749682413921223922e+00,7.760823853101792569e-01,-2.261955464999142740e-01,-5.886677381646681084e-01,9.279936232552742013e+02
-7.135844407280139912e+00,-9.977096677812054892e+00,2.658539707895427373e+00,6.116533211906557410e-01,-4.209433065313054612e-01,-6.698394937322107445e-01,9.330963411235501326e+02
-6.528790652451678334e+00,-9.532105137009816431e+00,2.498618543118356072e+00,4.034587101639984241e-01,-5.855715793380563694e-01,-7.030824949207589158e-01,9.370807486005321607e+02
-5.670384051548935211e+00,-9.236760949988624958e+00,2.125563328922014605e+00,7.605218623655655152e-01,-2.133225680456999618e-01,-6.132682763905719092e-01,9.421834664688080920e+02
-4.885979265822988360e+00,-9.146206135881334021e+00,1.533842365914492190e+00,9.091027180611142011e-01,2.174045106387891280e-01,-3.553386086101029129e-01,9.472861843370840234e+02
-4.396617930605337676e+00,-9.024186962200930751e+00,7.281665412217152022e-01,8.084710213413998092e-01,5.885342875760209980e-01,-0.000000000000000000e+00,9.523889022053599547e+02
-4.300136044005170355e+00,-8.951315234369682017e+00,3.861751641812105618e-01,8.366578723087324532e-01,3.506067218085739956e-01,4.208046236974646859e-01,9.542783250778740012e+02
-4.047144424090005188e+00,-8.906980032620005261e+00,-5.643389371114563291e-01,6.686638965610974816e-01,3.046796626903194513e-02,7.429389587741198619e-01,9.593810429461499325e+02
-3.614590308729377810e+00,-9.086409359204024483e+00,-1.449625305163786626e+00,3.438800926658693857e-01,-2.968152257311827968e-01,8.908676689831256379e-01,9.644837608144258638e+02
-2.890493849967248341e+00,-9.256278382259827353e+00,-2.100641911615558577e+00,-6.153715308391902866e-02,-5.545003859337378493e-01,8.299039105753499568e-01,9.695864786827017952e+02
-2.546010344634887179e+00,-9.279534076418386235e+00,-2.287489791298628283e+00,-4.525244665822401036e-01,-6.821651958909240587e-01,5.743433229870396062e-01,9.716224547865216437e+02
-1.737641288481363677e+00,-9.126084196457412645e+00,-2.586334176808255059e+00,-3.648863430469284630e-01,-5.457820326407285538e-01,7.543062571033957164e-01,9.767251726547975750e+02
-1.151438588113573358e+00,-8.685603986358056972e+00,-2.652906057797924433e+00,-2.558412054956893389e-01,-3.773791348234056819e-01,8.900158797297653690e-01,9.818278905230735063e+02
-9.544072979902223919e-01,-8.375207607744856730e+00,-2.630173599492279912e+00,-1.317864346564192324e-01,-1.868362417437346712e-01,9.735104285070038665e-01,9.846617216642423500e+02
-9.850378479755236283e-01,-7.813996409951344368e+00,-2.559092802045160653e+00,-0.000000000000000000e+00,1.466799147870188023e-02,9.998914191179560929e-01,9.897644395325182813e+02
-1.545275211980335683e+00,-7.360511789026850771e+00,-2.536670003438931342e+00,-1.245228934450733072e-02,5.966654367397108416e-01,8.023922339418313454e-01,9.948671574007942127e+02
-1.765234470834663671e+00,-7.263241696219260746e+00,-2.551479817329525446e+00,-2.019907226109854403e-02,9.531932564151593956e-01,3.016829683705533616e-01,9.963080721445891186e+02
-2.062800536503969884e+00,-7.145696202252830531e+00,-2.588511009029867527e+00,-2.031297923577711842e-02,9.495260293806794261e-01,-3.130266800195738441e-01,9.982628499524549852e+02
-2.794145663496137466e+00,-6.993474051792366808e+00,-2.913241709099422483e+00,-0.000000000000000000e+00,9.419726912662017559e-01,-3.356865336124749688e-01,1.003365567820730917e+03
-3.461197834844019994e+00,-7.001384633108051148e+00,-3.541039774455987832e+00,2.179333662214767431e-01,9.678841615375687324e-01,-1.253127995551065743e-01,1.008468285689006848e+03
-4.096348866912654429e+00,-6.971734531014837977e+00,-4.293465475225031192e+00,4.157246280598060895e-01,9.043401909056060228e-01,9.664291353559165132e-02,1.013571003557282779e+03
-4.262832697961447259e+00,-6.943520475235387401e+00,-4.497343030674090691e+00,5.549058398905384326e-01,8.314608463469771449e-01,2.739287951491931050e-02,1.014927113146262741e+03
-4.887906871816372956e+00,-6.784410868262728656e+00,-5.147574176165386817e+00,6.777292830463126361e-01,7.340713500145173986e-01,-4.266464567143728182e-02,1.020029831014538672e+03
-5.511301922683093046e+00,-6.631472157448252247e+00,-5.456312532789401537e+00,7.805743248935776979e-01,6.150425947095601309e-01,-1.114644786952426470e-01,1.025132548882814717e+03
-5.995593666734619909e+00,-6.589006154199664067e+00,-5.392049491074899059e+00,8.604092639183641422e-01,4.778833589468444720e-01,-1.769785122722219994e-01,1.029186408249044007e+03
-6.519106328265018568e+00,-6.615748343546963284e+00,-4.954734359635030394e+00,9.148806968655815997e-01,3.266368746913856369e-01,-2.372754993578272409e-01,1.034289126117319938e+03
-6.840238148671613949e+00,-6.656261187482717112e+00,-4.198255607780187582e+00,9.423828916871058725e-01,1.657616415186296821e-01,-2.905779820587464091e-01,1.039391843985595870e+03
-6.842995377001552804e+00,-6.613288377370692750e+00,-3.261729562842053731e+00,9.421051217398639377e-01,0.000000000000000000e+00,-3.353146874090627283e-01,1.044494561853871801e+03
-6.664624696960880890e+00,-6.510043614606268569e+00,-2.593881361033576027e+00,9.421051210748814242e-01,-0.000000000000000000e+00,-3.353146871723817202e-01,1.047937477491331720e+03
-6.262301711853226038e+00,-6.185251504210946827e+00,-1.671838423681625274e+00,9.421051210749403770e-01,-0.000000000000000000e+00,-3.353146871724026479e-01,1.053040195359607651e+03
-5.874833575565738819e+00,-5.569936724373530268e+00,-9.548683885608386657e-01,9.421051210748814242e-01,-0.000000000000000000e+00,-3.353146871723817202e-01,1.058142913227883582e+03
-5.771838061076797644e+00,-4.980908186391312498e+00,-5.647392433378187748e-01,9.421051210747046767e-01,-0.000000000000000000e+00,-3.353146871723188260e-01,1.063245631096159514e+03
-5.922564756896614213e+00,-4.867231719079074814e+00,-4.825744803264304661e-01,9.854730899458079563e-01,1.659198547551929970e-01,-3.621313010073159977e-02,1.066707081701501465e+03
-6.426282888629379464e+00,-5.292762500351247290e+00,-5.647476445500997366e-01,9.116957700735475179e-01,3.121164333817185721e-01,2.671931040357766740e-01,1.071809799569777397e+03
-7.167109357286112648e+00,-6.271898098896583562e+00,-8.249152467308822345e-01,7.295432804412341765e-01,4.212110597067881823e-01,5.388374941900556658e-01,1.076912517438053328e+03
-7.944979809682387817e+00,-7.471444573687256785e+00,-1.131420846834028993e+00,4.606684729586406069e-01,4.802354505724624745e-01,7.464291460257106436e-01,1.082015235306329259e+03
-8.604411280679727270e+00,-8.657998386662868029e+00,-1.387149666999030861e+00,4.606684726334056013e-01,4.802354502334130748e-01,7.464291454987268537e-01,1.087117953174605191e+03
-8.874936726239544882e+00,-9.214851874018435751e+00,-1.487567537843397680e+00,4.606684726334360214e-01,4.802354502334448827e-01,7.464291454987761476e-01,1.089610721660217450e+03
-9.317342943605114058e+00,-1.032177816233728862e+01,-1.650108447833623870e+00,4.606684726334588920e-01,4.802354502334686970e-01,7.464291454988132291e-01,1.094713439528493382e+03
-9.571749000197920410e+00,-1.135349051963269140e+01,-1.752431969918903709e+00,4.606684726334741575e-01,4.802354502334845732e-01,7.464291454988378760e-01,1.099816157396769313e+03
-9.629494966605305351e+00,-1.226663080712213905e+01,-1.809467993687121634e+00,4.606684726334817626e-01,4.802354502334925113e-01,7.464291454988501995e-01,1.104918875265045244e+03
-9.481059496983382573e+00,-1.301811980167345340e+01,-1.836149676200458103e+00,4.606684726334817626e-01,4.802354502334925113e-01,7.464291454988501995e-01,1.110021593133321176e+03
-9.116062537377814579e+00,-1.356517461123111090e+01,-1.847412363746922415e+00,4.606684726334741575e-01,4.802354502334845732e-01,7.464291454988378760e-01,1.115124311001597107e+03
-8.539277952222953161e+00,-1.386523708336723537e+01,-1.858206521703315461e+00,4.606684726334588920e-01,4.802354502334686970e-01,7.464291454988132291e-01,1.120227028869873038e+03
-8.447524919615187144e+00,-1.388739770223047643e+01,-1.860158850404661557e+00,4.606684726334360769e-01,4.802354502334448827e-01,7.464291454987761476e-01,1.120916268133958056e+03
-7.696275561148992139e+00,-1.396167873795093328e+01,-1.894593116544886380e+00,4.606684726334056568e-01,4.802354502334131303e-01,7.464291454987267427e-01,1.126018986002233987e+03
-6.831077211493206569e+00,-1.395062981798348645e+01,-1.988477911617589688e+00,4.606684726333674651e-01,4.802354502333733843e-01,7.464291454986650143e-01,1.131121703870509918e+03
-5.890147275975992081e+00,-1.394368807014902245e+01,-2.155064840953373029e+00,3.185044984148543423e-01,4.844081092160748003e-01,8.148016127961723587e-01,1.136224421738785850e+03
-4.992999872249486160e+00,-1.388090748884079062e+01,-2.334495930081593951e+00,1.684088557896393779e-01,4.765176251843111777e-01,8.628831961396951078e-01,1.140774273705619635e+03
-3.903476341562840179e+00,-1.357760010788818938e+01,-2.508174709297732452e+00,1.411931796060538098e-02,4.567604884283678612e-01,8.894765320516312412e-01,1.145876991573895566e+03
-2.700145365500111971e+00,-1.285024164397285418e+01,-2.590724549236441909e+00,-1.405218985060698034e-01,4.256286925836522128e-01,8.939193543540933096e-01,1.150979709442171497e+03
-1.425128314782948769e+00,-1.172014590202752693e+01,-2.521286652050701349e+00,-7.357423546306832152e-02,6.722904537074556597e-01,7.366209186071924764e-01,1.156082427310447429e+03
-6.666464953289255035e-01,-1.097305913103749830e+01,-2.413871352279485905e+00,0.000000000000000000e+00,8.584009604371716229e-01,5.129773787609296365e-01,1.159163147939665123e+03
4.277437576809710595e-01,-9.948894092689855029e+00,-2.238980235570608102e+00,-2.660335642766689102e-01,6.903209341282140477e-01,6.728158370488491746e-01,1.164265865807941054e+03
1.198653895832867633e+00,-9.220045514264851860e+00,-2.151584584382562948e+00,-4.989264794323090002e-01,4.362452727741477077e-01,7.488393887238191660e-01,1.169368583676216986e+03
1.539257220539937299e+00,-8.670077261462157736e+00,-2.242187609145059657e+00,-6.696665005626494249e-01,1.278249046681718959e-01,7.315774543894532078e-01,1.174471301544492917e+03
1.541219678418495276e+00,-8.660300307773191264e+00,-2.246208950498314927e+00,-6.849499125951222789e-01,3.298324192831627588e-01,6.496554413119808302e-01,1.174572544216097185e+03
1.418661367141889063e+00,-8.180635607090119166e+00,-2.570571926534547025e+00,-6.675256524976391770e-01,5.160897553492542755e-01,5.367111585218637959e-01,1.179675262084373117e+03
9.422782216275057410e-01,-7.703287779239068378e+00,-3.112383438289338944e+00,-6.182257810442124413e-01,6.777027960744792523e-01,3.981379206329930254e-01,1.184777979952649048e+03
2.906588647201062692e-01,-7.185740918342208516e+00,-3.820009544375841948e+00,-5.394044661572621191e-01,8.069542401336446957e-01,2.405528553578064888e-01,1.189880697820924979e+03
6.894570526989203529e-02,-7.008676225139677918e+00,-4.070879453253624547e+00,-4.348255654857151598e-01,8.976721029705179156e-01,7.148092857024282432e-02,1.191515502964395637e+03
-5.953902598526433776e-01,-6.448322246441028582e+00,-4.897156791163188139e+00,-3.329906339365111267e-01,8.326534915664608461e-01,4.424967804336534249e-01,1.196618220832671568e+03
-1.220543663729495298e+00,-5.965956860562784847e+00,-5.777073350817149233e+00,-1.804576923000012212e-01,6.408628221508558820e-01,7.461419868071176298e-01,1.201720938700947499e+03
-1.816262571908116241e+00,-5.754245071031188985e+00,-6.666812535296171127e+00,-4.499992964605593069e-04,3.515004504559623433e-01,9.361865363440402543e-01,1.206823656569223431e+03
-2.104155457020881137e+00,-5.770281445600700110e+00,-7.105956914349258469e+00,-3.843305997990502099e-01,5.250981806712805566e-01,7.593154092441115610e-01,1.209372830102821126e+03
-2.675775420939972449e+00,-5.951857672220539186e+00,-7.956047492461205906e+00,-6.879691552107651820e-01,5.890636561192615916e-01,4.239108992688482291e-01,1.214475547971097058e+03
-3.268272511949540604e+00,-6.161768393178353342e+00,-8.750189673446639560e+00,-8.479704324504528934e-01,5.300416452412911594e-01,0.000000000000000000e+00,1.219578265839372989e+03
-3.531527789803637685e+00,-6.210437144450445146e+00,-9.072257395231410726e+00,-7.713961562552216211e-01,5.181255177012342727e-01,3.694481262936623600e-01,1.221754794283229785e+03
-4.141173994198878994e+00,-6.146380444263325415e+00,-9.762936560372370565e+00,-5.848996295885400265e-01,4.323776440822644784e-01,6.862506802951378049e-01,1.226857512151505716e+03
-4.681108266361058590e+00,-5.783167169998603363e+00,-1.031630470413599276e+01,-3.150562158018470060e-01,2.850169212231611904e-01,9.052640142530919976e-01,1.231960230019781648e+03
-5.059175964111115142e+00,-5.124086637742604644e+00,-1.068575523304276231e+01,-3.179997568430842055e-04,9.704192579737919155e-02,9.952792389647324711e-01,1.237062947888057579e+03
-5.073600063392960102e+00,-5.081534920679645850e+00,-1.069977192789653131e+01,-2.355382276100351560e-04,3.239664189454559418e-02,9.994740627490894536e-01,1.237332328512091181e+03
-5.207716225839909008e+00,-4.195799536851509082e+00,-1.085049574407410233e+01,-1.520882391755498469e-04,-3.238459369116603731e-02,9.994744693852617434e-01,1.242435046380367112e+03
-5.045558794360652577e+00,-3.274339629006787433e+00,-1.077457875147462829e+01,-6.799996278718530127e-05,-9.702994690059690841e-02,9.952804553351848327e-01,1.247523903139578806e+03
-4.931415434892465477e+00,-2.981370097227186822e+00,-1.070685654520005947e+01,-0.000000000000000000e+00,-9.695091801188839009e-02,9.952881583184741698e-01,1.249242141474109303e+03
-4.481315759487490169e+00,-2.267062366308004506e+00,-1.039592099558194782e+01,-1.933930349785243363e-01,-3.967608305373048205e-01,8.973170996776410613e-01,1.254344859342385234e+03
-3.945812701867429162e+00,-1.887152287028782682e+00,-9.914631461701455706e+00,-3.603133680479191359e-01,-6.422599447797107119e-01,6.765164004947167298e-01,1.259447577210661166e+03
-3.541130490311035217e+00,-1.893341306518010025e+00,-9.370328359987905031e+00,-4.779120463739015556e-01,-7.998430238771010448e-01,3.631104695359952395e-01,1.264106096728943839e+03
-3.381579190305572968e+00,-2.369752314619756106e+00,-8.705280675199551510e+00,-5.300915303214127627e-01,-8.479392486978463150e-01,0.000000000000000000e+00,1.269208814597219771e+03
