4.819574995344354740e+00,-1.242808075000349888e+01,5.659478926085707684e+00,6.763740496377216097e-03,7.904768864800151146e-03,-9.999448816662003248e-01,2.847783471340310939e+02
3.596906483620993189e+00,-1.222452773516529234e+01,5.174386821650882595e+00,8.454440845299851515e-03,3.952421198291909167e-03,-9.999554493692882629e-01,2.898810650023070821e+02
2.475565206862064382e+00,-1.207988080953663790e+01,4.808275150608226411e+00,1.014498516953709489e-02,0.000000000000000000e+00,-9.999475382250813116e-01,2.949837828705830702e+02
1.528340313959321461e+00,-1.202034353725355231e+01,4.628964635440621755e+00,7.609304958846012032e-03,7.565195099632823078e-03,-9.999414314061148001e-01,3.000865007388590584e+02
8.881861612093395753e-01,-1.200338659340707537e+01,4.598934172098719131e+00,5.073140141397822558e-03,1.512990912943642380e-02,-9.998716662852316084e-01,3.046363360441407622e+02
4.511282538218706617e-01,-1.194580350376682532e+01,4.621032969892042708e+00,2.536651540464508661e-03,2.269366239488366035e-02,-9.997382472561440192e-01,3.097390539124167503e+02
3.529605239324842270e-01,-1.176921114117098277e+01,4.609501069982370858e+00,0.000000000000000000e+00,3.025597526025509965e-02,-9.995411826938754851e-01,3.148417717806927385e+02
5.067674678026221624e-01,-1.154605685231955015e+01,4.545162934693086854e+00,-2.828556409902083790e-01,2.958868327400432027e-02,-9.587049578377478953e-01,3.181628790913359808e+02
9.904463153195229852e-01,-1.105470912051020527e+01,4.343262960680128515e+00,-5.426088022117085963e-01,2.650472193257070661e-02,-8.395660709428667268e-01,3.232655969596119689e+02
1.578387524720087587e+00,-1.047018303409983275e+01,4.035753022544912305e+00,-7.580441342000368010e-01,2.125597572249138950e-02,-6.518552554836443136e-01,3.283683148278879571e+02
1.984692696212209118e+00,-1.000970967322879979e+01,3.739909847643873686e+00,-7.932228509061529653e-01,3.471170087023257161e-02,-6.079396406017557597e-01,3.321363363200186996e+02
2.417267393301716361e+00,-9.394182046503495087e+00,3.226945183198254075e+00,-8.257465010185791598e-01,4.805123874631071768e-02,-5.619891409114007308e-01,3.372390541882946877e+02
2.675892835358880006e+00,-8.835686890746043076e+00,2.558625591267301935e+00,-8.555062347819392121e-01,6.122994523212333534e-02,-5.141575401054723216e-01,3.423417720565706759e+02
2.710828735316742844e+00,-8.603561701610919599e+00,2.166876321585377241e+00,-6.198064535033912525e-01,-6.882739953649211762e-01,-3.769839088084357415e-01,3.448145525317626152e+02
2.610301499444399820e+00,-8.167475482414971566e+00,1.213599444251400206e+00,1.016999272028908802e-02,-9.999472842347719714e-01,-0.000000000000000000e+00,3.499172704000386034e+02
2.364746135777797686e+00,-7.691239389742432486e+00,8.147970664778782235e-02,-4.685697646755084822e-01,-8.692209179255310225e-01,-1.577826716504279192e-01,3.550199882683145916e+02
2.334026646351762047e+00,-7.637127880478518982e+00,-4.094600779678018304e-02,-8.202441188815067230e-01,-5.027818501922054484e-01,-2.727782919484099122e-01,3.555309778770503613e+02
2.006865690529655133e+00,-7.030848233661921576e+00,-1.285387483501233108e+00,-9.494871526040852272e-01,-0.000000000000000000e+00,-3.138027199381347998e-01,3.606336957453263494e+02
1.688769534821474405e+00,-6.369370602420969085e+00,-2.456720335194495064e+00,-9.494871519337624299e-01,-0.000000000000000000e+00,-3.138027197165950133e-01,3.657364136136023376e+02
1.570527738989724753e+00,-6.061598094897410860e+00,-2.897042550872437339e+00,-9.494871519338399235e-01,-0.000000000000000000e+00,-3.138027197166207150e-01,3.681045877814036089e+02
1.425648596567488546e+00,-5.399452721920943610e+00,-3.413523474771408495e+00,-9.494871519338786703e-01,-0.000000000000000000e+00,-3.138027197166335380e-01,3.732073056496795971e+02
1.452073509493314374e+00,-4.709098495082339575e+00,-3.410746222873152877e+00,-9.494871519338786703e-01,-0.000000000000000000e+00,-3.138027197166335380e-01,3.783100235179555852e+02
1.485622666342174325e+00,-4.558149428575559270e+00,-3.360031239074654952e+00,-9.494871519338399235e-01,-0.000000000000000000e+00,-3.138027197166207150e-01,3.793598141183315420e+02
1.818990393631337410e+00,-3.761641281651801005e+00,-2.970810951512009801e+00,-9.494871519337624299e-01,-0.000000000000000000e+00,-3.138027197165951243e-01,3.844625319866075301e+02
1.889741421476059280e+00,-3.638042797914980753e+00,-2.897043000294006632e+00,-9.494871519336460786e-01,-0.000000000000000000e+00,-3.138027197165566551e-01,3.851959836842198115e+02
2.418942913820132379e+00,-2.728708134355736892e+00,-2.324159664613264731e+00,-9.789433609016954252e-01,-2.146098598930203105e-02,-2.029958674751574932e-01,3.902987015524957997e+02
2.870098085669206878e+00,-1.793666581753154743e+00,-1.697142936947486414e+00,-9.873306227655554990e-01,1.147701004132537471e-02,1.582546036915934984e-01,3.954014194207717878e+02
3.176402098749706138e+00,-8.889895548090642752e-01,-1.062093271273472084e+00,-8.657284703647016855e-01,4.290397375221016718e-02,4.986696949238915710e-01,4.005041372890477760e+02
3.283466526305326649e+00,-4.812584954037760210e-01,-7.486924530983538606e-01,-9.212032363015311143e-01,4.286804308096123228e-02,3.867103933307330932e-01,4.029835074213354460e+02
3.438878157262069024e+00,2.917347268595366083e-01,-9.983631845414173145e-02,-9.622958336399897172e-01,4.216284093335938982e-02,2.687136457340829621e-01,4.080862252896114342e+02
3.530068380257996186e+00,1.019081287335356079e+00,5.409129924144495671e-01,-9.883647173058913715e-01,4.079937743406591988e-02,1.465216584198309746e-01,4.131889431578874223e+02
3.566712069149667652e+00,1.727962937174944535e+00,1.156565126710541458e+00,-9.990028962296166881e-01,3.879893960744808940e-02,2.204213262129014334e-02,4.182916610261634105e+02
3.559091782111190039e+00,2.445309916352805590e+00,1.730131542956089064e+00,-9.940442865795278138e-01,3.619275902046886068e-02,-1.027815183455406123e-01,4.233943788944393987e+02
3.518095413491961754e+00,3.197789944067117585e+00,2.244626736763644992e+00,-9.735663042458356786e-01,3.302152418735419814e-02,-2.260005092422219808e-01,4.284970967627153868e+02
3.455213768735296842e+00,4.011797242705076982e+00,2.683069466443997353e+00,-9.378886561670679578e-01,2.933474534805535078e-02,-3.456911068406425813e-01,4.335998146309913750e+02
3.439841874750323658e+00,4.197555865839955658e+00,2.764989488125431549e+00,-8.875683493732114959e-01,2.518998153463133244e-02,-4.599846628109326430e-01,4.346758570963635862e+02
3.384191076187875513e+00,4.846233187137278797e+00,2.997162310817889974e+00,-8.919444568366668991e-01,3.059098137115009997e-02,-4.511067252916023396e-01,4.381166199131892540e+02
3.261487991311828871e+00,5.927454622928848060e+00,3.274248256940489821e+00,-8.942000504666580696e-01,3.016685593199477239e-02,-4.466477698972693422e-01,4.432193377814652422e+02
3.080331599478737026e+00,6.914578862430786010e+00,3.469135505154205212e+00,-8.964331543043122519e-01,2.974197194140211151e-02,-4.421775828493478278e-01,4.473147056441579821e+02
2.692198194609501272e+00,8.293924249440674856e+00,3.703395943811655933e+00,-7.808602245848600409e-01,-2.020690281029293156e-01,-5.911204763360168313e-01,4.524174235124339702e+02
2.116561801271893639e+00,9.768581434347563430e+00,3.901413955582849091e+00,-5.955740570174652415e-01,-4.158397028170786602e-01,-6.872895199040488512e-01,4.575201413807099584e+02
1.345312495668697039e+00,1.125557400653510065e+01,4.010997048711327118e+00,-3.571165318403222710e-01,-5.924852232852122480e-01,-7.220990533687745572e-01,4.626228592489859466e+02
3.934095544244879950e-01,1.261080434062342626e+01,3.981894150147172073e+00,-2.546935436209183182e-02,-5.761074371189210952e-01,-8.169758459621457858e-01,4.677255771172619347e+02
-3.912769209670217269e-02,1.302656723364549229e+01,3.919586490424587399e+00,3.092154401405665665e-01,-4.910230683802974672e-01,-8.144201359848287636e-01,4.697893172940536601e+02
-1.169508622088657024e+00,1.349579013997246513e+01,3.609372421091403993e+00,6.070232908295272178e-01,-3.473792105409940212e-01,-7.147366007660511666e-01,4.748920351623296483e+02
-2.291940369488631557e+00,1.328322278924434663e+01,3.028866057825688518e+00,8.324374940472971662e-01,-1.623068413128562204e-01,-5.298134650681590729e-01,4.799947530306056365e+02
-3.292950561843601687e+00,1.259257254178080032e+01,2.133836639830392290e+00,9.585750648039931265e-01,4.212222956847416766e-02,-2.817047442141220603e-01,4.850974708988816246e+02
-4.113560872793343925e+00,1.178364968460200757e+01,1.014586827724218931e+00,9.703928888893355031e-01,2.415277234480669166e-01,0.000000000000000000e+00,4.902001887671576128e+02
-4.635832370727052343e+00,1.106258652157881173e+01,-1.522277194250397647e-01,9.561327755032308362e-01,1.289793192484526285e-01,2.630065604047610028e-01,4.953029066354336010e+02
-4.678287570763181691e+00,1.084044429568130852e+01,-5.372534759774094670e-01,8.634285659263324364e-01,5.849059702097421203e-03,5.044352287898187237e-01,4.970480855765802630e+02
-4.349477682645194854e+00,1.021785317291229767e+01,-1.552830130452650392e+00,6.998859845721521200e-01,-1.177610859004185884e-01,7.044784845884889402e-01,5.021508034448562512e+02
-3.606295959597058953e+00,9.630334989734368634e+00,-2.357732371641434899e+00,4.789225235544178338e-01,-2.317097694886112447e-01,8.467241576550186277e-01,5.072535213131322394e+02
-3.230857811864221940e+00,9.412181609006458061e+00,-2.606659204723222434e+00,0.000000000000000000e+00,1.466999104714234586e-02,9.998913897824985852e-01,5.092935532491214303e+02
-2.239215866882800832e+00,8.932378400571488797e+00,-3.041235721014885485e+00,-0.000000000000000000e+00,1.466999103679914387e-02,9.998913890775166236e-01,5.143962711173974185e+02
-1.283585649778784754e+00,8.580205093867409261e+00,-3.248599454871118120e+00,-0.000000000000000000e+00,1.466999103680006154e-02,9.998913890775791291e-01,5.194989889856733498e+02
-8.449095221424365310e-01,8.498764107486842079e+00,-3.279810852440444346e+00,-0.000000000000000000e+00,1.466999103679914387e-02,9.998913890775166236e-01,5.221589158503056751e+02
-3.173698221206737169e-01,8.576774746359504320e+00,-3.241802226609618032e+00,-0.000000000000000000e+00,1.466999103679639260e-02,9.998913890773289959e-01,5.260877688296433234e+02
2.339864841653924998e-01,8.938989141466390009e+00,-3.047078856339800357e+00,-0.000000000000000000e+00,1.466999103679639260e-02,9.998913890773289959e-01,5.311904866979192548e+02
6.144281052167130941e-01,9.302440821303562757e+00,-2.782355873140896829e+00,-0.000000000000000000e+00,-7.950793855462741366e-02,9.968332296267479187e-01,5.348946455001930644e+02
1.164112283245233748e+00,9.802352547832329677e+00,-2.235576840345477656e+00,-4.900249582288330186e-01,-1.811870599021652151e-01,8.526692146651831949e-01,5.399973633684689958e+02
1.642278002509883317e+00,1.023735976093897548e+01,-1.531216681008809477e+00,-8.471320701135924836e-01,-2.337197434487250924e-01,4.772214761598813637e-01,5.451000812367449271e+02
1.856928254383361176e+00,1.049127690090586640e+01,-9.703116300031426888e-01,-8.846475748560580499e-01,-1.886871362989887280e-01,4.263728801119481826e-01,5.487578508758375619e+02
1.976183476619290946e+00,1.077734230407198091e+01,-2.080564634844677407e-01,-9.168366575326880596e-01,-1.425184734810049370e-01,3.729571397890494855e-01,5.538605687441134933e+02
1.970221875250828036e+00,1.102333473533862218e+01,4.139117127926372208e-01,-9.435055197044234232e-01,-9.549172764997805596e-02,3.172958623060997407e-01,5.589632866123894246e+02
1.907761797583274577e+00,1.125920174066596502e+01,7.623345078406266184e-01,-9.644935968535400805e-01,-4.789003678870967090e-02,2.597241729292261714e-01,5.640660044806653559e+02
1.875675030069142268e+00,1.138976563913212559e+01,7.851502143210400408e-01,-9.796745246581555211e-01,-0.000000000000000000e+00,2.005886979232468226e-01,5.667325292824807548e+02
1.854717853572618536e+00,1.168547704077954741e+01,5.054425269463294068e-01,-9.987421919058823150e-01,-0.000000000000000000e+00,-5.012019659993331017e-02,5.718352471507566861e+02
1.873683050846875808e+00,1.189468548241018198e+01,2.145013035395907097e-01,-9.546707119062373126e-01,-0.000000000000000000e+00,-2.976605983800955091e-01,5.745878449669344263e+02
1.967795375302747507e+00,1.241187734477638216e+01,-4.393349584914380546e-01,-9.262249538041130714e-01,-2.380427392790457897e-01,-2.923029066360345318e-01,5.796905628352103577e+02
2.113406525992297613e+00,1.307220178843179781e+01,-1.095855953962183049e+00,-8.445190949840983841e-01,-4.623974886644045545e-01,-2.701371146002761181e-01,5.847932807034862890e+02
2.287993660645912808e+00,1.387732914218511482e+01,-1.586234730143442961e+00,-7.142513392292927366e-01,-6.601633892673268722e-01,-2.324377849663400997e-01,5.898959985717622203e+02
2.316164982592272992e+00,1.401771364333737324e+01,-1.640123786592424748e+00,-8.673195456302688067e-01,-4.974222275864435550e-01,1.805362212331993593e-02,5.906809412960609507e+02
2.467222519243411849e+00,1.499543279983808830e+01,-1.861011836869258085e+00,-9.226748959561067442e-01,-2.786412042015056767e-01,2.665110048291648437e-01,5.957836591643368820e+02
2.500507658151762236e+00,1.596955496118460083e+01,-1.933403338810623318e+00,-8.740811315928112002e-01,-2.846837599731120300e-02,4.849430141401512850e-01,6.008863770326128133e+02
2.304981743503125902e+00,1.681213958451029811e+01,-2.018912073059945911e+00,-7.270129289260844896e-01,2.249116686482289518e-01,6.487410442403667155e-01,6.059890949008887446e+02
1.954507569960976854e+00,1.726833009170833577e+01,-2.158147942890653148e+00,-5.766679590211620798e-01,1.840762286713729101e-01,7.959698531213631467e-01,6.097110450391924132e+02
1.222264118582998771e+00,1.766763551060803650e+01,-2.438833180725754168e+00,-3.998265333040793013e-01,1.347829435961762079e-01,9.066257780270718936e-01,6.148137629074683446e+02
3.219764479929562162e-01,1.787112540569547292e+01,-2.736728254123148130e+00,-2.046140494825976486e-01,7.929671018452973119e-02,9.756244782239158475e-01,6.199164807757442759e+02
-6.442202169568990167e-01,1.791059386174405077e+01,-2.960745773143150128e+00,-0.000000000000000000e+00,2.016697227948319876e-02,9.997956257306721550e-01,6.250191986440202072e+02
-1.567346976774162792e+00,1.781406031326412531e+01,-3.044702631975398255e+00,1.728538902530533661e-01,7.264310897177578275e-02,9.822639723334278816e-01,6.301219165122961385e+02
-2.327770558838850867e+00,1.760319387754238463e+01,-2.999259133983383840e+00,3.400140207114686342e-01,1.227264034429659811e-01,9.323769064163389686e-01,6.352246343805720699e+02
-2.531947348397053155e+00,1.748911066214255428e+01,-2.962866589306790033e+00,4.959742341692127687e-01,1.687671411466512006e-01,8.517776770438031386e-01,6.371174584142792128e+02
-2.790477610646428630e+00,1.709298056185965109e+01,-2.892073737999369509e+00,6.355972790763313451e-01,2.092487626604288553e-01,7.431211571178032438e-01,6.422201762825551441e+02
-2.785368501399142716e+00,1.698674310199198345e+01,-2.885151852885403212e+00,7.342455860396148726e-01,2.131448798310290049e-01,6.445546366064833776e-01,6.433725468516915953e+02
-2.488580141628117470e+00,1.645702728229641210e+01,-2.878820020742084651e+00,6.141891700835281354e-01,2.025856155613692811e-01,7.627114341084128002e-01,6.484752647199675266e+02
-1.937443661188774646e+00,1.588384648670385424e+01,-2.871681802941738582e+00,4.766369568697453318e-01,1.862554813958473832e-01,8.591414941651956960e-01,6.535779825882434579e+02
-1.373498403760297748e+00,1.530347336654675239e+01,-2.821895343516137800e+00,3.255072822197722093e-01,1.646196654268521908e-01,9.310979405935035924e-01,6.586807004565193893e+02
-1.145672932999245663e+00,1.497082526409022485e+01,-2.769048203115545448e+00,1.651052297292444626e-01,1.382944895767571902e-01,9.765310528958000003e-01,6.617323382391290352e+02
-1.137441420838659401e+00,1.446170733629890748e+01,-2.692451898330724624e+00,0.000000000000000000e+00,1.080298527117454360e-01,9.941466445772128013e-01,6.668350561074049665e+02
-1.223759737014344040e+00,1.435332370972419902e+01,-2.682745526006312442e+00,-0.000000000000000000e+00,-9.705539409183779886e-01,-2.408797371487642613e-01,6.680650890504787185e+02
-1.299521722365897025e+00,1.429700225978728945e+01,-2.679678072027025681e+00,-0.000000000000000000e+00,-5.697617808902302183e-01,-8.218086839621091544e-01,6.687884314097042306e+02
-2.050326142278367847e+00,1.391376571278633101e+01,-2.578584384856023703e+00,2.131312961374292048e-01,-4.060027702931307547e-01,-8.886702431840003413e-01,6.738911492779801620e+02
-2.914036847415982123e+00,1.336381844698663279e+01,-2.253348381019834257e+00,4.099126642819997390e-01,-2.110983224603022457e-01,-8.873596260341958253e-01,6.789938671462560933e+02
-3.599769622345243114e+00,1.255938161076311488e+01,-1.816044882589709974e+00,5.752485914332494676e-01,-0.000000000000000000e+00,-8.179774190366023712e-01,6.837170244028750403e+02
-4.222172929232058003e+00,1.148840321269677212e+01,-1.296458657638556167e+00,4.888389249734680919e-01,1.427560387729330657e-03,-8.723717484544850631e-01,6.888197422711509716e+02
-4.503053803851837067e+00,1.086148393677734880e+01,-9.407902489830419768e-01,3.973319642447472599e-01,2.840234380656671189e-03,-9.176694629646774404e-01,6.916667660166650649e+02
-4.789410960920036153e+00,9.738287047320458356e+00,-1.152004394562219924e-01,3.016818890322900959e-01,4.223291570045376031e-03,-9.533982387430411931e-01,6.967694838849409962e+02
-4.741854005768237457e+00,8.651172949008222091e+00,8.423853422903567756e-01,2.028860765969979774e-01,5.562310408907928348e-03,-9.791855292161453228e-01,7.018722017532169275e+02
-4.294307323240587948e+00,7.626867070667831427e+00,1.757995230496772310e+00,1.019747025381613770e-01,6.843328570482252668e-03,-9.947624484753786467e-01,7.069749196214928588e+02
-3.550420133857372651e+00,6.679153664087045250e+00,2.535105008853812958e+00,0.000000000000000000e+00,8.052988517097530233e-03,-9.999665741295148402e-01,7.120776374897687901e+02
-2.761934579817933333e+00,5.798305824258593866e+00,3.198725887221831155e+00,-0.000000000000000000e+00,8.052988511418326598e-03,-9.999665734243091686e-01,7.171803553580447215e+02
-2.665784962848726014e+00,5.688402856604329649e+00,3.279526640107190083e+00,-0.000000000000000000e+00,8.052988511418999670e-03,-9.999665734243926574e-01,7.178445399228132828e+02
-1.978940822343059125e+00,4.861044228491595121e+00,3.852672686434451155e+00,-0.000000000000000000e+00,8.052988511419221715e-03,-9.999665734244203019e-01,7.229472577910892142e+02
-1.384338765315250130e+00,4.033281749904958247e+00,4.332041071389554077e+00,-0.000000000000000000e+00,8.052988511418999670e-03,-9.999665734243926574e-01,7.280499756593651455e+02
-8.868779487851085053e-01,3.171045998980939640e+00,4.709201714574591691e+00,-0.000000000000000000e+00,8.052988511418326598e-03,-9.999665734243091686e-01,7.331526935276410768e+02
-4.922795798740496331e-01,2.240395334458379129e+00,4.975731909380360918e+00,-0.000000000000000000e+00,8.052988511417207701e-03,-9.999665734241701687e-01,7.382554113959170081e+02
-2.078993290237031444e-01,1.229092885891694298e+00,5.129541415445852515e+00,-0.000000000000000000e+00,8.052788524641460444e-03,-9.999665750348538662e-01,7.433581292641929394e+02
-1.426248668333048308e-01,8.691387892062484299e-01,5.156962428989435132e+00,-0.000000000000000000e+00,8.052588537912097957e-03,-9.999665766454169935e-01,7.450817012064642313e+02
-4.691710100239022962e-02,-2.156165804932341501e-01,5.176817718125069412e+00,-0.000000000000000000e+00,8.052388551197125002e-03,-9.999665782558599947e-01,7.501844190747401626e+02
-8.269858087911026445e-02,-1.278882077197772249e+00,5.117127375168571746e+00,-0.000000000000000000e+00,8.052188564464541135e-03,-9.999665798661829808e-01,7.552871369430160939e+02
-2.574819826697386516e-01,-2.267526792956179538e+00,4.994798105118184672e+00,-0.000000000000000000e+00,8.051988577682349379e-03,-9.999665814763863958e-01,7.603898548112920253e+02
-5.638594815550578287e-01,-3.153086515413753510e+00,4.827673861068292105e+00,1.247972250289109963e-01,1.699235512925417746e-02,-9.920357415402588641e-01,7.654925726795679566e+02
-8.916219005174418344e-01,-3.806642219413744588e+00,4.671113862875256650e+00,2.476329703994841480e-01,2.566564820055045049e-02,-9.685128736752772749e-01,7.696479731042927597e+02
-1.346269040420423835e+00,-4.569016280091215521e+00,4.472465526778081291e+00,3.665766141487061813e-01,3.393554879529345897e-02,-9.297676938291558058e-01,7.747506909725686910e+02
-1.810307207218310621e+00,-5.336511439106596200e+00,4.286196467175766855e+00,4.797587063238945015e-01,4.167207799635477133e-02,-8.764091633608867005e-01,7.798534088408446223e+02
-2.237498207523504590e+00,-6.158615929087364549e+00,4.132953380979048852e+00,5.854003491875983123e-01,4.875363971606190561e-02,-8.092759194405271250e-01,7.849561267091205536e+02
-2.582751495899178629e+00,-7.085965337481094473e+00,4.033380575074506424e+00,6.818411546861097294e-01,5.506893172818538851e-02,-7.294230956963063672e-01,7.900588445773964850e+02
-2.813080112575728542e+00,-8.143179572279695577e+00,3.994557365669498594e+00,5.538667687647388371e-01,4.594161604438350144e-02,-8.313356544585928098e-01,7.951615624456724163e+02
-2.827374720707525935e+00,-8.242759395897323316e+00,3.993726687203800640e+00,4.110227253992250751e-01,3.558090620350256444e-02,-9.109293706538053037e-01,7.956096880932685735e+02
-2.922411347283098593e+00,-9.422689368870328153e+00,3.995351161641692794e+00,2.571439275820315284e-01,2.426495386222960252e-02,-9.660673954347365200e-01,8.007124059615445049e+02
-2.891069508967254897e+00,-1.064278555574559348e+01,4.001114820373234515e+00,9.636152976960503380e-02,1.229755608674137392e-02,-9.952694236711179254e-01,8.058151238298204362e+02
-2.731145014671052973e+00,-1.184723534466385608e+01,3.977405947058062718e+00,-6.700796228890572304e-02,0.000000000000000000e+00,-9.977514384801853264e-01,8.109178416980963675e+02
-2.443127092839926462e+00,-1.298243263118871127e+01,3.901735716525535747e+00,-5.401425619103229769e-02,6.960658111803315340e-02,-9.961101264368273922e-01,8.160205595663722988e+02
-2.070398207714067240e+00,-1.391114890870252019e+01,3.785829770658367899e+00,-4.074958625051680605e-02,1.388639471213192755e-01,-9.894717153144900745e-01,8.206767168190084476e+02
-1.551165080512800332e+00,-1.476619168874627519e+01,3.617860246773278554e+00,-2.728049438844611443e-02,2.074246715375951400e-01,-9.778695108554540383e-01,8.257794346872843789e+02
-9.293795976666573422e-01,-1.541173311593829176e+01,3.418498290075214552e+00,-1.367454777418109120e-02,2.749448229263897758e-01,-9.613617170900735642e-01,8.308821525555603102e+02
-2.129948254930212892e-01,-1.579983266079048398e+01,3.198629973024810003e+00,-0.000000000000000000e+00,3.410856895394125399e-01,-9.400311443715456683e-01,8.359848704238362416e+02
5.610096780977280595e-01,-1.591576280534096099e+01,2.972169743397291786e+00,1.090891924036676598e-02,4.459356725706601909e-01,-8.949974141913840109e-01,8.410875882921121729e+02
1.138946101675838873e+00,-1.583084232862142038e+01,2.804516463046244468e+00,2.167448787692465365e-02,5.449257902459938574e-01,-8.382028988850935836e-01,8.450502774749064656e+02
1.739269136678449179e+00,-1.556902003519613942e+01,2.619631211360665013e+00,3.215524167642710984e-02,6.367552698078536855e-01,-7.703939036647724503e-01,8.501529953431823969e+02
2.070316589907542415e+00,-1.522860418009685191e+01,2.488972883369120481e+00,4.221345879724438394e-02,7.202174285454587821e-01,-6.924614642813350374e-01,8.552557132114583283e+02
1.999890107144268292e+00,-1.488543889217375060e+01,2.435530239537330388e+00,5.171696928920894304e-02,7.942155283755510942e-01,-6.054296404811914112e-01,8.603584310797342596e+02
1.747454217800113563e+00,-1.473710728838770656e+01,2.444243327683230049e+00,-7.789220674457224269e-02,7.603860132062070232e-01,-6.447820678709454967e-01,8.629342386695808500e+02
8.650239718617510620e-01,-1.450566174801358343e+01,2.517064929364731363e+00,-2.059830620600783535e-01,7.117353703972734147e-01,-6.715666315931738684e-01,8.680369565378567813e+02
-3.103512560328045566e-01,-1.433084365887947342e+01,2.627519439334223605e+00,-3.300589315464829143e-01,6.492118894645528826e-01,-6.852612817634652354e-01,8.731396744061327126e+02
-1.617385609689496295e+00,-1.420927405093626561e+01,2.734024973589813001e+00,-4.477014130561331462e-01,5.740342474317232657e-01,-6.855991011683773007e-01,8.782423922744086440e+02
-2.925839285377854537e+00,-1.412921404527824976e+01,2.807397356242383957e+00,-2.721940917617024502e-01,5.977225080430492721e-01,-7.540796906097539942e-01,8.833451101426845753e+02
-3.608963375044531130e+00,-1.409442892432732286e+01,2.829942897670890911e+00,-8.687321383704553479e-02,5.998607115754148733e-01,-7.953729762993495545e-01,8.861277674418493007e+02
-4.776449477134615762e+00,-1.401244566514925260e+01,2.845447942900197091e+00,1.015797551763798767e-01,5.803717728661993425e-01,-8.079901970938894173e-01,8.912304853101252320e+02
-5.817184438663801416e+00,-1.387042937717305691e+01,2.835817016029465787e+00,2.863704285890681933e-01,5.399583327148654854e-01,-7.914764535743896712e-01,8.963332031784011633e+02
-6.691184894395849625e+00,-1.362543319293699007e+01,2.809066474731654051e+00,4.608364502591153489e-01,4.800774273061745867e-01,-7.464271095723888916e-01,9.014359210466770946e+02
-7.365480154535145374e+00,-1.325242661412723244e+01,2.774408169256413093e+00,6.001786382254946650e-01,3.704247014359944301e-01,-7.089211118203915252e-01,9.065386389149530260e+02
-7.729639998965676995e+00,-1.286677361658357910e+01,2.749123492610623387e+00,7.198068816811192816e-01,2.486047794752558882e-01,-6.481293981201834420e-01,9.105434102222230877e+02
-7.975153006176655346e+00,-1.228102597285366393e+01,2.730766775354230624e+00,8.157918265437976713e-01,1.186190280664991964e-01,-5.660487805180701715e-01,9.156461280904990190e+02
-7.987609936532470201e+00,-1.162526492635543462e+01,2.738939200458069934e+00,8.849807075424034331e-01,-1.526297770939940603e-02,-4.653753203491750035e-01,9.207488459587749503e+02
-7.909502848703028555e+00,-1.133300120153706381e+01,2.751451920499310422e+00,8.088906180207996455e-01,-1.744018261431335703e-01,-5.614961897617642972e-01,9.228909053869982699e+02
-7.545178279186364634e+00,-1.063821608700195220e+01,2.768027223122738079e+00,7.001583924300308626e-01,-3.265028571084726550e-01,-6.349583528158460055e-01,9.279936232552742013e+02
-7.009094544241948554e+00,-1.000892949399693066e+01,2.706411582059332854e+00,5.631717805595581883e-01,-4.654281828525229092e-01,-6.827972994881267299e-01,9.330963411235501326e+02
-6.496457657436825350e+00,-9.622126047615198630e+00,2.546221287348737761e+00,4.034587101639984241e-01,-5.855715793380563694e-01,-7.030824949207589158e-01,9.370807486005321607e+02
-5.779341482942845332e+00,-9.292078130670793357e+00,2.145167391749084551e+00,7.605218623655655152e-01,-2.133225680456999618e-01,-6.132682763905719092e-01,9.421834664688080920e+02
-5.087794165045854022e+00,-9.095466074669028345e+00,1.521075152586934820e+00,9.091027180611142011e-01,2.174045106387891280e-01,-3.553386086101029129e-01,9.472861843370840234e+02
-4.526028251633626098e+00,-8.965984595484151498e+00,6.764904702175860152e-01,8.084710213413998092e-01,5.885342875760209980e-01,-0.000000000000000000e+00,9.523889022053599547e+02
-4.372355800726523967e+00,-8.935083392902694044e+00,3.099968726894684612e-01,8.366578723087324532e-01,3.506067218085739956e-01,4.208046236974646859e-01,9.542783250778740012e+02
-3.997610131886188078e+00,-8.938759920974579387e+00,-7.135150273618761085e-01,6.686638965610974816e-01,3.046796626903194513e-02,7.429389587741198619e-01,9.593810429461499325e+02
-3.474152547575046324e+00,-9.010465616265726396e+00,-1.603012645824351656e+00,3.438800926658693857e-01,-2.968152257311827968e-01,8.908676689831256379e-01,9.644837608144258638e+02
-2.721698865957520752e+00,-9.037825620209584798e+00,-2.201425268399328505e+00,-6.153715308391902866e-02,-5.545003859337378493e-01,8.299039105753499568e-01,9.695864786827017952e+02
-2.386933824969151630e+00,-8.989997304227170360e+00,-2.356655502331247654e+00,-4.525244665822401036e-01,-6.821651958909240587e-01,5.743433229870396062e-01,9.716224547865216437e+02
-1.639447738801664833e+00,-8.690928737709644025e+00,-2.603588243829695337e+00,-3.306231116941050208e-01,-4.927510866849243998e-01,8.049116253262954546e-01,9.767251726547975750e+02
-1.130999594414605625e+00,-8.273224560805561012e+00,-2.687207228298747363e+00,-1.743701049217895593e-01,-2.521402708681906302e-01,9.518499620825249252e-01,9.818278905230735063e+02
-1.036026212821788306e+00,-8.028279583548089349e+00,-2.673650859769051369e+00,-0.000000000000000000e+00,1.466799147870188023e-02,9.998914191179560929e-01,9.846617216642423500e+02
-1.235038764436593883e+00,-7.624412558906134230e+00,-2.591847773465224325e+00,-1.245228934450733072e-02,5.966654367397108416e-01,8.023922339418313454e-01,9.897644395325182813e+02
-1.717343921988768507e+00,-7.287995785839292751e+00,-2.526981770902904767e+00,-2.019907226109854403e-02,9.531932564151593956e-01,3.016829683705533616e-01,9.948671574007942127e+02
-1.884847232725875621e+00,-7.215001504608689942e+00,-2.527915872125992003e+00,-2.031297923577711842e-02,9.495260293806794261e-01,-3.130266800195738441e-01,9.963080721445891186e+02
-2.122689305692981865e+00,-7.148023342670048130e+00,-2.571136761897026890e+00,-0.000000000000000000e+00,9.419726912662017559e-01,-3.356865336124749688e-01,9.982628499524549852e+02
-2.759587446149998513e+00,-7.053874815422689792e+00,-2.942328614871794645e+00,1.465530756393183254e-01,9.692395083634876007e-01,-1.977244836845678810e-01,1.003365567820730917e+03
-3.404700367520556714e+00,-7.006699289149020515e+00,-3.591681472922516605e+00,2.870601383785731930e-01,9.565204487243047504e-01,-5.160531102850275664e-02,1.008468285689006848e+03
-4.051230218014303830e+00,-6.956907485435021243e+00,-4.359107078243096289e+00,4.157246280598060895e-01,9.043401909056060228e-01,9.664291353559165132e-02,1.013571003557282779e+03
-4.222361544585783832e+00,-6.935990442415148394e+00,-4.565755155150593048e+00,5.549058398905384326e-01,8.314608463469771449e-01,2.739287951491931050e-02,1.014927113146262741e+03
-4.861555691617589048e+00,-6.835731588073293175e+00,-5.221933102739665600e+00,6.777292830463126361e-01,7.340713500145173986e-01,-4.266464567143728182e-02,1.020029831014538672e+03
-5.494527735263409873e+00,-6.748584971021306167e+00,-5.533568689755290926e+00,7.805743248935776979e-01,6.150425947095601309e-01,-1.114644786952426470e-01,1.025132548882814717e+03
-5.987388726419602847e+00,-6.708960645098870579e+00,-5.413364215033053206e+00,8.604092639183641422e-01,4.778833589468444720e-01,-1.769785122722219994e-01,1.029186408249044007e+03
-6.569812932901044178e+00,-6.660864567100420963e+00,-4.831972981133194622e+00,9.148806968655815997e-01,3.266368746913856369e-01,-2.372754993578272409e-01,1.034289126117319938e+03
-7.074848217711147136e+00,-6.543860028739929113e+00,-3.923804522541885387e+00,9.423828916871058725e-01,1.657616415186296821e-01,-2.905779820587464091e-01,1.039391843985595870e+03
-7.459813668383385554e+00,-6.284879878381119056e+00,-2.831969998578108605e+00,9.421051217398639377e-01,0.000000000000000000e+00,-3.353146874090627283e-01,1.044494561853871801e+03
-7.605913564392182025e+00,-5.995809243462671745e+00,-2.072998423030243398e+00,9.421051210748555560e-01,-0.000000000000000000e+00,-3.353146871723725053e-01,1.047937477491331720e+03
-7.551464811048128389e+00,-5.473355002390922763e+00,-1.121843193507009673e+00,9.421051210749309401e-01,-0.000000000000000000e+00,-3.353146871723993727e-01,1.053040195359607651e+03
-7.196152978072237971e+00,-5.015072155132749288e+00,-5.647515480500031604e-01,9.421051210749309401e-01,-0.000000000000000000e+00,-3.353146871723993727e-01,1.058142913227883582e+03
-6.756504749097138607e+00,-4.800222787703071425e+00,-4.528809649099488910e-01,9.421051210748555560e-01,-0.000000000000000000e+00,-3.353146871723725053e-01,1.063245631096159514e+03
-6.602237377283526776e+00,-4.922351193370033684e+00,-5.647456870964449038e-01,9.421051210747046767e-01,-0.000000000000000000e+00,-3.353146871723188260e-01,1.066707081701501465e+03
-6.736135127034349246e+00,-5.533178730249615818e+00,-8.583617661007227895e-01,9.737472126629939106e-01,2.177715413783347653e-01,6.625648344000208134e-02,1.071809799569777397e+03
-7.144079065530051231e+00,-6.455547493722748165e+00,-1.251157972586226519e+00,8.012087049074216871e-01,3.898795177393326039e-01,4.539345468558110830e-01,1.076912517438053328e+03
-7.603239904060540510e+00,-7.541645709118540708e+00,-1.716959001998462409e+00,4.606684729586406069e-01,4.802354505724624745e-01,7.464291460257106436e-01,1.082015235306329259e+03
-7.946253308887427202e+00,-8.694596836317693089e+00,-2.205099808229072256e+00,4.606684726334239199e-01,4.802354502334322262e-01,7.464291454987563856e-01,1.087117953174605191e+03
-8.039245030030262029e+00,-9.262076348021883732e+00,-2.429664408414089927e+00,4.606684726334616120e-01,4.802354502334714170e-01,7.464291454988175589e-01,1.089610721660217450e+03
-8.080141086818690255e+00,-1.039423543148588713e+01,-2.789511347844227718e+00,4.606684726334803748e-01,4.802354502334910125e-01,7.464291454988479790e-01,1.094713439528493382e+03
-7.957479522889704171e+00,-1.145134940363273834e+01,-2.948100455043647816e+00,4.606684726334803193e-01,4.802354502334910125e-01,7.464291454988479790e-01,1.099816157396769313e+03
-7.673433276020875660e+00,-1.237810172272697073e+01,-2.861407945941675912e+00,4.606684726334615565e-01,4.802354502334714170e-01,7.464291454988174479e-01,1.104918875265045244e+03
-7.228988634924479406e+00,-1.312018866654380389e+01,-2.609866843296125172e+00,4.606684726334239199e-01,4.802354502334321706e-01,7.464291454987564967e-01,1.110021593133321176e+03
-6.624091053026434750e+00,-1.363664591861678055e+01,-2.367191324251241902e+00,4.606684726333674651e-01,4.802354502333733843e-01,7.464291454986650143e-01,1.115124311001597107e+03
-5.873241411809210000e+00,-1.391062412650825308e+01,-2.263389347676013408e+00,3.476885354009764395e-01,4.845396353775505149e-01,8.027029488540211588e-01,1.120227028869873038e+03
-5.761817680814390386e+00,-1.392438377673527938e+01,-2.261620874251326629e+00,2.291630532251836272e-01,4.811155271784058884e-01,8.461738264354166095e-01,1.120916268133958056e+03
-4.897183440536088561e+00,-1.387028387437533361e+01,-2.303354889312474896e+00,1.069824616076523044e-01,4.700177385253682116e-01,8.761484339880338812e-01,1.126018986002233987e+03
-3.999734774118690606e+00,-1.361927597284392810e+01,-2.413380640123141241e+00,-1.690450652668869583e-02,4.514232709195241666e-01,8.921486805072937898e-01,1.131121703870509918e+03
-3.130934305352313984e+00,-1.319767222543096707e+01,-2.528464165602910985e+00,-1.405218985060698034e-01,4.256286925836522128e-01,8.939193543540933096e-01,1.136224421738785850e+03
-2.419085471679220500e+00,-1.269657144501342039e+01,-2.591384507011035065e+00,-1.082739884464854058e-01,5.552463642229278351e-01,8.246067053102311695e-01,1.140774273705619635e+03
-1.694926476834691664e+00,-1.203619796953631571e+01,-2.588871827821229932e+00,-7.357423546306832152e-02,6.722904537074556597e-01,7.366209186071924764e-01,1.145876991573895566e+03
-1.029982690776398480e+00,-1.132799405223808265e+01,-2.493516789791545119e+00,-3.720840817119418914e-02,7.741105450143723754e-01,6.319544275174542314e-01,1.150979709442171497e+03
-4.001071840672923430e-01,-1.062450268927847219e+01,-2.326153586685893337e+00,0.000000000000000000e+00,8.584009604371716229e-01,5.129773787609296365e-01,1.156082427310447429e+03
-2.416701459341290617e-02,-1.022975218365507111e+01,-2.217300505315275228e+00,-2.013773566911494506e-01,7.414294494397341007e-01,6.400996263994825908e-01,1.159163147939665123e+03
5.722187739550342878e-01,-9.647453119928151466e+00,-2.074143538484088278e+00,-3.885786901395176796e-01,5.722647164041622103e-01,7.221618211518225916e-01,1.164265865807941054e+03
1.046878662574564078e+00,-9.124999248646318506e+00,-2.028604662146058946e+00,-5.484259141854589403e-01,3.628151228676834150e-01,7.533871536394751711e-01,1.169368583676216986e+03
1.270664959772341618e+00,-8.630423719860607079e+00,-2.159639900376788546e+00,-6.696665005626494249e-01,1.278249046681718959e-01,7.315774543894532078e-01,1.174471301544492917e+03
1.271962395117244959e+00,-8.620712340158055653e+00,-2.164387186696717702e+00,-6.849499125951222789e-01,3.298324192831627588e-01,6.496554413119808302e-01,1.174572544216097185e+03
1.174288740208188520e+00,-8.128690889060669278e+00,-2.518191252034929217e+00,-6.675256524976391770e-01,5.160897553492542755e-01,5.367111585218637959e-01,1.179675262084373117e+03
8.047309845987195009e-01,-7.632677980255065719e+00,-3.074807091052620844e+00,-6.182257810442124413e-01,6.777027960744792523e-01,3.981379206329930254e-01,1.184777979952649048e+03
2.686085706755327873e-01,-7.137544008426577768e+00,-3.782539662025345084e+00,-5.394044661572621191e-01,8.069542401336446957e-01,2.405528553578064888e-01,1.189880697820924979e+03
7.439854438363138756e-02,-6.981355050689379560e+00,-4.034056959190314373e+00,-4.348255654857151598e-01,8.976721029705179156e-01,7.148092857024282432e-02,1.191515502964395637e+03
-5.538131613788648266e-01,-6.522489709600584717e+00,-4.867853748364654010e+00,-3.329906339365111267e-01,8.326534915664608461e-01,4.424967804336534249e-01,1.196618220832671568e+03
-1.190516100120312615e+00,-6.144793646665355880e+00,-5.754948857579353039e+00,-1.804576923000012212e-01,6.408628221508558820e-01,7.461419868071176298e-01,1.201720938700947499e+03
-1.817691001459039946e+00,-5.919084759266104001e+00,-6.665793238383405317e+00,-4.499992964605593069e-04,3.515004504559623433e-01,9.361865363440402543e-01,1.206823656569223431e+03
-2.122374127128343169e+00,-5.897087189856430101e+00,-7.121739038091032370e+00,-3.843305997990502099e-01,5.250981806712805566e-01,7.593154092441115610e-01,1.209372830102821126e+03
-2.719117165875554409e+00,-5.976444856394006244e+00,-8.022090870907447879e+00,-6.879691552107651820e-01,5.890636561192615916e-01,4.239108992688482291e-01,1.214475547971097058e+03
-3.312596292972063594e+00,-6.050469072399249804e+00,-8.896338465527540151e+00,-8.479704324504528934e-01,5.300416452412911594e-01,0.000000000000000000e+00,1.219578265839372989e+03
-3.565411409843710189e+00,-6.034049067031361346e+00,-9.255918153179866437e+00,-7.713961562552216211e-01,5.181255177012342727e-01,3.694481262936623600e-01,1.221754794283229785e+03
-4.130135662328412671e+00,-5.834970081698175548e+00,-1.001659682792107375e+01,-5.848996295885400265e-01,4.323776440822644784e-01,6.862506802951378049e-01,1.226857512151505716e+03
-4.610938133072058243e+00,-5.448204422439215655e+00,-1.059071914010734972e+01,-3.150562158018470060e-01,2.850169212231611904e-01,9.052640142530919976e-01,1.231960230019781648e+03
-4.938626932977682849e+00,-4.860102193244439484e+00,-1.090905337194973868e+01,-3.179997568430842055e-04,9.704192579737919155e-02,9.952792389647324711e-01,1.237062947888057579e+03
-4.950706292429930322e+00,-4.823117618259031403e+00,-1.091856007529048611e+01,-2.355382276100351560e-04,3.239664189454559418e-02,9.994740627490894536e-01,1.237332328512091181e+03
-5.057315809416446761e+00,-4.061756037694350674e+00,-1.096820981571207199e+01,-1.520882391755498469e-04,-3.238459369116603731e-02,9.994744693852617434e-01,1.242435046380367112e+03
-4.923452466160886942e+00,-3.294014161945683306e+00,-1.076039405336169708e+01,-6.799996278718530127e-05,-9.702994690059690841e-02,9.952804553351848327e-01,1.247523903139578806e+03
-4.815641085876521288e+00,-3.076995125636432071e+00,-1.063182990205538836e+01,-0.000000000000000000e+00,-9.695091801188839009e-02,9.952881583184741698e-01,1.249242141474109303e+03
-4.380790369522922667e+00,-2.651381655235193868e+00,-1.010164863196783536e+01,-2.532105750929020127e-01,-4.864908572068821768e-01,8.361872102083393044e-01,1.254344859342385234e+03
-3.945181610868715438e+00,-2.542813661524134794e+00,-9.406884055698565561e+00,-4.453542056003191862e-01,-7.587035138824045344e-01,4.754225589698183874e-01,1.259447577210661166e+03
-3.724090870412314569e+00,-2.811048653900412475e+00,-8.700862646266777745e+00,-5.300915303214127627e-01,-8.479392486978463150e-01,0.000000000000000000e+00,1.264106096728943839e+03
-3.796195801569627992e+00,-3.515931935629108551e+00,-7.927843385690163558e+00,-1.462504437303000504e-01,-6.663619978291690504e-01,7.311432797734889188e-01,1.269208814597219771e+03
-4.163006585676131799e+00,-4.498684777335400398e+00,-7.226381535450822291e+00,3.421418352604577162e-01,-8.417995946778044150e-03,9.396095475828125654e-01,1.274311532465495702e+03
-4.623283261944084899e+00,-5.350484482590163182e+00,-6.713576916314796250e+00,9.334680231829169950e-01,2.330827560931791331e-01,2.725947147463356757e-01,1.278571302737332417e+03
-5.201507576587974135e+00,-6.090380324724577576e+00,-6.120432928911776038e+00,0.000000000000000000e+00,5.892782266480764974e-01,-8.079289396971222059e-01,1.283674020605608348e+03
-5.487275816309640675e+00,-6.245949225955651052e+00,-5.784711063337485193e+00,6.892438527980272456e-01,6.072059739259593192e-01,-3.952743561249832394e-01,1.286405957247521428e+03
-6.079118284480172996e+00,-6.191272866293198618e+00,-5.063119334175952169e+00,9.334680231831198327e-01,2.330827560932298148e-01,2.725947147463949061e-01,1.291508675115797359e+03
-6.496648814366799307e+00,-6.036341067652038817e+00,-4.547675772591587950e+00,9.821473338339041792e-01,-9.914836638452220741e-02,-1.598568612464480176e-01,1.294483184371301149e+03
-7.224877062211152001e+00,-5.528357671008416574e+00,-3.410487771546162339e+00,7.364161080998709030e-01,-4.016585135368765935e-01,-5.443893406704199966e-01,1.299585902239577081e+03
-7.445367280637489316e+00,-5.221944030929297931e+00,-2.897040507469517578e+00,7.364161075800587097e-01,-4.016585132533589397e-01,-5.443893402861534891e-01,1.301485514201354135e+03
-7.678151766311914095e+00,-4.141386598074773495e+00,-1.382011996552106714e+00,7.364161075801189948e-01,-4.016585132533917468e-01,-5.443893402861978981e-01,1.306588232069630067e+03
-7.327433613608017815e+00,-2.930650697372156444e+00,2.073560604460275569e-02,7.364161075801490819e-01,-4.016585132534081781e-01,-5.443893402862202135e-01,1.311690949937905998e+03
-6.513785019971915169e+00,-1.723696149820819201e+00,9.434061940079505604e-01,7.364161075801490819e-01,-4.016585132534081781e-01,-5.443893402862202135e-01,1.316793667806181929e+03
-6.003550464357675587e+00,-1.149179594726525533e+00,1.130535730196172262e+00,7.364161075801189948e-01,-4.016585132533917468e-01,-5.443893402861978981e-01,1.319465401882841434e+03
-5.126716908800558414e+00,-2.537555821370360287e-01,7.087469622218768306e-01,7.364161075800588208e-01,-4.016585132533589397e-01,-5.443893402861533781e-01,1.324568119751117365e+03
-4.704622464295598938e+00,8.201319597940261164e-02,-5.646904829931668202e-01,7.364161075799685596e-01,-4.016585132533097013e-01,-5.443893402860866537e-01,1.328549292295673922e+03
-4.602102038734818379e+00,-1.932148221274527511e-01,-2.897041965467434643e+00,8.649910223442792701e-01,4.315195122752620016e-02,4.999264349583678047e-01,1.333652010163949853e+03
-4.791083227876848483e+00,-8.742157826344144622e-01,-4.563420018414917401e+00,0.000000000000000000e+00,-9.950534475071154406e-01,-9.933094484754524667e-02,1.338754728032225785e+03
-4.825192612833435923e+00,-9.597130983819344152e-01,-4.686555075384635671e+00,4.160157390090436502e-01,-9.088606525679627790e-01,3.002031163826629490e-02,1.339408458587705582e+03
-5.042979840375164002e+00,-1.408766007164876655e+00,-5.302223991360598632e+00,7.499804355356383123e-01,-6.434129735383986581e-01,1.534506168017696903e-01,1.344511176455981513e+03
-5.074643745101780290e+00,-1.461188101668096317e+00,-5.401081026861987766e+00,9.360262369457866827e-01,-2.510647953304701030e-01,2.466157989573186937e-01,1.349613894324257444e+03
-4.927769645775261331e+00,-1.205524408037702333e+00,-5.280406128248119835e+00,6.780390738811036266e-01,-6.775990870894794682e-01,2.848165926809557158e-01,1.352784655488888802e+03
-4.496433885906442107e+00,-3.689347803656796709e-01,-4.861022561804970721e+00,2.505768424026739716e-01,-9.347684120885201287e-01,2.518278416158728494e-01,1.357887373357164734e+03
-4.042751371751255540e+00,7.909953046008053601e-01,-4.189545210934848996e+00,2.252018733956876184e-01,-9.742826451295304446e-01,-7.446047201001520024e-03,1.362990091225440665e+03
-3.776187354280444275e+00,1.818452501684101774e+00,-3.483306455617349418e+00,1.841915227527992638e-01,-9.461540568840371979e-01,-2.662028992866496413e-01,1.367173645337965127e+03
-3.614303432120563819e+00,2.677487447037162127e+00,-2.583245186884274069e+00,1.303930820188418938e-01,-8.523356233730466913e-01,-5.064776690949981397e-01,1.372276363206241058e+03
-3.598669576293780370e+00,2.790298010992177780e+00,-1.758942177525284478e+00,6.754168860971064559e-02,-6.993410363197102297e-01,-7.115885294326863564e-01,1.377379081074516989e+03
-3.709384977275660411e+00,2.398889826158844052e+00,-9.573316178611108729e-01,9.999988887672093537e-07,-4.977924468360954147e-01,-8.672950362322454643e-01,1.382481798942792921e+03
-3.795987484168479309e+00,2.166302109806736098e+00,-5.428975256801107374e-01,9.999988880613575288e-07,-4.977924464847273689e-01,-8.672950356200632704e-01,1.384960561083046514e+03
-3.903136317764050123e+00,1.752246438939326634e+00,3.360097041526991513e-01,9.999988880613573170e-07,-4.977924464847273134e-01,-8.672950356200631594e-01,1.390063278951322445e+03
-3.869853499087444249e+00,1.427613998272037499e+00,1.163689692936787035e+00,9.999988880611351826e-07,-4.977924464846166797e-01,-8.672950356198703137e-01,1.395165996819598377e+03
-3.806704890665614460e+00,1.249307806141119803e+00,1.817063200638598497e+00,3.657383398376232719e-01,-3.674754792782247703e-01,-8.550995491189508080e-01,1.399874300754311889e+03
-3.782911592574289550e+00,1.266062714569115899e+00,2.374611859734072628e+00,6.762874061994542663e-01,-1.817082186902108931e-01,-7.138735654707546452e-01,1.404977018622587821e+03
-3.794774175122161086e+00,1.551689364264828397e+00,2.721188543686484884e+00,8.847879010088804952e-01,3.147796090136466968e-02,-4.649274225157148388e-01,1.409504863411869792e+03
-3.828040110164542487e+00,2.226148826945067327e+00,2.957267665662544065e+00,8.848684670054864920e-01,2.843659534923840410e-02,-4.649700590664236910e-01,1.414607581280145723e+03
-3.836493547792291459e+00,2.470142148857460640e+00,2.997625080286125510e+00,8.849408408204051391e-01,2.539496673525969833e-02,-4.650083908878274164e-01,1.415902937209048787e+03
-3.851594975078582284e+00,3.651712809702556406e+00,3.126377830266621860e+00,8.888930140923588796e-01,2.669769957504353891e-02,-4.573340598107694666e-01,1.421005655077324718e+03
-3.832780253420816408e+00,4.989556210928252078e+00,3.225057433655806438e+00,8.927774418348346508e-01,2.799839743400176981e-02,-4.496248758907487875e-01,1.426108372945600649e+03
-3.774392395828853441e+00,6.354040927767809599e+00,3.322290143429444065e+00,8.965938298400745188e-01,2.929696176403466870e-02,-4.418814232930049490e-01,1.431211090813876581e+03
-3.681532847754421578e+00,7.652510531609403088e+00,3.431905386915725220e+00,8.365012317880305970e-01,-1.105786017802353749e-01,-5.366899123765214163e-01,1.436313808682152512e+03
-3.659174767067304490e+00,7.908544605019510065e+00,3.455950814670170512e+00,7.495025826656125378e-01,-2.468973805161269741e-01,-6.142357544731908980e-01,1.437380408982179233e+03
-3.556647091598755583e+00,9.071424060871422057e+00,3.557931985261065577e+00,6.383961920589396044e-01,-3.752746995150632592e-01,-6.720247033181965257e-01,1.442483126850455164e+03
-3.479212747799686589e+00,1.017354013368157695e+01,3.619580310200217088e+00,5.067557815277954347e-01,-4.915813188597007444e-01,-7.081979842089046739e-01,1.447585844718731096e+03
-3.456691632752558085e+00,1.123518357716843497e+01,3.610337005393960741e+00,3.588155418936527230e-01,-5.920762440854593356e-01,-7.215920787302309014e-01,1.452688562587007027e+03
-3.375678419191023405e+00,1.221735221529816862e+01,3.538303014950538561e+00,3.062962424276309270e-01,-7.415427443993775070e-01,-5.969044899351081401e-01,1.457791280455282958e+03
-3.248087086391883371e+00,1.254747219822475657e+01,3.503799492091158374e+00,2.413273583688790858e-01,-8.608687951310197706e-01,-4.479553813425272146e-01,1.459845759992455896e+03
