5.188489812855151762e+00,1.505083954699714788e+01,4.703225157413349677e+00,-9.155789422996100102e-01,1.094420414996257751e-01,3.869568967870222753e-01,4.548194435967941729e+01
5.062174072581624884e+00,1.500007096938973916e+01,4.641780022887805224e+00,-9.037440752874025263e-01,1.197570616661835091e-01,4.109779709000780379e-01,4.718771267718668128e+01
4.911467189775621911e+00,1.494819639073084083e+01,4.579993856295686783e+00,-8.911649957825499291e-01,1.299734643684870294e-01,4.346606134136236643e-01,4.889348099469394526e+01
4.709793968472063774e+00,1.488792600841903102e+01,4.509577488039919757e+00,-8.778520623534421530e-01,1.400828366887578724e-01,4.579853223502050041e-01,5.082457685872098807e+01
4.473691400596409018e+00,1.482581181839416118e+01,4.438600348523790373e+00,-8.638162378637983529e-01,1.500768538454739509e-01,4.809328904783597425e-01,5.275567272274803088e+01
4.264215159334764138e+00,1.477532016590912889e+01,4.381839452548486058e+00,-8.490690804454823493e-01,1.599472860480444236e-01,5.034844211279284609e-01,5.428935416995535945e+01
4.038092656522194623e+00,1.472397172744343585e+01,4.324747722386269366e+00,-8.336227339812563031e-01,1.696860052732735713e-01,5.256213437496725094e-01,5.582303561716268803e+01
3.981951243018433395e+00,1.471160474315392896e+01,4.311055591506020690e+00,-8.174899181053133512e-01,1.792849919580389306e-01,5.473254292063959303e-01,5.618967786719811386e+01
3.679797340082893164e+00,1.464730570691385303e+01,4.240583732669561456e+00,-8.006839177298126220e-01,1.887363416026762164e-01,5.685788047829938296e-01,5.806687395902331161e+01
3.342213300452166358e+00,1.457923267323496930e+01,4.167673389168020215e+00,-7.832185721060357375e-01,1.980322712796372120e-01,5.893639689030677475e-01,5.998797066354698160e+01
2.978150794632714149e+00,1.450863044285069670e+01,4.093855661577488370e+00,-7.651082634291658247e-01,2.071651260420658835e-01,6.096638055400086520e-01,6.190906736807065158e+01
2.648491910612140732e+00,1.444623636231348662e+01,4.029890446884426325e+00,-7.463679049960647571e-01,2.161273852270181317e-01,6.294615983106798263e-01,6.355435669480449690e+01
2.305454352876807000e+00,1.438216647366083301e+01,3.965225650502210986e+00,-7.270129289257907246e-01,2.249116686481380523e-01,6.487410442401044808e-01,6.519964602153834221e+01
1.950934628500309964e+00,1.431627464835485952e+01,3.899798341055819240e+00,-8.964331543918484524e-01,2.974197194430639249e-02,-4.421775828925261775e-01,6.684493534827218753e+01
1.460802295538560669e+00,1.422392500881531241e+01,3.810710068950304841e+00,-6.960284283996541754e-01,-3.124610182683711934e-01,-6.464600056641434112e-01,6.904568304185370664e+01
9.562542415472597979e-01,1.412540840853437452e+01,3.719433030767542281e+00,-3.571165318403222710e-01,-5.924852232852122480e-01,-7.220990533687745572e-01,7.124643073543522576e+01
5.764491381089984490e-01,1.404856020485776114e+01,3.650250089952651766e+00,-7.142513392291447438e-01,-6.601633892671900927e-01,-2.324377849662919437e-01,7.288157932499296976e+01
1.962440448211385247e-01,1.396910267280778051e+01,3.580011080022338810e+00,-9.546707119067674441e-01,-0.000000000000000000e+00,-2.976605983802608213e-01,7.451672791455071376e+01
-1.814899602334025530e-01,1.388681555725942296e+01,3.508650026026031821e+00,-9.796745246587165168e-01,-0.000000000000000000e+00,2.005886979233616751e-01,7.615187650410845777e+01
-5.303564239610613074e-01,1.380712947832513926e+01,3.440797359904917307e+00,-8.471320701123281616e-01,-2.337197434483762604e-01,4.772214761591691556e-01,7.768280078376331232e+01
-8.721708029489022573e-01,1.372481312240790530e+01,3.371920889518336129e+00,-0.000000000000000000e+00,2.016697227948695617e-02,9.997956257308583394e-01,7.921372506341816688e+01
-1.244330112731669269e+00,1.362843627752529940e+01,3.293034918517454113e+00,-0.000000000000000000e+00,-9.967539354453673894e-01,8.049591402863320866e-02,8.093663741242184528e+01
-1.598490257929264358e+00,1.352747093420453517e+01,3.212548545667983202e+00,8.370268619318536052e-01,-1.940497361592159187e-01,5.115943044080086821e-01,8.265954976142552368e+01
-1.930306253186536480e+00,1.342154299659475214e+01,3.130388987211352170e+00,5.328913625198693493e-01,-5.120993873926143157e-03,8.461669877587066901e-01,8.438246211042920208e+01
-2.236722296077739092e+00,1.331030336235269473e+01,3.046464185215795872e+00,0.000000000000000000e+00,-9.705539409184215094e-01,-2.408797371487751138e-01,8.610537445943288049e+01
-2.517350373956736664e+00,1.319347895457904407e+01,2.960652433622714241e+00,-0.000000000000000000e+00,1.080298527117748431e-01,9.941466445774833627e-01,8.782828680843655889e+01
-2.773767134648430055e+00,1.307084407677395355e+01,2.872830580319233107e+00,8.220322628904948026e-01,6.371394286823642283e-02,-5.658634925949043160e-01,8.955119915744023729e+01
-3.040174306947627247e+00,1.292109364241069436e+01,2.768615157566703289e+00,6.355972790766478697e-01,2.092487626605330497e-01,7.431211571181732811e-01,9.153933715512734182e+01
-3.276110389814248069e+00,1.276150644424108904e+01,2.660936445627291036e+00,7.342455860396148726e-01,2.131448798310290049e-01,6.445546366064833776e-01,9.352747515281444635e+01
-3.490883423445671152e+00,1.258572256293962610e+01,2.545784170779068933e+00,0.000000000000000000e+00,-5.697617808903422398e-01,-8.218086839622708029e-01,9.558130081828336699e+01
-3.679162916994259014e+00,1.239823433676433950e+01,2.426370325021885765e+00,3.588155418931329166e-01,-5.920762440846016883e-01,-7.215920787291857375e-01,9.763512648375228764e+01
-3.830740899529058385e+00,1.221815616671418958e+01,2.314330337099968826e+00,0.000000000000000000e+00,-2.786296520868896537e-02,9.996107518281590609e-01,9.949857698293118347e+01
-3.967300473967959373e+00,1.202881366486849046e+01,2.198794661745183010e+00,4.086756024190250636e-01,-4.161136111537828974e-02,9.117295358889341284e-01,1.013620274821100793e+02
-4.073120786592063780e+00,1.186190850557391663e+01,2.098509932357942809e+00,7.458628287707030902e-01,-4.808075984919236989e-02,6.643605054388868059e-01,1.029371329879297292e+02
-4.171914627259012853e+00,1.168916167670797179e+01,1.995951644092705424e+00,9.525773651291568056e-01,-4.613943374885257770e-02,3.007748594745393578e-01,1.045122384937493791e+02
-4.278896053810133715e+00,1.147806642217984141e+01,1.872335381499993456e+00,9.926579453379937856e-01,-3.612694764533717212e-02,-1.154255050078253214e-01,1.063603139060494271e+02
-4.376175794910409422e+00,1.125694550311927777e+01,1.744791187831067125e+00,8.590932817682280787e-01,-1.979479997312330944e-02,-5.114341591168314327e-01,1.082083893183494752e+02
-4.455869442123138846e+00,1.105073609583002714e+01,1.627349143521422903e+00,5.752485914330272010e-01,-0.000000000000000000e+00,-8.179774190362865127e-01,1.098626880608249223e+02
-4.529207965233282174e+00,1.083698734599304814e+01,1.506897128387222784e+00,9.703928888892788818e-01,2.415277234480527890e-01,0.000000000000000000e+00,1.115169868033003695e+02
-4.598219464009611457e+00,1.060699044868896834e+01,1.378638180381611678e+00,9.697955892164575875e-01,1.681527820750746138e-01,1.766894366336928812e-01,1.132325929909867881e+02
-4.660228543119619538e+00,1.036418379589104255e+01,1.244645490640195806e+00,9.337004112386365628e-01,8.862287241148472661e-02,3.469114131008129709e-01,1.149755390244822024e+02
-4.713317124400312252e+00,1.011184234219238220e+01,1.106784682276642062e+00,8.634285659263324364e-01,5.849059702097421203e-03,5.044352287898187237e-01,1.167184850579776167e+02
-4.756704034950307580e+00,9.849712799974270183e+00,9.649316409186950994e-01,7.615522386263113841e-01,-7.713885395508116027e-02,6.434949767130212495e-01,1.184614310914730311e+02
-4.787113067496002294e+00,9.608188726604575791e+00,8.352788639058187359e-01,6.318004413208069270e-01,-1.573032280445931241e-01,7.590005907735325463e-01,1.200141501763386742e+02
-4.809902708612085576e+00,9.359411290081869339e+00,7.026355518445527304e-01,4.789225235544178338e-01,-2.317097694886112447e-01,8.467241576550186277e-01,1.215668692612043174e+02
-4.824842377043149000e+00,9.103215426386260134e+00,5.669227867017954114e-01,2.494365143153851605e-01,-1.130405118714515600e-01,9.617698622858654733e-01,1.231195883460699605e+02
-4.831657989272551745e+00,8.839434364159112434e+00,4.280612276510732395e-01,0.000000000000000000e+00,1.466999104714234586e-02,9.998913897824985852e-01,1.246723074309356036e+02
-4.829879068563236011e+00,8.567898215159576836e+00,2.859706682987280257e-01,-4.690008155332768308e-04,-5.066311160103591921e-02,9.987146885619816450e-01,1.262250265158012468e+02
-4.818993993475222837e+00,8.288434318286615365e+00,1.405704805274188840e-01,-9.359985444585989254e-04,-1.157798199545048978e-01,9.932734553922167864e-01,1.277777456006668899e+02
-4.807585221143411580e+00,8.102646370133440357e+00,4.429282830034358964e-02,-6.240759854984692656e-04,-1.037039203473652110e-01,9.946070115291564262e-01,1.287891956471853803e+02
-4.742261207503084108e+00,7.580969975833605545e+00,-2.236020460840429380e-01,-3.120611550403832885e-04,-9.161269970757492109e-02,9.957936612666358211e-01,1.314930740415271373e+02
-4.675152591353212372e+00,7.243613750314803035e+00,-3.950727402333845673e-01,-0.000000000000000000e+00,-7.950793855329252313e-02,9.968332296100117507e-01,1.331447388182745044e+02
-4.591175228144804166e+00,6.895687405482776811e+00,-5.709365885639028360e-01,-0.000000000000000000e+00,8.052988516998888652e-03,-9.999665741172660827e-01,1.347964035950218715e+02
-4.488656341000365479e+00,6.536939068359111538e+00,-7.512877075027232232e-01,-0.000000000000000000e+00,9.999934048043367385e-01,-3.344606731729371941e-03,1.364480683717692386e+02
-4.365533942291378366e+00,6.167110094781527607e+00,-9.362160868360701604e-01,-0.000000000000000000e+00,1.466999104652524748e-02,9.998913897404376749e-01,1.380997331485166058e+02
-4.224467910413979510e+00,5.797576590539119223e+00,-1.120041317567634920e+00,6.363173009420184430e-04,6.532740806295922464e-02,9.978626783479113138e-01,1.397023360546264996e+02
-4.060289955386426897e+00,5.417418839236265882e+00,-1.308200259346330663e+00,1.270998420244483272e-03,1.158168560483519294e-01,9.932687654415717216e-01,1.413049389607363935e+02
-3.871001629668245680e+00,5.026385010854035329e+00,-1.500767212081318469e+00,0.000000000000000000e+00,1.466999104702475069e-02,9.998913897744834411e-01,1.429075418668462873e+02
-3.654714171055460259e+00,4.624216495513512548e+00,-1.697815771238008198e+00,-0.000000000000000000e+00,1.173078338862832276e-01,9.930945937287509739e-01,1.445101447729561812e+02
-3.409623775138512780e+00,4.210648831847086271e+00,-1.899418154277116022e+00,-6.238211832797262435e-01,1.492848777286115702e-01,7.671760922850208164e-01,1.461127476790660751e+02
-3.097341936938697415e+00,3.731412596909060131e+00,-2.131745266561025698e+00,-9.724029976102895878e-01,1.153950487749722947e-01,2.027668438288051378e-01,1.479125925835833755e+02
-2.747195203222176918e+00,3.235374034002698185e+00,-2.370859606931595032e+00,-8.919444569141613544e-01,3.059098137380792878e-02,-4.511067253307957103e-01,1.497124374881006759e+02
-2.344055151624413025e+00,2.695238229465448665e+00,-2.629847714421856164e+00,-8.875683492961607968e-01,2.518998153244456778e-02,-4.599846627710009184e-01,1.516033948563057550e+02
-1.910794392283287069e+00,2.134972914127207133e+00,-2.897042971804999922e+00,9.999988887671568377e-07,-4.977924468360692689e-01,-8.672950362322000561e-01,1.534943522245108340e+02
-1.635884138984137426e+00,1.784218153224635506e+00,-3.063610292670730928e+00,0.000000000000000000e+00,1.466699169439841625e-02,9.998914337830109300e-01,1.546492817387693890e+02
-9.945919111567176341e-01,9.683721289541762367e-01,-3.449042373803626660e+00,2.505768424027117192e-01,-9.347684120886611270e-01,2.518278416159108191e-01,1.572381599301258746e+02
-4.687294605921385471e-01,2.954256452724688953e-01,-3.765222310953988405e+00,-2.403036737963788749e-01,-8.315884396735470085e-01,5.007123039844147971e-01,1.592757807236200449e+02
6.454009692208721727e-02,-4.006953971955831140e-01,-4.091207569294162738e+00,-6.558360672327365748e-01,-4.676606359489008935e-01,5.925964752685004555e-01,1.613134015171142153e+02
5.268148345174210601e-01,-1.019601596347583961e+00,-4.380385539774057868e+00,-8.657284703651269009e-01,4.290397375223124060e-02,4.986696949241365973e-01,1.630746862746346437e+02
9.868352027191722442e-01,-1.652936419171581184e+00,-4.675889512513465185e+00,-9.873306227655554990e-01,1.147701004132537471e-02,1.582546036915934984e-01,1.648359710321550722e+02
1.442223355182950861e+00,-2.300304923582233041e+00,-4.977712408266340205e+00,-9.789433609086330978e-01,-2.146098598945412120e-02,-2.029958674765960924e-01,1.665972557896755006e+02
2.027531057390918878e+00,-3.172664038745924397e+00,-5.384660951247461469e+00,-9.494871525968816561e-01,-0.000000000000000000e+00,-3.138027199357540376e-01,1.689064121708143489e+02
2.418330099244401232e+00,-3.783022019500597466e+00,-5.669664014255879181e+00,-9.494871519336460786e-01,-0.000000000000000000e+00,-3.138027197165566551e-01,1.704833263511160624e+02
2.801915440764889631e+00,-4.402633375646200165e+00,-5.959160372432171116e+00,-8.555062347831416947e-01,6.122994523220939844e-02,-5.141575401061950767e-01,1.720602405314177759e+02
3.177720764215433480e+00,-5.031214527673655290e+00,-6.253132839706059265e+00,1.016999272028908802e-02,-9.999472842347719714e-01,-0.000000000000000000e+00,1.736371547117194893e+02
3.610786848026739992e+00,-5.786592060388601411e+00,-6.607074551449773736e+00,2.883107282157467699e-01,-5.998124345698628845e-01,-7.463912963931577105e-01,1.755018574284269164e+02
4.030643701575551852e+00,-6.555403802558678272e+00,-6.968352267864973193e+00,0.000000000000000000e+00,-7.954388900866258272e-01,-6.060321543747713147e-01,1.773665601451343434e+02
4.437411644202063243e+00,-7.337077516464866278e+00,-7.336923782572654318e+00,-7.580441342002179894e-01,2.125597572249647224e-02,-6.518552554838002999e-01,1.792312628618417705e+02
4.779178780498585688e+00,-8.021920083109913335e+00,-7.660874954806834225e+00,5.646663325350368412e-01,-6.706362072731353319e-01,-4.810374313887459952e-01,1.808425461474889175e+02
5.113007063531171070e+00,-8.714540087063863183e+00,-7.989468326786688834e+00,0.000000000000000000e+00,1.466799147870281178e-02,9.998914191180195976e-01,1.824538294331360646e+02
5.439670834737834859e+00,-9.414614717354480078e+00,-8.322674989092512021e+00,-5.939584362336597367e-01,-8.044922364017138561e-01,-1.901998194684180032e-03,1.840651127187832117e+02
5.760008292224550353e+00,-1.012182161159846672e+01,-8.660464120007912214e+00,4.817995168104916535e-03,-1.888798105752711662e-02,-9.998089973065538150e-01,1.856763960044303587e+02
6.074742083957045402e+00,-1.083583589853670226e+01,-9.002801106755837779e+00,-6.696665005624242717e-01,1.278249046681289025e-01,7.315774543892071824e-01,1.872876792900775058e+02
6.427972317684175430e+00,-1.165901272175888970e+01,-9.399390922214820421e+00,-5.163343074813527833e-01,-6.993530620126739983e-01,-4.942693370753643567e-01,1.891264312842747870e+02
6.768527080547671382e+00,-1.247291816433503442e+01,-9.793773882447892376e+00,-2.327097549698321222e-01,-7.626911969294452032e-01,-6.034453646062709620e-01,1.909254521062549657e+02
7.105199032388090252e+00,-1.329465466634913184e+01,-1.019431074732333364e+01,-4.348255654856464925e-01,8.976721029703761401e-01,7.148092857023152780e-02,1.927244729282351443e+02
7.438886083098176449e+00,-1.412371082651067411e+01,-1.060092557439875272e+01,-9.089331001752508632e-01,0.000000000000000000e+00,-4.169395872385333601e-01,1.945234937502153230e+02
7.781939638363686740e+00,-1.498884534286550796e+01,-1.102810103988482915e+01,5.171696928925142295e-02,7.942155283762033502e-01,-6.054296404816885691e-01,1.963850754527980484e+02
7.820997177161466141e+00,-1.508808733883059539e+01,-1.107727516089970621e+01,0.000000000000000000e+00,6.060361314472544336e-01,7.954358600052631179e-01,1.965977098893566506e+02
8.222830655876064654e+00,-1.611741851712020690e+01,-1.159004193505974989e+01,-0.000000000000000000e+00,5.332983833063933421e-01,8.459260217912043522e-01,1.987919218826332894e+02
8.622209075956940083e+00,-1.715632314831481864e+01,-1.211323609535616974e+01,-4.039896372715058581e-02,7.947932863822599892e-01,6.055324563130938254e-01,2.009861338759099283e+02
9.043535084461455043e+00,-1.827212228057887344e+01,-1.268196525617221582e+01,-7.895990730977480235e-03,0.000000000000000000e+00,9.999678261480268171e-01,2.033230477967875345e+02
9.317745442312785897e+00,-1.901124102572534724e+01,-1.306215390048697245e+01,-0.000000000000000000e+00,-2.291096583233651063e-02,-9.997365090693745016e-01,2.048620966673256021e+02
9.588134652980404127e+00,-1.975274398329561620e+01,-1.344562354119116243e+01,-2.327326561490272172e-01,6.034521084293972271e-01,7.626788731797384813e-01,2.064011455378636697e+02
9.853772549203483777e+00,-2.049630228411805177e+01,-1.383228407552644335e+01,-0.000000000000000000e+00,2.371197228179532449e-02,-9.997178313758493529e-01,2.079401944084017373e+02
1.011374909384918297e+01,-2.124158151693204744e+01,-1.422204136243913730e+01,-0.000000000000000000e+00,2.371197226506416636e-02,-9.997178306704488371e-01,2.094792432789398049e+02
1.036694634548991267e+01,-2.198823891307612755e+01,-1.461479320600218124e+01,-9.089308576325502154e-01,-4.169444759735642103e-01,-0.000000000000000000e+00,2.110182921494778725e+02
1.062189025231809048e+01,-2.276619650461282163e+01,-1.502656618144454193e+01,-2.327328258595309507e-01,7.626824293289935497e-01,6.034475484752150898e-01,2.126196247326285231e+02
1.086711625899240374e+01,-2.354486030764409321e+01,-1.544147016122198757e+01,-9.089459700190846148e-01,4.169115275726710257e-01,-4.199995240734779347e-05,2.142209573157791738e+02
1.110196856593129766e+01,-2.432381418657105243e+01,-1.585938065725430413e+01,1.014498516991973152e-02,0.000000000000000000e+00,-9.999475382627959208e-01,2.158222898989298244e+02
1.132584990941112046e+01,-2.510263709852804226e+01,-1.628016699284806634e+01,1.004027351076989573e-02,3.742758063404566862e-03,-9.999415906281622357e-01,2.174236224820804750e+02
1.153796831030530079e+01,-2.588089997616554783e+01,-1.670368613658020962e+01,9.935421095298536259e-03,7.485463623178793650e-03,-9.999216245486868271e-01,2.190249550652311257e+02
1.176129659780670877e+01,-2.675694494035980497e+01,-1.718446625943150607e+01,9.830429393395585108e-03,1.122806421105260015e-02,-9.998876403027001647e-01,2.208303364716693977e+02
1.196658866082004380e+01,-2.763073424018475066e+01,-1.766871757606341831e+01,9.725299876922891690e-03,1.497050736023127979e-02,-9.998396383669616583e-01,2.226357178781076698e+02
1.215381795388321606e+01,-2.850156246009951388e+01,-1.815619921346324972e+01,9.620034019674006745e-03,1.871274060613073442e-02,-9.997776194147230955e-01,2.244410992845459418e+02
1.232310940322122939e+01,-2.936872046863595997e+01,-1.864665922926362285e+01,9.514633297353523519e-03,2.245471148711265796e-02,-9.997015843157182058e-01,2.262464806909842139e+02
1.245294157154545367e+01,-3.009876780143423147e+01,-1.906329438944414179e+01,9.409099187556415472e-03,2.619636754521974600e-02,-9.996115341361514472e-01,2.277728269828524503e+02
1.257141323511670628e+01,-3.082586824627354716e+01,-1.948140859696742311e+01,9.303433169747309800e-03,2.993765632691073458e-02,-9.995074701386825744e-01,2.292991732747206868e+02
1.267876621569170936e+01,-3.154965157993553149e+01,-1.990085597026813247e+01,9.197636725239771369e-03,3.367852538379551702e-02,-9.993893937824088747e-01,2.308255195665889232e+02
1.277522362364280006e+01,-3.226974653292672457e+01,-2.032148482628969433e+01,9.091711337175525931e-03,3.741892227337003524e-02,-9.992573067228444073e-01,2.323518658584571597e+02
1.286071169479362730e+01,-3.298577799551820533e+01,-2.074313188878420888e+01,8.985658490503705895e-03,4.115879455975127860e-02,-9.991112108118977986e-01,2.338782121503253961e+02
1.294789444622626462e+01,-3.384326263856806349e+01,-2.125325779041562768e+01,8.879479671960004150e-03,4.489808981441198443e-02,-9.989511080978450419e-01,2.357203943000762081e+02
1.301685608136366312e+01,-3.469205549740708960e+01,-2.176453845099776174e+01,8.773176370045867797e-03,4.863675561691538363e-02,-9.987770008253014087e-01,2.375625764498270200e+02
1.306872638228521666e+01,-3.553136264260353983e+01,-2.227661558672951969e+01,8.666750075007624218e-03,5.237473955564974498e-02,-9.985888914351902512e-01,2.394047585995778320e+02
1.310470877718373117e+01,-3.636039149570409279e+01,-2.278911727746564608e+01,8.560202278815605414e-03,5.611198922856290572e-02,-9.983867825647076977e-01,2.412469407493286440e+02
1.312524699444969478e+01,-3.715602746147146718e+01,-2.328747150984043301e+01,8.453534475143242855e-03,5.984845224389647583e-02,-9.981706770472869028e-01,2.430381597588659872e+02
1.313236788075648853e+01,-3.794077137035174019e+01,-2.378547721127246817e+01,8.346748159346122423e-03,6.358407622092011879e-02,-9.979405779125577469e-01,2.448293787684033305e+02
1.312734951443469988e+01,-3.871391326911871289e+01,-2.428276533240134683e+01,8.239844828441044572e-03,6.731880879066558243e-02,-9.976964883863045364e-01,2.466205977779406737e+02
1.311160974370681487e+01,-3.947474567755467234e+01,-2.477895412175224621e+01,8.132825981085041109e-03,7.105259759666045227e-02,-9.974384118904202623e-01,2.484118167874780170e+02
1.308694410066306268e+01,-4.020663391969849698e+01,-2.526295151411326501e+01,8.025693117554362488e-03,7.478539029566194651e-02,-9.971663520428594163e-01,2.501642124378294341e+02
1.305432589298981227e+01,-4.092568065482020501e+01,-2.574515131319552808e+01,7.918447739723480719e-03,7.851713455839033629e-02,-9.968803126575869200e-01,2.519166080881808512e+02
1.301511726777606803e+01,-4.163123832315695694e+01,-2.622515701970635504e+01,7.811091351044010742e-03,8.224777807026231735e-02,-9.965802977445245014e-01,2.536690037385322682e+02
1.297188266322099892e+01,-4.230413989223724514e+01,-2.668957558595209179e+01,7.703625456523669097e-03,8.597726853212406262e-02,-9.962663115094949617e-01,2.553735019126669386e+02
1.292502097842041131e+01,-4.296344576892909117e+01,-2.715119882098995774e+01,7.596051562705171886e-03,8.970555366098414973e-02,-9.959383583541630003e-01,2.570780000868015804e+02
1.287637619348269169e+01,-4.360858204128500404e+01,-2.760964001770121357e+01,7.488371177645118844e-03,9.343258119074608625e-02,-9.955964428759729312e-01,2.587824982609362223e+02
1.282787249641735805e+01,-4.423897884430707705e+01,-2.806450099865450198e+01,7.380585810892872217e-03,9.715829887294094580e-02,-9.952405698680856228e-01,2.604869964350708642e+02
1.277886960540447348e+01,-4.488558496767261374e+01,-2.853887391872971335e+01,7.272696973469394005e-03,1.008826544774593242e-01,-9.948707443193102185e-01,2.622813080703589890e+02
1.273411582922635432e+01,-4.551364604122431956e+01,-2.900805452158845554e+01,7.164706177846075393e-03,1.046055957932834346e-01,-9.944869714140344152e-01,2.640756197056471137e+02
1.269635523231501395e+01,-4.612247569293257499e+01,-2.947151172064307545e+01,7.056614937923544502e-03,1.083270706292186331e-01,-9.940892565321522989e-01,2.658699313409352385e+02
1.266831634248619309e+01,-4.671139450349937050e+01,-2.992869946110512203e+01,6.948424769010443786e-03,1.120470268146248199e-01,-9.936776052489887379e-01,2.676642429762233633e+02
1.265202071522281102e+01,-4.728598015916460184e+01,-3.038411015549496241e+01,6.840137187802206552e-03,1.157654122001475494e-01,-9.932520233352207795e-01,2.694790839320903615e+02
1.265006709874046997e+01,-4.783855381845211951e+01,-3.083182077033398016e+01,6.731753712359793591e-03,1.194821746584488059e-01,-9.928125167567978249e-01,2.712939248879573597e+02
1.267015696328588525e+01,-4.844317351367423186e+01,-3.133513481922753385e+01,6.623275862088424601e-03,1.231972620849374339e-01,-9.923590916748569191e-01,2.733795550726703141e+02
1.271791664976259106e+01,-4.901207640311289992e+01,-3.182466020796450934e+01,6.514705157716289656e-03,1.269106223984994009e-01,-9.918917544456372637e-01,2.754651852573832684e+02
1.277568345939712202e+01,-4.944719867404965186e+01,-3.221027164987864921e+01,6.406043121273233797e-03,1.306222035422275329e-01,-9.914105116203910661e-01,2.771503241305571805e+02
1.284862377407085710e+01,-4.986232268217329278e+01,-3.258739986336431116e+01,6.297291276069426867e-03,1.343319534841510843e-01,-9.909153699452912800e-01,2.788354630037310926e+02
1.293639845022722312e+01,-5.025689761141565270e+01,-3.295547479619557407e+01,6.188451146674030755e-03,1.380398202179647094e-01,-9.904063363613375692e-01,2.805206018769050047e+02
1.303930555582191886e+01,-5.063335559982364487e+01,-3.331686976427408808e+01,6.079524258893813718e-03,1.417457517637576436e-01,-9.898834180042589415e-01,2.822201010611022980e+02
1.315611998214153111e+01,-5.098756394050418805e+01,-3.366774180508306102e+01,5.970512139751787267e-03,1.454496961687414547e-01,-9.893466222044137170e-01,2.839196002452995913e+02
1.328638054617555753e+01,-5.131892525502988889e+01,-3.400745149742662932e+01,5.861416317465799677e-03,1.491516015079789592e-01,-9.887959564866872775e-01,2.856190994294968846e+02
1.344956921314408760e+01,-5.166243156235015732e+01,-3.437532191157571759e+01,5.752238321427124296e-03,1.528514158851109195e-01,-9.882314285703857060e-01,2.875356173344138142e+02
1.363037502489355468e+01,-5.197120922214095629e+01,-3.472516405059364786e+01,5.642979682179021829e-03,1.565490874330840720e-01,-9.876530463691286510e-01,2.894521352393307438e+02
1.380569240390583019e+01,-5.221841191457743747e+01,-3.502233424262617234e+01,5.533641931395301763e-03,1.602445643148775190e-01,-9.870608179907380819e-01,2.911639216021561083e+02
1.399281522589111759e+01,-5.243956563388717029e+01,-3.530512222678625989e+01,5.424226601858850826e-03,1.639377947242293965e-01,-9.864547517371246022e-01,2.928757079649814727e+02
1.405776244173535616e+01,-5.250889961752165647e+01,-3.539728074061395091e+01,5.314735227440156237e-03,1.676287268863626001e-01,-9.858348561041713198e-01,2.934503363860486616e+02
1.424694052983424619e+01,-5.269272816570909868e+01,-3.565146683577957276e+01,5.205169343075815962e-03,1.713173090587106207e-01,-9.852011397816150540e-01,2.950832174921559385e+02
1.444317742344689037e+01,-5.285259455788928307e+01,-3.589158407264867634e+01,5.095530484747020326e-03,1.750034895316423533e-01,-9.845536116529238768e-01,2.967160985982632155e+02
1.464403522004829306e+01,-5.298788811573130175e+01,-3.611692035353748054e+01,4.985820189458038849e-03,1.786872166291870456e-01,-9.838922807951737681e-01,2.983489797043704925e+02
1.490403139599748350e+01,-5.311830599811467124e+01,-3.637955313219041642e+01,4.876039995214669770e-03,1.823684387097581072e-01,-9.832171564789203844e-01,3.004448179621692248e+02
1.516113222620852774e+01,-5.319330725242719637e+01,-3.660743162862858924e+01,4.766191441002701722e-03,1.860471041668771697e-01,-9.825282481680702729e-01,3.025406562199679570e+02
1.537979540437202175e+01,-5.321489114504424833e+01,-3.677882096595671158e+01,4.656276066766335507e-03,1.897231614298968971e-01,-9.818255655197472009e-01,3.043780171839029549e+02
1.558789429542775018e+01,-5.319694290327045394e+01,-3.692416552394940510e+01,4.546295413386609342e-03,1.933965589647241856e-01,-9.811091183841581520e-01,3.062153781478379528e+02
1.578046775653914047e+01,-5.313832603616531003e+01,-3.704219770922608745e+01,4.436251022659806753e-03,1.970672452745417524e-01,-9.803789168044539926e-01,3.080527391117729508e+02
1.595198814061734360e+01,-5.303772267453303613e+01,-3.713167494984233485e+01,4.326144437275847993e-03,2.007351689005301976e-01,-9.796349710165900282e-01,3.098919162615485448e+02
1.609673346193055821e+01,-5.289393608826274829e+01,-3.719112941868039002e+01,4.215977200796682325e-03,2.044002784225890657e-01,-9.788772914491817856e-01,3.117310934113241387e+02
1.621024904144039525e+01,-5.270573086834927068e+01,-3.721923750211313120e+01,4.105750857634640413e-03,2.080625224600573531e-01,-9.781058887233595733e-01,3.135702705610997327e+02
1.628520833731646533e+01,-5.249516415697748783e+01,-3.721755545787203801e+01,3.995466953030806651e-03,2.117218496724335708e-01,-9.773207736526191569e-01,3.152534647345256644e+02
1.633201547137846887e+01,-5.224873212949362511e+01,-3.718989037520157126e+01,3.885127033033359840e-03,2.153782087600952799e-01,-9.765219572426706574e-01,3.169366589079515961e+02
1.634909868696194124e+01,-5.196553590327431493e+01,-3.713530139595977886e+01,3.774732644475904328e-03,2.190315484650179056e-01,-9.757094506912843412e-01,3.186198530813775278e+02
1.633440654049078589e+01,-5.164465751539587046e+01,-3.705282203133601371e+01,3.664285334955805912e-03,2.226818175714931347e-01,-9.748832653881340793e-01,3.203030472548034595e+02
1.629304449410203048e+01,-5.132010881010989323e+01,-3.695363875640200746e+01,3.553786652812490014e-03,2.263289649068466192e-01,-9.740434129146370301e-01,3.218368154976241158e+02
1.622539889640345834e+01,-5.096568821707534624e+01,-3.683192656825450229e+01,3.443238147105752000e-03,2.299729393421550971e-01,-9.731899050437923249e-01,3.233705837404447720e+02
1.613103744469885825e+01,-5.058074677647768169e+01,-3.668701068499389351e+01,3.332641367594051888e-03,2.336136897929629863e-01,-9.723227537400154219e-01,3.249043519832654283e+02
1.600951739271490837e+01,-5.016463057163213790e+01,-3.651820775220247128e+01,3.221997864712790403e-03,2.372511652199982002e-01,-9.714419711589712403e-01,3.264381202260860846e+02
1.585993810425042305e+01,-4.971667596355346319e+01,-3.632481712391690820e+01,3.111309189552588506e-03,2.408853146298872983e-01,-9.705475696474036296e-01,3.279718884689067409e+02
1.568139818577516742e+01,-4.923621212756486187e+01,-3.610612959068707539e+01,3.000576893837549140e-03,2.445160870758704974e-01,-9.696395617429620639e-01,3.295056567117273971e+02
1.540575596384246992e+01,-4.857168118441256155e+01,-3.578543414880292062e+01,2.889802529903508135e-03,2.481434316585151845e-01,-9.687179601740265600e-01,3.314514830423502190e+02
1.506842379484477767e+01,-4.783793795718490571e+01,-3.540982979595752766e+01,2.778987650676287714e-03,2.517672975264295676e-01,-9.677827778595293751e-01,3.333973093729730408e+02
1.466786216604904602e+01,-4.703320281285953541e+01,-3.497741461105160710e+01,2.668133809649932651e-03,2.553876338769751064e-01,-9.668340279087738187e-01,3.353431357035958627e+02
1.424174800300036203e+01,-4.622542244356093022e+01,-3.452656227193948268e+01,2.557242560864933859e-03,2.590043899569786090e-01,-9.658717236212507329e-01,3.371450062663768108e+02
1.376444443834438580e+01,-4.535839337552612704e+01,-3.402763055034198203e+01,2.446315458886462804e-03,2.626175150634433297e-01,-9.648958784864523075e-01,3.389468768291577589e+02
1.323543578293487677e+01,-4.443077737857521470e+01,-3.347916100252648164e+01,2.335354058782576452e-03,2.662269585442598729e-01,-9.639065061836831205e-01,3.407487473919387071e+02
1.275540397862936182e+01,-4.360926531535920248e+01,-3.298329539671389199e+01,2.224359916102427830e-03,2.698326697989155698e-01,-9.629036205818686245e-01,3.422586678572885148e+02
1.224556013941591281e+01,-4.275037890655594452e+01,-3.245666325942612929e+01,2.113334586854472702e-03,2.734345982792040775e-01,-9.618872357393606354e-01,3.437685883226383226e+02
1.170608343463642775e+01,-4.185344970780115403e+01,-3.189851693119376819e+01,2.002279627484655853e-03,2.770326934899333682e-01,-9.608573659037410453e-01,3.452785087879881303e+02
1.107726267477806914e+01,-4.082030515065826393e+01,-3.124557368436446225e+01,1.891196594854606698e-03,2.806269049896337742e-01,-9.598140255116214270e-01,3.469386984345326255e+02
1.041019682114372458e+01,-3.973495640809792917e+01,-3.054863555349078297e+01,1.780087046219817545e-03,2.842171823912646444e-01,-9.587572291884416398e-01,3.485988880810771207e+02
9.706141713174137209e+00,-3.859641878983654806e+01,-2.980656969522912192e+01,1.668952539207824897e-03,2.878034753629205578e-01,-9.576869917482645489e-01,3.502590777276216158e+02
8.924843890832722337e+00,-3.733622024537100970e+01,-2.897293815937092987e+01,1.557794631796376216e-03,2.913857336285366473e-01,-9.566033281935686361e-01,3.520088635867855942e+02
8.104803955082058309e+00,-3.601155932409145777e+01,-2.808372033526520539e+01,1.446614882291601253e-03,2.949639069685934811e-01,-9.555062537150380564e-01,3.537586494459495725e+02
7.249188966861885852e+00,-3.462123174569688899e+01,-2.713747570090975358e+01,1.335414849306174262e-03,2.985379452208203332e-01,-9.543957836913493642e-01,3.555084353051135508e+02
6.324946093836008920e+00,-3.310284555101704029e+01,-2.608995934469320943e+01,1.224196091737469495e-03,3.021077982808988427e-01,-9.532719336889572403e-01,3.573283425339731707e+02
5.370091797050688065e+00,-3.150800756362520971e+01,-2.497494839980040382e+01,1.112960168745715395e-03,3.056734161031646191e-01,-9.521347194618751120e-01,3.591482497628327906e+02
4.551445685916561956e+00,-3.011466950859579583e+01,-2.399045941302281548e+01,1.001708639732146622e-03,3.092347487013090701e-01,-9.509841569514553283e-01,3.606746455612080240e+02
3.722160175706648033e+00,-2.867427998686846990e+01,-2.296425638486317666e+01,8.904430643171514165e-04,3.127917461490796192e-01,-9.498202622861660060e-01,3.622010413595832574e+02
2.885620025330109417e+00,-2.718618073158825155e+01,-2.189547085573971685e+01,7.791650023184122382e-04,3.163443585809797010e-01,-9.486430517813647656e-01,3.637274371579584908e+02
1.228270222786681298e+00,-2.403866365341549383e+01,-1.958806713243560438e+01,6.678760137290491207e-04,3.198925361929674249e-01,-9.474525419390700254e-01,3.667233625326052788e+02
9.475396740533176265e-01,-2.347671241983152512e+01,-1.917000155334779876e+01,5.565776586957580339e-04,3.234362292431535169e-01,-9.462487494477307415e-01,3.672284575757428229e+02
-2.552728941174403632e-01,-2.096930654409627337e+01,-1.729057486047882719e+01,4.452714974969452914e-04,3.269753880524988165e-01,-9.450316911819917065e-01,3.694131690822193832e+02
-1.428049001902178095e+00,-1.831585267065623412e+01,-1.527410277589256715e+01,3.339590905208638001e-04,3.305099630055099991e-01,-9.438013842024579603e-01,3.715978805886959435e+02
-2.521553746009546515e+00,-1.559281248103550688e+01,-1.317839654700700791e+01,2.226419982437438357e-04,3.340399045509356846e-01,-9.425578457554553147e-01,3.737239837334024060e+02
-3.547051803035137230e+00,-1.273054913498332219e+01,-1.094953546329135463e+01,1.113217812079287636e-04,3.375651632024597726e-01,-9.413010932727894353e-01,3.758500868781088684e+02
-4.549030933026529055e+00,-9.463803709135786946e+00,-8.374158873770520373e+00,0.000000000000000000e+00,3.410856895393962751e-01,-9.400311443715009263e-01,3.781531696799910947e+02
-5.420586706000473320e+00,-5.902647382915056973e+00,-5.529393237375550996e+00,-3.179997568426643482e-04,9.704192579725104406e-02,9.952792389634183001e-01,3.805275593676896619e+02
-5.983471882408489151e+00,-2.719136517655625251e+00,-2.897041244375403668e+00,-4.477014130564030969e-01,5.740342474320694333e-01,-6.855991011687908587e-01,3.825859711819858262e+02
-6.288984392878089302e+00,-1.582040736030343453e-02,-5.646974511141592545e-01,4.157246280601000765e-01,9.043401909062455113e-01,9.664291353565998555e-02,3.843477663807043427e+02
-6.441212899981473505e+00,2.628726022355931224e+00,1.739852732480406283e+00,-8.479704324504611090e-01,5.300416452412962665e-01,0.000000000000000000e+00,3.861095615794228593e+02
-6.455775758452677593e+00,5.214793659773492074e+00,3.968467685691639435e+00,3.421418352604471136e-01,-8.417995946777782207e-03,9.396095475827834775e-01,3.878713567781413758e+02
-6.189991654437224433e+00,8.989865279692933697e+00,7.161632908700741318e+00,-6.700796228875678662e-02,-0.000000000000000000e+00,-9.977514384779677670e-01,3.905416662036265052e+02
-5.881893952572987416e+00,1.116465265441795296e+01,8.967290078385742547e+00,-5.300915303214140950e-01,-8.479392486978485355e-01,-0.000000000000000000e+00,3.921377518445078181e+02
-5.505440363715246477e+00,1.329668378475101065e+01,1.072020158424477287e+01,0.000000000000000000e+00,8.584009604374345237e-01,5.129773787610866220e-01,3.937338374853891310e+02
-4.951186398638573571e+00,1.585754795846935572e+01,1.279941761128177546e+01,-4.499992964603244145e-04,3.515004504557788789e-01,9.361865363435515341e-01,3.956998775320587924e+02
-4.303068253049731062e+00,1.834059994591471110e+01,1.478411185279635198e+01,-0.000000000000000000e+00,9.419726912952748332e-01,-3.356865336228355701e-01,3.976659175787284539e+02
-3.516119425510960461e+00,2.092270517850210609e+01,1.681211923492556082e+01,9.334680231831153918e-01,2.330827560932287046e-01,2.725947147463936293e-01,3.997808184345842051e+02
-2.650972381140238809e+00,2.341079798486806496e+01,1.872814377380113982e+01,6.818411546863434314e-01,5.506893172820425536e-02,-7.294230956965562784e-01,4.018957192904399562e+02
-1.893423784222562745e+00,2.539677272604941294e+01,2.023138705311977859e+01,4.606684729586386640e-01,4.802354505724604761e-01,7.464291460257076460e-01,4.036386057486217851e+02
-1.107127072592951622e+00,2.733109120657125501e+01,2.167486999651084645e+01,-2.031297923577761802e-02,9.495260293807026297e-01,-3.130266800195815047e-01,4.053814922068036140e+02
-2.984221300771214835e-01,2.921446192711773193e+01,2.305988457520481205e+01,-4.525244665821584467e-01,-6.821651958908010460e-01,5.743433229869360224e-01,4.071243786649854428e+02
7.426054690601030517e-01,3.150256404683451095e+01,2.470937148882396883e+01,-0.000000000000000000e+00,3.025597526116469496e-02,-9.995411827239251146e-01,4.093164075096505599e+02
1.801393162418738703e+00,3.369401144014740623e+01,2.624827731664880304e+01,4.606684729584335503e-01,4.802354505722466471e-01,7.464291460253751342e-01,4.115084363543156769e+02
3.175126724993703853e+00,3.636315390560313432e+01,2.805187327179255519e+01,6.426236280064211437e-01,1.961598864495250893e-02,-7.659295566286946633e-01,4.143394460944676894e+02
4.084491596331010221e+00,3.804128829193748373e+01,2.914239441841392164e+01,8.084710213412543700e-01,5.885342875759150827e-01,-0.000000000000000000e+00,4.162202302066826292e+02
4.843581985497543485e+00,3.940799653958448090e+01,3.001182592387331027e+01,7.364161080999043207e-01,-4.016585135368948012e-01,-5.443893406704447546e-01,4.177986149269111706e+02
5.597030211565453328e+00,4.074064321492524954e+01,3.084432159701485787e+01,4.034587101635577766e-01,-5.855715793374167699e-01,-7.030824949199910856e-01,4.193769996471397121e+02
6.342653754239937491e+00,4.203975430914362477e+01,3.164064840413205459e+01,-1.405218985059131509e-01,4.256286925831776480e-01,8.939193543530967734e-01,4.209553843673682536e+02
7.078467030390090287e+00,4.330586009502685840e+01,3.240156563048449101e+01,-0.000000000000000000e+00,5.892782266479996700e-01,-8.079289396970169568e-01,4.225337690875967951e+02
7.834993528985101818e+00,4.459472348010179132e+01,3.315954612815269087e+01,4.608364502586879130e-01,4.800774273057292763e-01,-7.464271095716964455e-01,4.241847532976448747e+02
8.575601345464756164e+00,4.584720034899433472e+01,3.387874064032684629e+01,0.000000000000000000e+00,-9.695091808009852208e-02,9.952881590187122596e-01,4.258357375076929543e+02
9.298625490744454325e+00,4.706393956246507315e+01,3.456003061824181799e+01,8.965938298732629708e-01,2.929696176511912761e-02,-4.418814233093617538e-01,4.274867217177410339e+02
1.000261383766829759e+01,4.824559174215709589e+01,3.520428762198233130e+01,7.364161080990846431e-01,-4.016585135364477699e-01,-5.443893406698389059e-01,4.291377059277891135e+02
1.074838018720193311e+01,4.949832230292462043e+01,3.586630687925335081e+01,9.334680231830139174e-01,2.330827560932033637e-01,2.725947147463639864e-01,4.309456491506165889e+02
1.146475176780186089e+01,5.070707314542775634e+01,3.648203892867230280e+01,9.360262369447575059e-01,-2.510647953301940460e-01,2.466157989570475217e-01,4.327535923734440644e+02
1.215018140078499620e+01,5.187278219065932205e+01,3.705267879616043558e+01,8.849807075424662717e-01,-1.526297770940048849e-02,-4.653753203492080326e-01,4.345615355962715398e+02
1.270016404317412118e+01,5.281663472644235213e+01,3.749818388079560805e+01,9.421051217342627515e-01,-0.000000000000000000e+00,-3.353146874070691563e-01,4.360720957677014553e+02
1.323100453721699488e+01,5.373605200426828077e+01,3.791860720967224552e+01,0.000000000000000000e+00,-9.950534475071191043e-01,-9.933094484754562137e-02,4.375826559391313708e+02
1.374232193511390854e+01,5.463148861135998402e+01,3.831450816089954969e+01,0.000000000000000000e+00,-0.000000000000000000e+00,-9.999989999999949752e-01,4.390932161105612863e+02
1.423383147931818726e+01,5.550339720103990260e+01,3.868643830451579646e+01,-0.000000000000000000e+00,8.051988582391039415e-03,-9.999665820611528533e-01,4.406037762819912018e+02
1.491644386257764587e+01,5.674988876551792316e+01,3.918542677264527896e+01,-0.000000000000000000e+00,8.052988511417209436e-03,-9.999665734241703907e-01,4.428572311856444799e+02
1.552752514156152053e+01,5.792385956174803852e+01,3.960936332733628973e+01,9.999988887662600415e-07,-4.977924468356228482e-01,-8.672950362314221229e-01,4.451106860892977579e+02
1.596866045860735106e+01,5.881401446943897326e+01,3.989996020528018050e+01,8.649910223442305313e-01,4.315195122752376461e-02,4.999264349583396605e-01,4.469081891462044496e+02
1.637421794131722663e+01,5.966897715374291522e+01,4.015475010249149790e+01,8.849408409610034498e-01,2.539496673929442228e-02,-4.650083909617074296e-01,4.487056922031111412e+02
1.674435671958427818e+01,6.048962288030923418e+01,4.037472481677425407e+01,9.968779763702703134e-01,0.000000000000000000e+00,-7.894491893655197767e-02,4.505031952600178329e+02
1.707946457337185819e+01,6.127681956621880488e+01,4.056085796824638123e+01,8.847879010075998529e-01,3.147796090131910196e-02,-4.649274225150418216e-01,4.523006983169245245e+02
1.737238320877331432e+01,6.201143472584153926e+01,4.071070966228830201e+01,0.000000000000000000e+00,-9.968312352734686188e-01,-7.953293898571150988e-02,4.540486153051133442e+02
1.763364746615410894e+01,6.271680267866648961e+01,4.083112215451178884e+01,-6.799996278746933513e-05,-9.702994690100219533e-02,9.952804553393420628e-01,4.557965322933021639e+02
1.786415067081309616e+01,6.339367910382713944e+01,4.092291716066220886e+01,9.421051217398740407e-01,-0.000000000000000000e+00,-3.353146874090663365e-01,4.575444492814909836e+02
1.806478802873313683e+01,6.404280997852401924e+01,4.098689811318012488e+01,9.474105094606788402e-01,1.330340827836802402e-02,-3.197410606919449116e-01,4.592923662696798033e+02
1.823588224345673225e+01,6.466492753347824873e+01,4.102383162937861272e+01,9.522917732520759238e-01,2.660086126421780037e-02,-3.040242963599754100e-01,4.610402832578686230e+02
1.840210886929708423e+01,6.539748134587892991e+01,4.102835407471606288e+01,9.567467279144740155e-01,3.988640612586743378e-02,-2.881714302842233177e-01,4.632146124760731709e+02
1.851334583275333401e+01,6.608141147110491431e+01,4.098411099702060056e+01,9.607733790931457518e-01,5.315409536175248750e-02,-2.721895592651262796e-01,4.653889416942777189e+02
1.856357956428639255e+01,6.653171312066038467e+01,4.092902105866720319e+01,9.643699241711407577e-01,6.639798946296385229e-02,-2.560858378554787818e-01,4.668978939869770670e+02
1.859694246124715278e+01,6.696665781465897282e+01,4.085856786687508446e+01,9.675347530763409587e-01,7.961215957221064177e-02,-2.398674751575512465e-01,4.684068462796764152e+02
1.861341291975215384e+01,6.738662815052171595e+01,4.077312769871015519e+01,9.702664490023151789e-01,9.279069013801699572e-02,-2.235417315957839157e-01,4.699157985723757633e+02
1.861322224850458795e+01,6.779200635052281143e+01,4.067307692545493580e+01,9.725637890426537258e-01,1.059276815629654339e-01,-2.071159156665018097e-01,4.714247508650751115e+02
1.859645738681617644e+01,6.818316999028377268e+01,4.055878324135862556e+01,9.744257447384937487e-01,1.190172528447995676e-01,-1.905973806661041547e-01,4.729337031577744597e+02
1.856265960528383019e+01,6.856048962295253091e+01,4.043059689244206822e+01,9.758514825389960068e-01,1.320535442092052314e-01,-1.739935213991951612e-01,4.744426554504738078e+02
1.851121576148999637e+01,6.892433410773529090e+01,4.028885944316204615e+01,9.768403641745599941e-01,1.450307197330898967e-01,-1.573117708681278926e-01,4.759516077431731560e+02
1.843829644623115627e+01,6.928809900012690548e+01,4.012739738235995191e+01,9.773919469426169959e-01,1.579429699571865131e-01,-1.405595969454454530e-01,4.775188745708272791e+02
1.834498427552996702e+01,6.963760423115014930e+01,3.995153744739727841e+01,9.775059839058670708e-01,1.707845144868120058e-01,-1.237444990307077219e-01,4.790861413984814021e+02
1.823142286020367919e+01,6.997328238280194057e+01,3.976167741777954490e+01,9.771824240028732511e-01,1.835496045796152498e-01,-1.068740046932010745e-01,4.806534082261355252e+02
1.809804694969417227e+01,7.029556496402847188e+01,3.955821516790582137e+01,9.764214120709650002e-01,1.962325257191564476e-01,-8.995566630203512271e-02,4.822206750537896482e+02
1.794558242890163058e+01,7.060488133131711663e+01,3.934154866436097819e+01,9.752232887814376028e-01,2.088276001731657894e-01,-7.299705764513367279e-02,4.837879418814437713e+02
1.777504631302202398e+01,7.090165760930372585e+01,3.911207596320739555e+01,9.735885904870773544e-01,2.213291895353346750e-01,-5.600577053863537574e-02,4.853552087090978944e+02
1.758733248803718396e+01,7.118631063265904402e+01,3.887018772892517404e+01,9.715180489820820497e-01,2.337316972495029899e-01,-3.898941142822034273e-02,4.869224755367520174e+02
1.738279148675300334e+01,7.145924394325392370e+01,3.861625975340286487e+01,9.690125911744822407e-01,2.460295711151112286e-01,-2.195559798388698261e-02,4.884897423644061405e+02
1.716163579063352884e+01,7.172085480190222029e+01,3.835066043173175387e+01,9.660733386712098136e-01,2.582173057727950582e-01,-4.911955689701676814e-03,4.900570091920602636e+02
1.692435109788572234e+01,7.197153917437999837e+01,3.807375823805068649e+01,9.627016072760021803e-01,2.702894451690112110e-01,1.213388556995159857e-02,4.916242760197143866e+02
1.667169631997098378e+01,7.221169071846415477e+01,3.778592172303942220e+01,9.588989064003631269e-01,2.822405849985891169e-01,2.917429492609157488e-02,4.931915428473685097e+02
1.628078605429863757e+01,7.253207102713807330e+01,3.735287785513567371e+01,9.546669383878474413e-01,2.940653751241160685e-01,4.620164394130196056e-02,4.954266676423670219e+02
1.585317627202660518e+01,7.282379468580035109e+01,3.689082354241397610e+01,9.500075977519684134e-01,3.057585219710713398e-01,6.320831002480614691e-02,4.976617924373655342e+02
1.539620488698879441e+01,7.308837960192212790e+01,3.640137897348083840e+01,9.449229703280731529e-01,3.173147908976380882e-01,8.018667984492379441e-02,4.998965018445167061e+02
1.491731189227340337e+01,7.332738264253518423e+01,3.588596175826963020e+01,9.394153323395619815e-01,3.287290085381309734e-01,9.712915273738316480e-02,5.021312112516678781e+02
1.436893793460535029e+01,7.356131256005278374e+01,3.528783773451717565e+01,9.334871493788725605e-01,3.399960651189907201e-01,1.140281441079615266e-01,5.045951062264240363e+02
1.401901286849357930e+01,7.369369730574020139e+01,3.490174411719292635e+01,9.271410753036836150e-01,3.511109167463077885e-01,1.308760888279306700e-01,5.061295306835615975e+02
1.366533966086112351e+01,7.381939506673677442e+01,3.450843633761484597e+01,9.203799510488324120e-01,3.620685876638528589e-01,1.476654446207883720e-01,5.076639551406991586e+02
1.330873559457060828e+01,7.393868482090343264e+01,3.410820686586368566e+01,9.132068033544805674e-01,3.728641724806001645e-01,1.643886954387563659e-01,5.091983795978367198e+02
1.294997193803275870e+01,7.405183739785762498e+01,3.370134217592855919e+01,9.056248434110930612e-01,3.834928383667490781e-01,1.810383548275365517e-01,5.107328040549742809e+02
1.258950964288469265e+01,7.415911117104066363e+01,3.328811670292731151e+01,8.976374654218411964e-01,3.939498272172592408e-01,1.976069692778164300e-01,5.122672285121118421e+02
1.222775005476066745e+01,7.426075799538958222e+01,3.286879888223273127e+01,8.892482450830727636e-01,4.042304577819305078e-01,2.140871215620233914e-01,5.138016529692494032e+02
1.182408861796108823e+01,7.436717455306423119e+01,3.239464221048200443e+01,8.804609379835274252e-01,4.143301277610745292e-01,2.304714340548357498e-01,5.155103037859190636e+02
