1.732893816709148993e+00,-3.360258920002296534e+00,4.092192632689593879e+00,-0.000000000000000000e+00,-7.954388900879372226e-01,-6.060321543757705154e-01,7.451672791455071376e+01
1.243857024967292446e+00,-3.496783144170338531e+00,3.958638657057548027e+00,-8.555062347860055150e-01,6.122994523241436643e-02,-5.141575401079161445e-01,7.615187650410845777e+01
7.842420474430973343e-01,-3.624846120017633400e+00,3.831536539066357605e+00,-0.000000000000000000e+00,8.051988583366573304e-03,-9.999665821823030543e-01,7.768280078376331232e+01
3.261249336985690417e-01,-3.753168973985753887e+00,3.702420447870463427e+00,1.014498516915121433e-02,0.000000000000000000e+00,-9.999475381870467361e-01,7.921372506341816688e+01
-1.830972603635835083e-01,-3.898185408243308281e+00,3.554429095029552510e+00,1.016999272028911230e-02,-9.999472842347744139e-01,-0.000000000000000000e+00,8.093663741242184528e+01
-6.800681182265152502e-01,-4.044158829181994541e+00,3.403320646459421006e+00,-9.494871526040852272e-01,-0.000000000000000000e+00,-3.138027199381347998e-01,8.265954976142552368e+01
-1.159035725424872210e+00,-4.191297120305359947e+00,3.248966363309646610e+00,2.883107282158195450e-01,-5.998124345700143190e-01,-7.463912963933461153e-01,8.438246211042920208e+01
-1.614382555677116082e+00,-4.339831332771253436e+00,3.091237533389185721e+00,-9.789433609091157118e-01,-2.146098598946470301e-02,-2.029958674766961790e-01,8.610537445943288049e+01
-2.040465497204143830e+00,-4.490016666543213297e+00,2.930005944995076828e+00,-9.494871525968816561e-01,-0.000000000000000000e+00,-3.138027199357540376e-01,8.782828680843655889e+01
-2.431457485122180184e+00,-4.642134318693034167e+00,2.765144360737080031e+00,6.426236280063962747e-01,1.961598864495174219e-02,-7.659295566286647983e-01,8.955119915744023729e+01
-2.828846273431939284e+00,-4.820873820052756109e+00,2.569905772935033639e+00,-7.580441342002788296e-01,2.125597572249817227e-02,-6.518552554838524804e-01,9.153933715512734182e+01
-3.163801071116120411e+00,-5.003923482078084461e+00,2.368996707885807851e+00,6.818411546864246997e-01,5.506893172821083343e-02,-7.294230956966434309e-01,9.352747515281444635e+01
-3.447764838988085501e+00,-5.198254885191500918e+00,2.155568734558603428e+00,6.679234770728493809e-01,-1.339725261812148467e-02,-7.441080179635792824e-01,9.558130081828336699e+01
-3.674108549226581033e+00,-5.398612477166427226e+00,1.936279867340999772e+00,6.506014094351377786e-01,-8.179514871907574147e-02,-7.550002382036330451e-01,9.763512648375228764e+01
-3.836721822551625305e+00,-5.585800613370340173e+00,1.732638627170835388e+00,6.299632414842396555e-01,-1.497761367629207030e-01,-7.620442396839779420e-01,9.949857698293118347e+01
-3.964983756208549703e+00,-5.778230943936512709e+00,1.524934461664193108e+00,6.061141644982365184e-01,-2.169937218468697970e-01,-7.652041193525281892e-01,1.013620274821100793e+02
-4.050792119445620898e+00,-5.944894251198610036e+00,1.346523621206775934e+00,5.791757352260342717e-01,-2.831052998795881570e-01,-7.644637708261954323e-01,1.029371329879297292e+02
-4.119522333219885368e+00,-6.115068840514807036e+00,1.165829747124730531e+00,5.492852564004970795e-01,-3.477739036636814385e-01,-7.598269665073542622e-01,1.045122384937493791e+02
-4.178450628514881693e+00,-6.319928480469476639e+00,9.507633763478727795e-01,5.165950770141912729e-01,-4.106699202661633352e-01,-7.513173384085608530e-01,1.063603139060494271e+02
-4.214319939153771344e+00,-6.531116394120110691e+00,7.322886044844408859e-01,4.812718159193227763e-01,-4.714727709303347947e-01,-7.389782577808593489e-01,1.082083893183494752e+02
-4.229355483579446684e+00,-6.725492519655213997e+00,5.340848998791117852e-01,4.434955127035939415e-01,-5.298725449722425651e-01,-7.228726141555230633e-01,1.098626880608249223e+02
-4.230314394253548826e+00,-6.924819208026340434e+00,3.336392704748976090e-01,4.034587101639421358e-01,-5.855715793379746570e-01,-7.030824949206608832e-01,1.115169868033003695e+02
-4.216704879345393842e+00,-7.137072461128786571e+00,1.234566060632701495e-01,9.115562788196621691e-01,-3.284527237171949721e-01,-2.473498712871834149e-01,1.132325929909867881e+02
-4.187087111541297979e+00,-7.358857332127610285e+00,-9.243760412615190103e-02,9.347363262714887266e-01,1.033921458138483129e-01,3.399647989598421072e-01,1.149755390244822024e+02
-4.140757871585039496e+00,-7.587119803329470891e+00,-3.106226454127555825e-01,4.606684729585219795e-01,4.802354505723388511e-01,7.464291460255184640e-01,1.167184850579776167e+02
-4.076670432133702171e+00,-7.822095859794207406e+00,-5.309900768376989433e-01,8.849807075428504088e-01,-1.526297770940711167e-02,-4.653753203494099266e-01,1.184614310914730311e+02
-4.004350836990780316e+00,-8.036979699994102333e+00,-7.289707700631162801e-01,-6.700796228892405559e-02,-0.000000000000000000e+00,-9.977514384804584413e-01,1.200141501763386742e+02
-3.917463070017924487e+00,-8.256957951902807125e+00,-9.283503635518123298e-01,-0.000000000000000000e+00,9.419726912952172126e-01,-3.356865336228150309e-01,1.215668692612043174e+02
-3.815297077824830740e+00,-8.482187183386409757e+00,-1.129062432051416653e+00,8.084710213412370505e-01,5.885342875759024261e-01,-0.000000000000000000e+00,1.231195883460699605e+02
-3.698306472919179910e+00,-8.712824825554854158e+00,-1.331046238316762498e+00,0.000000000000000000e+00,3.025597526117207101e-02,-9.995411827241688085e-01,1.246723074309356036e+02
-3.568264513909404023e+00,-8.949022490339199720e+00,-1.534247386711729888e+00,4.608364502589717415e-01,4.800774273060249842e-01,-7.464271095721561888e-01,1.262250265158012468e+02
-3.427242910690437405e+00,-9.190921369466163782e+00,-1.738612273131836305e+00,-2.031297923577069647e-02,9.495260293803791107e-01,-3.130266800194748678e-01,1.277777456006668899e+02
-3.331030750216182668e+00,-9.351227588636403354e+00,-1.872257171994023972e+00,-7.844274623936443591e-01,4.435458037912078377e-01,4.335189455803467040e-01,1.287891956471853803e+02
-3.052767633387856172e+00,-9.797278822499460915e+00,-2.232631027289970316e+00,-4.525244665821584467e-01,-6.821651958908010460e-01,5.743433229869360224e-01,1.314930740415271373e+02
-2.868776692981227505e+00,-1.008276086643611613e+01,-2.455029496608464701e+00,-4.348255654857354213e-01,8.976721029705597710e-01,7.148092857024616886e-02,1.331447388182745044e+02
-2.679344515179146402e+00,-1.037563766015280819e+01,-2.678714395557154848e+00,-0.000000000000000000e+00,1.466799147870492641e-02,9.998914191181637046e-01,1.347964035950218715e+02
-2.485365455315331484e+00,-1.067595475629121715e+01,-2.903806195586430494e+00,-4.477014130563690686e-01,5.740342474320258015e-01,-6.855991011687386782e-01,1.364480683717692386e+02
-2.287619246602156764e+00,-1.098375115217919173e+01,-3.130422902452241640e+00,0.000000000000000000e+00,8.584009604378193270e-01,5.129773787613166602e-01,1.380997331485166058e+02
-2.092701164230808875e+00,-1.128948806348926404e+01,-3.351848404157012684e+00,-6.696665005626494249e-01,1.278249046681718959e-01,7.315774543894532078e-01,1.397023360546264996e+02
-1.895208821467658344e+00,-1.160212871844823468e+01,-3.574867916780278598e+00,4.606684729586264515e-01,4.802354505724477085e-01,7.464291460256877730e-01,1.413049389607363935e+02
-1.695506492489559980e+00,-1.192169393507771069e+01,-3.799579453369464233e+00,-1.405218985060698034e-01,4.256286925836522128e-01,8.939193543540933096e-01,1.429075418668462873e+02
-1.494000365515222084e+00,-1.224820009830602352e+01,-4.026079580163616001e+00,-0.000000000000000000e+00,3.410856895399214106e-01,-9.400311443729482130e-01,1.445101447729561812e+02
-1.291167006505090198e+00,-1.258165593154958017e+01,-4.254461981189971098e+00,5.171696928920894304e-02,7.942155283755510942e-01,-6.054296404811914112e-01,1.461127476790660751e+02
-1.062291055673075135e+00,-1.296492251185927280e+01,-4.513472039693699145e+00,4.918374228305018997e-02,9.711220426884974444e-01,-2.334543589222786708e-01,1.479125925835833755e+02
-8.328690387848742827e-01,-1.335792340455450500e+01,-4.775428261827643794e+00,3.830559783906528626e-02,9.832599670384353230e-01,1.781306217201632514e-01,1.497124374881006759e+02
-5.921668629202494483e-01,-1.378154393044332870e+01,-5.054068206563965049e+00,2.092822032345144356e-02,8.285700461998124489e-01,5.594923485943525954e-01,1.516033948563057550e+02
-3.528777326709809370e-01,-1.421637112738582687e+01,-5.336466597621018160e+00,0.000000000000000000e+00,5.332983833118861705e-01,8.459260217999169384e-01,1.534943522245108340e+02
-2.078244895981866125e-01,-1.448671311361983527e+01,-5.510570563674233036e+00,-7.895990730972598723e-03,0.000000000000000000e+00,9.999678261474086449e-01,1.546492817387693890e+02
1.117210264161264538e-01,-1.510958536726398904e+01,-5.907171884826757591e+00,-0.000000000000000000e+00,6.060361314468605265e-01,7.954358600047460870e-01,1.572381599301258746e+02
3.563596839641389180e-01,-1.561753147510071571e+01,-6.226220276164213807e+00,-9.089459700192167313e-01,4.169115275727316439e-01,-4.199995240735389889e-05,1.592757807236200449e+02
5.937570272685419592e-01,-1.613900196311805146e+01,-6.550790688870484324e+00,-2.327326561491338541e-01,6.034521084296737836e-01,7.626788731800879795e-01,1.613134015171142153e+02
7.925666223034559810e-01,-1.659990187845986043e+01,-6.835648610760826749e+00,-2.327328258587249010e-01,7.626824293263519960e-01,6.034475484731250949e-01,1.630746862746346437e+02
9.852782210770626437e-01,-1.706942479679568336e+01,-7.124307044992298721e+00,-4.039896372705728544e-02,7.947932863804244574e-01,6.055324563116953884e-01,1.648359710321550722e+02
1.171666516850204065e+00,-1.754744668267530017e+01,-7.416867420226019192e+00,-4.015030809792682898e-02,7.907299022706157920e-01,6.108454587003353531e-01,1.665972557896755006e+02
1.405216079926622896e+00,-1.818881332170979803e+01,-7.807599033118845178e+00,-3.989985369718692526e-02,7.866310927077969639e-01,6.161310945410645168e-01,1.689064121708143489e+02
1.557875770740019039e+00,-1.863595973145121576e+01,-8.079039589941604760e+00,-3.964761174561015622e-02,7.824970413261301827e-01,6.213891270362090768e-01,1.704833263511160624e+02
1.706046311289356687e+00,-1.908892500915540325e+01,-8.353476561095762420e+00,-3.939359354389777856e-02,7.783279333355921370e-01,6.266193206224608403e-01,1.720602405314177759e+02
1.849999815864636910e+00,-1.954760032864987807e+01,-8.630956083287601999e+00,-3.913781047232649246e-02,7.741239555166881114e-01,6.318214409837237255e-01,1.736371547117194893e+02
2.015083050297707068e+00,-2.009782821552050081e+01,-8.963462559581566680e+00,-3.888027399023858549e-02,7.698852962120833476e-01,6.369952550616108100e-01,1.755018574284269164e+02
2.175197845435172805e+00,-2.065694316540626119e+01,-9.301158303981500453e+00,-3.862099563552854470e-02,7.656121453181661263e-01,6.421405310658837573e-01,1.773665601451343434e+02
2.331525498988465728e+00,-2.122471184550647649e+01,-9.644118969120437868e+00,-3.835998702412619921e-02,7.613046942765395730e-01,6.472570384848375102e-01,1.792312628618417705e+02
2.464605567984790024e+00,-2.172171704714371288e+01,-9.944486226185363265e+00,-3.809725984947626848e-02,7.569631360654449637e-01,6.523445480956256981e-01,1.808425461474889175e+02
2.596895234334930080e+00,-2.222407623243729802e+01,-1.024832282048543419e+01,-3.783282588201453828e-02,7.525876651911167503e-01,6.574028319745296445e-01,1.824538294331360646e+02
2.729472172234629124e+00,-2.273165381609926072e+01,-1.055566303905930248e+01,-3.756669696864051167e-02,7.481784776790679770e-01,6.624316635071684223e-01,1.840651127187832117e+02
2.863367942379423603e+00,-2.324431294886610644e+01,-1.086653843581234469e+01,-3.729888503218668078e-02,7.437357710653087484e-01,6.674308173986505111e-01,1.856763960044303587e+02
2.999412422898684483e+00,-2.376190955210972078e+01,-1.118097512350802880e+01,-3.702940207088439850e-02,7.392597443874961982e-01,6.724000696836665014e-01,1.872876792900775058e+02
3.158838623893418518e+00,-2.435880207098992756e+01,-1.154451760270781513e+01,-3.675826015782631545e-02,7.347505981760173999e-01,6.773391977365219585e-01,1.891264312842747870e+02
3.320527801118395406e+00,-2.494929424918079519e+01,-1.190534439187431026e+01,-3.648547144042556950e-02,7.302085344450064408e-01,6.822479802811104443e-01,1.909254521062549657e+02
3.488563591602893865e+00,-2.554590187747780661e+01,-1.227121948875539914e+01,-3.621104813987153365e-02,7.256337566832935515e-01,6.871261974008261442e-01,1.927244729282351443e+02
3.663467790239456345e+00,-2.614836717208354244e+01,-1.264215359348013834e+01,-3.593500255058234422e-02,7.210264698452889531e-01,6.919736305484152084e-01,1.945234937502153230e+02
3.852304616308110052e+00,-2.677774462119781873e+01,-1.303140845468283082e+01,-3.565734703965409147e-02,7.163868803418003139e-01,6.967900625557661431e-01,1.963850754527980484e+02
3.874341806239514074e+00,-2.684998586890067074e+01,-1.307619401688891259e+01,-3.537809404630679749e-02,7.117151960307871450e-01,7.015752776436381399e-01,1.965977098893566506e+02
4.108592014992615837e+00,-2.759999138974605870e+01,-1.354294635468177788e+01,-3.509725608132710506e-02,7.070116262080469172e-01,7.063290614313277871e-01,1.987919218826332894e+02
4.356075510646743254e+00,-2.835850382266206893e+01,-1.401876571549724382e+01,-3.481484572650788561e-02,7.022763815978403379e-01,7.110512009462726102e-01,2.009861338759099283e+02
4.632984185081716610e+00,-2.917501643715646154e+01,-1.453568123417418079e+01,-3.453087563408450272e-02,6.975096743434500146e-01,7.157414846335908853e-01,2.033230477967875345e+02
4.820738751137289668e+00,-2.971684237596064548e+01,-1.488112902643478641e+01,-3.424535852616805709e-02,6.927117179976769457e-01,7.203997023655592802e-01,2.048620966673256021e+02
5.009999885865545011e+00,-3.026099176445069361e+01,-1.522953049357987609e+01,-3.395830719417537030e-02,6.878827275132733954e-01,7.250256454510263238e-01,2.064011455378636697e+02
5.199769289321332089e+00,-3.080722876642601449e+01,-1.558082909364257063e+01,-3.366973449825604731e-02,6.830229192333127086e-01,7.296191066447601514e-01,2.079401944084017373e+02
5.389054154794767015e+00,-3.135530982593671467e+01,-1.593496354025884010e+01,-3.337965336671625677e-02,6.781325108814983960e-01,7.341798801567334110e-01,2.094792432789398049e+02
5.576680810706472258e+00,-3.190497901797291647e+01,-1.629186307786204324e+01,-3.308807679543961794e-02,6.732117215524091591e-01,7.387077616613414444e-01,2.110182921494778725e+02
5.768860464466116333e+00,-3.247830338728942934e+01,-1.666611865866715547e+01,-3.279501784730495806e-02,6.682607717016840754e-01,7.432025483065558547e-01,2.126196247326285231e+02
5.956853793368802386e+00,-3.305277480117106848e+01,-1.704331765093637330e+01,-3.250048965160114850e-02,6.632798831361467196e-01,7.476640387230113483e-01,2.142209573157791738e+02
6.139813231825020701e+00,-3.362807535158003702e+01,-1.742337158319795520e+01,-3.220450540343889473e-02,6.582692790038678909e-01,7.520920330330268522e-01,2.158222898989298244e+02
6.316951670438418098e+00,-3.420387940450284958e+01,-1.780618493670212743e+01,-3.190707836315961887e-02,6.532291837841692761e-01,7.564863328595590186e-01,2.174236224820804750e+02
6.487351878947661632e+00,-3.477984858704962079e+01,-1.819164811933282522e+01,-3.160822185574140714e-02,6.481598232775662716e-01,7.608467413350896713e-01,2.190249550652311257e+02
6.669852670695194163e+00,-3.542888588982508224e+01,-1.862946289501127239e+01,-3.130794927020211227e-02,6.430614245956536301e-01,7.651730631104441960e-01,2.208303364716693977e+02
6.840955047542316869e+00,-3.607699815058027326e+01,-1.907073010840074545e+01,-3.100627405899947231e-02,6.379342161509299336e-01,7.694651043635426513e-01,2.226357178781076698e+02
7.000262206495448503e+00,-3.672361965319431931e+01,-1.951526150096518819e+01,-3.070320973742850582e-02,6.327784276465655555e-01,7.737226728080831561e-01,2.244410992845459418e+02
7.147534012306341999e+00,-3.736817626707148321e+01,-1.996285639436554860e+01,-3.039876988301604133e-02,6.275942900661121149e-01,7.779455777021551111e-01,2.262464806909842139e+02
7.262907478190957278e+00,-3.791126888934008576e+01,-2.034334419237376679e+01,-3.009296813491245046e-02,6.223820356631551975e-01,7.821336298567842515e-01,2.277728269828524503e+02
7.370309370922902836e+00,-3.845251631816876170e+01,-2.072541530731229287e+01,-2.978581819328064706e-02,6.171418979509090130e-01,7.862866416444074247e-01,2.292991732747206868e+02
7.469826031860227644e+00,-3.899161132095715487e+01,-2.110894799543515887e+01,-2.947733381868232472e-02,6.118741116917555400e-01,7.904044270072784206e-01,2.308255195665889232e+02
7.561522381533198001e+00,-3.952824358962774909e+01,-2.149381405069486917e+01,-2.916752883146153663e-02,6.065789128867278279e-01,7.944868014658021949e-01,2.323518658584571597e+02
7.645197582679982062e+00,-4.006209557289878376e+01,-2.187987235292328947e+01,-2.885641711112553118e-02,6.012565387649373427e-01,7.985335821267995904e-01,2.338782121503253961e+02
7.734252717539162880e+00,-4.070170048391612028e+01,-2.234734070237644588e+01,-2.854401259572298191e-02,5.959072277729466904e-01,8.025445876917000065e-01,2.357203943000762081e+02
7.809527518795892576e+00,-4.133508394012847731e+01,-2.281635424622196595e+01,-2.823032928121962243e-02,5.905312195640867179e-01,8.065196384646640126e-01,2.375625764498270200e+02
7.871737639611874116e+00,-4.196156650945975031e+01,-2.328660026199315070e+01,-2.791538122087117504e-02,5.851287549877219885e-01,8.104585563606319099e-01,2.394047585995778320e+02
7.921656946205045458e+00,-4.258046545405770900e+01,-2.375775101457980654e+01,-2.759918252459388210e-02,5.797000760784594142e-01,8.143611649133027930e-01,2.412469407493286440e+02
7.958807526175940339e+00,-4.317442932930487132e+01,-2.421639077105349358e+01,-2.728174735833235193e-02,5.742454260453072612e-01,8.182272892830390054e-01,2.430381597588659872e+02
7.985176761291636005e+00,-4.376016217057942725e+01,-2.467519720293651275e+01,-2.696308994342494145e-02,5.687650492607784214e-01,8.220567562646987625e-01,2.448293787684033305e+02
8.001641725219490908e+00,-4.433704027471453202e+01,-2.513383706795269390e+01,-2.664322455596669983e-02,5.632591912499435027e-01,8.258493942953958333e-01,2.466205977779406737e+02
8.009240134672696243e+00,-4.490443843922997047e+01,-2.559196323645302940e+01,-2.632216552616980371e-02,5.577280986794318496e-01,8.296050334621840605e-01,2.484118167874780170e+02
8.008927417748557431e+00,-4.544986691781640076e+01,-2.603931400653930339e+01,-2.599992723772160536e-02,5.521720193463811599e-01,8.333235055096704924e-01,2.501642124378294341e+02
8.001925534990910194e+00,-4.598524400967426118e+01,-2.648547415316015119e+01,-2.567652412714027665e-02,5.465912021673372534e-01,8.370046438475514661e-01,2.519166080881808512e+02
7.989428393965413377e+00,-4.650998611156155249e+01,-2.693007459385505697e+01,-2.535197068312804516e-02,5.409858971671018812e-01,8.406482835580767476e-01,2.536690037385322682e+02
7.973217085381172353e+00,-4.700977204923628960e+01,-2.736067948220422608e+01,-2.502628144592218204e-02,5.353563554675332403e-01,8.442542614034365123e-01,2.553735019126669386e+02
7.954461324748684170e+00,-4.749869766981792196e+01,-2.778911777207975220e+01,-2.469947100664357173e-02,5.297028292762959722e-01,8.478224158330747162e-01,2.570780000868015804e+02
7.935033635768022009e+00,-4.797624070627281156e+01,-2.821502448153434273e+01,-2.437155400664312022e-02,5.240255718755620906e-01,8.513525869909260857e-01,2.587824982609362223e+02
7.916902153560658739e+00,-4.844188113260987194e+01,-2.863802221923661051e+01,-2.404254513684580402e-02,5.183248376106655009e-01,8.548446167225772774e-01,2.604869964350708642e+02
7.901261396952498295e+00,-4.891824698434593444e+01,-2.907961962332059969e+01,-2.371245913709255082e-02,5.126008818787070043e-01,8.582983485823517666e-01,2.622813080703589890e+02
7.891464676743891182e+00,-4.937947888504994864e+01,-2.951685201405723191e+01,-2.338131079547996205e-02,5.068539611171133386e-01,8.617136278403192406e-01,2.640756197056471137e+02
7.890383894841793477e+00,-4.982494605470230908e+01,-2.994921036164549832e+01,-2.304911494769780814e-02,5.010843327921498114e-01,8.650903014892256104e-01,2.658699313409352385e+02
7.900839518686770369e+00,-5.025402278085432073e+01,-3.037616952249493352e+01,-2.271588647636441430e-02,4.952922553873854716e-01,8.684282182513494153e-01,2.676642429762233633e+02
7.925386376408662947e+00,-5.067058904315940282e+01,-3.080191536159405885e+01,-2.238164031035997162e-02,4.894779883921142605e-01,8.717272285852772917e-01,2.694790839320903615e+02
7.966226602963892844e+00,-5.106888426288109883e+01,-3.122089919899300625e+01,-2.204639142415775604e-02,4.836417922897300881e-01,8.749871846926040586e-01,2.712939248879573597e+02
8.037992669068492191e+00,-5.150124400992083196e+01,-3.169247632119346392e+01,-2.171015483715327613e-02,4.777839285460582786e-01,8.782079405245537540e-01,2.733795550726703141e+02
8.140050643460297053e+00,-5.190366968465880859e+01,-3.215174030158426888e+01,-2.137294561299146051e-02,4.719046595976416070e-01,8.813893517885222906e-01,2.754651852573832684e+02
8.243332831466370081e+00,-5.220819696908094443e+01,-3.251389901813579542e+01,-2.103477885889184704e-02,4.660042488399847582e-01,8.845312759545415071e-01,2.771503241305571805e+02
8.362974790203447029e+00,-5.249586511751341789e+01,-3.286837157269184928e+01,-2.069566972497179427e-02,4.600829606157538776e-01,8.876335722616649493e-01,2.788354630037310926e+02
8.498487450919299135e+00,-5.276614070500467335e+01,-3.321459363472455806e+01,-2.035563340356777440e-02,4.541410602029351540e-01,8.906961017242731593e-01,2.805206018769050047e+02
8.650464179814742138e+00,-5.302046316580774032e+01,-3.355477018867043881e+01,-2.001468512855483078e-02,4.481788138029508817e-01,8.937187271383005838e-01,2.822201010611022980e+02
8.817169157984636740e+00,-5.325579639888250227e+01,-3.388525473254086506e+01,-1.967284017466411003e-02,4.421964885287339997e-01,8.967013130873818794e-01,2.839196002452995913e+02
8.998058228554921101e+00,-5.347155150250411992e+01,-3.420541032241884238e+01,-1.933011385679857252e-02,4.361943523927622746e-01,8.996437259489187266e-01,2.856190994294968846e+02
9.219209601454098291e+00,-5.368886522040639875e+01,-3.455229832392110012e+01,-1.898652152934696830e-02,4.301726742950521265e-01,9.025458339000660413e-01,2.875356173344138142e+02
9.458925403556364131e+00,-5.387611426858191521e+01,-3.488235465762800658e+01,-1.864207858549591854e-02,4.241317240111117659e-01,9.054075069236372508e-01,2.894521352393307438e+02
9.687688320090297012e+00,-5.401852697349377053e+01,-3.516281256916337838e+01,-1.829680045654042894e-02,4.180717721798571374e-01,9.082286168139299676e-01,2.911639216021561083e+02
9.929137039998165548e+00,-5.413823328630338949e+01,-3.542973769759498026e+01,-1.795070261119249486e-02,4.119930902914861748e-01,9.110090371824682842e-01,2.928757079649814727e+02
1.001251463932828045e+01,-5.417414448398960758e+01,-3.551672949260281342e+01,-1.760380055488822496e-02,4.058959506753184177e-01,9.137486434636660215e-01,2.934503363860486616e+02
1.025468502961171957e+01,-5.426464662455889965e+01,-3.575664331903715976e+01,-1.725610982909319899e-02,3.997806264875943816e-01,9.164473129204068202e-01,2.950832174921559385e+02
1.050504674664769666e+01,-5.433407052657555880e+01,-3.598321273682294219e+01,-1.690764601060622957e-02,3.936473916992385136e-01,9.191049246495428537e-01,2.967160985982632155e+02
1.076132349065214910e+01,-5.438178674162426063e+01,-3.619571683806959328e+01,-1.655842471086158008e-02,3.874965210835866758e-01,9.217213595873113841e-01,2.983489797043704925e+02
1.109488846986085697e+01,-5.440456899497534948e+01,-3.644307421681699566e+01,-1.620846157522958658e-02,3.813282902040762701e-01,9.242965005146689395e-01,3.004448179621692248e+02
1.142893121440019577e+01,-5.437778426176623014e+01,-3.665714021794870092e+01,-1.585777228231578101e-02,3.751429754019021678e-01,9.268302320625428914e-01,3.025406562199679570e+02
1.171801194296261883e+01,-5.431464387435125474e+01,-3.681753309556043519e+01,-1.550637254325855016e-02,3.689408537836368351e-01,9.293224407169995427e-01,3.043780171839029549e+02
1.199935351054304178e+01,-5.421586374870695835e+01,-3.695282608402207813e+01,-1.515427810102526994e-02,3.627222032088165959e-01,9.317730148243307253e-01,3.062153781478379528e+02
1.226808165109720683e+01,-5.408026002688573186e+01,-3.706172948656215027e+01,-1.480150472970707780e-02,3.564873022774944222e-01,9.341818445960546891e-01,3.080527391117729508e+02
1.251869580150622419e+01,-5.390639325427773088e+01,-3.714296925650033643e+01,-1.444806823381223834e-02,3.502364303177591953e-01,9.365488221138360547e-01,3.098919162615485448e+02
1.274532588282664136e+01,-5.369309033086729244e+01,-3.719506213084610380e+01,-1.409398444755808819e-02,3.439698673732221601e-01,9.388738413343200584e-01,3.117310934113241387e+02
1.294353530127392915e+01,-5.343905962341988669e+01,-3.721665911984059960e+01,-1.373926923416174742e-02,3.376878941904717935e-01,9.411567980938830846e-01,3.135702705610997327e+02
1.309845901301380522e+01,-5.317132306691762977e+01,-3.720971335359036658e+01,-1.338393848512944156e-02,3.313907922064970313e-01,9.433975901133004882e-01,3.152534647345256644e+02
1.322762333016121339e+01,-5.287049521212838954e+01,-3.717739920327242942e+01,-1.302800811954461790e-02,3.250788435360793538e-01,9.455961170023281515e-01,3.169366589079515961e+02
1.332957114922937869e+01,-5.253563707900121926e+01,-3.711875722271125255e+01,-1.267149408335481106e-02,3.187523309591548948e-01,9.477522802642001087e-01,3.186198530813775278e+02
1.340225480445790929e+01,-5.216578698469745490e+01,-3.703280078706831091e+01,-1.231441234865725438e-02,3.124115379081461863e-01,9.498659833000420161e-01,3.203030472548034595e+02
1.344259505652113162e+01,-5.179883499134677294e+01,-3.693091311712350233e+01,-1.195677891298340539e-02,3.060567484552649820e-01,9.519371314131986894e-01,3.218368154976241158e+02
1.345858057961548226e+01,-5.140400638650365295e+01,-3.680690204422364076e+01,-1.159860979858225172e-02,2.996882472997868252e-01,9.539656318134769331e-01,3.233705837404447720e+02
1.344985467742780827e+01,-5.098062094856634729e+01,-3.666007836348421733e+01,-1.123992105170258313e-02,2.933063197552968071e-01,9.559513936213023255e-01,3.249043519832654283e+02
1.341600560740669579e+01,-5.052799257832983670e+01,-3.648974377783198264e+01,-1.088072874187412560e-02,2.869112517369080129e-01,9.578943278717920728e-01,3.264381202260860846e+02
1.335603335613809506e+01,-5.004542299562945118e+01,-3.629518166195523321e+01,-1.052104896118764669e-02,2.805033297484533228e-01,9.597943475187395990e-01,3.279718884689067409e+02
1.326889597670371224e+01,-4.953220507969597719e+01,-3.607566630758661574e+01,-1.016089782357409120e-02,2.740828408696507346e-01,9.616513674385157584e-01,3.295056567117273971e+02
1.311199736397026605e+01,-4.882905501321202024e+01,-3.575445676238459924e+01,-9.800291464082674237e-03,2.676500727432421511e-01,9.634653044338821193e-01,3.314514830423502190e+02
1.289654359464610067e+01,-4.806017465050631898e+01,-3.537896234009357244e+01,-9.439246038158091365e-03,2.612053135621082434e-01,9.652360772377184261e-01,3.333973093729730408e+02
1.262039792791642157e+01,-4.722367870282103297e+01,-3.494723447111947934e+01,-9.077777720916760731e-03,2.547488520563578329e-01,9.669636065166642425e-01,3.353431357035958627e+02
1.231114428260188731e+01,-4.638931923234355281e+01,-3.449747621125460739e+01,-8.715902706422199581e-03,2.482809774803929059e-01,9.686478148746732186e-01,3.371450062663768108e+02
1.195171995252953678e+01,-4.549825495100182593e+01,-3.400002279996698462e+01,-8.353637206959585448e-03,2.418019795999509225e-01,9.702886268564808736e-01,3.389468768291577589e+02
1.154101260554680586e+01,-4.454905655399920050e+01,-3.345337785058677582e+01,-7.990997452309456933e-03,2.353121486791239225e-01,9.718859689509855571e-01,3.407487473919387071e+02
1.116003630363749899e+01,-4.371117722650036796e+01,-3.295926382219791151e+01,-7.627999689020632974e-03,2.288117754673548720e-01,9.734397695945421480e-01,3.422586678572885148e+02
1.074886327182249524e+01,-4.283731896284486851e+01,-3.243454456656531448e+01,-7.264660179682425230e-03,2.223011511864129153e-01,9.749499591741682680e-01,3.437685883226383226e+02
1.030735618361331341e+01,-4.192676165674157573e+01,-3.187845196857050922e+01,-6.900995202196067227e-03,2.157805675173470328e-01,9.764164700306641187e-01,3.452785087879881303e+02
9.785005871082660178e+00,-4.088017375129079056e+01,-3.122791063600295303e+01,-6.537021049045508604e-03,2.092503165874192161e-01,9.778392364616433907e-01,3.469386984345326255e+02
9.222665783756891500e+00,-3.978297370828932600e+01,-3.053350276315266854e+01,-6.172754026567540617e-03,2.027106909570178250e-01,9.792181947244775753e-01,3.485988880810771207e+02
8.621198201069205425e+00,-3.863409183472163733e+01,-2.979406318390340047e+01,-5.808210454221271989e-03,1.961619836065509326e-01,9.805532830391522348e-01,3.502590777276216158e+02
7.945252390330446168e+00,-3.736455398953795992e+01,-2.896326838014509519e+01,-5.443406663857066133e-03,1.896044879233220182e-01,9.818444415910352330e-01,3.520088635867855942e+02
7.227295102692772311e+00,-3.603208079133202091e+01,-2.807691993642229988e+01,-5.078358998984875555e-03,1.830384976883857040e-01,9.830916125335569244e-01,3.537586494459495725e+02
6.470131021248842984e+00,-3.463535272676959664e+01,-2.713353483480421602e+01,-4.713083814042092271e-03,1.764643070633877542e-01,9.842947399908023032e-01,3.555084353051135508e+02
5.644022567807934543e+00,-3.311169790520886380e+01,-2.608893386950778748e+01,-4.347597473660892546e-03,1.698822105773866442e-01,9.854537700600144445e-01,3.573283425339731707e+02
4.782606151708227671e+00,-3.151288893811737069e+01,-2.497672770975997381e+01,-3.981916351935087250e-03,1.632925031136588101e-01,9.865686508140109057e-01,3.591482497628327906e+02
4.038800822797630197e+00,-3.011707801503123605e+01,-2.399447938265418045e+01,-3.616056831686636532e-03,1.566954798964890760e-01,9.876393323035095317e-01,3.606746455612080240e+02
3.281286182861714362e+00,-2.867486652894363175e+01,-2.297039459582236987e+01,-3.250035303731659258e-03,1.500914364779439847e-01,9.886657665593676647e-01,3.622010413595832574e+02
2.513306421271241486e+00,-2.718552096187196199e+01,-2.190357811059389803e+01,-2.883868166146199598e-03,1.434806687246325541e-01,9.896479075947313131e-01,3.637274371579584908e+02
9.740143996396434245e-01,-2.403724660604676444e+01,-1.959911207812720235e+01,-2.517571823531577699e-03,1.368634728044510473e-01,9.905857114070961700e-01,3.667233625326052788e+02
7.108796552625217258e-01,-2.347537114049845641e+01,-1.918140813750947160e+01,-2.151162686279473654e-03,1.302401451733152249e-01,9.914791359802795911e-01,3.672284575757428229e+02
-4.218202314794354257e-01,-2.096861392397148904e+01,-1.730314628846544878e+01,-1.784657169836789854e-03,1.236109825618797176e-01,9.923281412863035333e-01,3.694131690822193832e+02
-1.536260611732056525e+00,-1.831615551069408099e+01,-1.528701766127686490e+01,-1.418071693970234274e-03,1.169762819622446048e-01,9.931326892871887857e-01,3.715978805886959435e+02
-2.584745988664845839e+00,-1.559408368330864114e+01,-1.319075655707550787e+01,-1.051422682030719218e-03,1.103363406146504605e-01,9.938927439366591621e-01,3.737239837334024060e+02
-3.576965844833821517e+00,-1.273245938437749913e+01,-1.096036562955949378e+01,-6.847265602176416752e-04,1.036914559941625597e-01,9.946082711817575417e-01,3.758500868781088684e+02
-4.556636262498402701e+00,-9.465600233533047358e+00,-8.382048452895155322e+00,-3.179997568429690632e-04,9.704192579734405300e-02,9.952792389643720927e-01,3.781531696799910947e+02
-5.420326381172959174e+00,-5.902922527991005808e+00,-5.532622874531000434e+00,-8.479704324504668822e-01,5.300416452413000412e-01,0.000000000000000000e+00,3.805275593676896619e+02
-5.983471882408491815e+00,-2.719136517655624363e+00,-2.897041244375404112e+00,3.421418352604471136e-01,-8.417995946777782207e-03,9.396095475827834775e-01,3.825859711819858262e+02
-6.288608622114757907e+00,-1.972002377084106778e-02,-5.646974841939320644e-01,9.334680231829169950e-01,2.330827560931791331e-01,2.725947147463356757e-01,3.843477663807043427e+02
-6.439043330439542245e+00,2.615763557481189494e+00,1.737957501966997498e+00,7.364161080998709030e-01,-4.016585135368765935e-01,-5.443893406704199966e-01,3.861095615794228593e+02
-6.451686134177194276e+00,5.187718452049212559e+00,3.963742655718992758e+00,-4.499992964604534345e-04,3.515004504558796872e-01,9.361865363438199861e-01,3.878713567781413758e+02
-6.186501185580681295e+00,8.929193397404118215e+00,7.150418319549701529e+00,4.157246280600760402e-01,9.043401909061932198e-01,9.664291353565440668e-02,3.905416662036265052e+02
-5.881694305299369319e+00,1.107712724316584918e+01,8.950991241197456816e+00,-8.471320701135770515e-01,-2.337197434487208181e-01,4.772214761598727040e-01,3.921377518445078181e+02
-5.510833559450656338e+00,1.317886638300922897e+01,1.069822225211401978e+01,-6.799996278745892679e-05,-9.702994690098735997e-02,9.952804553391898512e-01,3.937338374853891310e+02
-4.967695170155731255e+00,1.569723694578537732e+01,1.276956299724967359e+01,9.703928888894779448e-01,2.415277234481023327e-01,0.000000000000000000e+00,3.956998775320587924e+02
-4.336322063261320636e+00,1.813171881257138907e+01,1.474537294045392599e+01,-5.300915303211817253e-01,-8.479392486974767218e-01,0.000000000000000000e+00,3.976659175787284539e+02
-3.574453431671182013e+00,2.065476497277706613e+01,1.676272176533285929e+01,9.421051217397861111e-01,-0.000000000000000000e+00,-3.353146874090350282e-01,3.997808184345842051e+02
-2.742290090244031031e+00,2.307673837967606545e+01,1.866697551887925499e+01,9.999988887671960130e-07,-4.977924468360887533e-01,-8.672950362322339179e-01,4.018957192904399562e+02
-2.017481307371229438e+00,2.500350898374559350e+01,2.015979199549382983e+01,8.649910223442305313e-01,4.315195122752376461e-02,4.999264349583396605e-01,4.036386057486217851e+02
-1.268368909858040849e+00,2.687495912114629704e+01,2.159229742024324494e+01,0.000000000000000000e+00,-9.695091808014499879e-02,9.952881590191895445e-01,4.053814922068036140e+02
-5.011280307280325808e-01,2.869191352564492803e+01,2.296581446288175243e+01,9.360262369457754694e-01,-2.510647953304670499e-01,2.466157989573156961e-01,4.071243786649854428e+02
4.813546538841640410e-01,3.089090378652886670e+01,2.460005378999626657e+01,-7.270129289259397165e-01,2.249116686481841543e-01,6.487410442402374855e-01,4.093164075096505599e+02
1.474579311504654600e+00,3.298660988562738794e+01,2.612280919565731807e+01,8.965938298717907040e-01,2.929696176507102026e-02,-4.418814233086361121e-01,4.115084363543156769e+02
2.754056927948830502e+00,3.552114856556759293e+01,2.790414006909062294e+01,9.421051217329777794e-01,0.000000000000000000e+00,-3.353146874066117999e-01,4.143394460944676894e+02
3.595948529454081388e+00,3.710352177211917990e+01,2.897908005577742685e+01,0.000000000000000000e+00,-9.705539409184379407e-01,-2.408797371487791661e-01,4.162202302066826292e+02
4.296690253098296886e+00,3.838727043089132707e+01,2.983512037939907202e+01,-0.000000000000000000e+00,-5.697617808902302183e-01,-8.218086839621091544e-01,4.177986149269111706e+02
4.990563139167679907e+00,3.963490020974281691e+01,3.065398204151140149e+01,-7.142513392295073427e-01,-6.601633892675252691e-01,-2.324377849664099327e-01,4.193769996471397121e+02
5.675591850771285252e+00,4.084699439655845765e+01,3.143644699240809359e+01,4.789225235544235515e-01,-2.317097694886139925e-01,8.467241576550285087e-01,4.209553843673682536e+02
6.349998717636029077e+00,4.202413886186508307e+01,3.218328908664913968e+01,0.000000000000000000e+00,1.080298527117026508e-01,9.941466445768191162e-01,4.225337690875967951e+02
7.041587525453606666e+00,4.321787385172431328e+01,3.292632900367769366e+01,9.334680231830790875e-01,2.330827560932196563e-01,2.725947147463830267e-01,4.241847532976448747e+02
7.716705436757188785e+00,4.437310815871380498e+01,3.363037049725568295e+01,7.364161080998709030e-01,-4.016585135368765935e-01,-5.443893406704199966e-01,4.258357375076929543e+02
8.373934774742673781e+00,4.549055162436541622e+01,3.429631096640885346e+01,0.000000000000000000e+00,1.466999104715206899e-02,9.998913897831612774e-01,4.274867217177410339e+02
9.012068344752345084e+00,4.657091380408571268e+01,3.492503740213702201e+01,0.000000000000000000e+00,-9.950534475071132201e-01,-9.933094484754502462e-02,4.291377059277891135e+02
9.685894357597719662e+00,4.771038093326112772e+01,3.556985005862475901e+01,5.752485914334493078e-01,-0.000000000000000000e+00,-8.179774190368865883e-01,4.309456491506165889e+02
1.033077325153150561e+01,4.880337182337770940e+01,3.616817650725540290e+01,0.000000000000000000e+00,1.466999104714414130e-02,9.998913897826209318e-01,4.327535923734440644e+02
1.094540660251360009e+01,4.985089973044235734e+01,3.672123092797332333e+01,9.999988887661791499e-07,-4.977924468355826582e-01,-8.672950362313520678e-01,4.345615355962715398e+02
1.143680012855180728e+01,5.069435466393944267e+01,3.715192663530325490e+01,0.000000000000000000e+00,2.016697227946783605e-02,9.997956257299105420e-01,4.360720957677014553e+02
1.190955423603201524e+01,5.151207246900396797e+01,3.755745425369556756e+01,-0.000000000000000000e+00,5.892782266476944697e-01,-8.079289396965984027e-01,4.375826559391313708e+02
1.236339573424866067e+01,5.230454155609834288e+01,3.793838134013202534e+01,-0.000000000000000000e+00,1.466999104714523244e-02,9.998913897826952057e-01,4.390932161105612863e+02
1.279814604913664056e+01,5.307224731478902413e+01,3.829526725866443826e+01,8.847879010088414153e-01,3.147796090136326802e-02,-4.649274225156942442e-01,4.406037762819912018e+02
1.339824503252280152e+01,5.416030857523514186e+01,3.877166552656574083e+01,2.505768424027184360e-01,-9.347684120886862180e-01,2.518278416159175914e-01,4.428572311856444799e+02
1.393023377563791954e+01,5.517177814895760690e+01,3.917283330452116275e+01,1.270998420255752036e-03,1.158168560493787747e-01,9.932687654503782326e-01,4.451106860892977579e+02
1.431069483382234253e+01,5.592975943062409527e+01,3.944516931354701228e+01,0.000000000000000000e+00,8.052988517046494668e-03,-9.999665741231776872e-01,4.469081891462044496e+02
1.465753772679163802e+01,5.665066139983941440e+01,3.968163471680151844e+01,3.588155418935968788e-01,-5.920762440853672981e-01,-7.215920787301187689e-01,4.487056922031111412e+02
1.497105090775128922e+01,5.733541177158392088e+01,3.988323136073123010e+01,0.000000000000000000e+00,-2.786296520868896537e-02,9.996107518281590609e-01,4.505031952600178329e+02
1.525175778260720882e+01,5.798492915147777893e+01,4.005094204762624344e+01,8.849408409610501902e-01,2.539496673929576148e-02,-4.650083909617319100e-01,4.523006983169245245e+02
1.549393831284545264e+01,5.858402282784827264e+01,4.018284443052006338e+01,9.968779763702703134e-01,0.000000000000000000e+00,-7.894491893655197767e-02,4.540486153051133442e+02
1.570662265906391575e+01,5.915232061055120028e+01,4.028527958081493665e+01,0.000000000000000000e+00,-9.968312352734686188e-01,-7.953293898571152376e-02,4.557965322933021639e+02
1.589083014554366358e+01,5.969061947747427865e+01,4.035907510202472537e+01,6.355972790766281078e-01,2.092487626605265549e-01,7.431211571181500775e-01,4.575444492814909836e+02
1.604753293466970021e+01,6.019970517209340244e+01,4.040503945170161160e+01,0.000000000000000000e+00,-7.950793855535677468e-02,9.968332296358920486e-01,4.592923662696798033e+02
1.617696976315857782e+01,6.068034763068348525e+01,4.042394254671695109e+01,-9.986869598540499826e-01,-5.120894666519076877e-02,0.000000000000000000e+00,4.610402832578686230e+02
1.629486408880575610e+01,6.123468614289819101e+01,4.040601819215824264e+01,-0.000000000000000000e+00,-9.978448059155601291e-01,-6.560292149537952366e-02,4.632146124760731709e+02
1.636196771557327878e+01,6.173774613206506245e+01,4.033931134266239837e+01,-0.000000000000000000e+00,-9.967539354395255069e-01,8.049591402816143326e-02,4.653889416942777189e+02
1.638356646749547707e+01,6.206121199851386194e+01,4.026862532067754330e+01,5.328913625204565463e-01,-5.120993873931786212e-03,8.461669877596392775e-01,4.668978939869770670e+02
1.638926797371933830e+01,6.236851485882565527e+01,4.018257248561932471e+01,0.000000000000000000e+00,1.466699169440114671e-02,9.998914337831972254e-01,4.684068462796764152e+02
1.637880222282311138e+01,6.266005774304977649e+01,4.008152871285277996e+01,-9.359985444585987085e-04,-1.157798199545048701e-01,9.932734553922166754e-01,4.699157985723757633e+02
1.635217739956288696e+01,6.293624414761914210e+01,3.996586997199131730e+01,5.328913625200071280e-01,-5.120993873927469353e-03,8.461669877589258482e-01,4.714247508650751115e+02
1.630919996036375608e+01,6.319747309211833652e+01,3.983596320310122962e+01,0.000000000000000000e+00,-0.000000000000000000e+00,-9.999989999991235612e-01,4.729337031577744597e+02
1.624898986078378726e+01,6.344413646581462274e+01,3.969215719296336431e+01,8.220322628904865869e-01,6.371394286823577058e-02,-5.658634925948985428e-01,4.744426554504738078e+02
1.617045321126066781e+01,6.367662544268713276e+01,3.953479169429497375e+01,-6.476833636047824028e-01,2.256807782524979378e-01,-7.277172849657317366e-01,4.759516077431731560e+02
1.606816181020952428e+01,6.390322820930108350e+01,3.935708651004414094e+01,7.342455860432333115e-01,2.131448798320793869e-01,6.445546366096597257e-01,4.775188745708272791e+02
1.594371745811952401e+01,6.411484037613033138e+01,3.916496981631910757e+01,-9.796745246595311984e-01,0.000000000000000000e+00,2.005886979235284862e-01,4.790861413984814021e+02
1.579678544566390030e+01,6.431192607859495070e+01,3.895883728220215403e+01,-0.000000000000000000e+00,2.192496970816700669e-02,-9.997586187200476759e-01,4.806534082261355252e+02
1.562734976228568051e+01,6.449495010131272466e+01,3.873908467178549841e+01,-3.571165318402718669e-01,-5.924852232851286482e-01,-7.220990533686727497e-01,4.822206750537896482e+02
1.543571309611964715e+01,6.466437669663598342e+01,3.850610784147808374e+01,-8.368809030200378141e-01,4.998393448126924737e-02,-5.450962854900853749e-01,4.837879418814437713e+02
1.522249683172946888e+01,6.482066840319281198e+01,3.826030273731183229e+01,-9.546707119047527224e-01,0.000000000000000000e+00,-2.976605983796326016e-01,4.853552087090978944e+02
1.498864104566001032e+01,6.496428486444075645e+01,3.800206539224756597e+01,4.595995113956115596e-01,-5.348094314392668469e-01,-7.090452462075995665e-01,4.869224755367520174e+02
1.473540449980487743e+01,6.509568164724088035e+01,3.773179192348035826e+01,-4.199765354728743905e-01,-5.494543922601671238e-01,-7.223002010790892102e-01,4.884897423644061405e+02
1.446436463258918259e+01,6.521530906046051257e+01,3.744987852974453801e+01,8.088332836539642301e-01,-2.128178115171584783e-01,-5.481745145073176895e-01,4.900570091920602636e+02
1.417741754796760389e+01,6.532361097361258828e+01,3.715672148861824553e+01,8.370268619317837722e-01,-1.940497361591997372e-01,5.115943044079659385e-01,4.916242760197143866e+02
1.387677800223780800e+01,6.542102363553972566e+01,3.685271715382757662e+01,0.000000000000000000e+00,1.173078338872908938e-01,9.930945937372815946e-01,4.931915428473685097e+02
1.342560054312811246e+01,6.553709834982915083e+01,3.639688178387282136e+01,-0.000000000000000000e+00,1.254542712116870351e-01,9.920983952384291316e-01,4.954266676423670219e+02
1.295207923970363417e+01,6.562353635538438823e+01,3.591245172925433593e+01,-0.000000000000000000e+00,1.335922581338866988e-01,9.910353720057788474e-01,4.976617924373655342e+02
1.246478103383742386e+01,6.568192302988981623e+01,3.540107738655202496e+01,-0.000000000000000000e+00,1.417212465108425301e-01,9.899055956440379056e-01,4.998965018445167061e+02
1.197058545564852494e+01,6.571377534331405457e+01,3.486416842484567979e+01,-0.000000000000000000e+00,1.498406888057938202e-01,9.887091422547835684e-01,5.021312112516678781e+02
1.142272055968102329e+01,6.571813379716655845e+01,3.424287667761905851e+01,-0.000000000000000000e+00,1.579500381250446006e-01,9.874460924305188403e-01,5.045951062264240363e+02
1.108086462491550961e+01,6.570697583278911225e+01,3.384260348746086322e+01,-0.000000000000000000e+00,1.660487482547939042e-01,9.861165312492424784e-01,5.061295306835615975e+02
1.073911701327562440e+01,6.568880266376307020e+01,3.343525384260291844e+01,-0.000000000000000000e+00,1.741362736979210624e-01,9.847205482687169109e-01,5.076639551406991586e+02
1.039808615119934387e+01,6.566389198196648636e+01,3.302111879381286030e+01,-0.000000000000000000e+00,1.822120697107222353e-01,9.832582375204346192e-01,5.091983795978367198e+02
1.005833462830864988e+01,6.563251342443599867e+01,3.260048331850656211e+01,-0.000000000000000000e+00,1.902755923395962889e-01,9.817296975032833162e-01,5.107328040549742809e+02
9.720098762332822773e+00,6.559492364728792779e+01,3.217362020159661284e+01,-0.000000000000000000e+00,1.983262984576774635e-01,9.801350311769106982e-01,5.122672285121118421e+02
9.383553314229478914e+00,6.555137296071134756e+01,3.174079615101125995e+01,-0.000000000000000000e+00,2.063636458014121711e-01,9.784743459547883271e-01,5.138016529692494032e+02
9.011445701070751824e+00,6.549569517685175413e+01,3.125176097954053134e+01,-0.000000000000000000e+00,2.143870930070778114e-01,9.767477536969764174e-01,5.155103037859190636e+02
8.643155238634156134e+00,6.543234036741142745e+01,3.075528798328246083e+01,-0.000000000000000000e+00,2.223960996472410523e-01,9.749553707025884197e-01,5.172189546025887239e+02
8.279971192381944789e+00,6.536168433294197655e+01,3.025178719585855092e+01,-0.000000000000000000e+00,2.303901262671528283e-01,9.730973177019572873e-01,5.189276054192583842e+02
7.923211378988227693e+00,6.528408932558031097e+01,2.974165862184440101e+01,-0.000000000000000000e+00,2.383686344210775576e-01,9.711737198485036471e-01,5.206362562359280446e+02
7.573882401086164506e+00,6.519989677892561986e+01,2.922528214810445846e+01,-0.000000000000000000e+00,2.463310867085551081e-01,9.691847067103056546e-01,5.223449070525977049e+02
7.232994934180530855e+00,6.510943621135622550e+01,2.870302762616028502e+01,-0.000000000000000000e+00,2.542769468105919306e-01,9.671304122613718635e-01,5.240535578692673653e+02
6.865267023542967806e+00,6.500105842517852750e+01,2.811376789390770270e+01,-0.000000000000000000e+00,2.622056795257793338e-01,9.650109748726177772e-01,5.259590404929377883e+02
6.513454739438660823e+00,6.488472540208388750e+01,2.751744226517754299e+01,-0.000000000000000000e+00,2.701167508063362366e-01,9.628265373025457485e-01,5.278645231166082112e+02
6.179768393667883331e+00,6.476088765491336119e+01,2.691457770686549367e+01,-0.000000000000000000e+00,2.780096277940751759e-01,9.605772466876303373e-01,5.297700057402786342e+02
6.088966381371644587e+00,6.472504716756697007e+01,2.674431695552787858e+01,-0.000000000000000000e+00,2.858837788562871851e-01,9.582632545324085704e-01,5.303051421552729607e+02
5.815930085898453505e+00,6.461205229674703787e+01,2.621614659908553691e+01,-0.000000000000000000e+00,2.937386736215444882e-01,9.558847166992756605e-01,5.319586480055789934e+02
5.556689784161371826e+00,6.449487151642803440e+01,2.568435853548390924e+01,-0.000000000000000000e+00,3.015737830154186505e-01,9.534417933979878468e-01,5.336121538558850261e+02
5.311198188552664234e+00,6.437370184665310546e+01,2.514918742213216518e+01,-0.000000000000000000e+00,3.093885792961107439e-01,9.509346491748729147e-01,5.352656597061910588e+02
5.054606225225386495e+00,6.423383056872489760e+01,2.454866286077155024e+01,-0.000000000000000000e+00,3.171825360899924728e-01,9.483634529017483938e-01,5.371089915179090895e+02
4.816736790545181890e+00,6.408885217476236562e+01,2.394411612288516267e+01,-0.000000000000000000e+00,3.249551284270544849e-01,9.457283777645479894e-01,5.389523233296271201e+02
4.596870464059759520e+00,6.393903636706651383e+01,2.333585840014903567e+01,-0.000000000000000000e+00,3.327058327762608125e-01,9.430296012516582449e-01,5.407956551413451507e+02
4.398824875276574176e+00,6.378858891794301655e+01,2.273942530443365584e+01,-0.000000000000000000e+00,3.404341270808059483e-01,9.402673051419663253e-01,5.425932934815199360e+02
4.216296657911229318e+00,6.363416238248964873e+01,2.214009432694965440e+01,-0.000000000000000000e+00,3.481394907932728877e-01,9.374416754926168105e-01,5.443909318216947213e+02
