3.740831318335309685e+00,5.849905568341799977e-01,-2.600438937540237916e+00,-8.964331543871449925e-01,2.974197194415034717e-02,-4.421775828902062000e-01,1.372170151974667540e+01
4.088078031397972545e+00,4.711270980590049895e-01,-2.526858463682100986e+00,-8.919444568270985529e-01,3.059098137082193539e-02,-4.511067252867630994e-01,1.524076952534799823e+01
4.722773632178730807e+00,2.490324399538023370e-01,-2.387777208760828884e+00,-0.000000000000000000e+00,1.173078338872941134e-01,9.930945937373089061e-01,1.815605956739700133e+01
5.050850800474261604e+00,1.258118766358524709e-01,-2.313139669889232142e+00,-8.875683493732700047e-01,2.518998153463299430e-02,-4.599846628109628965e-01,1.974848370193529945e+01
5.369024279066270111e+00,1.311139068069122398e-03,-2.239280684802225974e+00,-7.142513392293388108e-01,-6.601633892673693937e-01,-2.324377849663550599e-01,2.134090783647359757e+01
5.676473495991051443e+00,-1.244425048866854705e-01,-2.166305068148953517e+00,-8.657284703650168778e-01,4.290397375222579357e-02,4.986696949240732590e-01,2.293333197101189569e+01
5.972245670372939408e+00,-2.514207920200926538e-01,-2.094314834533655301e+00,-8.752133789799992902e-01,2.481263431137961314e-02,4.830982037144593289e-01,2.452575610555019381e+01
6.322862926598970645e+00,-4.125719601272525017e-01,-2.005707307027632336e+00,-8.841208798426943849e-01,6.704926964172926336e-03,4.672079984117124551e-01,2.652533359334440988e+01
6.645947227386502121e+00,-5.755641924984452595e-01,-1.919497311604469125e+00,-8.924450965773907951e-01,-1.140720208729718681e-02,4.510095623541703902e-01,2.852491108113862595e+01
6.739465487063276861e+00,-6.255243647131161211e-01,-1.893673295743603546e+00,-9.001805376190510355e-01,-2.951180373423027345e-02,4.345135822177601526e-01,2.913362935672616416e+01
6.999667635868243032e+00,-7.720205261716691636e-01,-1.819484804749375462e+00,-9.073220998347103494e-01,-4.759693384392364723e-02,4.177309409653063854e-01,3.090782960766502896e+01
7.237210024525499996e+00,-9.198194934792706112e-01,-1.747296760514407188e+00,-9.138650718890034552e-01,-6.565066113921273760e-02,4.006727106666339577e-01,3.268202985860389020e+01
7.522743143391317666e+00,-1.130697706095297406e+00,-1.649919820435441054e+00,-9.198051373512357021e-01,-8.366107506937393856e-02,3.833501451939872462e-01,3.518645707134481881e+01
7.725542153081552676e+00,-1.323289944065499935e+00,-1.567142754031365603e+00,-9.251383775419541600e-01,-1.016162936673002115e-01,3.657746727975852430e-01,3.744802111816400725e+01
7.838827317041949350e+00,-1.455519047410127831e+00,-1.513155407155564625e+00,-9.298612741171489171e-01,-1.195044713877700254e-01,3.479578885662106824e-01,3.898881665366430127e+01
7.936300302145127716e+00,-1.588464018941259992e+00,-1.460757717315652959e+00,-9.339707113883852774e-01,-1.373138069216418011e-01,3.299115467778046540e-01,4.052961218916459529e+01
8.018078982459945436e+00,-1.722104041036661926e+00,-1.409994645938183577e+00,-9.374639783773411894e-01,-1.550325509808232471e-01,3.116475531451131653e-01,4.207040772466488932e+01
8.089480573426545362e+00,-1.870867654643984190e+00,-1.355868746986947260e+00,-9.403387706034040949e-01,-1.726490140488839697e-01,2.931779569614984537e-01,4.377617604217215330e+01
8.139962945130164940e+00,-2.020484544735460020e+00,-1.304086580426966346e+00,-9.425931916031475843e-01,-1.901515740922023745e-01,2.745149431520943484e-01,4.548194435967941729e+01
8.169747903580365289e+00,-2.170928383595525535e+00,-1.254713275335597622e+00,-9.442257541806970966e-01,-2.075286842265652298e-01,2.556708242355474892e-01,4.718771267718668128e+01
8.179278950232955481e+00,-2.322176794236652242e+00,-1.207812681726694093e+00,-9.452353813881585465e-01,-2.247688803341656716e-01,2.366580322016442472e-01,4.889348099469394526e+01
8.164692373941146997e+00,-2.494420633136371634e+00,-1.158000283938601660e+00,-9.456214072354720557e-01,-2.418607886259815376e-01,2.174891103101769252e-01,5.082457685872098807e+01
8.122358971222199742e+00,-2.667779958938520934e+00,-1.111973105470212664e+00,-9.453835771292219414e-01,-2.587931331445477712e-01,1.981767048164578826e-01,5.275567272274803088e+01
8.071145646959353215e+00,-2.806154879008441849e+00,-1.077927790066966152e+00,-9.445220480401222973e-01,-2.755547432021810961e-01,1.787335566289351696e-01,5.428935416995535945e+01
8.006583711256142877e+00,-2.945044209874774221e+00,-1.045875151696533445e+00,-9.430373883990637029e-01,-2.921345607497525809e-01,1.591724929044083803e-01,5.582303561716268803e+01
7.989467876722901707e+00,-2.978305515584469099e+00,-1.038467317760499276e+00,-9.409305777217988886e-01,-3.085216476711534761e-01,1.395064185863856276e-01,5.618967786719811386e+01
7.889649883537903641e+00,-3.149131884360163447e+00,-1.002513808155349073e+00,-9.382030059625111607e-01,-3.247051929986474739e-01,1.197483078921583871e-01,5.806687395902331161e+01
7.763518039552420369e+00,-3.325090593847111808e+00,-9.697627875539285291e-01,-9.348564725966971301e-01,-3.406745200443533905e-01,9.991119575420537302e-02,5.998797066354698160e+01
7.613783086646101594e+00,-3.502257470553875152e+00,-9.412588190695250212e-01,-9.308931854339668188e-01,-3.564190934431593072e-01,8.000816922156642197e-02,6.190906736807065158e+01
7.468562022009911594e+00,-3.654877423988856400e+00,-9.200738486947903638e-01,-9.263157591615469588e-01,-3.719285261024268263e-01,6.005235882685285714e-02,6.355435669480449690e+01
7.309406899943766689e+00,-3.808242926418150986e+00,-9.016864370560783160e-01,-9.211272136194454951e-01,-3.871925860539054409e-01,4.005692992458471241e-02,6.519964602153834221e+01
7.136707315122956530e+00,-3.962390672811153536e+00,-8.861546463759901737e-01,-9.153309718084167157e-01,-4.022012032033407958e-01,2.003507400656281273e-02,6.684493534827218753e+01
6.881328890844716106e+00,-4.170349806931785253e+00,-8.708405989654690593e-01,-9.089308576320374033e-01,-4.169444759733290096e-01,0.000000000000000000e+00,6.904568304185370664e+01
6.595878327964778798e+00,-4.380834169164126379e+00,-8.626812443198210723e-01,-5.939584362330254663e-01,-8.044922364008548765e-01,-1.901998194682148887e-03,7.124643073543522576e+01
6.367266240296926227e+00,-4.538634995259392291e+00,-8.608271840951444709e-01,-5.163343074808237620e-01,-6.993530620119575714e-01,-4.942693370748579840e-01,7.288157932499296976e+01
6.127848118371228558e+00,-4.697366819273026906e+00,-8.620327305784749594e-01,-9.089331001749947347e-01,-0.000000000000000000e+00,-4.169395872384158985e-01,7.451672791455071376e+01
5.878756257027750287e+00,-4.857087982150931182e+00,-8.663481747443613212e-01,-2.327097549703283641e-01,-7.626911969310716799e-01,-6.034453646075578215e-01,7.615187650410845777e+01
5.638051122310298702e+00,-5.007523308902653625e+00,-8.731615344005586588e-01,-9.089459700192419334e-01,4.169115275727431902e-01,-4.199995240735506440e-05,7.768280078376331232e+01
5.391365091273648602e+00,-5.158821933692308015e+00,-8.826034251132789388e-01,-0.000000000000000000e+00,-2.291096583325744757e-02,-9.997365091095602452e-01,7.921372506341816688e+01
5.107784315584946278e+00,-5.330350380511626796e+00,-8.966276242635501381e-01,4.817995167360955219e-03,-1.888798105461056767e-02,-9.998089971521703090e-01,8.093663741242184528e+01
4.819344406394819202e+00,-5.503440194984886347e+00,-9.144957436198870582e-01,-7.895990730575921240e-03,-0.000000000000000000e+00,9.999678260971723853e-01,8.265954976142552368e+01
4.528024979316878529e+00,-5.678204270689135136e+00,-9.362545532766283207e-01,-0.000000000000000000e+00,2.371197228088376893e-02,-9.997178313374174285e-01,8.438246211042920208e+01
4.236032155359987783e+00,-5.854766761691716503e+00,-9.619443088497426908e-01,5.646663325349685625e-01,-6.706362072730542856e-01,-4.810374313886878750e-01,8.610537445943288049e+01
3.945612791684967480e+00,-6.033262382523739475e+00,-9.916019923640779776e-01,-2.327326561488547441e-01,6.034521084289501403e-01,7.626788731791733777e-01,8.782828680843655889e+01
3.658870676024783997e+00,-6.213834707388233625e+00,-1.025264553167489323e+00,-2.327328258587249010e-01,7.626824293263519960e-01,6.034475484731250949e-01,8.955119915744023729e+01
3.335926774332395262e+00,-6.425343977063261214e+00,-1.069552508973952154e+00,-0.000000000000000000e+00,2.371197228180181582e-02,-9.997178313761231339e-01,9.153933715512734182e+01
3.024893057107977956e+00,-6.640800785290551289e+00,-1.120113449940827843e+00,-0.000000000000000000e+00,5.332983833114575134e-01,8.459260217992370379e-01,9.352747515281444635e+01
2.719228514147368436e+00,-6.867947620462772740e+00,-1.179102033369502589e+00,-0.000000000000000000e+00,8.051988583361053414e-03,-9.999665821816177136e-01,9.558130081828336699e+01
2.431986261718751319e+00,-7.100192967654465726e+00,-1.245118428933793542e+00,-9.789433609091018340e-01,-2.146098598946439770e-02,-2.029958674766932925e-01,9.763512648375228764e+01
2.187676671608442369e+00,-7.315366647318906956e+00,-1.310861024700275435e+00,-0.000000000000000000e+00,-7.954388900879784119e-01,-6.060321543758018237e-01,9.949857698293118347e+01
1.958608077299544892e+00,-7.534785063877070144e+00,-1.381906471110951662e+00,-8.555062347860055150e-01,6.122994523241436643e-02,-5.141575401079161445e-01,1.013620274821100793e+02
1.776176168528076804e+00,-7.723443309927799483e+00,-1.445810441589874928e+00,-9.494871526008721307e-01,0.000000000000000000e+00,-3.138027199370729270e-01,1.029371329879297292e+02
1.603130943368727523e+00,-7.914851061045053093e+00,-1.512928853990263445e+00,6.426236280063962747e-01,1.961598864495174219e-02,-7.659295566286647983e-01,1.045122384937493791e+02
1.413355861379354872e+00,-8.143549389206290456e+00,-1.596164276291393680e+00,-9.494871526040128407e-01,0.000000000000000000e+00,-3.138027199381109300e-01,1.063603139060494271e+02
1.239014269906420163e+00,-8.377313739225998646e+00,-1.684597201381732079e+00,2.883107282158195450e-01,-5.998124345700143190e-01,-7.463912963933461153e-01,1.082083893183494752e+02
1.095267115297237526e+00,-8.590813117087156670e+00,-1.767947379572587074e+00,6.818411546861415928e-01,5.506893172818796284e-02,-7.294230956963404511e-01,1.098626880608249223e+02
9.622379290308008537e-01,-8.808232765042358636e+00,-1.855023807502509836e+00,-7.580441342002782745e-01,2.125597572249815839e-02,-6.518552554838520363e-01,1.115169868033003695e+02
8.355113915391675361e-01,-9.038116764331997288e+00,-1.949336022245039324e+00,-6.696665005627451261e-01,1.278249046681901591e-01,7.315774543895576798e-01,1.132325929909867881e+02
7.183612633291159844e-01,-9.276578232614351549e+00,-2.049438101060774287e+00,-0.000000000000000000e+00,9.419726912952676168e-01,-3.356865336228330166e-01,1.149755390244822024e+02
6.124491341543147893e-01,-9.520222704683217074e+00,-2.153893122859714016e+00,1.016999272026899818e-02,-9.999472842327967737e-01,-0.000000000000000000e+00,1.167184850579776167e+02
5.172170549632570946e-01,-9.769234523543019577e+00,-2.262698996460513534e+00,1.014498516991973152e-02,-0.000000000000000000e+00,-9.999475382627959208e-01,1.184614310914730311e+02
4.405257850286165011e-01,-9.995473400632992167e+00,-2.363103150664348728e+00,0.000000000000000000e+00,1.466799147789974583e-02,9.998914190632758325e-01,1.200141501763386742e+02
3.706713804398829026e-01,-1.022571178930401992e+01,-2.466578280501460441e+00,-2.031297923577711842e-02,9.495260293806794261e-01,-3.130266800195738441e-01,1.215668692612043174e+02
3.072685904219665809e-01,-1.046005863690390036e+01,-2.573122160614031539e+00,-4.348255654854057406e-01,8.976721029698790932e-01,7.148092857019196222e-02,1.231195883460699605e+02
2.498503033835884901e-01,-1.069861995217041084e+01,-2.682738545174910172e+00,-0.000000000000000000e+00,3.025597526117204325e-02,-9.995411827241680314e-01,1.246723074309356036e+02
1.979688733622383123e-01,-1.094149352661897368e+01,-2.795454960661142518e+00,-6.700796228808578170e-02,0.000000000000000000e+00,-9.977514384679764259e-01,1.262250265158012468e+02
1.513026607244200294e-01,-1.118876690640251681e+01,-2.911328498321053004e+00,0.000000000000000000e+00,8.584009604376872105e-01,5.129773787612377234e-01,1.277777456006668899e+02
1.231611201397697503e-01,-1.135190074313561048e+01,-2.988296888819067743e+00,8.849807075428220982e-01,-1.526297770940662421e-02,-4.653753203493951052e-01,1.287891956471853803e+02
6.301395832600054092e-02,-1.180193211706995626e+01,-3.204043297429809201e+00,8.084710213410660762e-01,5.885342875757779701e-01,-0.000000000000000000e+00,1.314930740415271373e+02
3.744336578514811248e-02,-1.208720522647108808e+01,-3.343253792909911759e+00,-4.477014130565296068e-01,5.740342474322316368e-01,-6.855991011689844816e-01,1.331447388182745044e+02
1.796480882716329844e-02,-1.237820998543999806e+01,-3.486603811306018041e+00,5.171696928920672953e-02,7.942155283755171213e-01,-6.054296404811655430e-01,1.347964035950218715e+02
4.922857937364533316e-03,-1.267503179168934224e+01,-3.634164554731529773e+00,4.608364502587872225e-01,4.800774273058327490e-01,-7.464271095718573168e-01,1.364480683717692386e+02
-1.336068567453081637e-03,-1.297775377122427898e+01,-3.786004608498338975e+00,-1.405218985061423009e-01,4.256286925838717594e-01,8.939193543545544962e-01,1.380997331485166058e+02
-6.522571644851786780e-04,-1.327711233585126571e+01,-3.937423238412074422e+00,-0.000000000000000000e+00,6.060361314454073556e-01,7.954358600028388349e-01,1.397023360546264996e+02
6.961248335706556045e-03,-1.358199804250493870e+01,-4.092862398646284205e+00,4.606684729581206339e-01,4.802354505719204636e-01,7.464291460248682064e-01,1.413049389607363935e+02
2.184672284670942724e-02,-1.389247911491685805e+01,-4.252375905846200510e+00,-4.525244665824906254e-01,-6.821651958913017566e-01,5.743433229873575740e-01,1.429075418668462873e+02
4.420523612412767533e-02,-1.420862153663990846e+01,-4.416016045559904235e+00,-0.000000000000000000e+00,3.410856895398586830e-01,-9.400311443727753513e-01,1.445101447729561812e+02
7.400133257924725039e-02,-1.453048493711474443e+01,-4.583832069835199086e+00,-4.039896372722311807e-02,7.947932863836870698e-01,6.055324563141809557e-01,1.461127476790660751e+02
1.167706594462625536e-01,-1.489929318253343560e+01,-4.777672259063924010e+00,-4.016906668774968686e-02,7.910366538006894377e-01,6.104469333409103804e-01,1.479125925835833755e+02
1.697146507799220105e-01,-1.527635333061608414e+01,-4.977573820700697205e+00,-3.993763048030016249e-02,7.872497108647501518e-01,6.153380196404855118e-01,1.497124374881006759e+02
2.360760836992579492e-01,-1.568170644485106457e+01,-5.194379191094839143e+00,-3.970466397288169302e-02,7.834326026813486221e-01,6.202055278009268591e-01,1.516033948563057550e+02
3.128684143302380427e-01,-1.609679288288441512e+01,-5.418386968004231363e+00,-3.947017609214944350e-02,7.795854755120349422e-01,6.250492713138990908e-01,1.534943522245108340e+02
3.636788320979640887e-01,-1.635444324478931932e+01,-5.558245987352411710e+00,-3.923417582305177564e-02,7.757084767685741289e-01,6.298690645816642508e-01,1.546492817387693890e+02
4.899383817118972972e-01,-1.694702784635376958e+01,-5.883098885462795913e+00,-3.899667220848597460e-02,7.718017550072981958e-01,6.346647229241938470e-01,1.572381599301258746e+02
6.011609218156462875e-01,-1.742939844925164294e+01,-6.150918318711749322e+00,-3.875767434895173447e-02,7.678654599234137068e-01,6.394360625862443026e-01,1.592757807236200449e+02
7.187606995717544800e-01,-1.792402578874063934e+01,-6.428130451588446981e+00,-3.851719140220252746e-02,7.638997423452655866e-01,6.441829007443974353e-01,1.613134015171142153e+02
8.238366794926034187e-01,-1.836082360866743812e+01,-6.674896915326410607e+00,-3.827523258289459301e-02,7.599047542285580770e-01,6.489050555140649656e-01,1.630746862746346437e+02
9.307731617045407191e-01,-1.880551641740432700e+01,-6.927824668815524944e+00,-3.803180716223401175e-02,7.558806486505326161e-01,6.536023459564574978e-01,1.648359710321550722e+02
1.038940697603243812e+00,-1.925804358653880755e+01,-7.186951239871532948e+00,-3.778692446762130924e-02,7.518275798041019753e-01,6.582745920855168631e-01,1.665972557896755006e+02
1.182484910756556706e+00,-1.986501153375566275e+01,-7.537803563084386482e+00,-3.754059388229415845e-02,7.477457029919415410e-01,6.629216148748118265e-01,1.689064121708143489e+02
1.281279595781785297e+00,-2.028810480053594745e+01,-7.784459180765488817e+00,-3.729282484496786176e-02,7.436351746205401847e-01,6.675432362643980433e-01,1.704833263511160624e+02
1.380111631500490654e+00,-2.071666008501684431e+01,-8.035615078552828194e+00,-3.704362684947359874e-02,7.394961521942053917e-01,6.721392791676392697e-01,1.720602405314177759e+02
1.479028964842208360e+00,-2.115060256732285637e+01,-8.291277738989354162e+00,-3.679300944439475168e-02,7.353287943090301981e-01,6.767095674779931569e-01,1.736371547117194893e+02
1.596623713762423291e+00,-2.167119775929593928e+01,-8.599998515579867941e+00,-3.654098223270098311e-02,7.311332606468143869e-01,6.812539260757577431e-01,1.755018574284269164e+02
1.715636450320120021e+00,-2.220030221591993680e+01,-8.916187704566770122e+00,-3.628755487138033559e-02,7.269097119689476028e-01,6.857721808347817527e-01,1.773665601451343434e+02
1.836913241152784426e+00,-2.273774192135513417e+01,-9.239844770323074385e+00,-3.603273707106914581e-02,7.226583101102488360e-01,6.902641586291354825e-01,1.792312628618417705e+02
1.944100772246977193e+00,-2.320833173306641939e+01,-9.525143283994585985e+00,-3.577653859568002970e-02,7.183792179727653826e-01,6.947296873397439398e-01,1.808425461474889175e+02
2.054128027813535429e+00,-2.368412325633050841e+01,-9.815242274566346126e+00,-3.551896926202774418e-02,7.140725995195312814e-01,6.991685958609821228e-01,1.824538294331360646e+02
2.167954733209673801e+00,-2.416501128991668423e+01,-1.011013424518037951e+01,-3.526003893945305057e-02,7.097386197682854503e-01,7.035807141072295545e-01,1.840651127187832117e+02
2.286485502362453737e+00,-2.465088857850239279e+01,-1.040980922099219264e+01,-3.499975754944454481e-02,7.053774447851475227e-01,7.079658730193881810e-01,1.856763960044303587e+02
2.410403721352861961e+00,-2.514163945605649531e+01,-1.071425230588464572e+01,-3.473813506525855188e-02,7.009892416782559366e-01,7.123239045713583018e-01,1.872876792900775058e+02
2.560016300162945679e+00,-2.570785546317467407e+01,-1.106791634195420571e+01,-3.447518151153691757e-02,6.965741785913648343e-01,7.166546417764780852e-01,1.891264312842747870e+02
2.716219844713262610e+00,-2.626833133907888396e+01,-1.142067242932679960e+01,-3.421090696392299624e-02,6.921324246974009942e-01,7.209579186939196749e-01,1.909254521062549657e+02
2.882498838828959187e+00,-2.683495933178531700e+01,-1.177997332450246404e+01,-3.394532154867550139e-02,6.876641501919821264e-01,7.252335704350481027e-01,1.927244729282351443e+02
3.059066055904790637e+00,-2.740751838861673662e+01,-1.214576870468106229e+01,-3.367843544228061453e-02,6.831695262868958674e-01,7.294814331697385690e-01,1.945234937502153230e+02
3.252960260883995591e+00,-2.800606572444131359e+01,-1.253117800865018161e+01,-3.341025887106194997e-02,6.786487252035393603e-01,7.337013441326531993e-01,1.963850754527980484e+02
3.275766153588591134e+00,-2.807479378680895010e+01,-1.257561049432372791e+01,-3.314080211078883342e-02,6.741019201663206450e-01,7.378931416294777224e-01,1.965977098893566506e+02
3.520326332635175248e+00,-2.878868900377108986e+01,-1.303988521901095154e+01,-3.287007548628251286e-02,6.695292853960213009e-01,7.420566650431162925e-01,1.987919218826332894e+02
3.782508717038135071e+00,-2.951140465861971052e+01,-1.351547468748560732e+01,-3.259808937102058601e-02,6.649309961031212302e-01,7.461917548398447897e-01,2.009861338759099283e+02
4.079307413992365738e+00,-3.029021204599257899e+01,-1.403455514150524763e+01,-3.232485418673950589e-02,6.603072284810850290e-01,7.502982525754248178e-01,2.033230477967875345e+02
4.281998699877878956e+00,-3.080744697927776699e+01,-1.438258737204824556e+01,-3.205038040303532371e-02,6.556581596996114980e-01,7.543760009011724055e-01,2.048620966673256021e+02
4.487049774676398428e+00,-3.132717808132117199e+01,-1.473423635730819115e+01,-3.177467853696249594e-02,6.509839678978449617e-01,7.584248435699878499e-01,2.064011455378636697e+02
4.693256775365519218e+00,-3.184917907111448798e+01,-1.508941816877375253e+01,-3.149775915263092196e-02,6.462848321775498395e-01,7.624446254423421498e-01,2.079401944084017373e+02
4.899425608844294011e+00,-3.237321500226295967e+01,-1.544804447827947946e+01,-3.121963286080117750e-02,6.415609325962484677e-01,7.664351924922202519e-01,2.094792432789398049e+02
5.104163548559367491e+00,-3.289903735287150255e+01,-1.581001818229089118e+01,-3.094031031847799262e-02,6.368124501603220633e-01,7.703963918130233290e-01,2.110182921494778725e+02
5.314155521682925709e+00,-3.344777039806333363e+01,-1.619015509726907709e+01,-3.065980222850190479e-02,6.320395668180748272e-01,7.743280716234264283e-01,2.126196247326285231e+02
5.519763499478552937e+00,-3.399788491216002484e+01,-1.657383148422916008e+01,-3.037811933913914936e-02,6.272424654527639643e-01,7.782300812731949291e-01,2.142209573157791738e+02
5.719965473346893425e+00,-3.454906887982522079e+01,-1.696092838937503444e+01,-3.009527244366987445e-02,6.224213298755902901e-01,7.821022712489551498e-01,2.158222898989298244e+02
5.913812685796952628e+00,-3.510100170179865842e+01,-1.735132027848690939e+01,-2.981127237997458629e-02,6.175763448186578630e-01,7.859444931799237644e-01,2.174236224820804750e+02
6.100215738602195792e+00,-3.565334893088784440e+01,-1.774486848191637378e+01,-2.952613003011889808e-02,6.127076959278939805e-01,7.897565998435926993e-01,2.190249550652311257e+02
6.299633740786169334e+00,-3.627607299003899044e+01,-1.819240667926316135e+01,-2.923985631993656145e-02,6.078155697559375348e-01,7.935384451713688447e-01,2.208303364716693977e+02
6.486227199728244130e+00,-3.689822806690098389e+01,-1.864403564639293265e+01,-2.895246221861086031e-02,6.029001537549901757e-01,7.972898842541716879e-01,2.226357178781076698e+02
6.659492640803010843e+00,-3.751925185590163636e+01,-1.909952089454296953e+01,-2.866395873825433246e-02,5.979616362696346110e-01,8.010107733479845393e-01,2.244410992845459418e+02
6.819109161025608934e+00,-3.813857292262414234e+01,-1.955861629726340922e+01,-2.837435693348682939e-02,5.930002065296184899e-01,8.047009698793621268e-01,2.262464806909842139e+02
6.943688784301884631e+00,-3.866059645229967145e+01,-1.994919526750895145e+01,-2.808366790101195221e-02,5.880160546426030921e-01,8.083603324508938925e-01,2.277728269828524503e+02
7.059228098481466596e+00,-3.918100050888792651e+01,-2.034163956510305127e+01,-2.779190277919190225e-02,5.830093715868800430e-01,8.119887208466208817e-01,2.292991732747206868e+02
7.165809393142407835e+00,-3.969947825367903960e+01,-2.073580542204398824e+01,-2.749907274762068005e-02,5.779803492040540558e-01,8.155859960374076678e-01,2.308255195665889232e+02
7.263487528120713854e+00,-4.021571960808095980e+01,-2.113154300399506980e+01,-2.720518902669580991e-02,5.729291801916921445e-01,8.191520201862704242e-01,2.323518658584571597e+02
7.352005286658020999e+00,-4.072940680319246809e+01,-2.152869035624722471e+01,-2.691026287718834009e-02,5.678560580959408632e-01,8.226866566536565895e-01,2.338782121503253961e+02
7.445111705427473581e+00,-4.134500653655211977e+01,-2.200982966838711263e+01,-2.661430559981145874e-02,5.627611773041102383e-01,8.261897700026815672e-01,2.357203943000762081e+02
7.522278185823046748e+00,-4.195477497401780198e+01,-2.249281696272275965e+01,-2.631732853478747566e-02,5.576447330372257261e-01,8.296612260043166875e-01,2.375625764498270200e+02
7.584277485224610871e+00,-4.255803103829610734e+01,-2.297729615755607568e+01,-2.601934306141335390e-02,5.525069213425493064e-01,8.331008916425329813e-01,2.394047585995778320e+02
7.631943800039108439e+00,-4.315409035832395546e+01,-2.346289702861320237e+01,-2.572036059762465229e-02,5.473479390860664928e-01,8.365086351193972147e-01,2.412469407493286440e+02
7.664947931511471246e+00,-4.372621011474269181e+01,-2.393575459246657999e+01,-2.542039259955812883e-02,5.421679839449446980e-01,8.398843258601218498e-01,2.430381597588659872e+02
7.685250446263819590e+00,-4.429044973621291348e+01,-2.440890519501900258e+01,-2.511945056111275498e-02,5.369672543999587377e-01,8.432278345180681534e-01,2.448293787684033305e+02
7.693799122135112079e+00,-4.484618325208684553e+01,-2.488197994846029459e+01,-2.481754601350931455e-02,5.317459497278862468e-01,8.465390329797012336e-01,2.466205977779406737e+02
7.691729530626800759e+00,-4.539278334172914242e+01,-2.535459685265437102e+01,-2.451469052484865976e-02,5.265042699938723425e-01,8.498177943695000014e-01,2.484118167874780170e+02
7.680342814093131132e+00,-4.591819362466834065e+01,-2.581614636626985870e+01,-2.421089569966840271e-02,5.212424160437643117e-01,8.530639930548176153e-01,2.501642124378294341e+02
7.660774849547099308e+00,-4.643387188939984611e+01,-2.627649655884472679e+01,-2.390617317849830920e-02,5.159605894964157669e-01,8.562775046506945209e-01,2.519166080881808512e+02
7.634362916399827448e+00,-4.693923275151652064e+01,-2.673524923449540225e+01,-2.360053463741436722e-02,5.106589927359630465e-01,8.594582060246257482e-01,2.536690037385322682e+02
7.603501648407099189e+00,-4.742046548088980273e+01,-2.717955806064945889e+01,-2.329399178759131508e-02,5.053378289040691973e-01,8.626059753012774722e-01,2.553735019126669386e+02
7.569223763160738194e+00,-4.789112621951149151e+01,-2.762161583502634699e+01,-2.298655637485400374e-02,4.999973018921416434e-01,8.657206918671571660e-01,2.570780000868015804e+02
7.533687855450916793e+00,-4.835069278995182174e+01,-2.806103339795111395e+01,-2.267824017922733318e-02,4.946376163335201581e-01,8.688022363752351263e-01,2.587824982609362223e+02
7.499168966812289838e+00,-4.879864627962244583e+01,-2.849740982934250155e+01,-2.236905501448492248e-02,4.892589775956364684e-01,8.718504907495164824e-01,2.604869964350708642e+02
7.466279638296259513e+00,-4.925671860956116888e+01,-2.895291860157479036e+01,-2.205901272769644414e-02,4.838615917721451609e-01,8.748653381895662440e-01,2.622813080703589890e+02
7.439590856974058752e+00,-4.970000422583199651e+01,-2.940385572445776319e+01,-2.174812519877372674e-02,4.784456656750277759e-01,8.778466631749843874e-01,2.640756197056471137e+02
7.422447745749107817e+00,-5.012787755052064398e+01,-2.984968567038011855e+01,-2.143640434001558431e-02,4.730114068266687566e-01,8.807943514698314269e-01,2.658699313409352385e+02
7.418138469426273751e+00,-5.053971989405700782e+01,-3.028985761267626842e+01,-2.112386209565137937e-02,4.675590234519044763e-01,8.837082901270059132e-01,2.676642429762233633e+02
7.429441723001026787e+00,-5.093923120689436246e+01,-3.072867779852533232e+01,-2.081051044138342368e-02,4.620887244700448426e-01,8.865883674925720825e-01,2.694790839320903615e+02
7.459113828606040997e+00,-5.132086253978435764e+01,-3.116041896431705638e+01,-2.049636138392808143e-02,4.566007194868689778e-01,8.894344732100381012e-01,2.712939248879573597e+02
7.521313879601568608e+00,-5.173461393658839569e+01,-3.164619961147665350e+01,-2.018142696055577265e-02,4.510952187865939211e-01,8.922464982245837950e-01,2.733795550726703141e+02
7.617863373979598229e+00,-5.211907121950969213e+01,-3.211911258699790039e+01,-1.986571923862978303e-02,4.455724333238185175e-01,8.950243347872397504e-01,2.754651852573832684e+02
7.719558317109123990e+00,-5.240951970463009957e+01,-3.249190888811389044e+01,-1.954925031514386305e-02,4.400325747154394951e-01,8.977678764590160121e-01,2.771503241305571805e+02
7.839932102377830780e+00,-5.268346498292270752e+01,-3.285669437638961909e+01,-1.923203231625877224e-02,4.344758552325446166e-01,9.004770181149795993e-01,2.788354630037310926e+02
7.978463267778322709e+00,-5.294038235688702088e+01,-3.321289240367250528e+01,-1.891407739683765438e-02,4.289024877922790191e-01,9.031516559482831719e-01,2.805206018769050047e+02
8.135740047851589551e+00,-5.318161191287160960e+01,-3.356277586381933276e+01,-1.859539773998036133e-02,4.233126859496880723e-01,9.057916874741422930e-01,2.822201010611022980e+02
8.309982904171986817e+00,-5.340424244899796236e+01,-3.390259950764846053e+01,-1.827600555655659736e-02,4.177066638895335915e-01,9.083970115337620665e-01,2.839196002452995913e+02
8.500653360250908008e+00,-5.360769278716168884e+01,-3.423171619333619020e+01,-1.795591308473812667e-02,4.120846364180892896e-01,9.109675282982137023e-01,2.856190994294968846e+02
8.735695213053910280e+00,-5.381164651690526313e+01,-3.458821286910080062e+01,-1.763513258952984636e-02,4.064468189549095278e-01,9.135031392722589016e-01,2.875356173344138142e+02
8.992579254412856216e+00,-5.398612122168731986e+01,-3.492730934621977212e+01,-1.731367636229986032e-02,4.007934275245760292e-01,9.160037472981243933e-01,2.894521352393307438e+02
9.239449448281094490e+00,-5.411760712145868979e+01,-3.521537580089522379e+01,-1.699155672030854339e-02,3.951246787484207212e-01,9.184692565592246227e-01,2.911639216021561083e+02
9.501613254691342547e+00,-5.422682734824917361e+01,-3.548948844047558282e+01,-1.666878600623659945e-02,3.894407898362258202e-01,9.208995725838330371e-01,2.928757079649814727e+02
9.592447627334980353e+00,-5.425930523785750381e+01,-3.557881371185997210e+01,-1.634537658771218968e-02,3.837419785779023762e-01,9.232946022487018567e-01,2.934503363860486616e+02
9.857109424333632575e+00,-5.434028206881850309e+01,-3.582514917977756141e+01,-1.602134085683703385e-02,3.780284633351452817e-01,9.256542537826301098e-01,2.950832174921559385e+02
1.013218060269539578e+01,-5.440057903039809162e+01,-3.605776734974259767e+01,-1.569669122971161651e-02,3.723004630330660758e-01,9.279784367699810410e-01,2.967160985982632155e+02
1.041519885294262338e+01,-5.443957103084598970e+01,-3.627594685964196231e+01,-1.537144014595949286e-02,3.665581971518063753e-01,9.302670621541453411e-01,2.983489797043704925e+02
1.078603440986525186e+01,-5.445182035302124746e+01,-3.652995579886147226e+01,-1.504560006825064918e-02,3.608018857181274353e-01,9.325200422409541945e-01,3.004448179621692248e+02
1.116059224532874161e+01,-5.441531649796517911e+01,-3.674988801451847564e+01,-1.471918348182401672e-02,3.550317492969807809e-01,9.347372907020393695e-01,3.025406562199679570e+02
1.148740999877917446e+01,-5.434429878783748080e+01,-3.691481744332785553e+01,-1.439220289400908008e-02,3.492480089830568013e-01,9.369187225781415718e-01,3.043780171839029549e+02
1.180802513864672498e+01,-5.423821098302002497e+01,-3.705412415237914558e+01,-1.406467083374666679e-02,3.434508863923133037e-01,9.390642542823648409e-01,3.062153781478379528e+02
1.211704868089518605e+01,-5.409586651968371740e+01,-3.716652380041762882e+01,-1.373659985110894065e-02,3.376406036534854715e-01,9.411738036033804322e-01,3.080527391117729508e+02
1.240833429626137807e+01,-5.391581446113855236e+01,-3.725075177897548429e+01,-1.340800251681851379e-02,3.318173833995743949e-01,9.432472897085767416e-01,3.098919162615485448e+02
1.267530509889658852e+01,-5.369687964978059824e+01,-3.730532869290505715e+01,-1.307889142176680598e-02,3.259814487593165611e-01,9.452846331471563834e-01,3.117310934113241387e+02
1.291306643564958634e+01,-5.343775882499623719e+01,-3.732891339173102807e+01,-1.274927917653163011e-02,3.201330233486357479e-01,9.472857558531809774e-01,3.135702705610997327e+02
1.310331980792926032e+01,-5.316581499822056145e+01,-3.732337555670851259e+01,-1.241917841089404048e-02,3.142723312620746556e-01,9.492505811485623113e-01,3.152534647345256644e+02
1.326697874467804539e+01,-5.286118741331214466e+01,-3.729210034111870442e+01,-1.208860177335440572e-02,3.083995970642088857e-01,9.511790337460003242e-01,3.169366589079515961e+02
1.340255045017303459e+01,-5.252292717560879254e+01,-3.723413441350247410e+01,-1.175756193064779465e-02,3.025150457810430460e-01,9.530710397518689092e-01,3.186198530813775278e+02
1.350781398207229778e+01,-5.215006189876928744e+01,-3.714849848132738686e+01,-1.142607156725862841e-02,2.966189028913883141e-01,9.549265266690462051e-01,3.203030472548034595e+02
1.357683152894803236e+01,-5.178068057746002495e+01,-3.704661251945075406e+01,-1.109414338493472027e-02,2.907113943182242366e-01,9.567454233996940394e-01,3.218368154976241158e+02
1.362054441636117552e+01,-5.138370758783155168e+01,-3.692234557581323173e+01,-1.076179010220057984e-02,2.847927464200420422e-01,9.585276602479807506e-01,3.233705837404447720e+02
1.363865901091165789e+01,-5.095845444618520048e+01,-3.677501392438376371e+01,-1.042902445387010497e-02,2.788631859821715797e-01,9.602731689227536060e-01,3.249043519832654283e+02
1.363080047942051465e+01,-5.050422692892112764e+01,-3.660392515780694822e+01,-1.009585919055865783e-02,2.729229402080924904e-01,9.619818825401543760e-01,3.264381202260860846e+02
1.359586607994417484e+01,-5.002031828607861996e+01,-3.640836936053604944e+01,-9.762307078194528559e-03,2.669722367107287830e-01,9.636537356261829501e-01,3.279718884689067409e+02
1.353268761442085300e+01,-4.950601233167702730e+01,-3.618762794485089529e+01,-9.428380897529810983e-03,2.610113035037280871e-01,9.652886641192065520e-01,3.295056567117273971e+02
1.340436536311272775e+01,-4.880186108203753292e+01,-3.586449257787604949e+01,-9.094093443650690112e-03,2.550403689927249196e-01,9.668866053724137766e-01,3.314514830423502190e+02
1.321515192013865203e+01,-4.803241202601438431e+01,-3.548663214666976984e+01,-8.759457525487219717e-03,2.490596619665897682e-01,9.684474981562164464e-01,3.333973093729730408e+02
1.296254728410606916e+01,-4.719575383204153951e+01,-3.505211963268578046e+01,-8.424485965322536102e-03,2.430694115886631035e-01,9.699712826605945137e-01,3.353431357035958627e+02
1.267248278440261799e+01,-4.636157385685662291e+01,-3.459944100594627514e+01,-8.089191598301591346e-03,2.370698473879747914e-01,9.714579004973897813e-01,3.371450062663768108e+02
1.232962503270833210e+01,-4.547097416991873331e+01,-3.409876997990084391e+01,-7.753587271939341857e-03,2.310611992504496837e-01,9.729072947025416696e-01,3.389468768291577589e+02
1.193254254827243344e+01,-4.452250230041762080e+01,-3.354862890575780199e+01,-7.417685845628518848e-03,2.250436974100997745e-01,9.743194097382721353e-01,3.407487473919387071e+02
1.156069828979886793e+01,-4.368540565655211338e+01,-3.305139872957838776e+01,-7.081500190146917430e-03,2.190175724402025903e-01,9.756941914952117489e-01,3.422586678572885148e+02
1.115664804148274669e+01,-4.281246275109859312e+01,-3.252342072993619837e+01,-6.745043187164252892e-03,2.129830552444672565e-01,9.770315872944754787e-01,3.437685883226383226e+02
1.072010717897185295e+01,-4.190294013582831667e+01,-3.196393742129392734e+01,-6.408327728748578964e-03,2.069403770481866300e-01,9.783315458896802985e-01,3.452785087879881303e+02
1.020044701246109575e+01,-4.085761602879689036e+01,-3.130952202606884072e+01,-6.071366716872343521e-03,2.008897693893785530e-01,9.795940174689090618e-01,3.469386984345326255e+02
9.637665043710880397e+00,-3.976179727432830191e+01,-3.061109584616986368e+01,-5.734173062918045301e-03,1.948314641099141431e-01,9.808189536566197519e-01,3.485988880810771207e+02
9.032515042909382785e+00,-3.861439255668958737e+01,-2.986751118703743657e+01,-5.396759687183535874e-03,1.887656933466351494e-01,9.820063075154998877e-01,3.502590777276216158e+02
8.349054798462791638e+00,-3.734649352386755083e+01,-2.903222737869319303e+01,-5.059139518386952979e-03,1.826926895224589009e-01,9.831560335482645296e-01,3.520088635867855942e+02
7.619823579840431016e+00,-3.601571959753336216e+01,-2.814128520724607441e+01,-4.721325493171371103e-03,1.766126853374735961e-01,9.842680876994007733e-01,3.537586494459495725e+02
6.847707477088532890e+00,-3.462072406787125800e+01,-2.719322529341945938e+01,-4.383330555609132005e-03,1.705259137600222130e-01,9.853424273568551772e-01,3.555084353051135508e+02
6.002285679923799577e+00,-3.309887898506727311e+01,-2.614370132760855725e+01,-4.045167656705882936e-03,1.644326080177763161e-01,9.863790113536680115e-01,3.573283425339731707e+02
5.118004832807759641e+00,-3.150185979502325750e+01,-2.502653682695809678e+01,-3.706849753904342942e-03,1.583330015887996212e-01,9.873777999695503294e-01,3.591482497628327906e+02
4.352738827399279309e+00,-3.010751114355204905e+01,-2.404012310334727331e+01,-3.368389810587846256e-03,1.522273281926024846e-01,9.883387549324068599e-01,3.606746455612080240e+02
3.572127534010232086e+00,-2.866670750989974437e+01,-2.301188449271802128e+01,-3.029800795583642396e-03,1.461158217811868165e-01,9.892618394198019471e-01,3.622010413595832574e+02
2.779656270122710549e+00,-2.717870248676073786e+01,-2.194094115824266211e+01,-2.691095682665995466e-03,1.399987165300823622e-01,9.901470180603720861e-01,3.637274371579584908e+02
1.187808742659494099e+00,-2.403281784620928008e+01,-1.962863179540097036e+01,-2.352287450059060547e-03,1.338762468293734631e-01,9.909942569351807284e-01,3.667233625326052788e+02
9.152577946736385472e-01,-2.347130986708319966e+01,-1.920964441787278787e+01,-2.013389079939641689e-03,1.277486472747191293e-01,9.918035235790190196e-01,3.672284575757428229e+02
-2.585952866319849441e-01,-2.096599341248060355e+01,-1.732597150386487783e+01,-1.674413557939766683e-03,1.216161526583640212e-01,9.925747869816499147e-01,3.694131690822193832e+02
-1.414192443914493058e+00,-1.831470940770787692e+01,-1.530473521339286513e+01,-1.335373872649135187e-03,1.154789979601424099e-01,9.933080175889966723e-01,3.715978805886959435e+02
-2.501129792404810370e+00,-1.559349773649795878e+01,-1.320385595979107229e+01,-9.962830151174367505e-04,1.093374183384745041e-01,9.940031873042757260e-01,3.737239837334024060e+02
-3.528198197919753198e+00,-1.273243712701132502e+01,-1.096925441594757089e+01,-6.571539783566008675e-04,1.031916491213565601e-01,9.946602694890747109e-01,3.758500868781088684e+02
-4.538189701247413055e+00,-9.465838704107785162e+00,-8.386935954091963907e+00,-3.179997568429690632e-04,9.704192579734405300e-02,9.952792389643720927e-01,3.781531696799910947e+02
-5.420205737186678085e+00,-5.903050040219037342e+00,-5.534119605766345096e+00,-8.479704324504668822e-01,5.300416452413000412e-01,0.000000000000000000e+00,3.805275593676896619e+02
-5.983471882408494480e+00,-2.719136517655623031e+00,-2.897041244375404556e+00,9.334680231828020869e-01,2.330827560931504616e-01,2.725947147463021469e-01,3.825859711819858262e+02
-6.276647593228023680e+00,-1.997547886129614342e-02,-5.646973859023225462e-01,4.606684729584181182e-01,4.802354505722305489e-01,7.464291460253502652e-01,3.843477663807043427e+02
-6.407147487643957362e+00,2.614742225457773461e+00,1.738109217925000616e+00,7.364161080999306330e-01,-4.016585135369092341e-01,-5.443893406704642945e-01,3.861095615794228593e+02
-6.393642164128849892e+00,5.185400104444926050e+00,3.965016369475771185e+00,7.364161075799685596e-01,-4.016585132533097013e-01,-5.443893402860866537e-01,3.878713567781413758e+02
-6.078734688748298254e+00,8.923617069814024916e+00,7.155666129443405410e+00,9.334680231830139174e-01,2.330827560932033637e-01,2.725947147463639864e-01,3.905416662036265052e+02
-5.739833615639169828e+00,1.106885371592281153e+01,8.959855891310661846e+00,9.421051217393431321e-01,0.000000000000000000e+00,-3.353146874088773766e-01,3.921377518445078181e+02
-5.333651754982110305e+00,1.316746317546699707e+01,1.071131324123750517e+01,-4.499992964605723173e-04,3.515004504559725573e-01,9.361865363440673438e-01,3.937338374853891310e+02
-4.746216639228054923e+00,1.568133635317478181e+01,1.278875218318831664e+01,-5.300915303213893370e-01,-8.479392486978087895e-01,0.000000000000000000e+00,3.956998775320587924e+02
-4.070583062640091399e+00,1.811057435528889314e+01,1.477167919278559260e+01,8.849408409610345361e-01,2.539496673929531392e-02,-4.650083909617237499e-01,3.976659175787284539e+02
-3.262260730829218858e+00,2.062714049187122001e+01,1.679778639445299504e+01,9.360262369454234177e-01,-2.510647953303726254e-01,2.466157989572229925e-01,3.997808184345842051e+02
-2.385750685459629761e+00,2.304176525311077839e+01,1.871190041918944402e+01,0.000000000000000000e+00,-9.695091808015578183e-02,9.952881590193001227e-01,4.018957192904399562e+02
-1.626234916134383868e+00,2.496188294544021957e+01,2.021355460728522857e+01,8.965938298732629708e-01,2.929696176511912761e-02,-4.418814233093617538e-01,4.036386057486217851e+02
-8.440954225259279520e-01,2.682619735059437716e+01,2.165542972074909400e+01,9.999988887671650962e-07,-4.977924468360734878e-01,-8.672950362322072726e-01,4.053814922068036140e+02
-4.557142468430006033e-02,2.863554700344886683e+01,2.303881170388811483e+01,0.000000000000000000e+00,-2.786296520867484472e-02,9.996107518276522441e-01,4.071243786649854428e+02
9.734852779123525091e-01,3.082426240027502473e+01,2.468619332468262328e+01,4.789225235540254810e-01,-2.317097694884213965e-01,8.467241576543248494e-01,4.093164075096505599e+02
2.000256965778596907e+00,3.290887153454119129e+01,2.622291702403857983e+01,0.000000000000000000e+00,8.052988517096307253e-03,-9.999665741293631838e-01,4.115084363543156769e+02
3.319344541670999682e+00,3.542776177492787326e+01,2.802352970844794555e+01,4.157246280601140098e-01,9.043401909062759314e-01,9.664291353566324683e-02,4.143394460944676894e+02
4.185875847405362116e+00,3.699896747574050693e+01,2.911195709212400828e+01,5.752485914334436456e-01,0.000000000000000000e+00,-8.179774190368785947e-01,4.162202302066826292e+02
4.906778962079085815e+00,3.827299144638863737e+01,2.997957369423541607e+01,0.000000000000000000e+00,-9.705539409184218425e-01,-2.408797371487751693e-01,4.177986149269111706e+02
5.620401810242893426e+00,3.951060331978371920e+01,3.081020106317200202e+01,9.703928888894503002e-01,2.415277234480954494e-01,0.000000000000000000e+00,4.193769996471397121e+02
6.324802341377148807e+00,4.071239106715697886e+01,3.160460119854090522e+01,9.421051217385486565e-01,0.000000000000000000e+00,-3.353146874085946028e-01,4.209553843673682536e+02
7.018243823188581310e+00,4.187894496672332423e+01,3.236352835142807294e+01,0.000000000000000000e+00,-9.950534475071191043e-01,-9.933094484754562137e-02,4.225337690875967951e+02
7.729342084804178725e+00,4.306129760504346393e+01,3.311935195137782273e+01,9.999988887670117833e-07,-4.977924468359971044e-01,-8.672950362320742679e-01,4.241847532976448747e+02
8.423529920662112147e+00,4.420483783905054054e+01,3.383630483995484184e+01,-6.476833636046760434e-01,2.256807782524609118e-01,-7.277172849656122766e-01,4.258357375076929543e+02
9.099465594203021368e+00,4.531028049295269255e+01,3.451526219912755522e+01,3.588155418937480912e-01,-5.920762440856167652e-01,-7.215920787304227479e-01,4.274867217177410339e+02
9.756018152910563401e+00,4.637833964165456990e+01,3.515708923534742780e+01,-6.799996278744674307e-05,-9.702994690096995722e-02,9.952804553390114384e-01,4.291377059277891135e+02
1.044963757359077405e+01,4.750397964839538645e+01,3.581632189151581258e+01,-0.000000000000000000e+00,2.016697227933759995e-02,9.997956257234539290e-01,4.309456491506165889e+02
1.111387850479923856e+01,4.858276634198757904e+01,3.642912148394031391e+01,-0.000000000000000000e+00,-5.697617808900627967e-01,-8.218086839618676809e-01,4.327535923734440644e+02
1.174741080543655514e+01,4.961571899055077495e+01,3.699667340448843333e+01,-0.000000000000000000e+00,5.892782266480439679e-01,-8.079289396970774639e-01,4.345615355962715398e+02
1.225415077551070908e+01,5.044673221911251915e+01,3.743948200091337952e+01,4.034587101641443074e-01,-5.855715793382680889e-01,-7.030824949210131569e-01,4.360720957677014553e+02
1.274176186505083130e+01,5.125178976871161751e+01,3.785710745663973142e+01,0.000000000000000000e+00,-9.968312352731686365e-01,-7.953293898568758458e-02,4.375826559391313708e+02
1.320993472277541159e+01,5.203138370741329766e+01,3.825010426827868315e+01,-3.571165318403092814e-01,-5.924852232851908207e-01,-7.220990533687484669e-01,4.390932161105612863e+02
1.365844167358830852e+01,5.278600313091587992e+01,3.861901906188605693e+01,9.968779763717525721e-01,-0.000000000000000000e+00,-7.894491893666935600e-02,4.406037762819912018e+02
1.427726648549041322e+01,5.385407271443278887e+01,3.911322520735483721e+01,0.000000000000000000e+00,2.192496970816739527e-02,-9.997586187200654395e-01,4.428572311856444799e+02
1.482508322252860822e+01,5.484493712451180158e+01,3.953196831387666776e+01,3.421418352598057933e-01,-8.417995946762003162e-03,9.396095475810222197e-01,4.451106860892977579e+02
1.521594719816687125e+01,5.558609113772050137e+01,3.981813996222925311e+01,-9.796745246597541312e-01,-0.000000000000000000e+00,2.005886979235741441e-01,4.469081891462044496e+02
1.557100308652931808e+01,5.628986827928518011e+01,4.006827211927804200e+01,-0.000000000000000000e+00,-9.967539354453689437e-01,8.049591402863333356e-02,4.487056922031111412e+02
1.589012423115854489e+01,5.695720924011470032e+01,4.028334576729780281e+01,-0.000000000000000000e+00,8.052988517103445640e-03,-9.999665741302493638e-01,4.505031952600178329e+02
1.617339553367407490e+01,5.758904721773885171e+01,4.046432357440937011e+01,8.847879010088409713e-01,3.147796090136325414e-02,-4.649274225156940221e-01,4.523006983169245245e+02
1.641461574400095103e+01,5.817070924815120492e+01,4.060891120389476328e+01,0.000000000000000000e+00,1.466999104715307339e-02,9.998913897832297781e-01,4.540486153051133442e+02
1.662238578325192151e+01,5.872135963448850049e+01,4.072380533564881944e+01,-0.000000000000000000e+00,-9.978448059155582417e-01,-6.560292149537939876e-02,4.557965322933021639e+02
1.679725566710598628e+01,5.924181484103190343e+01,4.080981752818762232e+01,2.505768424023442908e-01,-9.347684120872904456e-01,2.518278416155415589e-01,4.575444492814909836e+02
1.693965685348592842e+01,5.973288198700132767e+01,4.086774092456039398e+01,8.649910223442942581e-01,4.315195122752695650e-02,4.999264349583765754e-01,4.592923662696798033e+02
1.704903161128734723e+01,6.019535499848417004e+01,4.089833158620973563e+01,6.355972790755546331e-01,2.092487626601731709e-01,7.431211571168950814e-01,4.610402832578686230e+02
1.713126547049141379e+01,6.072688406467434419e+01,4.089449177459009377e+01,5.328913625189165559e-01,-5.120993873916988154e-03,8.461669877571940113e-01,4.632146124760731709e+02
1.714822077152538071e+01,6.120693611217496510e+01,4.084129111943564538e+01,5.328913621441799808e-01,-5.120993870315833189e-03,8.461669871621574357e-01,4.653889416942777189e+02
1.712682620721699323e+01,6.151439032430265996e+01,4.077966844498698151e+01,8.088332836539762205e-01,-2.128178115171616147e-01,-5.481745145073259051e-01,4.668978939869770670e+02
1.708342219339288093e+01,6.180570792990655349e+01,4.070246882864741877e+01,8.220322628884914051e-01,6.371394286808114427e-02,-5.658634925935251969e-01,4.684068462796764152e+02
1.701705543562922784e+01,6.208131587677563346e+01,4.061006236314931783e+01,0.000000000000000000e+00,1.080298527117599522e-01,9.941466445773464722e-01,4.699157985723757633e+02
1.692709987163904728e+01,6.234164392868544979e+01,4.050281923683142082e+01,-0.000000000000000000e+00,0.000000000000000000e+00,-9.999989999917441308e-01,4.714247508650751115e+02
1.681325667507639920e+01,6.258712349818809884e+01,4.038110973130252290e+01,4.595995113954317590e-01,-5.348094314390575699e-01,-7.090452462073222328e-01,4.729337031577744597e+02
1.667555425726308727e+01,6.281818647939238787e+01,4.024530421910464639e+01,-8.368809030203183674e-01,4.998393448128600480e-02,-5.450962854902681176e-01,4.744426554504738078e+02
1.651434826683784962e+01,6.303526408074151277e+01,4.009577316137586678e+01,-4.199765354728027811e-01,-5.494543922600734209e-01,-7.223002010789660865e-01,4.759516077431731560e+02
1.632228783597100019e+01,6.324609599281176742e+01,3.992606006990499168e+01,7.342455860432730574e-01,2.131448798320909610e-01,6.445546366096945867e-01,4.775188745708272791e+02
1.610580979753808251e+01,6.344220925516077614e+01,3.974181963439745147e+01,-9.986869598535533799e-01,-5.120894666516530996e-02,0.000000000000000000e+00,4.790861413984814021e+02
1.586649241245598141e+01,6.362409493816659989e+01,3.954348326560359084e+01,8.370268619312297709e-01,-1.940497361590713121e-01,5.115943044076273205e-01,4.806534082261355252e+02
1.560630942576366742e+01,6.379223753170781208e+01,3.933148246982251095e+01,-7.270129289260623962e-01,2.249116686482220684e-01,6.487410442403468425e-01,4.822206750537896482e+02
