2.360426065249229044e+00,8.758607527951797422e+00,5.722277127087880721e+00,-7.982289068120889119e-01,1.900740270211581928e-01,5.715771833993348316e-01,4.377617604217215330e+01
2.050502580787605833e+00,8.653726069937107468e+00,5.527454420930287604e+00,-7.637903810602407750e-01,2.078110331466210547e-01,6.110947784947347028e-01,4.548194435967941729e+01
1.718231275543920189e+00,8.548767397452932570e+00,5.331699835510186780e+00,-7.270129289257907246e-01,2.249116686481380523e-01,6.487410442401044808e-01,4.718771267718668128e+01
1.365265443121780331e+00,8.443696163872413507e+00,5.134952549405105593e+00,-8.964331543918484524e-01,2.974197194430639249e-02,-4.421775828925261775e-01,4.889348099469394526e+01
9.415761509941056318e-01,8.324408115227674543e+00,4.910845765325017709e+00,-3.571165318403222710e-01,-5.924852232852122480e-01,-7.220990533687745572e-01,5.082457685872098807e+01
4.938153043348857407e-01,8.204550436769741495e+00,4.685102021488498636e+00,-8.875683493731181262e-01,2.518998153462868525e-02,-4.599846628108842927e-01,5.275567272274803088e+01
1.246395411958691052e-01,8.109064956215206621e+00,4.504689178237481606e+00,-8.919444568366668991e-01,3.059098137115009997e-02,-4.511067252916023396e-01,5.428935416995535945e+01
-2.530144113426062713e-01,8.013447566821863433e+00,4.323342000462331747e+00,-9.546707119025300559e-01,0.000000000000000000e+00,-2.976605983789396004e-01,5.582303561716268803e+01
-3.442488935327848720e-01,7.990598672802874169e+00,4.279867143503982341e+00,-9.796745246587165168e-01,-0.000000000000000000e+00,2.005886979233616751e-01,5.618967786719811386e+01
-8.149191908108518456e-01,7.873261606248684430e+00,4.056283375060147023e+00,-0.000000000000000000e+00,-9.967539354453689437e-01,8.049591402863333356e-02,5.806687395902331161e+01
-1.298836183536582034e+00,7.751978308472815549e+00,3.825377108763350797e+00,-7.142513392294457253e-01,-6.601633892674682036e-01,-2.324377849663898654e-01,5.998797066354698160e+01
-1.775451990709943750e+00,7.629129590468771482e+00,3.592150828745741986e+00,-8.471320701134541498e-01,-2.337197434486869563e-01,4.772214761598034816e-01,6.190906736807065158e+01
-2.171403926154672259e+00,7.522622627147471874e+00,3.390562184655564693e+00,-0.000000000000000000e+00,8.052988517102356233e-03,-9.999665741301140276e-01,6.355435669480449690e+01
-2.550358913115275517e+00,7.414894460047976033e+00,3.187296124200981406e+00,-0.000000000000000000e+00,-5.697617808901044301e-01,-8.218086839619278550e-01,6.519964602153834221e+01
-2.905863438277449973e+00,7.305685115654529049e+00,2.982249572874891896e+00,-0.000000000000000000e+00,1.080298527116637236e-01,9.941466445764608473e-01,6.684493534827218753e+01
-3.324737353578609333e+00,7.155770935184732728e+00,2.704515737131002240e+00,3.588155418935366492e-01,-5.920762440852678221e-01,-7.215920787299974215e-01,6.904568304185370664e+01
-3.666773793775390367e+00,6.999795357085686121e+00,2.422433198236703333e+00,0.000000000000000000e+00,2.016697227948016646e-02,9.997956257305218308e-01,7.124643073543522576e+01
-3.878563466669677773e+00,6.880026304309287966e+00,2.210488598556166639e+00,6.355972790763313451e-01,2.092487626604288553e-01,7.431211571178032438e-01,7.288157932499296976e+01
-4.063322183581082214e+00,6.757259913295068365e+00,1.997032674777368122e+00,0.000000000000000000e+00,-9.705539409183615573e-01,-2.408797371487602090e-01,7.451672791455071376e+01
-4.222774686942763367e+00,6.631188524321181887e+00,1.782200510850913799e+00,5.328913625204472204e-01,-5.120993873931696874e-03,8.461669877596244005e-01,7.615187650410845777e+01
-4.350843580053211035e+00,6.510007194655963225e+00,1.579967615079875376e+00,5.752485914334030115e-01,-0.000000000000000000e+00,-8.179774190368207520e-01,7.768280078376331232e+01
-4.459892198601854929e+00,6.385658169324086586e+00,1.376824516074838023e+00,0.000000000000000000e+00,-2.786296520867984766e-02,9.996107518278317672e-01,7.921372506341816688e+01
-4.560009407362472622e+00,6.241326161295732255e+00,1.147198419969072125e+00,7.342455860439367488e-01,2.131448798322836125e-01,6.445546366102772318e-01,8.093663741242184528e+01
-4.637633364857047802e+00,6.091729410807309009e+00,9.166154655826752595e-01,9.703928888889444826e-01,2.415277234479695778e-01,0.000000000000000000e+00,8.265954976142552368e+01
-4.696410235210932704e+00,5.936518943181270380e+00,6.852633168658879281e-01,0.000000000000000000e+00,8.052988517103475130e-03,-9.999665741302532496e-01,8.438246211042920208e+01
-4.739779207110475845e+00,5.775357429854448554e+00,4.533324043162782480e-01,4.789225235540375269e-01,-2.317097694884272530e-01,8.467241576543460546e-01,8.610537445943288049e+01
-4.770562136756342220e+00,5.607914140418814419e+00,2.210186836466688509e-01,0.000000000000000000e+00,1.466999104714234586e-02,9.998913897824985852e-01,8.782828680843655889e+01
-4.791381871468708198e+00,5.433866081450340779e+00,-1.147912605535874632e-02,-0.000000000000000000e+00,-7.950793855462741366e-02,9.968332296267479187e-01,8.955119915744023729e+01
-4.806209372056498452e+00,5.223668087237716584e+00,-2.797173685392459475e-01,8.965938298732627487e-01,2.929696176511912414e-02,-4.418814233093616428e-01,9.153933715512734182e+01
-4.815002981640485125e+00,5.002293513900513133e+00,-5.475776388017344898e-01,0.000000000000000000e+00,1.466999104715329023e-02,9.998913897832444331e-01,9.352747515281444635e+01
-4.822769011577968001e+00,4.761098744264841365e+00,-8.234879982201684934e-01,-0.000000000000000000e+00,1.466999103679639260e-02,9.998913890773289959e-01,9.558130081828336699e+01
-4.834179101020096070e+00,4.506423455084973995e+00,-1.098161188216928652e+00,-9.359985444585989254e-04,-1.157798199545048978e-01,9.932734553922167864e-01,9.763512648375228764e+01
-4.851530520307496985e+00,4.263770757966427460e+00,-1.346019074931020132e+00,1.270998420251511071e-03,1.158168560489923615e-01,9.932687654470641059e-01,9.949857698293118347e+01
-4.878863273702018333e+00,4.010254521554945661e+00,-1.592331954190559618e+00,0.000000000000000000e+00,1.173078338390019654e-01,9.930945933284813787e-01,1.013620274821100793e+02
-4.911277496144004218e+00,3.787868549619846981e+00,-1.799216144570876752e+00,-0.000000000000000000e+00,8.317868297098099384e-02,9.965336455350896072e-01,1.029371329879297292e+02
-4.953184310176946603e+00,3.558531346286510910e+00,-2.004824000055067668e+00,-0.000000000000000000e+00,4.895164982792965525e-02,9.988001481591793906e-01,1.045122384937493791e+02
-5.017455303415593093e+00,3.279448272314417157e+00,-2.244031655879838105e+00,-0.000000000000000000e+00,1.466699169428589862e-02,9.998914337753402881e-01,1.063603139060494271e+02
-5.100980175344906442e+00,2.988461003645088709e+00,-2.480609939321912982e+00,-8.657284703650010016e-01,4.290397375222500947e-02,4.986696949240640997e-01,1.082083893183494752e+02
-5.192697354921712360e+00,2.718155326517308623e+00,-2.690029819249660115e+00,9.999988887671189330e-07,-4.977924468360503396e-01,-8.672950362321669715e-01,1.098626880608249223e+02
-5.300647866389132545e+00,2.438982616761548261e+00,-2.897042201710362974e+00,5.648623015317062734e-02,-6.687805473904440134e-01,-7.413095744939383058e-01,1.115169868033003695e+02
-5.430619677337637619e+00,2.139990329320299089e+00,-3.108834474033797868e+00,1.102431810461581979e-01,-8.074665902729002420e-01,-5.795188923813801019e-01,1.132325929909867881e+02
-5.581849967448994754e+00,1.826274634201530134e+00,-3.320968511564919456e+00,1.586753984303102272e-01,-9.071520489672759702e-01,-3.897374475057913124e-01,1.149755390244822024e+02
-5.751991815854763601e+00,1.502631354935554997e+00,-3.530320389703161865e+00,1.994436076356212451e-01,-9.630221036496297016e-01,-1.811316517237314128e-01,1.167184850579776167e+02
-5.939643891924199615e+00,1.169249476982666458e+00,-3.737190875867589135e+00,2.305786999591365460e-01,-9.723782021572285883e-01,3.622285321485495257e-02,1.184614310914730311e+02
-6.119214124468717486e+00,8.646412007800561295e-01,-3.919719010790638780e+00,2.505768424027111085e-01,-9.347684120886589065e-01,2.518278416159102640e-01,1.200141501763386742e+02
-6.308003431835876640e+00,5.534516147384886953e-01,-4.100889407813676613e+00,2.433924388257119598e-01,-9.153782289732877997e-01,3.206880394470509876e-01,1.215668692612043174e+02
-6.504287468232552882e+00,2.357816225738472438e-01,-4.280889209877863699e+00,2.349498595003312873e-01,-8.912561535552662173e-01,3.878904900495822594e-01,1.231195883460699605e+02
-6.706292477378165806e+00,-8.827430147239540004e-02,-4.459905567704325335e+00,2.252927471530619952e-01,-8.625268817303186619e-01,4.530878020573075871e-01,1.246723074309356036e+02
-6.911988898394665348e+00,-4.186280852134678376e-01,-4.638123601649160044e+00,2.144710228023227749e-01,-8.293389254222335305e-01,5.159429495186500514e-01,1.262250265158012468e+02
-7.118884540308590303e+00,-7.551990431648883950e-01,-4.815724363572035038e+00,2.025406276907292524e-01,-7.918638448386570161e-01,5.761310140692188497e-01,1.277777456006668899e+02
-7.253363844221188295e+00,-9.772462574873117536e-01,-4.931188881998641804e+00,1.895632340987527809e-01,-7.502953615889219607e-01,6.333408645087298394e-01,1.287891956471853803e+02
-7.593386436665650052e+00,-1.589772429349695093e+00,-5.239273999819372918e+00,1.756059265350100040e-01,-7.048483572498901450e-01,6.872767651015522228e-01,1.314930740415271373e+02
-7.782167959238828203e+00,-1.977883512068336680e+00,-5.427236099020669613e+00,1.607408549514576235e-01,-6.557577625576157532e-01,7.376599042888850599e-01,1.331447388182745044e+02
-7.953060859402456551e+00,-2.373286552839206198e+00,-5.615374351696766908e+00,1.450448617762660486e-01,-6.032773429676261401e-01,7.842298359121776530e-01,1.347964035950218715e+02
-8.100004048199643591e+00,-2.775963407011102113e+00,-5.803894443594820984e+00,1.285990846923673880e-01,-5.476783868618873008e-01,8.267458254997643863e-01,1.364480683717692386e+02
-8.216607631752237850e+00,-3.185918253332615802e+00,-5.992998540039666366e+00,1.114885372149296561e-01,-4.892483031833280149e-01,8.649880946594388220e-01,1.380997331485166058e+02
-8.294776245790449920e+00,-3.590570429365116834e+00,-6.177214913872738578e+00,9.380166923565688708e-02,-4.282891357465601345e-01,8.987589571463154847e-01,1.397023360546264996e+02
-8.332425861610170514e+00,-4.001930587510029724e+00,-6.362312208120048496e+00,7.562990980526720919e-02,-3.651160019037580917e-01,9.278838407351014395e-01,1.413049389607363935e+02
-8.323010512986007470e+00,-4.420069717472403958e+00,-6.548460228393970795e+00,5.706719451722688796e-02,-3.000554636353376936e-01,9.522121896159305710e-01,1.429075418668462873e+02
-8.260372882816710671e+00,-4.845081706979220471e+00,-6.735825556883234810e+00,3.820947993534958703e-02,-2.334438394841031883e-01,9.716182426501773772e-01,1.445101447729561812e+02
-8.142013326579668586e+00,-5.277081563326881941e+00,-6.924563745008645022e+00,1.915424757479727499e-02,-1.656254660571201964e-01,9.860016834639808714e-01,1.461127476790660751e+02
-7.943409841049325237e+00,-5.771242857377496982e+00,-7.138474268091220765e+00,0.000000000000000000e+00,-9.695091808015333934e-02,9.952881590192750316e-01,1.479125925835833755e+02
-7.680581179649597523e+00,-6.275561601970649939e+00,-7.354756603443259877e+00,-6.799996273958493632e-05,-9.702994683267540665e-02,9.952804546384829143e-01,1.497124374881006759e+02
-7.344462715662425367e+00,-6.816741594244173363e+00,-7.584859012578657911e+00,-1.520882391755497927e-04,-3.238459369116604425e-02,9.994744693852617434e-01,1.516033948563057550e+02
-6.956024768443112016e+00,-7.369874779223119177e+00,-7.818223209155714670e+00,-2.355382276100351289e-04,3.239664189454555948e-02,9.994740627490894536e-01,1.534943522245108340e+02
-6.700220395037526977e+00,-7.712877560888738770e+00,-7.962194609941101398e+00,-3.179997568417564373e-04,9.704192579697398791e-02,9.952792389605765733e-01,1.546492817387693890e+02
-6.077590690927734407e+00,-8.499714364383720522e+00,-8.290746199188449239e+00,-5.450666560633782949e-04,4.638909399529713151e-01,8.858910196671511139e-01,1.572381599301258746e+02
-5.542932279977743626e+00,-9.137889940786831033e+00,-8.555771750522232821e+00,-6.922574685454232135e-04,7.627602231640598918e-01,6.466794899559437093e-01,1.592757807236200449e+02
-4.986087271827415179e+00,-9.790659550003713463e+00,-8.826071841162914211e+00,-7.380011623462463203e-04,9.498509470490033024e-01,3.126989506432676924e-01,1.613134015171142153e+02
-4.493954162014454745e+00,-1.036592443521744222e+01,-9.063890439238788233e+00,-6.755934371455576482e-04,9.977445623314799006e-01,-6.710686925144210280e-02,1.630746862746346437e+02
-3.997380174274800968e+00,-1.095061455304057318e+01,-9.305449914974204262e+00,-5.141801406866291623e-04,8.994224122871466998e-01,-4.370778647865160016e-01,1.648359710321550722e+02
-3.499866329222613537e+00,-1.154456302332094708e+01,-9.550895417672776944e+00,-2.774166353437187722e-04,6.692943763009723268e-01,-7.429959359832003507e-01,1.665972557896755006e+02
-2.851611366926862789e+00,-1.233880102196947348e+01,-9.879921272369211138e+00,-0.000000000000000000e+00,3.410856895396039978e-01,-9.400311443720732463e-01,1.689064121708143489e+02
-2.413730190502202611e+00,-1.289088993377755799e+01,-1.010929889777193047e+01,2.695918346259481777e-02,5.918134250527065099e-01,-8.056227853987800724e-01,1.704833263511160624e+02
-1.981129648630296280e+00,-1.344931454475127808e+01,-1.034175234531099896e+01,5.171696928920894304e-02,7.942155283755510942e-01,-6.054296404811914112e-01,1.720602405314177759e+02
-1.554779474180704391e+00,-1.401391721176826266e+01,-1.057735066651568800e+01,-9.089308576324776068e-01,-4.169444759735309036e-01,-0.000000000000000000e+00,1.736371547117194893e+02
-1.060291367274225349e+00,-1.468985272378121820e+01,-1.086051333765025895e+01,-0.000000000000000000e+00,2.371197228180734612e-02,-9.997178313763562807e-01,1.755018574284269164e+02
-5.776846342981335480e-01,-1.537499207260956346e+01,-1.114911321643591791e+01,-7.895990730671960736e-03,0.000000000000000000e+00,9.999678261093351006e-01,1.773665601451343434e+02
-1.075328273784766364e-01,-1.606899004158951172e+01,-1.144326601925581599e+01,-9.089331001752309902e-01,-0.000000000000000000e+00,-4.169395872385242008e-01,1.792312628618417705e+02
2.891190695812824729e-01,-1.667521390792873959e+01,-1.170170121265405960e+01,-2.327328258595320887e-01,7.626824293289972134e-01,6.034475484752180874e-01,1.808425461474889175e+02
6.775888944518084767e-01,-1.728692083903329291e+01,-1.196383557524387697e+01,-0.000000000000000000e+00,6.060361314460513960e-01,7.954358600036840476e-01,1.824538294331360646e+02
1.058201313949782119e+00,-1.790390568861633014e+01,-1.222972387110055692e+01,-4.039896372711486439e-02,7.947932863815573290e-01,6.055324563125584758e-01,1.840651127187832117e+02
1.431321857371620432e+00,-1.852596033346717519e+01,-1.249941755917137876e+01,-9.089459700191786506e-01,4.169115275727141579e-01,-4.199995240735213028e-05,1.856763960044303587e+02
1.797274581031711671e+00,-1.915286926597710604e+01,-1.277296151495370147e+01,-2.327326561491338541e-01,6.034521084296737836e-01,7.626788731800879795e-01,1.872876792900775058e+02
2.206253785481858465e+00,-1.987421505612145012e+01,-1.309024487232668754e+01,-0.000000000000000000e+00,5.332983833103286386e-01,8.459260217974463592e-01,1.891264312842747870e+02
2.597755247867662654e+00,-2.058599453844171023e+01,-1.340627827981580822e+01,-1.296468591472494519e-03,5.323870203711486004e-01,8.464988952750586160e-01,1.909254521062549657e+02
2.981224146564414923e+00,-2.130332115231079371e+01,-1.372784211702325230e+01,-2.592933488612196666e-03,5.314741456741339798e-01,8.470693650275965547e-01,1.927244729282351443e+02
3.357020611957740375e+00,-2.202582771951875884e+01,-1.405497120587136628e+01,-3.889391010407149823e-03,5.305597618103989888e-01,8.476374294341023630e-01,1.945234937502153230e+02
3.738123685440401189e+00,-2.277856272912378088e+01,-1.439946498909861639e+01,-5.185837475866646867e-03,5.296438713761675299e-01,8.482030868817568292e-01,1.963850754527980484e+02
3.781185958321287011e+00,-2.286484257562471711e+01,-1.443917243776019177e+01,-6.482269204031668001e-03,5.287264769719390856e-01,8.487663357645718332e-01,1.965977098893566506e+02
4.219360964084533983e+00,-2.375877472850273975e+01,-1.485403891864103798e+01,-7.778682513985327694e-03,5.278075812024822788e-01,8.493271744833967851e-01,1.987919218826332894e+02
4.645431381332104870e+00,-2.465912987298685621e+01,-1.527901340535307462e+01,-9.075073724863283453e-03,5.268871866768261025e-01,8.498856014459207353e-01,2.009861338759099283e+02
5.084905792405198355e+00,-2.562407933706884933e+01,-1.574300017891196113e+01,-1.037143915586420141e-02,5.259652960082535911e-01,8.504416150666785912e-01,2.033230477967875345e+02
5.366315687799500189e+00,-2.626230326406205506e+01,-1.605421591393919201e+01,-1.166777512626017248e-02,5.250419118142939379e-01,8.509952137670552252e-01,2.048620966673256021e+02
5.641542331006179190e+00,-2.690205931689036234e+01,-1.636877139005714454e+01,-1.296407795540716751e-02,5.241170367167152788e-01,8.515463959752892498e-01,2.064011455378636697e+02
5.909983638808253836e+00,-2.754307341482137872e+01,-1.668661555639069149e+01,-1.426034396275545867e-02,5.231906733415170319e-01,8.520951601264787900e-01,2.079401944084017373e+02
6.171049091553155286e+00,-2.818506587240769079e+01,-1.700769226819412339e+01,-1.555656946786004337e-02,5.222628243189226804e-01,8.526415046625842598e-01,2.094792432789398049e+02
6.423999965475649887e+00,-2.882774751832914717e+01,-1.733193521512289692e+01,-1.685275079039110294e-02,5.213334922833721130e-01,8.531854280324343565e-01,2.110182921494778725e+02
6.677647919259198872e+00,-2.949683530188533709e+01,-1.767265188055787561e+01,-1.814888425014444043e-02,5.204026798735141845e-01,8.537269286917295030e-01,2.126196247326285231e+02
6.920826996301904899e+00,-3.016597845565635438e+01,-1.801677335211264364e+01,-1.944496616705187336e-02,5.194703897321997221e-01,8.542660051030463997e-01,2.142209573157791738e+02
7.153140225120550255e+00,-3.083482645006898437e+01,-1.836421594706401450e+01,-2.074099286119172186e-02,5.185366245064729762e-01,8.548026557358424649e-01,2.158222898989298244e+02
7.374239165856299572e+00,-3.150302342559073310e+01,-1.871488856230078568e+01,-2.203696065279920832e-02,5.176013868475651813e-01,8.553368790664607202e-01,2.174236224820804750e+02
7.583651406375686577e+00,-3.217020390732602664e+01,-1.906868527842159011e+01,-2.333286586227688655e-02,5.166646794108864515e-01,8.558686735781327881e-01,2.190249550652311257e+02
7.804426941237787574e+00,-3.292051733238375988e+01,-1.947141055184438585e+01,-2.462870481020510219e-02,5.157265048560183418e-01,8.563980377609844430e-01,2.208303364716693977e+02
8.008013872421603452e+00,-3.366811767098612762e+01,-1.987827844194983484e+01,-2.592447381735240447e-02,5.147868658467067426e-01,8.569249701120393858e-01,2.226357178781076698e+02
8.194580863769514778e+00,-3.441240473759667395e+01,-2.028910598922860231e+01,-2.722016920468597889e-02,5.138457650508534424e-01,8.574494691352232412e-01,2.244410992845459418e+02
8.364417548856277307e+00,-3.515277329636389680e+01,-2.070369728522239683e+01,-2.851578729338207288e-02,5.129032051405092441e-01,8.579715333413685530e-01,2.262464806909842139e+02
8.495778530582192900e+00,-3.577551266068101654e+01,-2.105679228148339277e+01,-2.981132440483646312e-02,5.119591887918664153e-01,8.584911612482182264e-01,2.277728269828524503e+02
8.616850507228736689e+00,-3.639526773232186940e+01,-2.141189728477382559e+01,-3.110677686067482572e-02,5.110137186852506952e-01,8.590083513804301907e-01,2.292991732747206868e+02
8.727936107253894349e+00,-3.701171984490918021e+01,-2.176889219115882312e+01,-3.240214098276320703e-02,5.100667975051139669e-01,8.595231022695811740e-01,2.308255195665889232e+02
8.829315362722761407e+00,-3.762454850050551158e+01,-2.212765019291834179e+01,-3.369741309321844236e-02,5.091184279400267076e-01,8.600354124541718104e-01,2.323518658584571597e+02
8.921030862969249853e+00,-3.823342775205227895e+01,-2.248803108800989392e+01,-3.499258951441859555e-02,5.081686126826699956e-01,8.605452804796293043e-01,2.338782121503253961e+02
9.017799201537989973e+00,-3.896183620094247857e+01,-2.292514865734748852e+01,-3.628766656901333265e-02,5.072173544298282932e-01,8.610527048983129816e-01,2.357203943000762081e+02
9.098824841047976619e+00,-3.968193497245371759e+01,-2.336457169750786278e+01,-3.758264057993444818e-02,5.062646558823815646e-01,8.615576842695171766e-01,2.375625764498270200e+02
9.165161380884264020e+00,-4.039303359776738489e+01,-2.380598887970093713e+01,-3.887750787040616940e-02,5.053105197452976149e-01,8.620602171594764496e-01,2.394047585995778320e+02
9.217900478132008857e+00,-4.109444058316089610e+01,-2.424907341316549747e+01,-4.017226476395567569e-02,5.043549487276246523e-01,8.625603021413690286e-01,2.412469407493286440e+02
9.256889732582315844e+00,-4.176663116116140628e+01,-2.468114470652315617e+01,-4.146690758442349994e-02,5.033979455424835159e-01,8.630579377953206954e-01,2.430381597588659872e+02
9.284526260062124337e+00,-4.242864533451223963e+01,-2.511408337082596631e+01,-4.276143265597388832e-02,5.024395129070594601e-01,8.635531227084091155e-01,2.448293787684033305e+02
9.301906996140095529e+00,-4.307985778807003641e+01,-2.554755580627308476e+01,-4.405583630310534043e-02,5.014796535425952717e-01,8.640458554746679454e-01,2.466205977779406737e+02
9.310245261601268751e+00,-4.371964323431819821e+01,-2.598121417154495205e+01,-4.535011485066092057e-02,5.005183701743832758e-01,8.645361346950906078e-01,2.484118167874780170e+02
9.310644299237054611e+00,-4.433402798697144220e+01,-2.640529590516192471e+01,-4.664426462383870764e-02,4.995556655317570094e-01,8.650239589776342886e-01,2.501642124378294341e+02
9.304452707915848109e+00,-4.493654327820853212e+01,-2.682883915192262592e+01,-4.793828194820229371e-02,4.985915423480847264e-01,8.655093269372238218e-01,2.519166080881808512e+02
9.292901396364472433e+00,-4.552660959016616715e+01,-2.725147291772282543e+01,-4.923216314969104668e-02,4.976260033607600719e-01,8.659922371957556875e-01,2.536690037385322682e+02
9.277706343562718061e+00,-4.608822249060908405e+01,-2.766132461535691434e+01,-5.052590455463069202e-02,4.966590513111960870e-01,8.664726883821021186e-01,2.553735019126669386e+02
9.259958403896032308e+00,-4.663731607908665211e+01,-2.806960324137450158e+01,-5.181950248974358936e-02,4.956906889448157161e-01,8.669506791321147654e-01,2.570780000868015804e+02
9.241358018098921434e+00,-4.717337272754274835e+01,-2.847594131522382099e+01,-5.311295328215927258e-02,4.947209190110451460e-01,8.674262080886282478e-01,2.587824982609362223e+02
9.223670128473417051e+00,-4.769587686176864594e+01,-2.887995870815215582e+01,-5.440625325942474722e-02,4.937497442633056455e-01,8.678992739014650404e-01,2.604869964350708642e+02
9.207853394536538616e+00,-4.823027752804514989e+01,-2.930222475053090747e+01,-5.569939874951498199e-02,4.927771674590059048e-01,8.683698752274378041e-01,2.622813080703589890e+02
9.196935707180088571e+00,-4.874763083385559526e+01,-2.972080412769573954e+01,-5.699238608084330332e-02,4.918031913595340976e-01,8.688380107303547151e-01,2.640756197056471137e+02
9.193403714823485728e+00,-4.924731027923913729e+01,-3.013518356430684975e+01,-5.828521158227175508e-02,4.908278187302497209e-01,8.693036790810220182e-01,2.658699313409352385e+02
9.199693130592971002e+00,-4.972869345338775560e+01,-3.054483340593366592e+01,-5.957787158312159020e-02,4.898510523404764894e-01,8.697668789572486903e-01,2.676642429762233633e+02
9.217980339298799564e+00,-5.019621839739155433e+01,-3.095375173673658153e+01,-6.087036241318365126e-02,4.888728949634941756e-01,8.702276090438496592e-01,2.694790839320903615e+02
9.250192238089933738e+00,-5.064350705779877870e+01,-3.135659015690611540e+01,-6.216268040272868167e-02,4.878933493765301721e-01,8.706858680326498012e-01,2.712939248879573597e+02
9.308481267759376010e+00,-5.112955842398861961e+01,-3.181051379255445610e+01,-6.345482188251785893e-02,4.869124183607524414e-01,8.711416546224872715e-01,2.733795550726703141e+02
9.392765540360977994e+00,-5.158271069159374633e+01,-3.225313980561721650e+01,-6.474678318381318909e-02,4.859301047012613006e-01,8.715949675192179447e-01,2.754651852573832684e+02
9.478715990738471930e+00,-5.192624106369598991e+01,-3.260252673389219780e+01,-6.603856063838781099e-02,4.849464111870815941e-01,8.720458054357181910e-01,2.771503241305571805e+02
9.578662551242754120e+00,-5.225134365385953572e+01,-3.294475138766761546e+01,-6.733015057853646013e-02,4.839613406111544225e-01,8.724941670918890946e-01,2.788354630037310926e+02
9.692179036227463129e+00,-5.255749040723402032e+01,-3.327924367235901570e+01,-6.862154933708586313e-02,4.829748957703297596e-01,8.729400512146598956e-01,2.805206018769050047e+02
9.819726966119937117e+00,-5.284640708652545982e+01,-3.360811126089750900e+01,-6.991275324740520158e-02,4.819870794653582924e-01,8.733834565379918757e-01,2.822201010611022980e+02
9.959798447839840918e+00,-5.311474688302181590e+01,-3.392780558910417454e+01,-7.120375864341631222e-02,4.809978945008833162e-01,8.738243818028812449e-01,2.839196002452995913e+02
1.011186377599623398e+01,-5.336192970319638107e+01,-3.423768307783274167e+01,-7.249456185960430343e-02,4.800073436854331299e-01,8.742628257573638040e-01,2.856190994294968846e+02
1.029773981629166357e+01,-5.361268637087749056e+01,-3.457362675595601331e+01,-7.378515923102781093e-02,4.790154298314127090e-01,8.746987871565172767e-01,2.875356173344138142e+02
1.049902119363267694e+01,-5.383116556702432831e+01,-3.489345184319825677e+01,-7.507554709332950327e-02,4.780221557550959899e-01,8.751322647624657503e-01,2.894521352393307438e+02
1.069078961446905041e+01,-5.399970077102324950e+01,-3.516533531984612182e+01,-7.636572178274628198e-02,4.770275242766178758e-01,8.755632573443828948e-01,2.911639216021561083e+02
1.089273626712435572e+01,-5.414396221484491178e+01,-3.542417802203122790e+01,-7.765567963611988422e-02,4.760315382199660772e-01,8.759917636784952943e-01,2.928757079649814727e+02
1.096236807855309969e+01,-5.418781847372230942e+01,-3.550854768254972527e+01,-7.894541699090711073e-02,4.750342004129731732e-01,8.764177825480862216e-01,2.934503363860486616e+02
1.116421995442427395e+01,-5.430012566914879102e+01,-3.574124332838899676e+01,-8.023493018519033126e-02,4.740355136873086739e-01,8.768413127434987464e-01,2.950832174921559385e+02
1.137212920169122121e+01,-5.439001882996462456e+01,-3.596100487554303982e+01,-8.152421555768772643e-02,4.730354808784708598e-01,8.772623530621395105e-01,2.967160985982632155e+02
1.158400313801703163e+01,-5.445688425517117537e+01,-3.616710386052896808e+01,-8.281326944776384869e-02,4.720341048257791217e-01,8.776809023084818362e-01,2.983489797043704925e+02
1.185777192239807931e+01,-5.450208049149848222e+01,-3.640690851003277118e+01,-8.410208819543979475e-02,4.710313883723650785e-01,8.780969592940693902e-01,3.004448179621692248e+02
1.212895784467139570e+01,-5.449508977636432405e+01,-3.661423582620616202e+01,-8.539066814140380823e-02,4.700273343651656943e-01,8.785105228375194031e-01,3.025406562199679570e+02
1.236085914772182015e+01,-5.444729481940576932e+01,-3.676933692792577801e+01,-8.667900562702145206e-02,4.690219456549139521e-01,8.789215917645260001e-01,3.043780171839029549e+02
1.258361629448774721e+01,-5.436213827409604704e+01,-3.689985891910703231e+01,-8.796709699434603069e-02,4.680152250961319149e-01,8.793301649078634208e-01,3.062153781478379528e+02
1.279288704216772743e+01,-5.423847603776231097e+01,-3.700449872803141460e+01,-8.925493858612909559e-02,4.670071755471215114e-01,8.797362411073897936e-01,3.080527391117729508e+02
1.298382561269585977e+01,-5.407492153887290698e+01,-3.708196536220469142e+01,-9.054252674583072868e-02,4.659977998699578183e-01,8.801398192100499118e-01,3.098919162615485448e+02
1.315131879246087365e+01,-5.387033673532016564e+01,-3.713076635560416605e+01,-9.182985781762978417e-02,4.649871009304793468e-01,8.805408980698790078e-01,3.117310934113241387e+02
1.329141543973151940e+01,-5.362348094329180270e+01,-3.714953879713671370e+01,-9.311692814643440785e-02,4.639750815982812693e-01,8.809394765480050848e-01,3.135702705610997327e+02
1.339423560775633248e+01,-5.336104577583988373e+01,-3.714039001350317193e+01,-9.440373407789244553e-02,4.629617447467065383e-01,8.813355535126533580e-01,3.152534647345256644e+02
1.347233620895047146e+01,-5.306439633595949346e+01,-3.710621058407068062e+01,-9.569027195840162925e-02,4.619470932528378371e-01,8.817291278391488074e-01,3.169366589079515961e+02
1.352431124211268454e+01,-5.273263173084566091e+01,-3.704603117235833309e+01,-9.697653813512004117e-02,4.609311299974898080e-01,8.821201984099190652e-01,3.186198530813775278e+02
1.354830672367350530e+01,-5.236483007001861267e+01,-3.695885503305510866e+01,-9.826252895597648029e-02,4.599138578652005038e-01,8.825087641144984119e-01,3.203030472548034595e+02
1.354550592143387000e+01,-5.199889831596367884e+01,-3.685611291564250536e+01,-9.954824076968074587e-02,4.588952797442230613e-01,8.828948238495299972e-01,3.218368154976241158e+02
1.351950577245921359e+01,-5.160434514692664010e+01,-3.673147296019852348e+01,-1.008336699257341568e-01,4.578753985265182624e-01,8.832783765187701697e-01,3.233705837404447720e+02
1.346989808106296493e+01,-5.118051908423457519e+01,-3.658423889969594711e+01,-1.021188127744396129e-01,4.568542171077454306e-01,8.836594210330901422e-01,3.249043519832654283e+02
1.339624793571533701e+01,-5.072676293435463180e+01,-3.641370529831226577e+01,-1.034036656669122256e-01,4.558317383872546591e-01,8.840379563104802108e-01,3.264381202260860846e+02
1.329767750320506359e+01,-5.024240824280971651e+01,-3.621914824024445778e+01,-1.046882249550895455e-01,4.548079652680788176e-01,8.844139812760524189e-01,3.279718884689067409e+02
1.317329251743975149e+01,-4.972677864372597156e+01,-3.599983465022141615e+01,-1.059724869917419016e-01,4.537829006569249479e-01,8.847874948620434443e-01,3.295056567117273971e+02
1.297146778446314208e+01,-4.901962170821477827e+01,-3.567919217592089609e+01,-1.072564481304827122e-01,4.527565474641661036e-01,8.851584960078179298e-01,3.314514830423502190e+02
1.271411449445620612e+01,-4.824565769282028782e+01,-3.530463241957519926e+01,-1.085401047257788937e-01,4.517289086038330792e-01,8.855269836598711475e-01,3.333973093729730408e+02
1.239952380709538815e+01,-4.740308601636257180e+01,-3.487418716725281342e+01,-1.098234531329611990e-01,4.506999869936064718e-01,8.858929567718327736e-01,3.353431357035958627e+02
1.205797598999767750e+01,-4.656231314090833706e+01,-3.442589972398798892e+01,-1.111064897082344599e-01,4.496697855548078548e-01,8.862564143044685538e-01,3.371450062663768108e+02
1.166956358425167295e+01,-4.566417255728065783e+01,-3.393016285940367993e+01,-1.123892108086880781e-01,4.486383072123919513e-01,8.866173552256846335e-01,3.389468768291577589e+02
1.123353781297091203e+01,-4.470730334285445906e+01,-3.338546520685441266e+01,-1.136716127923061426e-01,4.476055548949383622e-01,8.869757785105292225e-01,3.407487473919387071e+02
1.083416905876186043e+01,-4.386261100176718486e+01,-3.289313800626803896e+01,-1.149536920179779209e-01,4.465715315346426850e-01,8.873316831411968142e-01,3.422586678572885148e+02
1.040706953592112072e+01,-4.298165551390022898e+01,-3.237032484305441216e+01,-1.162354448455081429e-01,4.455362400673088530e-01,8.876850681070299620e-01,3.437685883226383226e+02
9.952264235300704698e+00,-4.206375332746205942e+01,-3.181624995483165108e+01,-1.175168676356273256e-01,4.444996834323405865e-01,8.880359324045224989e-01,3.452785087879881303e+02
9.418656109445851854e+00,-4.100883991552959174e+01,-3.116805265969264838e+01,-1.187979567500019873e-01,4.434618645727330111e-01,8.883842750373227570e-01,3.469386984345326255e+02
8.848855452142331046e+00,-3.990309562328831561e+01,-3.047611566076384193e+01,-1.200787085512452085e-01,4.424227864350643857e-01,8.887300950162360103e-01,3.485988880810771207e+02
8.243837434730590275e+00,-3.874550757915999810e+01,-2.973926225932524758e+01,-1.213591194029266379e-01,4.413824519694874438e-01,8.890733913592272497e-01,3.502590777276216158e+02
7.568528773903691942e+00,-3.746668014640729183e+01,-2.891130804880091887e+01,-1.226391856695830951e-01,4.403408641297216763e-01,8.894141630914242924e-01,3.520088635867855942e+02
6.855747316066914898e+00,-3.612486684154031025e+01,-2.802790722701453419e+01,-1.239189037167285901e-01,4.392980258730442844e-01,8.897524092451201128e-01,3.537586494459495725e+02
6.108198183179991858e+00,-3.471882000112989886e+01,-2.708756216355111945e+01,-1.251982699108649122e-01,4.382539401602823514e-01,8.900881288597760621e-01,3.555084353051135508e+02
5.296649889065367489e+00,-3.318557476329340972e+01,-2.604620675186998824e+01,-1.264772806194917887e-01,4.372086099558039618e-01,8.904213209820243113e-01,3.573283425339731707e+02
4.454139315907445607e+00,-3.157736091045824267e+01,-2.493731636440100985e+01,-1.277559322111170848e-01,4.361620382275102070e-01,8.907519846656705154e-01,3.591482497628327906e+02
3.729009528916361393e+00,-3.017385162452227831e+01,-2.395788816164811763e+01,-1.290342210552673785e-01,4.351142279468263596e-01,8.910801189716968107e-01,3.606746455612080240e+02
2.992214310046546366e+00,-2.872414996119552555e+01,-2.293664574528850864e+01,-1.303121435224978975e-01,4.340651820886939904e-01,8.914057229682639250e-01,3.622010413595832574e+02
2.246728090601325167e+00,-2.722756200035332697e+01,-2.187268510061802118e+01,-1.315896959844032044e-01,4.330149036315619204e-01,8.917287957307145074e-01,3.637274371579584908e+02
7.577058402946194038e-01,-2.406640244473518209e+01,-1.957382313500161786e+01,-1.328668748136271616e-01,4.319633955573782824e-01,8.920493363415752386e-01,3.667233625326052788e+02
5.038226555522216099e-01,-2.350254667146853649e+01,-1.915706203514214323e+01,-1.341436763838733115e-01,4.309106608515818060e-01,8.923673438905596056e-01,3.672284575757428229e+02
-5.880609015397789685e-01,-2.098782133510724890e+01,-1.728284543039113075e+01,-1.354200970699152851e-01,4.298567025030934907e-01,8.926828174745707889e-01,3.694131690822193832e+02
-1.661073020848969239e+00,-1.832857544050063936e+01,-1.527067976491551349e+01,-1.366961332476069602e-01,4.288015235043080020e-01,8.929957561977033276e-01,3.715978805886959435e+02
-2.670446033510401218e+00,-1.560115409100654027e+01,-1.317816227954210184e+01,-1.379717812938927035e-01,4.277451268510850668e-01,8.933061591712470051e-01,3.737239837334024060e+02
-3.626969340839344635e+00,-1.273552860895225791e+01,-1.095137034166806700e+01,-1.392470375868177512e-01,4.266875155427417576e-01,8.936140255136881816e-01,3.758500868781088684e+02
-4.575480027206359601e+00,-9.466051863189031579e+00,-8.376739306730446089e+00,-1.405218985055383396e-01,4.256286925820425560e-01,8.939193543507126805e-01,3.781531696799910947e+02
-5.420471513537380659e+00,-5.902769133265610257e+00,-5.530822336022772845e+00,-0.000000000000000000e+00,-7.954388900871049994e-01,-6.060321543751363560e-01,3.805275593676896619e+02
-5.983471882408498033e+00,-2.719136517655621699e+00,-2.897041244375405444e+00,-8.479704324503808399e-01,5.300416452412461954e-01,-0.000000000000000000e+00,3.825859711819858262e+02
-6.300405244274888794e+00,-1.878317336156154829e-02,-5.646975747691055370e-01,4.606684729586442706e-01,4.802354505724663603e-01,7.464291460257166388e-01,3.843477663807043427e+02
-6.470257954577615322e+00,2.619279950542134472e+00,1.738450670357414296e+00,-9.494871526037531595e-01,0.000000000000000000e+00,-3.138027199380251098e-01,3.861095615794228593e+02
-6.507995445400786672e+00,5.195446052815615445e+00,3.964520899282549138e+00,-0.000000000000000000e+00,5.892782266480587339e-01,-8.079289396970977810e-01,3.878713567781413758e+02
-6.289380684084520112e+00,8.947240161832475280e+00,7.151139890836385682e+00,0.000000000000000000e+00,8.584009604378244340e-01,5.129773787613196578e-01,3.905416662036265052e+02
-6.015731233427540126e+00,1.110355215325437328e+01,8.951410976145348641e+00,-4.525244665824728063e-01,-6.821651958912748892e-01,5.743433229873349255e-01,3.921377518445078181e+02
-5.676391686876716136e+00,1.321483444528948681e+01,1.069820648998816992e+01,9.360262369458056675e-01,-2.510647953304750990e-01,2.466157989573236342e-01,3.937338374853891310e+02
-5.171381342475663168e+00,1.574669946014720523e+01,1.276881388723471922e+01,-7.580441341994671456e-01,2.125597572247541617e-02,-6.518552554831545942e-01,3.956998775320587924e+02
-4.576136206693720787e+00,1.819670078091848708e+01,1.474366408948022311e+01,-4.348255654857482999e-01,8.976721029705863053e-01,7.148092857024827829e-02,3.976659175787284539e+02
-3.849435066001309469e+00,2.073870023444240474e+01,1.675973302382364949e+01,8.084710213413870417e-01,5.885342875760115611e-01,0.000000000000000000e+00,3.997808184345842051e+02
-3.047355233560129939e+00,2.318195164783729467e+01,1.866245671039055765e+01,-5.163343074809485511e-01,-6.993530620121265473e-01,-4.942693370749773885e-01,4.018957192904399562e+02
-2.343268018194198721e+00,2.512781275793146563e+01,2.015384838170154680e+01,-5.300915303208819651e-01,-8.479392486969972165e-01,-0.000000000000000000e+00,4.036386057486217851e+02
-1.611256032653930248e+00,2.701956716042622375e+01,2.158480433442483459e+01,-8.555062347859581084e-01,6.122994523241098025e-02,-5.141575401078877228e-01,4.053814922068036140e+02
-8.573460397567226332e-01,2.885799221749644872e+01,2.295665404371276708e+01,8.849807075427016390e-01,-1.526297770940454601e-02,-4.653753203493317114e-01,4.071243786649854428e+02
1.145418256952053099e-01,3.108578119298795883e+01,2.458861822677372544e+01,5.646663325347751616e-01,-6.706362072728244694e-01,-4.810374313885230624e-01,4.093164075096505599e+02
1.104486359040933285e+00,3.321237783259925180e+01,2.610889434942266618e+01,0.000000000000000000e+00,1.466799147870281178e-02,9.998914191180195976e-01,4.115084363543156769e+02
2.391089716291679768e+00,3.579018588838781056e+01,2.788670656749367893e+01,6.426236280060890760e-01,1.961598864494236774e-02,-7.659295566282987577e-01,4.143394460944676894e+02
3.244022181066860799e+00,3.740322919491014630e+01,2.895913122590409827e+01,1.014498516991390112e-02,0.000000000000000000e+00,-9.999475382622213804e-01,4.162202302066826292e+02
3.956570578396747528e+00,3.871350161370020970e+01,2.981298900713346001e+01,4.606684729584223925e-01,4.802354505722350453e-01,7.464291460253571486e-01,4.177986149269111706e+02
4.664294156798093560e+00,3.998827160557348037e+01,3.062961293246089411e+01,0.000000000000000000e+00,8.051988583363941729e-03,-9.999665821819763156e-01,4.193769996471397121e+02
5.365136856496087070e+00,4.122809786532401688e+01,3.140978846857217377e+01,-2.327097549703007473e-01,-7.626911969309811967e-01,-6.034453646074861011e-01,4.209553843673682536e+02
6.057223817824997525e+00,4.243354235157037380e+01,3.215429290860600275e+01,9.334680231829302066e-01,2.330827560931824360e-01,2.725947147463395615e-01,4.225337690875967951e+02
6.769294914054199808e+00,4.365747683221794517e+01,3.289483855187684469e+01,-9.494871526010041363e-01,0.000000000000000000e+00,-3.138027199371165032e-01,4.241847532976448747e+02
7.466896894515593353e+00,4.484351076243339662e+01,3.359633819670154509e+01,-0.000000000000000000e+00,2.371197228180608671e-02,-9.997178313763032120e-01,4.258357375076929543e+02
8.148438004739830376e+00,4.599232749314398205e+01,3.425969307728400537e+01,-0.000000000000000000e+00,9.419726912952081088e-01,-3.356865336228118113e-01,4.274867217177410339e+02
8.812521736086400992e+00,4.710461121034536092e+01,3.488579392286365533e+01,6.818411546863931694e-01,5.506893172820827992e-02,-7.294230956966095691e-01,4.291377059277891135e+02
9.516580376436545308e+00,4.827966999507387413e+01,3.552768782334766229e+01,7.364161080991600272e-01,-4.016585135364889037e-01,-5.443893406698946391e-01,4.309456491506165889e+02
1.019347833684626359e+01,4.940891947771140025e+01,3.612305270134388024e+01,2.883107282155438766e-01,-5.998124345694407777e-01,-7.463912963926324640e-01,4.327535923734440644e+02
1.084169281463896262e+01,5.049334103171366905e+01,3.667310754030166464e+01,1.016999272028653624e-02,-9.999472842345212831e-01,-0.000000000000000000e+00,4.345615355962715398e+02
1.136217471805599999e+01,5.136804416468392276e+01,3.710127286262316915e+01,4.817995168104915668e-03,-1.888798105752711315e-02,-9.998089973065535929e-01,4.360720957677014553e+02
1.186479859381470980e+01,5.221733188198130193e+01,3.750425258276265339e+01,7.364161080998077313e-01,-4.016585135368421211e-01,-5.443893406703733673e-01,4.375826559391313708e+02
1.234916246151925101e+01,5.304167867193677210e+01,3.788261638476056703e+01,-6.696665005614070854e-01,1.278249046679347245e-01,7.315774543880958491e-01,4.390932161105612863e+02
1.281495426274278060e+01,5.384155673240091033e+01,3.823692568763279809e+01,9.421051217389185828e-01,0.000000000000000000e+00,-3.353146874087262752e-01,4.406037762819912018e+02
1.346230707930855885e+01,5.497834302907023130e+01,3.870945468428580227e+01,-4.499992964605723173e-04,3.515004504559725573e-01,9.361865363440673438e-01,4.428572311856444799e+02
1.404239835441970463e+01,5.603953930737942812e+01,3.910672518253286967e+01,-2.031297923577807599e-02,9.495260293807241680e-01,-3.130266800195886101e-01,4.451106860892977579e+02
1.446141746386861016e+01,5.683779301714832854e+01,3.937593892654507499e+01,8.849408409611548842e-01,2.539496673929876602e-02,-4.650083909617869216e-01,4.469081891462044496e+02
1.484671583699786268e+01,5.759939583842394484e+01,3.960927524920115417e+01,3.421418352604599367e-01,-8.417995946778096192e-03,9.396095475828185606e-01,4.487056922031111412e+02
1.519835376490629564e+01,5.832525722414715830e+01,3.980773906882500768e+01,4.034587101640865758e-01,-5.855715793381842671e-01,-7.030824949209126817e-01,4.505031952600178329e+02
1.551660317257197796e+01,5.901627899177884018e+01,3.997231609784913076e+01,8.088332836533100867e-01,-2.128178115169863382e-01,-5.481745145068743774e-01,4.523006983169245245e+02
1.579458587332306330e+01,5.965608814949118255e+01,4.010117287116189289e+01,-9.789433609087732080e-01,-2.146098598945719166e-02,-2.029958674766251248e-01,4.540486153051133442e+02
1.604222195055244882e+01,6.026543246848260083e+01,4.020056617651864173e+01,9.421051217390615795e-01,-0.000000000000000000e+00,-3.353146874087771789e-01,4.557965322933021639e+02
1.626025817196853041e+01,6.084509721455644637e+01,4.027132578659895756e+01,4.157246280600859212e-01,9.043401909062148691e-01,9.664291353565672427e-02,4.575444492814909836e+02
1.644942383326417712e+01,6.139585791874284837e+01,4.031426216744303304e+01,-5.939584362315993848e-01,-8.044922363989233105e-01,-1.901998194677582011e-03,4.592923662696798033e+02
1.660988325850345859e+01,6.191847564538610271e+01,4.033014692308663030e+01,4.608364502590691636e-01,4.800774273061265141e-01,-7.464271095723141736e-01,4.610402832578686230e+02
1.676396758227645378e+01,6.252551267353352671e+01,4.030848612956159371e+01,-4.477014130564274663e-01,5.740342474321005195e-01,-6.855991011688280512e-01,4.632146124760731709e+02
1.686398157343935011e+01,6.308186162825913357e+01,4.023806820734476020e+01,-0.000000000000000000e+00,-2.291096583324941233e-02,-9.997365091092096367e-01,4.653889416942777189e+02
1.690658812445462189e+01,6.344259520713719525e+01,4.016482112188924702e+01,9.999988887661480214e-07,-4.977924468355671150e-01,-8.672950362313250894e-01,4.668978939869770670e+02
1.693215175323568644e+01,6.378733095597454650e+01,4.007621734977971784e+01,9.968779763717980913e-01,-0.000000000000000000e+00,-7.894491893667296423e-02,4.684068462796764152e+02
1.694049640410730717e+01,6.411646856289985408e+01,3.997263328743708399e+01,-6.700796228893034223e-02,-0.000000000000000000e+00,-9.977514384805519221e-01,4.699157985723757633e+02
1.693167742482937399e+01,6.443040793060505678e+01,3.985444542546444069e+01,5.328913625198691273e-01,-5.120993873926141422e-03,8.461669877587064681e-01,4.714247508650751115e+02
1.690559665845153248e+01,6.472954451213747973e+01,3.972202115848421045e+01,8.220322628906608919e-01,6.371394286824928754e-02,-5.658634925950185579e-01,4.729337031577744597e+02
1.686161362123720764e+01,6.501426648459828073e+01,3.957570959503289032e+01,0.000000000000000000e+00,3.025597526116557967e-02,-9.995411827239545355e-01,4.744426554504738078e+02
1.679892454183320538e+01,6.528496053567782553e+01,3.941585074314496495e+01,8.649910223442039969e-01,4.315195122752244622e-02,4.999264349583243394e-01,4.759516077431731560e+02
1.671295351066257240e+01,6.555139806961291526e+01,3.923556930085617722e+01,9.334680231809502349e-01,2.330827560926880815e-01,2.725947147457614128e-01,4.775188745708272791e+02
1.660490900599702613e+01,6.580299809330587379e+01,3.904089059834435460e+01,4.595995113956211631e-01,-5.348094314392779491e-01,-7.090452462076143325e-01,4.790861413984814021e+02
1.647463738006767286e+01,6.604021671477876509e+01,3.883221060086435017e+01,-4.199765354728743905e-01,-5.494543922601671238e-01,-7.223002010790892102e-01,4.806534082261355252e+02
1.632225049010632745e+01,6.626351011853043360e+01,3.860992536858330482e+01,8.847879010089544360e-01,3.147796090136729258e-02,-4.649274225157536411e-01,4.822206750537896482e+02
1.614812569738942827e+01,6.647333358050637742e+01,3.837443105388545916e+01,0.000000000000000000e+00,-9.950534475071195484e-01,-9.933094484754564912e-02,4.837879418814437713e+02
1.595290586445971037e+01,6.667014048307532903e+01,3.812612389867646101e+01,8.370268619318690373e-01,-1.940497361592195269e-01,5.115943044080181190e-01,4.853552087090978944e+02
1.573749935052567395e+01,6.685438133001973426e+01,3.786540023168723224e+01,8.322711151695829646e-01,-1.813960848115808711e-01,5.238494547778475008e-01,4.869224755367520174e+02
1.550308000503885708e+01,6.702650276154651010e+01,3.759265646577738096e+01,8.272382875947070779e-01,-1.686820429468900984e-01,5.359302043422158324e-01,4.884897423644061405e+02
1.525108715944895010e+01,6.718694656932485998e+01,3.730828909523821579e+01,8.219300547494130527e-01,-1.559118433395181580e-01,5.478325311696614630e-01,4.900570091920602636e+02
1.498322561713678347e+01,6.733614871155820936e+01,3.701269469309528404e+01,8.163481838637335342e-01,-1.430897374595385407e-01,5.595524727296012912e-01,4.916242760197143866e+02
1.470146564152527446e+01,6.747453832809644325e+01,3.670626990841059722e+01,8.104945332671673608e-01,-1.302199940573273984e-01,5.710861272114928777e-01,4.931915428473685097e+02
1.427583327693094084e+01,6.764923047176610282e+01,3.624702004658147558e+01,8.043710517699906859e-01,-1.173068977424195497e-01,5.824296548238008242e-01,4.954266676423670219e+02
1.382507828820175710e+01,6.779453357840377237e+01,3.575922640827794652e+01,7.979797780144427533e-01,-1.043547475570850563e-01,5.935792790723144474e-01,4.976617924373655342e+02
1.335692646174408971e+01,6.791201201179507052e+01,3.524454081042792097e+01,7.913228397960088145e-01,-9.136785554510216956e-02,6.045312880173926429e-01,4.998965018445167061e+02
1.287769938443983087e+01,6.800318966659753528e+01,3.470437289815941995e+01,7.844024533550220113e-01,-7.835054531620312679e-02,6.152820355097174954e-01,5.021312112516678781e+02
1.234109202643222858e+01,6.807324872588836229e+01,3.407955231970688459e+01,7.772209226388231418e-01,-6.530715060667022231e-02,6.258279424041454098e-01,5.045951062264240363e+02
1.200390365007434035e+01,6.810314603318826698e+01,3.367711210613377659e+01,7.697806385347213398e-01,-5.224201383656165015e-02,6.361654977512495313e-01,5.061295306835615975e+02
1.166566889694959386e+01,6.812610115665076194e+01,3.326761259709906682e+01,7.620840780740142373e-01,-3.915948466404689521e-02,6.462912599661624347e-01,5.076639551406991586e+02
1.132702859204108670e+01,6.814239215456021270e+01,3.285134484885571737e+01,7.541338036073281792e-01,-2.606391853733403680e-02,6.562018579743218449e-01,5.091983795978367198e+02
1.098858292844800033e+01,6.815228914291093076e+01,3.242859382629810483e+01,7.459324619515576016e-01,-1.295967524466937713e-02,6.658939923337460209e-01,5.107328040549742809e+02
1.065065431661948381e+01,6.815604946370325479e+01,3.199963226591412990e+01,7.374827835086841255e-01,1.488825371068503442e-04,6.753644363334602163e-01,5.122672285121118421e+02
1.031351167768433541e+01,6.815392397599734409e+01,3.156472680920096607e+01,7.287875813567719074e-01,1.325739069496507071e-02,6.846100370677097313e-01,5.138016529692494032e+02
