-1.930324548097322124e+00,1.342154062123855240e+01,3.130387425902958043e+00,5.328913625198693493e-01,-5.120993873926143157e-03,8.461669877587066901e-01,8.438246211042920208e+01
-2.236724995353136070e+00,1.331030203860593097e+01,3.046463324992071620e+00,0.000000000000000000e+00,-9.705539409184215094e-01,-2.408797371487751138e-01,8.610537445943288049e+01
-2.517318766223096915e+00,1.319347854319694946e+01,2.960652233446789516e+00,-0.000000000000000000e+00,1.080298527117748431e-01,9.941466445774833627e-01,8.782828680843655889e+01
-2.773684095150078743e+00,1.307084436704943897e+01,2.872830995966511036e+00,8.220322628904948026e-01,6.371394286823642283e-02,-5.658634925949043160e-01,8.955119915744023729e+01
-3.040033272097406591e+00,1.292109445347400865e+01,2.768616251716574883e+00,6.355972790766478697e-01,2.092487626605330497e-01,7.431211571181732811e-01,9.153933715512734182e+01
-3.275932080201944263e+00,1.276150755957385208e+01,2.660938206472888368e+00,7.342455860396148726e-01,2.131448798310290049e-01,6.445546366064833776e-01,9.352747515281444635e+01
-3.490692375055805652e+00,1.258572388262957809e+01,2.545786618985673044e+00,0.000000000000000000e+00,-5.697617808903422398e-01,-8.218086839622708029e-01,9.558130081828336699e+01
-3.678988686532622232e+00,1.239823589648822555e+01,2.426373470704533464e+00,3.588155418931329166e-01,-5.920762440846016883e-01,-7.215920787291857375e-01,9.763512648375228764e+01
-3.830595997257048690e+00,1.221815805267157806e+01,2.314334103455523373e+00,0.000000000000000000e+00,-2.786296520868896537e-02,9.996107518281590609e-01,9.949857698293118347e+01
-3.967187632853051760e+00,1.202881598432447774e+01,2.198799014033023358e+00,4.086756024190250636e-01,-4.161136111537828974e-02,9.117295358889341284e-01,1.013620274821100793e+02
-4.073031962268526485e+00,1.186191125981854988e+01,2.098514735060156511e+00,7.458628287707030902e-01,-4.808075984919236989e-02,6.643605054388868059e-01,1.029371329879297292e+02
-4.171841679541999248e+00,1.168916488388426700e+01,1.995956836247604782e+00,9.525773651291568056e-01,-4.613943374885257770e-02,3.007748594745393578e-01,1.045122384937493791e+02
-4.278838627756549329e+00,1.147807017495019011e+01,1.872340975483074210e+00,9.926579453379937856e-01,-3.612694764533717212e-02,-1.154255050078253214e-01,1.063603139060494271e+02
-4.376136675411760990e+00,1.125694983945841798e+01,1.744797145603520505e+00,8.590932817682280787e-01,-1.979479997312330944e-02,-5.114341591168314327e-01,1.082083893183494752e+02
-4.455845721479891886e+00,1.105074097672806133e+01,1.627355378277009157e+00,5.752485914330272010e-01,-0.000000000000000000e+00,-8.179774190362865127e-01,1.098626880608249223e+02
-4.529195109839771582e+00,1.083699276260629141e+01,1.506903576287016877e+00,9.703928888892788818e-01,2.415277234480527890e-01,0.000000000000000000e+00,1.115169868033003695e+02
-4.598213811339626922e+00,1.060699639611924461e+01,1.378644785527020078e+00,9.697955892164575875e-01,1.681527820750746138e-01,1.766894366336928812e-01,1.132325929909867881e+02
-4.660226908452951733e+00,1.036419024682109757e+01,1.244652195346168000e+00,9.337004112386365628e-01,8.862287241148472661e-02,3.469114131008129709e-01,1.149755390244822024e+02
-4.713316110527274283e+00,1.011184924750546088e+01,1.106791427573205810e+00,8.634285659263324364e-01,5.849059702097421203e-03,5.044352287898187237e-01,1.167184850579776167e+02
-4.756699788133546214e+00,9.849720093699231072e+00,9.649383676673360943e-01,7.615522386263113841e-01,-7.713885395508116027e-02,6.434949767130212495e-01,1.184614310914730311e+02
-4.787099116863113402e+00,9.608196280725740834e+00,8.352855106062937462e-01,6.318004413208069270e-01,-1.573032280445931241e-01,7.590005907735325463e-01,1.200141501763386742e+02
-4.809868861202679646e+00,9.359418977077464064e+00,7.026420436654566837e-01,4.789225235544178338e-01,-2.317097694886112447e-01,8.467241576550186277e-01,1.215668692612043174e+02
-4.824778239092490040e+00,9.103223079305802656e+00,5.669290480484230343e-01,2.494365143153851605e-01,-1.130405118714515600e-01,9.617698622858654733e-01,1.231195883460699605e+02
-4.831552892233824892e+00,8.839441775908255750e+00,4.280671821451254577e-01,0.000000000000000000e+00,1.466999104714234586e-02,9.998913897824985852e-01,1.246723074309356036e+02
-4.829721733943985740e+00,8.567905136866050597e+00,2.859762387372150605e-01,-4.690008155332768308e-04,-5.066311160103591921e-02,9.987146885619816450e-01,1.262250265158012468e+02
-4.818772462886251162e+00,8.288440456775589382e+00,1.405755888623725913e-01,-9.359985444585989254e-04,-1.157798199545048978e-01,9.932734553922167864e-01,1.277777456006668899e+02
-4.807313283761117439e+00,8.102651813976612161e+00,4.429758748607270924e-02,-6.240759854984692656e-04,-1.037039203473652110e-01,9.946070115291564262e-01,1.287891956471853803e+02
-4.742017143836930515e+00,7.580973668968360890e+00,-2.235976858573157089e-01,-3.120611550403832885e-04,-9.161269970757492109e-02,9.957936612666358211e-01,1.314930740415271373e+02
-4.675025066204518076e+00,7.243616989395058603e+00,-3.950682967379119948e-01,-0.000000000000000000e+00,-7.950793855329252313e-02,9.968332296100117507e-01,1.331447388182745044e+02
-4.591148719993567440e+00,6.895690527569576567e+00,-5.709321345811985138e-01,-0.000000000000000000e+00,8.052988516998888652e-03,-9.999665741172660827e-01,1.347964035950218715e+02
-4.488713482337799654e+00,6.536942344739122390e+00,-7.512833159887405410e-01,-0.000000000000000000e+00,9.999934048043367385e-01,-3.344606731729371941e-03,1.364480683717692386e+02
-4.365655015984496679e+00,6.167113722944583820e+00,-9.362118307711503329e-01,-0.000000000000000000e+00,1.466999104652524748e-02,9.998913897404376749e-01,1.380997331485166058e+02
-4.224627359868351917e+00,5.797580663201294726e+00,-1.120037267640033640e+00,6.363173009420184430e-04,6.532740806295922464e-02,9.978626783479113138e-01,1.397023360546264996e+02
-4.060459485515952593e+00,5.417423353020160981e+00,-1.308196494224176609e+00,1.270998420244483272e-03,1.158168560483519294e-01,9.932687654415717216e-01,1.413049389607363935e+02
-3.871150202558311992e+00,5.026389848539527527e+00,-1.500763810469329718e+00,0.000000000000000000e+00,1.466999104702475069e-02,9.998913897744834411e-01,1.429075418668462873e+02
-3.654808167244276262e+00,4.624221416025567244e+00,-1.697812811850727632e+00,-0.000000000000000000e+00,1.173078338862832276e-01,9.930945937287509739e-01,1.445101447729561812e+02
-3.409627114363690037e+00,4.210653460756308419e+00,-1.899415715785979897e+00,-6.238211832797262435e-01,1.492848777286115702e-01,7.671760922850208164e-01,1.461127476790660751e+02
-3.097216213624768955e+00,3.731416324444738031e+00,-2.131743467227332101e+00,-9.724029976102895878e-01,1.153950487749722947e-01,2.027668438288051378e-01,1.479125925835833755e+02
-2.746928809787604120e+00,3.235376202955581704e+00,-2.370858453608490013e+00,-8.919444569141613544e-01,3.059098137380792878e-02,-4.511067253307957103e-01,1.497124374881006759e+02
-2.343638668414945059e+00,2.695238031236934173e+00,-2.629847192455291083e+00,-8.875683492961607968e-01,2.518998153244456778e-02,-4.599846627710009184e-01,1.516033948563057550e+02
-1.910234096747197796e+00,2.134969632023753672e+00,-2.897042971942747513e+00,9.999988887671568377e-07,-4.977924468360692689e-01,-8.672950362322000561e-01,1.534943522245108340e+02
-1.635230441131002799e+00,1.784212615829187776e+00,-3.063610590129109301e+00,0.000000000000000000e+00,1.466699169439841625e-02,9.998914337830109300e-01,1.546492817387693890e+02
-9.938125783129233559e-01,9.683610226734560289e-01,-3.449042638472349154e+00,2.505768424027117192e-01,-9.347684120886611270e-01,2.518278416159108191e-01,1.572381599301258746e+02
-4.679383315453314873e-01,2.954101660261894136e-01,-3.765221837587749310e+00,-2.403036737963788749e-01,-8.315884396735470085e-01,5.007123039844147971e-01,1.592757807236200449e+02
6.532959290838975808e-02,-4.007152785739540590e-01,-4.091206106309525303e+00,-6.558360672327365748e-01,-4.676606359489008935e-01,5.925964752685004555e-01,1.613134015171142153e+02
5.275974995982040117e-01,-1.019625309731804208e+00,-4.380383101042103711e+00,-8.657284703651269009e-01,4.290397375223124060e-02,4.986696949241365973e-01,1.630746862746346437e+02
9.876088246454539643e-01,-1.652964019443385668e+00,-4.675886072407959837e+00,-9.873306227655554990e-01,1.147701004132537471e-02,1.582546036915934984e-01,1.648359710321550722e+02
1.442984726213271784e+00,-2.300336453352042732e+00,-4.977707949595031600e+00,-9.789433609086330978e-01,-2.146098598945412120e-02,-2.029958674765960924e-01,1.665972557896755006e+02
2.028285880684950637e+00,-3.172700633518726665e+00,-5.384654862614961068e+00,-9.494871525968816561e-01,-0.000000000000000000e+00,-3.138027199357540376e-01,1.689064121708143489e+02
2.419084998225375926e+00,-3.783062061221193595e+00,-5.669656643833028475e+00,-9.494871519336460786e-01,-0.000000000000000000e+00,-3.138027197165566551e-01,1.704833263511160624e+02
2.802662965778407234e+00,-4.402676939948398704e+00,-5.959151775929803385e+00,-8.555062347831416947e-01,6.122994523220939844e-02,-5.141575401061950767e-01,1.720602405314177759e+02
3.178453013059399090e+00,-5.031261659990248880e+00,-6.253123077707466670e+00,1.016999272028908802e-02,-9.999472842347719714e-01,-0.000000000000000000e+00,1.736371547117194893e+02
3.611496113092714566e+00,-5.786643410785615060e+00,-6.607063439896394996e+00,2.883107282157467699e-01,-5.998124345698628845e-01,-7.463912963931577105e-01,1.755018574284269164e+02
4.031330032445970879e+00,-6.555459338983589568e+00,-6.968339794529904374e+00,0.000000000000000000e+00,-7.954388900866258272e-01,-6.060321543747713147e-01,1.773665601451343434e+02
4.438075825121585716e+00,-7.337137208468350380e+00,-7.336909945120136278e+00,-7.580441342002179894e-01,2.125597572249647224e-02,-6.518552554838002999e-01,1.792312628618417705e+02
4.779821585876543821e+00,-8.021983354977150427e+00,-7.660859980127888491e+00,5.646663325350368412e-01,-6.706362072731353319e-01,-4.810374313887459952e-01,1.808425461474889175e+02
5.113623677804473466e+00,-8.714606926942959575e+00,-7.989452298144795961e+00,0.000000000000000000e+00,1.466799147870281178e-02,9.998914191180195976e-01,1.824538294331360646e+02
5.440257949203828325e+00,-9.414685096152590305e+00,-8.322657994718914765e+00,-5.939584362336597367e-01,-8.044922364017138561e-01,-1.901998194684180032e-03,1.840651127187832117e+02
5.760564182997605087e+00,-1.012189548899850422e+01,-8.660446253031052422e+00,4.817995168104916535e-03,-1.888798105752711662e-02,-9.998089973065538150e-01,1.856763960044303587e+02
6.075266413088123763e+00,-1.083591322857081884e+01,-9.002782465060807482e+00,-6.696665005624242717e-01,1.278249046681289025e-01,7.315774543892071824e-01,1.872876792900775058e+02
6.428463613125278364e+00,-1.165909392591922433e+01,-9.399371484962353307e+00,-5.163343074813527833e-01,-6.993530620126739983e-01,-4.942693370753643567e-01,1.891264312842747870e+02
6.768991797759658979e+00,-1.247300310096296272e+01,-9.793753738822550403e+00,-2.327097549698321222e-01,-7.626911969294452032e-01,-6.034453646062709620e-01,1.909254521062549657e+02
7.105643634904313721e+00,-1.329474330524307746e+01,-1.019428998373734174e+01,-4.348255654856464925e-01,8.976721029703761401e-01,7.148092857023152780e-02,1.927244729282351443e+02
7.439317942488665736e+00,-1.412380316564067151e+01,-1.060090428466458334e+01,-9.089331001752508632e-01,0.000000000000000000e+00,-4.169395872385333601e-01,1.945234937502153230e+02
7.782366829328779545e+00,-1.498894153973123800e+01,-1.102807930060820851e+01,5.171696928925142295e-02,7.942155283762033502e-01,-6.054296404816885691e-01,1.963850754527980484e+02
7.821424362166536248e+00,-1.508818397939399780e+01,-1.107725337572421687e+01,0.000000000000000000e+00,6.060361314472544336e-01,7.954358600052631179e-01,1.965977098893566506e+02
8.223262673843594328e+00,-1.611751976544323028e+01,-1.159001963326477913e+01,-0.000000000000000000e+00,5.332983833063933421e-01,8.459260217912043522e-01,1.987919218826332894e+02
8.622656280262413375e+00,-1.715642909821494300e+01,-1.211321319395089091e+01,-4.039896372715058581e-02,7.947932863822599892e-01,6.055324563130938254e-01,2.009861338759099283e+02
9.044012239128264241e+00,-1.827223340507528349e+01,-1.268194157728781413e+01,-7.895990730977480235e-03,0.000000000000000000e+00,9.999678261480268171e-01,2.033230477967875345e+02
9.318249433162529627e+00,-1.901135570005637021e+01,-1.306212971120858768e+01,-0.000000000000000000e+00,-2.291096583233651063e-02,-9.997365090693745016e-01,2.048620966673256021e+02
9.588668518128997675e+00,-1.975286235406254676e+01,-1.344559897757472733e+01,-2.327326561490272172e-01,6.034521084293972271e-01,7.626788731797384813e-01,2.064011455378636697e+02
9.854337704908337159e+00,-2.049642450318339115e+01,-1.383225927492510898e+01,-0.000000000000000000e+00,2.371197228179532449e-02,-9.997178313758493529e-01,2.079401944084017373e+02
1.011434535698975878e+01,-2.124170773580010874e+01,-1.422201646333186531e+01,-0.000000000000000000e+00,2.371197226506416636e-02,-9.997178306704488371e-01,2.094792432789398049e+02
1.036757154102245337e+01,-2.198836927631129967e+01,-1.461476834765184130e+01,-9.089308576325502154e-01,-4.169444759735642103e-01,-0.000000000000000000e+00,2.110182921494778725e+02
1.062254186814118917e+01,-2.276633131943141564e+01,-1.502654151142473715e+01,-2.327328258595309507e-01,7.626824293289935497e-01,6.034475484752150898e-01,2.126196247326285231e+02
1.086778969917529380e+01,-2.354499969874578369e+01,-1.544144582673534849e+01,-9.089459700190846148e-01,4.169115275726710257e-01,-4.199995240734779347e-05,2.142209573157791738e+02
1.110265821047351764e+01,-2.432395825638730358e+01,-1.585935680664651848e+01,1.014498516991973152e-02,0.000000000000000000e+00,-9.999475382627959208e-01,2.158222898989298244e+02
1.132654918469427940e+01,-2.510278592370536899e+01,-1.628014377536394264e+01,1.004027351076989573e-02,3.742758063404566862e-03,-9.999415906281622357e-01,2.174236224820804750e+02
1.153866936149769451e+01,-2.588105360326759907e+01,-1.670366370187689853e+01,9.935421095298536259e-03,7.485463623178793650e-03,-9.999216245486868271e-01,2.190249550652311257e+02
1.176199460231664240e+01,-2.675710400895812313e+01,-1.718444487643344587e+01,9.830429393395585108e-03,1.122806421105260015e-02,-9.998876403027001647e-01,2.208303364716693977e+02
1.196728301579135945e+01,-2.763089877557009189e+01,-1.766869741591477805e+01,9.725299876922891690e-03,1.497050736023127979e-02,-9.998396383669616583e-01,2.226357178781076698e+02
1.215450787875291638e+01,-2.850173248226534284e+01,-1.815618045052447371e+01,9.620034019674006745e-03,1.871274060613073442e-02,-9.997776194147230955e-01,2.244410992845459418e+02
1.232379400076273335e+01,-2.936889599179799859e+01,-1.864664204080776955e+01,9.514633297353523519e-03,2.245471148711265796e-02,-9.997015843157182058e-01,2.262464806909842139e+02
1.245361526959355025e+01,-3.009894796412921281e+01,-1.906327867544999677e+01,9.409099187556415472e-03,2.619636754521974600e-02,-9.996115341361514472e-01,2.277728269828524503e+02
1.257206412192453904e+01,-3.082605298714067743e+01,-1.948139449242938781e+01,9.303433169747309800e-03,2.993765632691073458e-02,-9.995074701386825744e-01,2.292991732747206868e+02
1.267938266738905284e+01,-3.154984079206035474e+01,-1.990084360881582271e+01,9.197636725239771369e-03,3.367852538379551702e-02,-9.993893937824088747e-01,2.308255195665889232e+02
1.277579425627715537e+01,-3.226994006506272683e+01,-2.032147433993121766e+01,9.091711337175525931e-03,3.741892227337003524e-02,-9.992573067228444073e-01,2.323518658584571597e+02
1.286122479738632229e+01,-3.298597565184918068e+01,-2.074312340739359684e+01,8.985658490503705895e-03,4.115879455975127860e-02,-9.991112108118977986e-01,2.338782121503253961e+02
1.294833093361867782e+01,-3.384346498429775352e+01,-2.125325190377086670e+01,8.879479671960004150e-03,4.489808981441198443e-02,-9.989511080978450419e-01,2.357203943000762081e+02
1.301721605606759979e+01,-3.469226222796999082e+01,-2.176453535442759346e+01,8.773176370045867797e-03,4.863675561691538363e-02,-9.987770008253014087e-01,2.375625764498270200e+02
1.306901000988115236e+01,-3.553157345158842872e+01,-2.227661547721373481e+01,8.666750075007624218e-03,5.237473955564974498e-02,-9.985888914351902512e-01,2.394047585995778320e+02
1.310491630301770272e+01,-3.636060607528735744e+01,-2.278912035328178121e+01,8.560202278815605414e-03,5.611198922856290572e-02,-9.983867825647076977e-01,2.412469407493286440e+02
1.312537928457181735e+01,-3.715624540249321228e+01,-2.328747787085525545e+01,8.453534475143242855e-03,5.984845224389647583e-02,-9.981706770472869028e-01,2.430381597588659872e+02
1.313242235052467244e+01,-3.794099235400670267e+01,-2.378548703971256018e+01,8.346748159346122423e-03,6.358407622092011879e-02,-9.979405779125577469e-01,2.448293787684033305e+02
1.312732400170060210e+01,-3.871413696340641764e+01,-2.428277880949905310e+01,8.239844828441044572e-03,6.731880879066558243e-02,-9.976964883863045364e-01,2.466205977779406737e+02
1.311150259830151299e+01,-3.947497173940281101e+01,-2.477897142736830460e+01,8.132825981085041109e-03,7.105259759666045227e-02,-9.974384118904202623e-01,2.484118167874780170e+02
1.308675526090660313e+01,-4.020686195086160097e+01,-2.526297273363005758e+01,8.025693117554362488e-03,7.478539029566194651e-02,-9.971663520428594163e-01,2.501642124378294341e+02
1.305405350813726884e+01,-4.092591029548704995e+01,-2.574517660661731355e+01,7.918447739723480719e-03,7.851713455839033629e-02,-9.968803126575869200e-01,2.519166080881808512e+02
1.301476024263692999e+01,-4.163146920387387695e+01,-2.622518654342436761e+01,7.811091351044010742e-03,8.224777807026231735e-02,-9.965802977445245014e-01,2.536690037385322682e+02
1.297144270736146687e+01,-4.230437161169736981e+01,-2.668960936463042799e+01,7.703625456523669097e-03,8.597726853212406262e-02,-9.962663115094949617e-01,2.553735019126669386e+02
1.292449827225052594e+01,-4.296367795349259922e+01,-2.715123698233393412e+01,7.596051562705171886e-03,8.970555366098414973e-02,-9.959383583541630003e-01,2.570780000868015804e+02
1.287577252746252299e+01,-4.360881431714702217e+01,-2.760968268401476067e+01,7.488371177645118844e-03,9.343258119074608625e-02,-9.955964428759729312e-01,2.587824982609362223e+02
1.282719137032967538e+01,-4.423921084438062223e+01,-2.806454828642682742e+01,7.380585810892872217e-03,9.715829887294094580e-02,-9.952405698680856228e-01,2.604869964350708642e+02
1.277811124566777501e+01,-4.488581630908684872e+01,-2.853892620645925149e+01,7.272696973469394005e-03,1.008826544774593242e-01,-9.948707443193102185e-01,2.622813080703589890e+02
1.273328496694596090e+01,-4.551387637548976528e+01,-2.900811195703993306e+01,7.164706177846075393e-03,1.046055957932834346e-01,-9.944869714140344152e-01,2.640756197056471137e+02
1.269545803507400805e+01,-4.612270469064018386e+01,-2.947157444587187314e+01,7.056614937923544502e-03,1.083270706292186331e-01,-9.940892565321522989e-01,2.658699313409352385e+02
1.266736043383956556e+01,-4.671162186064386646e+01,-2.992876761199305591e+01,6.948424769010443786e-03,1.120470268146248199e-01,-9.936776052489887379e-01,2.676642429762233633e+02
1.265101357633039925e+01,-4.728620558259538598e+01,-3.038418393058046618e+01,6.840137187802206552e-03,1.157654122001475494e-01,-9.932520233352207795e-01,2.694790839320903615e+02
1.264901726139959948e+01,-4.783877706778842054e+01,-3.083190030490724709e+01,6.731753712359793591e-03,1.194821746584488059e-01,-9.928125167567978249e-01,2.712939248879573597e+02
1.266905006768072539e+01,-4.844339408861377194e+01,-3.133522126370819549e+01,6.623275862088424601e-03,1.231972620849374339e-01,-9.923590916748569191e-01,2.733795550726703141e+02
1.271672554750976403e+01,-4.901229411446399098e+01,-3.182475399632398450e+01,6.514705157716289656e-03,1.269106223984994009e-01,-9.918917544456372637e-01,2.754651852573832684e+02
1.277442253475673084e+01,-4.944741376494332030e+01,-3.221037155688426168e+01,6.406043121273233797e-03,1.306222035422275329e-01,-9.914105116203910661e-01,2.771503241305571805e+02
1.284731189343098201e+01,-4.986253481162995627e+01,-3.258750589932211739e+01,6.297291276069426867e-03,1.343319534841510843e-01,-9.909153699452912800e-01,2.788354630037310926e+02
1.293505417713029182e+01,-5.025710650779204514e+01,-3.295558695820209039e+01,6.188451146674030755e-03,1.380398202179647094e-01,-9.904063363613375692e-01,2.805206018769050047e+02
1.303794634108686346e+01,-5.063356103105862616e+01,-3.331698809143588846e+01,6.079524258893813718e-03,1.417457517637576436e-01,-9.898834180042589415e-01,2.822201010611022980e+02
1.315476272009185976e+01,-5.098776576746850964e+01,-3.366786627373400620e+01,5.970512139751787267e-03,1.454496961687414547e-01,-9.893466222044137170e-01,2.839196002452995913e+02
1.328504186867831294e+01,-5.131912340047582433e+01,-3.400758206884152912e+01,5.861416317465799677e-03,1.491516015079789592e-01,-9.887959564866872775e-01,2.856190994294968846e+02
1.344826212545191702e+01,-5.166262559845923619e+01,-3.437545941363860891e+01,5.752238321427124296e-03,1.528514158851109195e-01,-9.882314285703857060e-01,2.875356173344138142e+02
1.362910260006347229e+01,-5.197139928073643489e+01,-3.472530862719861489e+01,5.642979682179021829e-03,1.565490874330840720e-01,-9.876530463691286510e-01,2.894521352393307438e+02
1.380446035160048623e+01,-5.221859849136153997e+01,-3.502248515330175138e+01,5.533641931395301763e-03,1.602445643148775190e-01,-9.870608179907380819e-01,2.911639216021561083e+02
1.399163931340947187e+01,-5.243974878516046090e+01,-3.530527936948220713e+01,5.424226601858850826e-03,1.639377947242293965e-01,-9.864547517371246022e-01,2.928757079649814727e+02
1.405660910735584679e+01,-5.250908163902390413e+01,-3.539743994109840486e+01,5.314735227440156237e-03,1.676287268863626001e-01,-9.858348561041713198e-01,2.934503363860486616e+02
1.424586226580306558e+01,-5.269290704490569510e+01,-3.565163174782152566e+01,5.205169343075815962e-03,1.713173090587106207e-01,-9.852011397816150540e-01,2.950832174921559385e+02
1.444218862967064076e+01,-5.285277044060020302e+01,-3.589175450200557549e+01,5.095530484747020326e-03,1.750034895316423533e-01,-9.845536116529238768e-01,2.967160985982632155e+02
1.464314756762051495e+01,-5.298806119184806818e+01,-3.611709608373512026e+01,4.985820189458038849e-03,1.786872166291870456e-01,-9.838922807951737681e-01,2.983489797043704925e+02
1.490328628321916327e+01,-5.311847605005991113e+01,-3.637973576477862991e+01,4.876039995214669770e-03,1.823684387097581072e-01,-9.832171564789203844e-01,3.004448179621692248e+02
1.516054608323531916e+01,-5.319347520877301605e+01,-3.660762165217482789e+01,4.766191441002701722e-03,1.860471041668771697e-01,-9.825282481680702729e-01,3.025406562199679570e+02
1.537936164244161397e+01,-5.321505796566736990e+01,-3.677901761786716150e+01,4.656276066766335507e-03,1.897231614298968971e-01,-9.818255655197472009e-01,3.043780171839029549e+02
1.558762066180486094e+01,-5.319710914302001470e+01,-3.692436866235367177e+01,4.546295413386609342e-03,1.933965589647241856e-01,-9.811091183841581520e-01,3.062153781478379528e+02
1.578036123244656608e+01,-5.313849227589904700e+01,-3.704240716691164437e+01,4.436251022659806753e-03,1.970672452745417524e-01,-9.803789168044539926e-01,3.080527391117729508e+02
1.595205494536163826e+01,-5.303788951895594295e+01,-3.713189054072487494e+01,4.326144437275847993e-03,2.007351689005301976e-01,-9.796349710165900282e-01,3.098919162615485448e+02
1.609697882338862485e+01,-5.289410416142442273e+01,-3.719135092496297545e+01,4.215977200796682325e-03,2.044002784225890657e-01,-9.788772914491817856e-01,3.117310934113241387e+02
1.621067771353160580e+01,-5.270590080970413993e+01,-3.721946467905346623e+01,4.105750857634640413e-03,2.080625224600573531e-01,-9.781058887233595733e-01,3.135702705610997327e+02
1.628579827330256435e+01,-5.249533631261038380e+01,-3.721778747367346085e+01,3.995466953030806651e-03,2.117218496724335708e-01,-9.773207736526191569e-01,3.152534647345256644e+02
1.633274910576351857e+01,-5.224890686423055541e+01,-3.719012675047930117e+01,3.885127033033359840e-03,2.153782087600952799e-01,-9.765219572426706574e-01,3.169366589079515961e+02
1.634995749148322020e+01,-5.196571350375447906e+01,-3.713554162282682114e+01,3.774732644475904328e-03,2.190315484650179056e-01,-9.757094506912843412e-01,3.186198530813775278e+02
1.633537042909665615e+01,-5.164483818495260437e+01,-3.705306557231312325e+01,3.664285334955805912e-03,2.226818175714931347e-01,-9.748832653881340793e-01,3.203030472548034595e+02
1.629407746031337823e+01,-5.132029233494640863e+01,-3.695388475133975703e+01,3.553786652812490014e-03,2.263289649068466192e-01,-9.740434129146370301e-01,3.218368154976241158e+02
1.622646637984021822e+01,-5.096587449589943475e+01,-3.683217437550236184e+01,3.443238147105752000e-03,2.299729393421550971e-01,-9.731899050437923249e-01,3.233705837404447720e+02
1.613210457595971548e+01,-5.058093557593988265e+01,-3.668725963636553900e+01,3.332641367594051888e-03,2.336136897929629863e-01,-9.723227537400154219e-01,3.249043519832654283e+02
1.601054895163460401e+01,-5.016482152558930352e+01,-3.651845715253200098e+01,3.221997864712790403e-03,2.372511652199982002e-01,-9.714419711589712403e-01,3.264381202260860846e+02
1.586089765514747718e+01,-4.971686857013571625e+01,-3.632506625016711155e+01,3.111309189552588506e-03,2.408853146298872983e-01,-9.705475696474036296e-01,3.279718884689067409e+02
1.568224805305110259e+01,-4.923640574419376037e+01,-3.610637769150599752e+01,3.000576893837549140e-03,2.445160870758704974e-01,-9.696395617429620639e-01,3.295056567117273971e+02
1.540646528361594569e+01,-4.857187523488164516e+01,-3.578568033380992119e+01,2.889802529903508135e-03,2.481434316585151845e-01,-9.687179601740265600e-01,3.314514830423502190e+02
1.506903891496369496e+01,-4.783813181965130923e+01,-3.541007379271489697e+01,2.778987650676287714e-03,2.517672975264295676e-01,-9.677827778595293751e-01,3.333973093729730408e+02
1.466843106681188580e+01,-4.703339607714716664e+01,-3.497765611890415727e+01,2.668133809649932651e-03,2.553876338769751064e-01,-9.668340279087738187e-01,3.353431357035958627e+02
1.424229699922331704e+01,-4.622561485857013253e+01,-3.452680096685702438e+01,2.557242560864933859e-03,2.590043899569786090e-01,-9.658717236212507329e-01,3.371450062663768108e+02
1.376497441823578249e+01,-4.535858459418123800e+01,-3.402786568983349014e+01,2.446315458886462804e-03,2.626175150634433297e-01,-9.648958784864523075e-01,3.389468768291577589e+02
1.323594813535373760e+01,-4.443096705163428339e+01,-3.347939180775554036e+01,2.335354058782576452e-03,2.662269585442598729e-01,-9.639065061836831205e-01,3.407487473919387071e+02
1.275588169752939116e+01,-4.360945331135984304e+01,-3.298352173117499575e+01,2.224359916102427830e-03,2.698326697989155698e-01,-9.629036205818686245e-01,3.422586678572885148e+02
1.224596244196396277e+01,-4.275056465337367939e+01,-3.245688409795692309e+01,2.113334586854472702e-03,2.734345982792040775e-01,-9.618872357393606354e-01,3.437685883226383226e+02
1.170637007387062134e+01,-4.185363248240047795e+01,-3.189873121680672696e+01,2.002279627484655853e-03,2.770326934899333682e-01,-9.608573659037410453e-01,3.452785087879881303e+02
1.107738820833217552e+01,-4.082048370781220115e+01,-3.124577962257769315e+01,1.891196594854606698e-03,2.806269049896337742e-01,-9.598140255116214270e-01,3.469386984345326255e+02
1.041013826348531524e+01,-3.973512968733642481e+01,-3.054883202024372935e+01,1.780087046219817545e-03,2.842171823912646444e-01,-9.587572291884416398e-01,3.485988880810771207e+02
9.705878031291009123e+00,-3.859658563670353004e+01,-2.980675552743523227e+01,1.668952539207824897e-03,2.878034753629205578e-01,-9.576869917482645489e-01,3.502590777276216158e+02
8.924352896970949800e+00,-3.733637902532100128e+01,-2.897311159221791499e+01,1.557794631796376216e-03,2.913857336285366473e-01,-9.566033281935686361e-01,3.520088635867855942e+02
8.104086024729873827e+00,-3.601170873452173282e+01,-2.808388021271094814e+01,1.446614882291601253e-03,2.949639069685934811e-01,-9.555062537150380564e-01,3.537586494459495725e+02
7.248247756361115179e+00,-3.462137048426897223e+01,-2.713762082469333237e+01,1.335414849306174262e-03,2.985379452208203332e-01,-9.543957836913493642e-01,3.555084353051135508e+02
6.323787621120425584e+00,-3.310297188051002593e+01,-2.609008792671136590e+01,1.224196091737469495e-03,3.021077982808988427e-01,-9.532719336889572403e-01,3.573283425339731707e+02
5.368742282642230634e+00,-3.150812027915362989e+01,-2.497505929330953478e+01,1.112960168745715395e-03,3.056734161031646191e-01,-9.521347194618751120e-01,3.591482497628327906e+02
4.549945784702558171e+00,-3.011476983183396783e+01,-2.399055426500873978e+01,1.001708639732146622e-03,3.092347487013090701e-01,-9.509841569514553283e-01,3.606746455612080240e+02
3.720509155551132707e+00,-2.867436690921796227e+01,-2.296433374508375636e+01,8.904430643171514165e-04,3.127917461490796192e-01,-9.498202622861660060e-01,3.622010413595832574e+02
2.883823691017075586e+00,-2.718625324592413151e+01,-2.189552923682830610e+01,7.791650023184122382e-04,3.163443585809797010e-01,-9.486430517813647656e-01,3.637274371579584908e+02
1.226457332640900955e+00,-2.403871171529958417e+01,-1.958810062756480974e+01,6.678760137290491207e-04,3.198925361929674249e-01,-9.474525419390700254e-01,3.667233625326052788e+02
9.457682396119525547e-01,-2.347675727650688060e+01,-1.917003312742493648e+01,5.565776586957580339e-04,3.234362292431535169e-01,-9.462487494477307415e-01,3.672284575757428229e+02
-2.568215539964637806e-01,-2.096933838674705086e+01,-1.729059839612832050e+01,4.452714974969452914e-04,3.269753880524988165e-01,-9.450316911819917065e-01,3.694131690822193832e+02
-1.429303422404501367e+00,-1.831587342280349162e+01,-1.527411932887377333e+01,3.339590905208638001e-04,3.305099630055099991e-01,-9.438013842024579603e-01,3.715978805886959435e+02
-2.522469317807055411e+00,-1.559282448946603949e+01,-1.317840701201648734e+01,2.226419982437438357e-04,3.340399045509356846e-01,-9.425578457554553147e-01,3.737239837334024060e+02
-3.547591787608125102e+00,-1.273055454360989458e+01,-1.094954021988887050e+01,1.113217812079287636e-04,3.375651632024597726e-01,-9.413010932727894353e-01,3.758500868781088684e+02
-4.549206717378756260e+00,-9.463804868092076106e+00,-8.374159100627558416e+00,0.000000000000000000e+00,3.410856895393962751e-01,-9.400311443715009263e-01,3.781531696799910947e+02
-5.420586765892634773e+00,-5.902647319613259391e+00,-5.529392494342575404e+00,-3.179997568426643482e-04,9.704192579725104406e-02,9.952792389634183001e-01,3.805275593676896619e+02
-5.983471882408512244e+00,-2.719136517655615926e+00,-2.897041244375408553e+00,-4.477014130564030969e-01,5.740342474320694333e-01,-6.855991011687908587e-01,3.825859711819858262e+02
-6.288926564121978480e+00,-1.582066845722470555e-02,-5.646974506298833019e-01,4.157246280601000765e-01,9.043401909062455113e-01,9.664291353565998555e-02,3.843477663807043427e+02
-6.440936898790948995e+00,2.628724586956440845e+00,1.739852313192321143e+00,-8.479704324504611090e-01,5.300416452412962665e-01,0.000000000000000000e+00,3.861095615794228593e+02
-6.455135008604055535e+00,5.214789505465569519e+00,3.968465310573259242e+00,3.421418352604471136e-01,-8.417995946777782207e-03,9.396095475827834775e-01,3.878713567781413758e+02
-6.189425387858944916e+00,8.989856876214398440e+00,7.161632992578832457e+00,-6.700796228875678662e-02,-0.000000000000000000e+00,-9.977514384779677670e-01,3.905416662036265052e+02
-5.881745815283690781e+00,1.116464406977824630e+01,8.967294768675161620e+00,-5.300915303214140950e-01,-8.479392486978485355e-01,-0.000000000000000000e+00,3.921377518445078181e+02
-5.505587587857514897e+00,1.329667598282869534e+01,1.072020931402970945e+01,0.000000000000000000e+00,8.584009604374345237e-01,5.129773787610866220e-01,3.937338374853891310e+02
-4.951609616242219403e+00,1.585754214568543041e+01,1.279942783753012847e+01,-4.499992964603244145e-04,3.515004504557788789e-01,9.361865363435515341e-01,3.956998775320587924e+02
-4.303734418198969180e+00,1.834059724982661166e+01,1.478412400242649838e+01,-0.000000000000000000e+00,9.419726912952748332e-01,-3.356865336228355701e-01,3.976659175787284539e+02
-3.517037731048842986e+00,2.092270713026007911e+01,1.681213343280616357e+01,9.334680231831153918e-01,2.330827560932287046e-01,2.725947147463936293e-01,3.997808184345842051e+02
-2.652153154353355635e+00,2.341080611568483505e+01,1.872816058205077638e+01,6.818411546863434314e-01,5.506893172820425536e-02,-7.294230956965562784e-01,4.018957192904399562e+02
-1.894796725994806863e+00,2.539678685362131105e+01,2.023140563444154338e+01,4.606684729586386640e-01,4.802354505724604761e-01,7.464291460257076460e-01,4.036386057486217851e+02
-1.108644947535030179e+00,2.733111173023219109e+01,2.167488914733443650e+01,-2.031297923577761802e-02,9.495260293807026297e-01,-3.130266800195815047e-01,4.053814922068036140e+02
-3.000444471365582566e-01,2.921448907162633901e+01,2.305990312620674487e+01,-4.525244665821584467e-01,-6.821651958908010460e-01,5.743433229869360224e-01,4.071243786649854428e+02
7.408921346546318842e-01,3.150260006359902576e+01,2.470938920994076682e+01,-0.000000000000000000e+00,3.025597526116469496e-02,-9.995411827239251146e-01,4.093164075096505599e+02
1.799629090393711550e+00,3.369405713575041972e+01,2.624829549802607431e+01,4.606684729584335503e-01,4.802354505722466471e-01,7.464291460253751342e-01,4.115084363543156769e+02
3.173435490312716212e+00,3.636321469903674597e+01,2.805190069839297706e+01,6.426236280064211437e-01,1.961598864495250893e-02,-7.659295566286946633e-01,4.143394460944676894e+02
4.082932779807839196e+00,3.804136003913440334e+01,2.914243285221026625e+01,8.084710213412543700e-01,5.885342875759150827e-01,-0.000000000000000000e+00,4.162202302066826292e+02
4.842144490663526035e+00,3.940807678928282343e+01,3.001187278155407867e+01,7.364161080999043207e-01,-4.016585135368948012e-01,-5.443893406704447546e-01,4.177986149269111706e+02
5.595711988816542970e+00,4.074073123064790281e+01,3.084437582239442932e+01,4.034587101635577766e-01,-5.855715793374167699e-01,-7.030824949199910856e-01,4.193769996471397121e+02
6.341449038135636762e+00,4.203984937405344624e+01,3.164070896806632760e+01,-1.405218985059131509e-01,4.256286925831776480e-01,8.939193543530967734e-01,4.209553843673682536e+02
7.077366678860803617e+00,4.330596152487493100e+01,3.240163153052949241e+01,-0.000000000000000000e+00,5.892782266479996700e-01,-8.079289396970169568e-01,4.225337690875967951e+02
7.833991668513721862e+00,4.459483089822496282e+01,3.315961662274306576e+01,4.608364502586879130e-01,4.800774273057292763e-01,-7.464271095716964455e-01,4.241847532976448747e+02
8.574686622283422821e+00,4.584731313399835528e+01,3.387881480374490906e+01,0.000000000000000000e+00,-9.695091808009852208e-02,9.952881590187122596e-01,4.258357375076929543e+02
9.297784215423972043e+00,4.706405714672391838e+01,3.456010755182276029e+01,8.965938298732629708e-01,2.929696176511912761e-02,-4.418814233093617538e-01,4.274867217177410339e+02
1.000183027909439737e+01,4.824571362005235642e+01,3.520436645371213302e+01,7.364161080990846431e-01,-4.016585135364477699e-01,-5.443893406698389059e-01,4.291377059277891135e+02
1.074765055303257810e+01,4.949844842397554601e+01,3.586638699821700271e+01,9.334680231830139174e-01,2.330827560932033637e-01,2.725947147463639864e-01,4.309456491506165889e+02
1.146407529345933085e+01,5.070720310063020264e+01,3.648211970511156466e+01,9.360262369447575059e-01,-2.510647953301940460e-01,2.466157989570475217e-01,4.327535923734440644e+02
1.214955618433672413e+01,5.187291558070654673e+01,3.705275962471463203e+01,8.849807075424662717e-01,-1.526297770940048849e-02,-4.653753203492080326e-01,4.345615355962715398e+02
1.269956484458763946e+01,5.281677064945815658e+01,3.749826411680744087e+01,9.421051217342627515e-01,-0.000000000000000000e+00,-3.353146874070691563e-01,4.360720957677014553e+02
1.323039931063959251e+01,5.373619019076353709e+01,3.791868608727577339e+01,0.000000000000000000e+00,-9.950534475071191043e-01,-9.933094484754562137e-02,4.375826559391313708e+02
1.374167793007299743e+01,5.463162891146678390e+01,3.831458493524802833e+01,0.000000000000000000e+00,-0.000000000000000000e+00,-9.999989999999949752e-01,4.390932161105612863e+02
1.423311543120282252e+01,5.550353958641206731e+01,3.868651225140585126e+01,-0.000000000000000000e+00,8.051988582391039415e-03,-9.999665820611528533e-01,4.406037762819912018e+02
1.491568421865689587e+01,5.675003472726711351e+01,3.918549671358213260e+01,-0.000000000000000000e+00,8.052988511417209436e-03,-9.999665734241703907e-01,4.428572311856444799e+02
1.552689925379747571e+01,5.792400931799814856e+01,3.960943073489760025e+01,9.999988887662600415e-07,-4.977924468356228482e-01,-8.672950362314221229e-01,4.451106860892977579e+02
1.596820792599625349e+01,5.881416664052045462e+01,3.990002594188135987e+01,8.649910223442305313e-01,4.315195122752376461e-02,4.999264349583396605e-01,4.469081891462044496e+02
1.637393094613973688e+01,5.966913086996733284e+01,4.015481371611193850e+01,8.849408409610034498e-01,2.539496673929442228e-02,-4.650083909617074296e-01,4.487056922031111412e+02
1.674422753291108990e+01,6.048977730858398871e+01,4.037478587453041712e+01,9.968779763702703134e-01,0.000000000000000000e+00,-7.894491893655197767e-02,4.505031952600178329e+02
1.707948569935008010e+01,6.127697390911826858e+01,4.056091605583681314e+01,8.847879010075998529e-01,3.147796090131910196e-02,-4.649274225150418216e-01,4.523006983169245245e+02
1.737253937121992919e+01,6.201158824629895605e+01,4.071076443958778412e+01,0.000000000000000000e+00,-9.968312352734686188e-01,-7.953293898571150988e-02,4.540486153051133442e+02
1.763392388722121140e+01,6.271695469389172217e+01,4.083117318035386489e+01,-6.799996278746933513e-05,-9.702994690100219533e-02,9.952804553393420628e-01,4.557965322933021639e+02
1.786453336348421672e+01,6.339382899403926785e+01,4.092296401157432939e+01,9.421051217398740407e-01,-0.000000000000000000e+00,-3.353146874090663365e-01,4.575444492814909836e+02
1.806526378395307120e+01,6.404295718332480192e+01,4.098694038277849216e+01,9.474105094606788402e-01,1.330340827836802402e-02,-3.197410606919449116e-01,4.592923662696798033e+02
1.823643811409284865e+01,6.466507154959397496e+01,4.102386892715411193e+01,9.522917732520759238e-01,2.660086126421780037e-02,-3.040242963599754100e-01,4.610402832578686230e+02
1.840281195164003947e+01,6.539762088689893460e+01,4.102838533130760368e+01,9.567467279144740155e-01,3.988640612586743378e-02,-2.881714302842233177e-01,4.632146124760731709e+02
1.851430494282980277e+01,6.608154572093263823e+01,4.098413696743480017e+01,9.607733790931457518e-01,5.315409536175248750e-02,-2.721895592651262796e-01,4.653889416942777189e+02
1.856474025685021800e+01,6.653184284156421313e+01,4.092904340633879201e+01,9.643699241711407577e-01,6.639798946296385229e-02,-2.560858378554787818e-01,4.668978939869770670e+02
1.859827852947432092e+01,6.696678217992433702e+01,4.085858617140089422e+01,9.675347530763409587e-01,7.961215957221064177e-02,-2.398674751575512465e-01,4.684068462796764152e+02
1.861489808207390340e+01,6.738674643013284538e+01,4.077314155207773183e+01,9.702664490023151789e-01,9.279069013801699572e-02,-2.235417315957839157e-01,4.699157985723757633e+02
1.861483062574982483e+01,6.779211791058271785e+01,4.067308593204514722e+01,9.725637890426537258e-01,1.059276815629654339e-01,-2.071159156665018097e-01,4.714247508650751115e+02
1.859816319803477214e+01,6.818327429161244879e+01,4.055878701754595994e+01,9.744257447384937487e-01,1.190172528447995676e-01,-1.905973806661041547e-01,4.729337031577744597e+02
1.856443607465978829e+01,6.856058622257482682e+01,4.043059506579268714e+01,9.758514825389960068e-01,1.320535442092052314e-01,-1.739935213991951612e-01,4.744426554504738078e+02
1.851303479518796991e+01,6.892442266340289336e+01,4.028885165203393370e+01,9.768403641745599941e-01,1.450307197330898967e-01,-1.573117708681278926e-01,4.759516077431731560e+02
1.844013104275459725e+01,6.928817895356310430e+01,4.012738304086514063e+01,9.773919469426169959e-01,1.579429699571865131e-01,-1.405595969454454530e-01,4.775188745708272791e+02
1.834680678620929939e+01,6.963767544111772168e+01,3.995151622042568818e+01,9.775059839058670708e-01,1.707845144868120058e-01,-1.237444990307077219e-01,4.790861413984814021e+02
1.823320567247798252e+01,6.997334481342701906e+01,3.976164898152156013e+01,9.771824240028732511e-01,1.835496045796152498e-01,-1.068740046932010745e-01,4.806534082261355252e+02
1.809976296674537366e+01,7.029561868378685574e+01,3.955817920985449376e+01,9.764214120709650002e-01,1.962325257191564476e-01,-8.995566630203512271e-02,4.822206750537896482e+02
1.794720554928521139e+01,7.060492651025037958e+01,3.934150488331412276e+01,9.752232887814376028e-01,2.088276001731657894e-01,-7.299705764513367279e-02,4.837879418814437713e+02
1.777655191029096926e+01,7.090169451446506343e+01,3.911202406926966546e+01,9.735885904870773544e-01,2.213291895353346750e-01,-5.600577053863537574e-02,4.853552087090978944e+02
1.758869717382317432e+01,7.118633962261161230e+01,3.887012744320672653e+01,9.715180489820820497e-01,2.337316972495029899e-01,-3.898941142822034273e-02,4.869224755367520174e+02
1.738399214747024502e+01,7.145926546516074040e+01,3.861619080741455434e+01,9.690125911744822407e-01,2.460295711151112286e-01,-2.195559798388698261e-02,4.884897423644061405e+02
1.716264932595913706e+01,7.172086939138019090e+01,3.835058256708365576e+01,9.660733386712098136e-01,2.582173057727950582e-01,-4.911955689701676814e-03,4.900570091920602636e+02
1.692515487085465864e+01,7.197154745462707126e+01,3.807367120645385228e+01,9.627016072760021803e-01,2.702894451690112110e-01,1.213388556995159857e-02,4.916242760197143866e+02
1.667226860706784919e+01,7.221169339772545470e+01,3.778582528630756343e+01,9.588989064003631269e-01,2.822405849985891169e-01,2.917429492609157488e-02,4.931915428473685097e+02
1.628105635821203379e+01,7.253206719111587120e+01,3.735276818434116564e+01,9.546669383878474413e-01,2.940653751241160685e-01,4.620164394130196056e-02,4.954266676423670219e+02
1.585322449151996338e+01,7.282378589569805172e+01,3.689070131436748312e+01,9.500075977519684134e-01,3.057585219710713398e-01,6.320831002480614691e-02,4.976617924373655342e+02
1.539609639577902378e+01,7.308836702718357969e+01,3.640124483979821690e+01,9.449229703280731529e-01,3.173147908976380882e-01,8.018667984492379441e-02,4.998965018445167061e+02
1.491709703758787420e+01,7.332736713937457296e+01,3.588581634107087837e+01,9.394153323395619815e-01,3.287290085381309734e-01,9.712915273738316480e-02,5.021312112516678781e+02
1.436866938796605986e+01,7.356129462127181284e+01,3.528768090428116722e+01,9.334871493788725605e-01,3.399960651189907201e-01,1.140281441079615266e-01,5.045951062264240363e+02
1.401873228314853748e+01,7.369367803960285812e+01,3.490158053112289593e+01,9.271410753036836150e-01,3.511109167463077885e-01,1.308760888279306700e-01,5.061295306835615975e+02
1.366504089389216325e+01,7.381937444875153176e+01,3.450826584144284936e+01,9.203799510488324120e-01,3.620685876638528589e-01,1.476654446207883720e-01,5.076639551406991586e+02
1.330841365872922744e+01,7.393866284942022560e+01,3.410802931342040267e+01,9.132068033544805674e-01,3.728641724806001645e-01,1.643886954387563659e-01,5.091983795978367198e+02
1.294962292341267585e+01,7.405181408971027679e+01,3.370115742892108557e+01,9.056248434110930612e-01,3.834928383667490781e-01,1.810383548275365517e-01,5.107328040549742809e+02
1.258913017102868181e+01,7.415908655853405662e+01,3.328792463049378370e+01,8.976374654218411964e-01,3.939498272172592408e-01,1.976069692778164300e-01,5.122672285121118421e+02
1.222733717609510329e+01,7.426073212478986818e+01,3.286859936072003308e+01,8.892482450830727636e-01,4.042304577819305078e-01,2.140871215620233914e-01,5.138016529692494032e+02
1.182363634523931850e+01,7.436714736074893040e+01,3.239443428815734904e+01,8.804609379835274252e-01,4.143301277610745292e-01,2.304714340548357498e-01,5.155103037859190636e+02
1.142015097317598027e+01,7.446633446397757439e+01,3.191265542838701563e+01,8.712794779230176312e-01,4.242443158658395497e-01,2.467525720359601826e-01,5.172189546025887239e+02
1.101845702220287571e+01,7.455866828056971940e+01,3.142367548924573128e+01,8.617079751513246899e-01,4.339685838422653874e-01,2.629232469737005640e-01,5.189276054192583842e+02
1.062014198449789859e+01,7.464450968391757613e+01,3.092789727410513834e+01,8.517507145281015823e-01,4.434985784581639834e-01,2.789762197878463135e-01,5.206362562359280446e+02
1.022647087808807598e+01,7.472419905694869158e+01,3.042570371638060678e+01,8.414121536046043071e-01,4.528300334519331227e-01,2.949043040904176238e-01,5.223449070525977049e+02
9.838698413934315212e+00,7.479806454625277468e+01,2.991746783867764847e+01,8.306969206281128448e-01,4.619587714424341907e-01,3.107003694028206975e-01,5.240535578692673653e+02
9.415753992953588281e+00,7.487348103799006083e+01,2.934364085554454604e+01,8.196098124699326970e-01,4.708807057990763156e-01,3.263573443479684255e-01,5.259590404929377883e+02
9.005685889483521223e+00,7.494152335275494181e+01,2.876253037035833771e+01,8.081557924779089186e-01,4.795918424712710126e-01,3.418682198159396224e-01,5.278645231166082112e+02
8.610889511494463022e+00,7.500263799036943624e+01,2.817466862830303853e+01,7.963399882544096586e-01,4.880882817764377601e-01,3.572260521017595059e-01,5.297700057402786342e+02
8.502529631443039193e+00,7.501883491445499885e+01,2.800858936890539397e+01,7.841676893607784082e-01,4.963662201457605394e-01,3.724239660138949914e-01,5.303051421552729607e+02
8.174427429258395605e+00,7.506687210833860036e+01,2.749326505914571328e+01,7.716443449492804696e-01,5.044219518269132951e-01,3.874551579520753575e-01,5.319586480055789934e+02
7.858578662151871619e+00,7.511112088935372810e+01,2.697419140011935923e+01,7.587755613236049079e-01,5.122518705429915942e-01,4.023128989530573851e-01,5.336121538558850261e+02
7.555057425269005478e+00,7.515177618205621002e+01,2.645160631016491948e+01,7.455670994290153342e-01,5.198524711069109072e-01,4.169905377029755056e-01,5.352656597061910588e+02
7.232108175117471838e+00,7.519278237228753881e+01,2.586495701242008494e+01,7.320248722732703994e-01,5.272203509905432073e-01,4.314815035149235922e-01,5.371089915179090895e+02
6.926163842280572247e+00,7.522918971245997000e+01,2.527411809195358927e+01,7.181549422794738513e-01,5.343522118478963856e-01,4.457793092704398497e-01,5.389523233296271201e+02
6.636717879080487492e+00,7.526126396424892562e+01,2.467940596919007135e+01,7.039635185720354293e-01,5.412448609916472586e-01,4.598775543235740781e-01,5.407956551413451507e+02
6.369598451033666286e+00,7.528867690607857810e+01,2.409603322689879690e+01,6.894569541969592930e-01,5.478952128223752993e-01,4.737699273662401289e-01,5.425932934815199360e+02
6.117001550819760602e+00,7.531257638544794020e+01,2.350962167150994375e+01,6.746417432777050971e-01,5.543002902098492779e-01,4.874502092535694109e-01,5.443909318216947213e+02
5.878644572136687785e+00,7.533319084997255288e+01,2.292043378709980672e+01,6.595245181078961405e-01,5.604572258257558559e-01,5.009122757880015708e-01,5.461885701618695066e+02
5.653880096890087970e+00,7.535073360200227910e+01,2.232870769194522964e+01,6.441120461821732146e-01,5.663632634272677269e-01,5.141501004608639569e-01,5.479862085020442919e+02
5.453200501066686634e+00,7.536475366976510770e+01,2.176796725747775341e+01,6.284112271665284188e-01,5.720157590908807599e-01,5.271577571502157333e-01,5.496834087643603652e+02
5.262994827123609554e+00,7.537657660912115887e+01,2.120545555306546248e+01,6.124290898094709723e-01,5.774121823959670330e-01,5.399294227737470031e-01,5.513806090266764386e+02
5.083073254578434508e+00,7.538637061859458299e+01,2.064135226007592294e+01,5.961727887954112459e-01,5.825501175575124035e-01,5.524593798955453883e-01,5.530778092889925119e+02
4.913280826902752807e+00,7.539429715906180718e+01,2.007582818207339059e+01,5.796496015416712222e-01,5.874272645075334642e-01,5.647420192855640009e-01,5.547750095513085853e+02
