2.324715368295076967e+00,1.777789019558180472e+00,8.406080331547194362e+00,-7.133183751774304637e-01,2.647300436618893818e-02,-7.003385436167250955e-01,9.164497502942706930e+00
2.693095953416206445e+00,1.676006367117761409e+00,8.315388806903984076e+00,-8.151491123989963450e-01,2.846624929853665623e-02,-5.785495633106113589e-01,1.068356550854402975e+01
3.056441272520887154e+00,1.572889830499117902e+00,8.224610466433611933e+00,-8.964331543918143685e-01,2.974197194430526145e-02,-4.421775828925093021e-01,1.220263351414535258e+01
3.413926837125570213e+00,1.468454129266803854e+00,8.133735118932451158e+00,-8.919444568270985529e-01,3.059098137082193539e-02,-4.511067252867630994e-01,1.372170151974667540e+01
3.764724368167850610e+00,1.362716952683036054e+00,8.042752573733411126e+00,-8.875683492961607968e-01,2.518998153244456778e-02,-4.599846627710009184e-01,1.524076952534799823e+01
4.402550251299650164e+00,1.156166370575290925e+00,7.867612821099024600e+00,-8.832231748244704361e-01,-9.937018215510443411e-03,-4.688454746735331580e-01,1.815605956739700133e+01
4.729568337616839813e+00,1.041418796193076979e+00,7.771625250517782746e+00,-8.777021629810879411e-01,-4.505078513172512678e-02,-4.770821101836884570e-01,1.974848370193529945e+01
5.044419720675271890e+00,9.253905725851704345e-01,7.675450529112177733e+00,-8.710126643345473818e-01,-8.010457222728722959e-02,-4.846836040936433054e-01,2.134090783647359757e+01
5.345799863151592390e+00,8.081173289724307152e-01,7.579068271435740023e+00,-8.631635849687955275e-01,-1.150517124091178789e-01,-4.916398367257601709e-01,2.293333197101189569e+01
5.632314561530089136e+00,6.896372600245360696e-01,7.482454968463720490e+00,-8.541653746994746221e-01,-1.498456806040454892e-01,-4.979415474421640675e-01,2.452575610555019381e+01
5.965451083081474870e+00,5.391985846818708739e-01,7.360722643145111377e+00,-8.440300131583892140e-01,-1.844401556955071464e-01,-5.035803469708070024e-01,2.652533359334440988e+01
6.263122868101612006e+00,3.869921505135339723e-01,7.238430085635166655e+00,-8.327709938416369972e-01,-2.187890821882647052e-01,-5.085487285714989092e-01,2.852491108113862595e+01
6.347488170062916879e+00,3.403362955704770654e-01,7.201100873721848039e+00,-8.204033061426827533e-01,-2.528467315190752185e-01,-5.128400780270760961e-01,2.913362935672616416e+01
6.577214642363568231e+00,2.035381035157752538e-01,7.092030975842611440e+00,-8.069434153943298993e-01,-2.865677629317301967e-01,-5.164486824464328274e-01,3.090782960766502896e+01
6.777182950748526835e+00,6.555309682425211615e-02,6.982463444759219762e+00,-7.924092409461883646e-01,-3.199072838354636850e-01,-5.193697378677276655e-01,3.268202985860389020e+01
6.993684094909790261e+00,-1.312294706028598323e-01,6.826643914380755795e+00,-7.768201323068555375e-01,-3.528209095664203154e-01,-5.215993556516722585e-01,3.518645707134481881e+01
7.115460287263537964e+00,-3.107725145220693319e-01,6.684572056198322620e+00,-7.601968433825869731e-01,-3.852648224726731296e-01,-5.231345676564169711e-01,3.744802111816400725e+01
7.164263290234531567e+00,-4.338850558603830065e-01,6.587110445530317548e+00,-7.425615048467719692e-01,-4.171958302441863276e-01,-5.239733301871676296e-01,3.898881665366430127e+01
7.190723646240989808e+00,-5.574976658277288610e-01,6.489181347453866877e+00,-7.239375946770069126e-01,-4.485714234101195741e-01,-5.241145267153012322e-01,4.052961218916459529e+01
7.194635077472008255e+00,-6.815682173294522750e-01,6.390753734739201164e+00,-7.043499068989930167e-01,-4.793498319269887120e-01,-5.235579693633761744e-01,4.207040772466488932e+01
7.171008200579724878e+00,-8.194360662755590941e-01,6.281132129260662111e+00,-6.838245185788668357e-01,-5.094900807824045419e-01,-5.223043991540813336e-01,4.377617604217215330e+01
7.116346609321479555e+00,-9.578086887645799186e-01,6.170745367076246879e+00,-6.623887551079012947e-01,-5.389520445404200055e-01,-5.203554850228029327e-01,4.548194435967941729e+01
7.030424524979791201e+00,-1.096622948835313638e+00,6.059542996584150742e+00,-6.400711538257741751e-01,-5.676965007559299226e-01,-5.177138215951372358e-01,4.718771267718668128e+01
6.913264855586527702e+00,-1.235818201211589917e+00,5.947469885777930010e+00,-6.169014260308183228e-01,-5.956851821870701169e-01,-5.143829257323149218e-01,4.889348099469394526e+01
6.740578223741586328e+00,-1.393860064767515450e+00,5.819388101442460659e+00,-5.929104174277992634e-01,-6.228808277361558288e-01,-5.103672318491380144e-01,5.082457685872098807e+01
6.523215503428675177e+00,-1.552367896075145470e+00,5.689863334106943782e+00,-5.681300670658488983e-01,-6.492472320514006690e-01,-5.056720860106673765e-01,5.275567272274803088e+01
6.321727334663599152e+00,-1.678432571295067177e+00,5.585997211167949672e+00,-5.425933648211843652e-01,-6.747492937234249588e-01,-5.003037388155129328e-01,5.428935416995535945e+01
6.097983255551126192e+00,-1.804515258143895462e+00,5.481299350429851280e+00,-5.163343074811781452e-01,-6.993530620124374098e-01,-4.942693370751971016e-01,5.582303561716268803e+01
6.041685131927888364e+00,-1.834636889613209920e+00,5.456161316300121022e+00,-5.939584362330480038e-01,-8.044922364008854077e-01,-1.901998194682220878e-03,5.618967786719811386e+01
5.733150122434813589e+00,-1.988912934018102874e+00,5.326561005220954215e+00,-0.000000000000000000e+00,-2.291096583325744410e-02,-9.997365091095600231e-01,5.806687395902331161e+01
5.377572059148750583e+00,-2.147084474645282626e+00,5.192040546870088313e+00,-9.089331001752274375e-01,-0.000000000000000000e+00,-4.169395872385226465e-01,5.998797066354698160e+01
4.983241917235254448e+00,-2.305547990028204541e+00,5.055413827516659353e+00,4.817995168104444691e-03,-1.888798105752527087e-02,-9.998089973064558933e-01,6.190906736807065158e+01
4.618128556219997627e+00,-2.441372584072430296e+00,4.936715352292211811e+00,0.000000000000000000e+00,2.371197228127814097e-02,-9.997178313540444616e-01,6.355435669480449690e+01
4.231206763082639988e+00,-2.577188660622628191e+00,4.816472249577698150e+00,-2.327097549703039392e-01,-7.626911969309915218e-01,-6.034453646074944277e-01,6.519964602153834221e+01
3.824174306512933441e+00,-2.713013760335352131e+00,4.694577938198357892e+00,5.646663325348453277e-01,-6.706362072729079582e-01,-4.810374313885828479e-01,6.684493534827218753e+01
3.247724630394683842e+00,-2.895284132209232641e+00,4.528197977327010015e+00,0.000000000000000000e+00,2.371197228180427219e-02,-9.997178313762267177e-01,6.904568304185370664e+01
2.636391828997270537e+00,-3.078764123299543520e+00,4.357253221505135166e+00,-9.089308576325502154e-01,-4.169444759735642103e-01,-0.000000000000000000e+00,7.124643073543522576e+01
2.165468683893045476e+00,-3.215631685032784848e+00,4.227439371156593850e+00,-8.657284703646458413e-01,4.290397375220740550e-02,4.986696949238595411e-01,7.288157932499296976e+01
1.685943039807425770e+00,-3.352674836049519325e+00,4.095489916977816058e+00,-0.000000000000000000e+00,-7.954388900879372226e-01,-6.060321543757705154e-01,7.451672791455071376e+01
1.201083962075625289e+00,-3.489975824986364383e+00,3.961293864873355997e+00,-8.555062347860055150e-01,6.122994523241436643e-02,-5.141575401079161445e-01,7.615187650410845777e+01
7.455047953323075127e-01,-3.618781027349163182e+00,3.833585462530047394e+00,-0.000000000000000000e+00,8.051988583366573304e-03,-9.999665821823030543e-01,7.768280078376331232e+01
2.915045606658622224e-01,-3.747860899186635564e+00,3.703858145500425358e+00,1.014498516915121433e-02,0.000000000000000000e+00,-9.999475381870467361e-01,7.921372506341816688e+01
-2.130448906707006762e-01,-3.893747147938207309e+00,3.555172490177153755e+00,1.016999272028911230e-02,-9.999472842347744139e-01,-0.000000000000000000e+00,8.093663741242184528e+01
-7.053841286428750301e-01,-4.040609191843063108e+00,3.403362415899653382e+00,-9.789433609091225952e-01,-2.146098598946485220e-02,-2.029958674766975668e-01,8.265954976142552368e+01
-1.179851424717946129e+00,-4.188654461004730045e+00,3.248298977815662347e+00,-7.580441341994771376e-01,2.125597572247569372e-02,-6.518552554831630319e-01,8.438246211042920208e+01
-1.630915495642222934e+00,-4.338113196663395676e+00,3.089853257794291430e+00,2.883107282158098861e-01,-5.998124345699942239e-01,-7.463912963933211353e-01,8.610537445943288049e+01
-2.053019953811570097e+00,-4.489239438796523096e+00,2.927896837766344351e+00,-9.494871526040845611e-01,-0.000000000000000000e+00,-3.138027199381345778e-01,8.782828680843655889e+01
-2.440429313476378592e+00,-4.642312857008658256e+00,2.762302273060597280e+00,6.426236280063962747e-01,1.961598864495174219e-02,-7.659295566286647983e-01,8.955119915744023729e+01
-2.834426470981184387e+00,-4.822170866860719940e+00,2.566206279297170489e+00,-9.494871526040128407e-01,0.000000000000000000e+00,-3.138027199381109300e-01,9.153933715512734182e+01
-3.166882073177538004e+00,-5.006351477128124117e+00,2.364425998077503532e+00,6.818411546863564210e-01,5.506893172820531007e-02,-7.294230956965702672e-01,9.352747515281444635e+01
-3.449078646689065053e+00,-5.201859888033780521e+00,2.150084061463186202e+00,6.679234770728493809e-01,-1.339725261812148467e-02,-7.441080179635792824e-01,9.558130081828336699e+01
-3.674353224629363979e+00,-5.403399342919727566e+00,1.929868648204972059e+00,6.506014094351377786e-01,-8.179514871907574147e-02,-7.550002382036330451e-01,9.763512648375228764e+01
-3.836370826949241142e+00,-5.591661548065124165e+00,1.725377672301128040e+00,6.299632414842396555e-01,-1.497761367629207030e-01,-7.620442396839779420e-01,9.949857698293118347e+01
-3.964194922192042281e+00,-5.785166458097275921e+00,1.516816834100986222e+00,6.061141644982365184e-01,-2.169937218468697970e-01,-7.652041193525281892e-01,1.013620274821100793e+02
-4.049653891238157222e+00,-5.952738141518608472e+00,1.337677600428036628e+00,5.791757352260342717e-01,-2.831052998795881570e-01,-7.644637708261954323e-01,1.029371329879297292e+02
-4.117969763820044982e+00,-6.123821340371886635e+00,1.156252432882437953e+00,5.492852564004970795e-01,-3.477739036636814385e-01,-7.598269665073542622e-01,1.045122384937493791e+02
-4.176348572945491000e+00,-6.329747293685427323e+00,9.403250970312492241e-01,5.165950770141912729e-01,-4.106699202661633352e-01,-7.513173384085608530e-01,1.063603139060494271e+02
-4.211611699702283218e+00,-6.542001622161286001e+00,7.209871271867915876e-01,4.812718159193227763e-01,-4.714727709303347947e-01,-7.389782577808593489e-01,1.082083893183494752e+02
-4.226015143078662106e+00,-6.737332689583344525e+00,5.220098189654653886e-01,4.434955127035939415e-01,-5.298725449722425651e-01,-7.228726141555230633e-01,1.098626880608249223e+02
-4.226229521775786147e+00,-6.937615065033636341e+00,3.207906096233092419e-01,4.034587101639421358e-01,-5.855715793379746570e-01,-7.030824949206608832e-01,1.115169868033003695e+02
-4.211748836552796860e+00,-7.150860441856127458e+00,1.098066510187066247e-01,9.115562788196621691e-01,-3.284527237171949721e-01,-2.473498712871834149e-01,1.132325929909867881e+02
-4.181190632437313148e+00,-7.373654381857932094e+00,-1.068995817740571314e-01,9.347363262714887266e-01,1.033921458138483129e-01,3.399647989598421072e-01,1.149755390244822024e+02
-4.133925693491758757e+00,-7.602926964235513729e+00,-3.258935063046143887e-01,4.606684729585219795e-01,4.802354505723388511e-01,7.464291460255184640e-01,1.167184850579776167e+02
-4.068977958738123846e+00,-7.838913831955641953e+00,-5.470655926765735089e-01,-6.700796228889119299e-02,0.000000000000000000e+00,-9.977514384799691660e-01,1.184614310914730311e+02
-3.995992323022619530e+00,-8.054698441075467841e+00,-7.457589530529056265e-01,8.849807075427689185e-01,-1.526297770940570654e-02,-4.653753203493670720e-01,1.200141501763386742e+02
-3.908563906971119106e+00,-8.275577378431441034e+00,-9.458467839162658652e-01,0.000000000000000000e+00,9.419726912952655073e-01,-3.356865336228322394e-01,1.215668692612043174e+02
-3.806039245414190475e+00,-8.501706538659151491e+00,-1.147262017034996306e+00,8.084710213412370505e-01,5.885342875759024261e-01,-0.000000000000000000e+00,1.231195883460699605e+02
-3.688902461900556595e+00,-8.733242499987676766e+00,-1.349943300236288168e+00,0.000000000000000000e+00,3.025597526117207101e-02,-9.995411827241688085e-01,1.246723074309356036e+02
-3.558899959702422233e+00,-8.970336016350824337e+00,-1.553835497896904672e+00,4.608364502589717415e-01,4.800774273060249842e-01,-7.464271095721561888e-01,1.262250265158012468e+02
-3.418053071096843087e+00,-9.213127585998780233e+00,-1.758884169705274170e+00,-2.031297923577069647e-02,9.495260293803791107e-01,-3.130266800194748678e-01,1.277777456006668899e+02
-3.321992912035593104e+00,-9.374013605327009557e+00,-1.892970836099181486e+00,-7.844274623936443591e-01,4.435458037912078377e-01,4.335189455803467040e-01,1.287891956471853803e+02
-3.044674742363346898e+00,-9.821601325977280084e+00,-2.254497173092705697e+00,-4.525244665821584467e-01,-6.821651958908010460e-01,5.743433229869360224e-01,1.314930740415271373e+02
-2.861592473796678693e+00,-1.010801012449280023e+01,-2.477578075861516016e+00,-0.000000000000000000e+00,1.466799147870188023e-02,9.998914191179560929e-01,1.331447388182745044e+02
-2.673072413274149906e+00,-1.040180577458576749e+01,-2.701933445344608664e+00,-4.348255654857680619e-01,8.976721029706270505e-01,7.148092857025152569e-02,1.347964035950218715e+02
-2.479994954882103642e+00,-1.070303327387686032e+01,-2.927683994290205760e+00,-4.477014130563808925e-01,5.740342474320409005e-01,-6.855991011687566639e-01,1.364480683717692386e+02
-2.283129120726911765e+00,-1.101173112069848159e+01,-3.154947966927331926e+00,0.000000000000000000e+00,8.584009604378193270e-01,5.129773787613166602e-01,1.380997331485166058e+02
-2.089040950560133059e+00,-1.131833381458949717e+01,-3.376990911296098297e+00,-6.696665005626494249e-01,1.278249046681718959e-01,7.315774543894532078e-01,1.397023360546264996e+02
-1.892354048095554964e+00,-1.163183118813291550e+01,-3.600617803833906283e+00,4.606684729586264515e-01,4.802354505724477085e-01,7.464291460256877730e-01,1.413049389607363935e+02
-1.693432762412840020e+00,-1.195224366602177923e+01,-3.825926862209750201e+00,-1.405218985060698034e-01,4.256286925836522128e-01,8.939193543540933096e-01,1.429075418668462873e+02
-1.492681794055888078e+00,-1.227958724658641998e+01,-4.053014852320002248e+00,-0.000000000000000000e+00,3.410856895399214106e-01,-9.400311443729482130e-01,1.445101447729561812e+02
-1.290573865903412942e+00,-1.261387028617670403e+01,-4.281975647849412425e+00,5.171696928920894304e-02,7.942155283755510942e-01,-6.054296404811914112e-01,1.461127476790660751e+02
-1.062471771972086643e+00,-1.299805257118611479e+01,-4.541623476608386945e+00,4.918374228305018997e-02,9.711220426884974444e-01,-2.334543589222786708e-01,1.479125925835833755e+02
-8.337722272454416439e-01,-1.339195395453510962e+01,-4.804204522454020854e+00,3.830559783906528626e-02,9.832599670384353230e-01,1.781306217201632514e-01,1.497124374881006759e+02
-5.937574505548049997e-01,-1.381650322134423803e+01,-5.083486903098065390e+00,2.092822032345144356e-02,8.285700461998124489e-01,5.594923485943525954e-01,1.516033948563057550e+02
-3.550601419966104011e-01,-1.425224053320447126e+01,-5.366513293959449982e+00,0.000000000000000000e+00,5.332983833118861705e-01,8.459260217999169384e-01,1.534943522245108340e+02
-2.103220874709135768e-01,-1.452313035475235203e+01,-5.540994897910681338e+00,-7.895990730972598723e-03,0.000000000000000000e+00,9.999678261474086449e-01,1.546492817387693890e+02
1.087814565430949010e-01,-1.514720030239686999e+01,-5.938420611603332233e+00,-0.000000000000000000e+00,6.060361314468605265e-01,7.954358600047460870e-01,1.572381599301258746e+02
3.533776546969057408e-01,-1.565605766294565093e+01,-6.258094562402181538e+00,-9.089459700192167313e-01,4.169115275727316439e-01,-4.199995240735389889e-05,1.592757807236200449e+02
5.909913506638114766e-01,-1.617841576885168564e+01,-6.583273340399825813e+00,-2.327326561491338541e-01,6.034521084296737836e-01,7.626788731800879795e-01,1.613134015171142153e+02
7.901936871152714925e-01,-1.664006546938704290e+01,-6.868644329109850233e+00,-2.327328258587249010e-01,7.626824293263519960e-01,6.034475484731250949e-01,1.630746862746346437e+02
9.834725333552087889e-01,-1.711032360191752844e+01,-7.157805065050697912e+00,-4.039896372705728544e-02,7.947932863804244574e-01,6.055324563116953884e-01,1.648359710321550722e+02
1.170604457091754647e+00,-1.758906631780866547e+01,-7.450857023781981781e+00,-4.015030809792682898e-02,7.907299022706157920e-01,6.108454587003353531e-01,1.665972557896755006e+02
1.405487695530860615e+00,-1.823135146637364912e+01,-7.842213602601576738e+00,-3.989985369718692526e-02,7.866310927077969639e-01,6.161310945410645168e-01,1.689064121708143489e+02
1.559277525388377494e+00,-1.867910909231422067e+01,-8.114068619069444210e+00,-3.964761174561015622e-02,7.824970413261301827e-01,6.213891270362090768e-01,1.704833263511160624e+02
1.708680835611421811e+00,-1.913267660010930626e+01,-8.388912493915169577e+00,-3.939359354389777856e-02,7.783279333355921370e-01,6.266193206224608403e-01,1.720602405314177759e+02
1.853960523589525122e+00,-1.959194522411438300e+01,-8.666791357837842824e+00,-3.913781047232649246e-02,7.741239555166881114e-01,6.318214409837237255e-01,1.736371547117194893e+02
2.020732277837286262e+00,-2.014286133812579394e+01,-8.999759181733189450e+00,-3.888027399023858549e-02,7.698852962120833476e-01,6.369952550616108100e-01,1.755018574284269164e+02
2.182654014167254353e+00,-2.070264836453819512e+01,-9.337903447356286080e+00,-3.862099563552854470e-02,7.656121453181661263e-01,6.421405310658837573e-01,1.773665601451343434e+02
2.340866609674506549e+00,-2.127107286888209003e+01,-9.681299743103814137e+00,-3.835998702412619921e-02,7.613046942765395730e-01,6.472570384848375102e-01,1.792312628618417705e+02
2.475602038720151388e+00,-2.176863280957800839e+01,-9.982033714067101826e+00,-3.809725984947626848e-02,7.569631360654449637e-01,6.523445480956256981e-01,1.808425461474889175e+02
2.609537450557946503e+00,-2.227153677747800131e+01,-1.028622874136432053e+01,-3.783282588201453828e-02,7.525876651911167503e-01,6.574028319745296445e-01,1.824538294331360646e+02
2.743719462197085956e+00,-2.277964881804225428e+01,-1.059391906015096652e+01,-3.756669696864051167e-02,7.481784776790679770e-01,6.624316635071684223e-01,1.840651127187832117e+02
2.879150110732044077e+00,-2.329283160439059230e+01,-1.090513616634076399e+01,-3.729888503218668078e-02,7.437357710653087484e-01,6.674308173986505111e-01,1.856763960044303587e+02
3.016635521069019887e+00,-2.381094049806501545e+01,-1.121990610242942843e+01,-3.702940207088439850e-02,7.392597443874961982e-01,6.724000696836665014e-01,1.872876792900775058e+02
3.177534637234993742e+00,-2.440840122925635924e+01,-1.158381755085180842e+01,-3.675826015782631545e-02,7.347505981760173999e-01,6.773391977365219585e-01,1.891264312842747870e+02
3.340438083461586771e+00,-2.499943003242810491e+01,-1.194499288615378241e+01,-3.648547144042556950e-02,7.302085344450064408e-01,6.822479802811104443e-01,1.909254521062549657e+02
3.509444220250039326e+00,-2.559655414485298408e+01,-1.231120422313265195e+01,-3.621104813987153365e-02,7.256337566832935515e-01,6.871261974008261442e-01,1.927244729282351443e+02
3.685058257827271255e+00,-2.619951442364017424e+01,-1.268246210287146702e+01,-3.593500255058234422e-02,7.210264698452889531e-01,6.919736305484152084e-01,1.945234937502153230e+02
3.874329678385429521e+00,-2.682937944595117941e+01,-1.307203841959379886e+01,-3.565734703965409147e-02,7.163868803418003139e-01,6.967900625557661431e-01,1.963850754527980484e+02
3.896397967110244220e+00,-2.690167485566708905e+01,-1.311685987880225213e+01,-3.537809404630679749e-02,7.117151960307871450e-01,7.015752776436381399e-01,1.965977098893566506e+02
4.130652323906553569e+00,-2.765221600003827263e+01,-1.358397038509557042e+01,-3.509725608132710506e-02,7.070116262080469172e-01,7.063290614313277871e-01,1.987919218826332894e+02
4.377528042702262034e+00,-2.841121548954817655e+01,-1.406012336823872566e+01,-3.481484572650788561e-02,7.022763815978403379e-01,7.110512009462726102e-01,2.009861338759099283e+02
4.653125724078431169e+00,-2.922818787908453686e+01,-1.457736551147502979e+01,-3.453087563408450272e-02,6.975096743434500146e-01,7.157414846335908853e-01,2.033230477967875345e+02
4.839737364101619477e+00,-2.977028500377666376e+01,-1.492301392537193649e+01,-3.424535852616805709e-02,6.927117179976769457e-01,7.203997023655592802e-01,2.048620966673256021e+02
5.027768157645944314e+00,-3.031468500239310870e+01,-1.527160736306342592e+01,-3.395830719417537030e-02,6.878827275132733954e-01,7.250256454510263238e-01,2.064011455378636697e+02
5.216243880371895791e+00,-3.086115175152664136e+01,-1.562308912917307602e+01,-3.366973449825604731e-02,6.830229192333127086e-01,7.296191066447601514e-01,2.079401944084017373e+02
5.404195836435761180e+00,-3.140944149856406753e+01,-1.597739778326677573e+01,-3.337965336671625677e-02,6.781325108814983960e-01,7.341798801567334110e-01,2.094792432789398049e+02
5.590479470357295533e+00,-3.195929823099376677e+01,-1.633446241433034984e+01,-3.308807679543961794e-02,6.732117215524091591e-01,7.387077616613414444e-01,2.110182921494778725e+02
5.781283607627557330e+00,-3.253279495668414256e+01,-1.670887970850177950e+01,-3.279501784730495806e-02,6.682607717016840754e-01,7.432025483065558547e-01,2.126196247326285231e+02
5.967951680265827008e+00,-3.310741530028334267e+01,-1.708622976474077859e+01,-3.250048965160114850e-02,6.632798831361467196e-01,7.476640387230113483e-01,2.142209573157791738e+02
6.149657570520660421e+00,-3.368284159851169335e+01,-1.746642392969825508e+01,-3.220450540343889473e-02,6.582692790038678909e-01,7.520920330330268522e-01,2.158222898989298244e+02
6.325634292568086181e+00,-3.425874854378078993e+01,-1.784936650512705825e+01,-3.190707836315961887e-02,6.532291837841692761e-01,7.564863328595590186e-01,2.174236224820804750e+02
6.494988807416291365e+00,-3.483479818684272544e+01,-1.823494772409851805e+01,-3.160822185574140714e-02,6.481598232775662716e-01,7.608467413350896713e-01,2.190249550652311257e+02
6.676503872123505268e+00,-3.548389853265325655e+01,-1.867288096094120320e+01,-3.130794927020211227e-02,6.430614245956536301e-01,7.651730631104441960e-01,2.208303364716693977e+02
6.846871010814798097e+00,-3.613204414909105111e+01,-1.911424997610378895e+01,-3.100627405899947231e-02,6.379342161509299336e-01,7.694651043635426513e-01,2.226357178781076698e+02
7.005705144347570190e+00,-3.677867048741207867e+01,-1.955886623967695925e+01,-3.070320973742850582e-02,6.327784276465655555e-01,7.737226728080831561e-01,2.244410992845459418e+02
7.152773866042020146e+00,-3.742320462785789204e+01,-2.000652880832150515e+01,-3.039876988301604133e-02,6.275942900661121149e-01,7.779455777021551111e-01,2.262464806909842139e+02
7.268167161073678884e+00,-3.796625924998153323e+01,-2.038706122558524214e+01,-3.009296813491245046e-02,6.223820356631551975e-01,7.821336298567842515e-01,2.277728269828524503e+02
7.375739967260734886e+00,-3.850745346074138808e+01,-2.076916634881669665e+01,-2.978581819328064706e-02,6.171418979509090130e-01,7.862866416444074247e-01,2.292991732747206868e+02
7.475577702667762559e+00,-3.904648062205620818e+01,-2.115272230268355713e+01,-2.947733381868232472e-02,6.118741116917555400e-01,7.904044270072784206e-01,2.308255195665889232e+02
7.567745476127026194e+00,-3.958303101921390521e+01,-2.153760075271775065e+01,-2.916752883146153663e-02,6.065789128867278279e-01,7.944868014658021949e-01,2.323518658584571597e+02
7.652050613175871874e+00,-4.011678771804275812e+01,-2.192366045659395724e+01,-2.885641711112553118e-02,6.012565387649373427e-01,7.985335821267995904e-01,2.338782121503253961e+02
7.742143703458484794e+00,-4.075625855492798166e+01,-2.239111396791755837e+01,-2.854401259572298191e-02,5.959072277729466904e-01,8.025445876917000065e-01,2.357203943000762081e+02
7.818810634011467364e+00,-4.138948657880401072e+01,-2.286009283632206746e+01,-2.823032928121962243e-02,5.905312195640867179e-01,8.065196384646640126e-01,2.375625764498270200e+02
7.882752519315266326e+00,-4.201579403017811387e+01,-2.333028410468482505e+01,-2.791538122087117504e-02,5.851287549877219885e-01,8.104585563606319099e-01,2.394047585995778320e+02
7.934727859209469436e+00,-4.263449977413232972e+01,-2.380135981380652410e+01,-2.759918252459388210e-02,5.797000760784594142e-01,8.143611649133027930e-01,2.412469407493286440e+02
7.974181860801898836e+00,-4.322826027552977735e+01,-2.425990721770495995e+01,-2.728174735833235193e-02,5.742454260453072612e-01,8.182272892830390054e-01,2.430381597588659872e+02
8.003147127669858918e+00,-4.381377620987717592e+01,-2.471860227748914340e+01,-2.696308994342494145e-02,5.687650492607784214e-01,8.220567562646987625e-01,2.448293787684033305e+02
8.022484570910611623e+00,-4.439042525097967484e+01,-2.517711157568663793e+01,-2.664322455596669983e-02,5.632591912499435027e-01,8.258493942953958333e-01,2.466205977779406737e+02
8.033211050658643160e+00,-4.495758349328821168e+01,-2.563508781805978032e+01,-2.632216552616980371e-02,5.577280986794318496e-01,8.296050334621840605e-01,2.484118167874780170e+02
8.036188644503010181e+00,-4.550276814926957059e+01,-2.608227323721823510e+01,-2.599992723772160536e-02,5.521720193463811599e-01,8.333235055096704924e-01,2.501642124378294341e+02
8.032683348974185122e+00,-4.603789373352529424e+01,-2.652824963716853190e+01,-2.567652412714027665e-02,5.465912021673372534e-01,8.370046438475514661e-01,2.519166080881808512e+02
8.023863087330635580e+00,-4.656237762756607879e+01,-2.697264782134480043e+01,-2.535197068312804516e-02,5.409858971671018812e-01,8.406482835580767476e-01,2.536690037385322682e+02
8.011371077185200917e+00,-4.706190708076580620e+01,-2.740303836504671153e+01,-2.502628144592218204e-02,5.353563554675332403e-01,8.442542614034365123e-01,2.553735019126669386e+02
7.996438224146934282e+00,-4.755057190455304550e+01,-2.783124509317083906e+01,-2.469947100664357173e-02,5.297028292762959722e-01,8.478224158330747162e-01,2.570780000868015804e+02
7.980889755714531297e+00,-4.802785034248234552e+01,-2.825690294596324392e+01,-2.437155400664312022e-02,5.240255718755620906e-01,8.513525869909260857e-01,2.587824982609362223e+02
7.966643062387605667e+00,-4.849322268403488323e+01,-2.867963446571114616e+01,-2.404254513684580402e-02,5.183248376106655009e-01,8.548446167225772774e-01,2.604869964350708642e+02
7.955041801535558399e+00,-4.896930220691896096e+01,-2.912093234804632758e+01,-2.371245913709255082e-02,5.126008818787070043e-01,8.582983485823517666e-01,2.622813080703589890e+02
7.949167402766052604e+00,-4.943024298146166018e+01,-2.955784495407637991e+01,-2.338131079547996205e-02,5.068539611171133386e-01,8.617136278403192406e-01,2.640756197056471137e+02
7.951809572492924971e+00,-4.987541383837132258e+01,-2.998986322294534546e+01,-2.304911494769780814e-02,5.010843327921498114e-01,8.650903014892256104e-01,2.658699313409352385e+02
7.965707137846640862e+00,-5.030418832766405046e+01,-3.041646199693601815e+01,-2.271588647636441430e-02,4.952922553873854716e-01,8.684282182513494153e-01,2.676642429762233633e+02
7.993381236205208573e+00,-5.072044171735269913e+01,-3.084182258281059319e+01,-2.238164031035997162e-02,4.894779883921142605e-01,8.717272285852772917e-01,2.694790839320903615e+02
8.036922765361453003e+00,-5.111841541123818899e+01,-3.126040024029161657e+01,-2.204639142415775604e-02,4.836417922897300881e-01,8.749871846926040586e-01,2.712939248879573597e+02
8.111054843439088557e+00,-5.155039098726323488e+01,-3.173148310660671001e+01,-2.171015483715327613e-02,4.777839285460582786e-01,8.782079405245537540e-01,2.733795550726703141e+02
8.214503711349832926e+00,-5.195241157596878168e+01,-3.219022205117479274e+01,-2.137294561299146051e-02,4.719046595976416070e-01,8.813893517885222906e-01,2.754651852573832684e+02
8.318291231236154104e+00,-5.225659512405187712e+01,-3.255193586475883905e+01,-2.103477885889184704e-02,4.660042488399847582e-01,8.845312759545415071e-01,2.771503241305571805e+02
8.438015307983958380e+00,-5.254390494194805683e+01,-3.290594697206003616e+01,-2.069566972497179427e-02,4.600829606157538776e-01,8.876335722616649493e-01,2.788354630037310926e+02
8.573190474321886967e+00,-5.281380627909663161e+01,-3.325169119595252454e+01,-2.035563340356777440e-02,4.541410602029351540e-01,8.906961017242731593e-01,2.805206018769050047e+02
8.724408229427799810e+00,-5.306773382448404419e+01,-3.359136936844146959e+01,-2.001468512855483078e-02,4.481788138029508817e-01,8.937187271383005838e-01,2.822201010611022980e+02
8.889935152806097918e+00,-5.330265326273143245e+01,-3.392133913756397590e+01,-1.967284017466411003e-02,4.421964885287339997e-01,8.967013130873818794e-01,2.839196002452995913e+02
9.069225376554973295e+00,-5.351797442382984116e+01,-3.424096378148006181e+01,-1.933011385679857252e-02,4.361943523927622746e-01,8.996437259489187266e-01,2.856190994294968846e+02
9.287999642099556752e+00,-5.373477210714571584e+01,-3.458723302423775436e+01,-1.898652152934696830e-02,4.301726742950521265e-01,9.025458339000660413e-01,2.875356173344138142e+02
9.524651555193441865e+00,-5.392147383743654387e+01,-3.491664891294282569e+01,-1.864207858549591854e-02,4.241317240111117659e-01,9.054075069236372508e-01,2.894521352393307438e+02
9.750129066083927043e+00,-5.406336992984807921e+01,-3.519651748751446263e+01,-1.829680045654042894e-02,4.180717721798571374e-01,9.082286168139299676e-01,2.911639216021561083e+02
9.987809960025947120e+00,-5.418253255699783466e+01,-3.546283799062656072e+01,-1.795070261119249486e-02,4.119930902914861748e-01,9.110090371824682842e-01,2.928757079649814727e+02
1.006983353769031808e+01,-5.421825535269884710e+01,-3.554962395805892328e+01,-1.760380055488822496e-02,4.058959506753184177e-01,9.137486434636660215e-01,2.934503363860486616e+02
1.030793376456187893e+01,-5.430820589385476183e+01,-3.578894555712346204e+01,-1.725610982909319899e-02,3.997806264875943816e-01,9.164473129204068202e-01,2.950832174921559385e+02
1.055383067332783931e+01,-5.437705165967431498e+01,-3.601491009833505075e+01,-1.690764601060622957e-02,3.936473916992385136e-01,9.191049246495428537e-01,2.967160985982632155e+02
1.080527896484361428e+01,-5.442416229511178472e+01,-3.622679707626878809e+01,-1.655842471086158008e-02,3.874965210835866758e-01,9.217213595873113841e-01,2.983489797043704925e+02
1.113209958831625457e+01,-5.444612475714990296e+01,-3.647334393418903176e+01,-1.620846157522958658e-02,3.813282902040762701e-01,9.242965005146689395e-01,3.004448179621692248e+02
1.145880350194595643e+01,-5.441847001973225417e+01,-3.668657870113419506e+01,-1.585777228231578101e-02,3.751429754019021678e-01,9.268302320625428914e-01,3.025406562199679570e+02
1.174106167527476785e+01,-5.435452504979697608e+01,-3.684622713958242457e+01,-1.550637254325855016e-02,3.689408537836368351e-01,9.293224407169995427e-01,3.043780171839029549e+02
1.201531877528170078e+01,-5.425490122123587611e+01,-3.698076221945146358e+01,-1.515427810102526994e-02,3.627222032088165959e-01,9.317730148243307253e-01,3.062153781478379528e+02
1.227680185406489066e+01,-5.411841483311951606e+01,-3.708889511126503180e+01,-1.480150472970707780e-02,3.564873022774944222e-01,9.341818445960546891e-01,3.080527391117729508e+02
1.252013419781608228e+01,-5.394362620735799396e+01,-3.716935190986821880e+01,-1.444806823381223834e-02,3.502364303177591953e-01,9.365488221138360547e-01,3.098919162615485448e+02
1.273958060686490157e+01,-5.372936441231502158e+01,-3.722065105784086114e+01,-1.409398444755808819e-02,3.439698673732221601e-01,9.388738413343200584e-01,3.117310934113241387e+02
1.293079569797618333e+01,-5.347433960392156393e+01,-3.724144451690924029e+01,-1.373926923416174742e-02,3.376878941904717935e-01,9.411567980938830846e-01,3.135702705610997327e+02
1.307948713256066142e+01,-5.320566399558261850e+01,-3.723375551151520568e+01,-1.338393848512944156e-02,3.313907922064970313e-01,9.433975901133004882e-01,3.152534647345256644e+02
1.320254962216690764e+01,-5.290387047463418213e+01,-3.720069126361526202e+01,-1.302800811954461790e-02,3.250788435360793538e-01,9.455961170023281515e-01,3.169366589079515961e+02
1.329853589020888727e+01,-5.256802140519358346e+01,-3.714129298948112989e+01,-1.267149408335481106e-02,3.187523309591548948e-01,9.477522802642001087e-01,3.186198530813775278e+02
1.336542969253259017e+01,-5.219715656557372085e+01,-3.705457477074800465e+01,-1.231441234865725438e-02,3.124115379081461863e-01,9.498659833000420161e-01,3.203030472548034595e+02
1.340063259484149327e+01,-5.182926031038106629e+01,-3.695198865620209716e+01,-1.195677891298340539e-02,3.060567484552649820e-01,9.519371314131986894e-01,3.218368154976241158e+02
1.341158114394887768e+01,-5.143346964198169502e+01,-3.682727547345638897e+01,-1.159860979858225172e-02,2.996882472997868252e-01,9.539656318134769331e-01,3.233705837404447720e+02
1.339791015735488777e+01,-5.100910528077172756e+01,-3.667974650263348479e+01,-1.123992105170258313e-02,2.933063197552968071e-01,9.559513936213023255e-01,3.249043519832654283e+02
1.335920321452168125e+01,-5.055548204634884968e+01,-3.650870394711546396e+01,-1.088072874187412560e-02,2.869112517369080129e-01,9.578943278717920728e-01,3.264381202260860846e+02
1.329447601452567795e+01,-5.007190261905933681e+01,-3.631343171291855754e+01,-1.052104896118764669e-02,2.805033297484533228e-01,9.597943475187395990e-01,3.279718884689067409e+02
1.320270576459185108e+01,-4.955766092251556643e+01,-3.609320463854481176e+01,-1.016089782357409120e-02,2.740828408696507346e-01,9.616513674385157584e-01,3.295056567117273971e+02
1.304035046429852507e+01,-4.885319598569996913e+01,-3.577109262435894266e+01,-9.800291464082674237e-03,2.676500727432421511e-01,9.634653044338821193e-01,3.314514830423502190e+02
1.282014393943803299e+01,-4.808298854202032402e+01,-3.539469915920227550e+01,-9.439246038158091365e-03,2.612053135621082434e-01,9.652360772377184261e-01,3.333973093729730408e+02
1.254002160862140514e+01,-4.724515843747092703e+01,-3.496207735774009961e+01,-9.077777720916760731e-03,2.547488520563578329e-01,9.669636065166642425e-01,3.353431357035958627e+02
1.222773960992428144e+01,-4.640956101647568488e+01,-3.451149642827115827e+01,-8.715902706422199581e-03,2.482809774803929059e-01,9.686478148746732186e-01,3.371450062663768108e+02
1.186585558500174109e+01,-4.551725949665542714e+01,-3.401322571537337325e+01,-8.353637206959585448e-03,2.418019795999509225e-01,9.702886268564808736e-01,3.389468768291577589e+02
1.145331234798199560e+01,-4.456682844311554703e+01,-3.346577014867983024e+01,-7.990997452309456933e-03,2.353121486791239225e-01,9.718859689509855571e-01,3.407487473919387071e+02
1.107119662829126838e+01,-4.372792128295654379e+01,-3.297098168245874916e+01,-7.627999689020632974e-03,2.288117754673548720e-01,9.734397695945421480e-01,3.422586678572885148e+02
1.065914241280963815e+01,-4.285304039974727885e+01,-3.244559182757895144e+01,-7.264660179682425230e-03,2.223011511864129153e-01,9.749499591741682680e-01,3.437685883226383226e+02
1.021703590695060804e+01,-4.194146733025574036e+01,-3.188883313763644978e+01,-6.900995202196067227e-03,2.157805675173470328e-01,9.764164700306641187e-01,3.452785087879881303e+02
9.694445335743029801e+00,-4.089377355132351255e+01,-3.123756633300697416e+01,-6.537021049045508604e-03,2.092503165874192161e-01,9.778392364616433907e-01,3.469386984345326255e+02
9.132387620903886116e+00,-3.979548279723182702e+01,-3.054244201086875421e+01,-6.172754026567540617e-03,2.027106909570178250e-01,9.792181947244775753e-01,3.485988880810771207e+02
8.531743949845717268e+00,-3.864552851700360492e+01,-2.980229609290028847e+01,-5.808210454221271989e-03,1.961619836065509326e-01,9.805532830391522348e-01,3.502590777276216158e+02
7.857311724386784491e+00,-3.737488456032629358e+01,-2.897076980287419801e+01,-5.443406663857066133e-03,1.896044879233220182e-01,9.818444415910352330e-01,3.520088635867855942e+02
7.141571942565638764e+00,-3.604133485653509439e+01,-2.808370529330094101e+01,-5.078358998984875555e-03,1.830384976883857040e-01,9.830916125335569244e-01,3.537586494459495725e+02
6.387315771339122428e+00,-3.464356414669141770e+01,-2.713962100210081374e+01,-4.713083814042092271e-03,1.764643070633877542e-01,9.842947399908023032e-01,3.555084353051135508e+02
5.564969807025970994e+00,-3.311886613455209272e+01,-2.609431318630765873e+01,-4.347597473660892546e-03,1.698822105773866442e-01,9.854537700600144445e-01,3.573283425339731707e+02
4.708046626694888381e+00,-3.151906152443496367e+01,-2.498142346840890937e+01,-3.981916351935087250e-03,1.632925031136588101e-01,9.865686508140109057e-01,3.591482497628327906e+02
3.968438037188455780e+00,-3.012245317831028757e+01,-2.399861852941946339e+01,-3.616056831686636532e-03,1.566954798964890760e-01,9.876393323035095317e-01,3.606746455612080240e+02
3.215379150867461622e+00,-2.867947832751160675e+01,-2.297399068788970666e+01,-3.250035303731659258e-03,1.500914364779439847e-01,9.886657665593676647e-01,3.622010413595832574e+02
2.452085441485721162e+00,-2.718940518823757557e+01,-2.190664558936911277e+01,-2.883868166146199598e-03,1.434806687246325541e-01,9.896479075947313131e-01,3.637274371579584908e+02
9.238915375024510102e-01,-2.403988135203965015e+01,-1.960127700601021772e+01,-2.517571823531577699e-03,1.368634728044510473e-01,9.905857114070961700e-01,3.667233625326052788e+02
6.629140854774409064e-01,-2.347782156780814589e+01,-1.918344141743945741e+01,-2.151162686279473654e-03,1.302401451733152249e-01,9.914791359802795911e-01,3.672284575757428229e+02
-4.602872727962232235e-01,-2.097033588785332725e+01,-1.730464641278933868e+01,-1.784657169836789854e-03,1.236109825618797176e-01,9.923281412863035333e-01,3.694131690822193832e+02
-1.565105872916636498e+00,-1.831727513398798379e+01,-1.528805745954414341e+01,-1.418071693970234274e-03,1.169762819622446048e-01,9.931326892871887857e-01,3.715978805886959435e+02
-2.604500914711143089e+00,-1.559474028763510844e+01,-1.319142062714180597e+01,-1.051422682030719218e-03,1.103363406146504605e-01,9.938927439366591621e-01,3.737239837334024060e+02
-3.588364470966238784e+00,-1.273277434247211559e+01,-1.096072742321416627e+01,-6.847265602176416752e-04,1.036914559941625597e-01,9.946082711817575417e-01,3.758500868781088684e+02
-4.560753453149280823e+00,-9.465685605560619109e+00,-8.382177942079422905e+00,-3.179997568429690632e-04,9.704192579734405300e-02,9.952792389643720927e-01,3.781531696799910947e+02
-5.420325543756880471e+00,-5.902923413081089699e+00,-5.532633263667419143e+00,-8.479704324504668822e-01,5.300416452413000412e-01,0.000000000000000000e+00,3.805275593676896619e+02
-5.983471882408570863e+00,-2.719136517655592833e+00,-2.897041244375419655e+00,3.421418352604471136e-01,-8.417995946777782207e-03,9.396095475827834775e-01,3.825859711819858262e+02
-6.290464468381313345e+00,-1.970731639712387448e-02,-5.646974996948822545e-01,9.334680231829169950e-01,2.330827560931791331e-01,2.725947147463356757e-01,3.843477663807043427e+02
-6.443299846089105998e+00,2.615823785885301511e+00,1.738042527518379510e+00,7.364161080998709030e-01,-4.016585135368765935e-01,-5.443893406704199966e-01,3.861095615794228593e+02
-6.458509178084338664e+00,5.187858990501155176e+00,3.964032886500418851e+00,-4.499992964604534345e-04,3.515004504558796872e-01,9.361865363438199861e-01,3.878713567781413758e+02
-6.199830756852763081e+00,8.929535022305074676e+00,7.151316782385376492e+00,4.157246280600760402e-01,9.043401909061932198e-01,9.664291353565440668e-02,3.905416662036265052e+02
-5.900114928573212403e+00,1.107763963033726640e+01,8.952412576655049747e+00,-8.471320701135770515e-01,-2.337197434487208181e-01,4.772214761598727040e-01,3.921377518445078181e+02
-5.533537459003229131e+00,1.317957443557802044e+01,1.070023169568906418e+01,-6.799996278745892679e-05,-9.702994690098735997e-02,9.952804553391898512e-01,3.937338374853891310e+02
-4.994464301595251676e+00,1.569821375753274317e+01,1.277239061714104373e+01,9.703928888894779448e-01,2.415277234481023327e-01,0.000000000000000000e+00,3.956998775320587924e+02
-4.365647066617982297e+00,1.813298616146203557e+01,1.474912267067237082e+01,-5.300915303211817253e-01,-8.479392486974767218e-01,0.000000000000000000e+00,3.976659175787284539e+02
-3.604496318247051079e+00,2.065635475751283323e+01,1.676756906546423309e+01,9.421051217397861111e-01,-0.000000000000000000e+00,-3.353146874090350282e-01,3.997808184345842051e+02
-2.770609387475832186e+00,2.307864380522750736e+01,1.867301809050413297e+01,9.999988887671960130e-07,-4.977924468360887533e-01,-8.672950362322339179e-01,4.018957192904399562e+02
-2.042414299833880786e+00,2.500565561587473695e+01,2.016687388723605068e+01,8.649910223442305313e-01,4.315195122752376461e-02,4.999264349583396605e-01,4.036386057486217851e+02
-1.288116615005657550e+00,2.687731810491287376e+01,2.160045012966665468e+01,0.000000000000000000e+00,-9.695091808014499879e-02,9.952881590191895445e-01,4.053814922068036140e+02
-5.138405356698285686e-01,2.869444536510567545e+01,2.297506124479704326e+01,9.360262369457754694e-01,-2.510647953304670499e-01,2.466157989573156961e-01,4.071243786649854428e+02
4.805104817394863503e-01,3.089357751893917836e+01,2.461070376020936834e+01,-7.270129289259397165e-01,2.249116686481841543e-01,6.487410442402374855e-01,4.093164075096505599e+02
1.489316117023846919e+00,3.298931588451777230e+01,2.613488223434763214e+01,8.965938298717907040e-01,2.929696176507102026e-02,-4.418814233086361121e-01,4.115084363543156769e+02
2.795492627246346284e+00,3.552368198051877357e+01,2.791806125235230951e+01,9.421051217329777794e-01,0.000000000000000000e+00,-3.353146874066117999e-01,4.143394460944676894e+02
3.658998951051889659e+00,3.710577952071942320e+01,2.899421817599920459e+01,0.000000000000000000e+00,-9.705539409184379407e-01,-2.408797371487791661e-01,4.162202302066826292e+02
4.379430092377221584e+00,3.838919013462781749e+01,2.985125629970583816e+01,-0.000000000000000000e+00,-5.697617808902302183e-01,-8.218086839621091544e-01,4.177986149269111706e+02
5.094203118737072877e+00,3.963637923931990770e+01,3.067108900425930429e+01,-7.142513392295073427e-01,-6.601633892675252691e-01,-2.324377849664099327e-01,4.193769996471397121e+02
5.801289351935742467e+00,4.084792379305525856e+01,3.145449291183255269e+01,4.789225235544235515e-01,-2.317097694886139925e-01,8.467241576550285087e-01,4.209553843673682536e+02
6.498848368935608022e+00,4.202440356941847455e+01,3.220223656243328492e+01,0.000000000000000000e+00,1.080298527117026508e-01,9.941466445768191162e-01,4.225337690875967951e+02
7.215787296732421474e+00,4.321731303464402885e+01,3.294617279797535758e+01,9.334680231830790875e-01,2.330827560932196563e-01,2.725947147463830267e-01,4.241847532976448747e+02
7.917361278627573107e+00,4.437158137653714363e+01,3.365105592926527578e+01,7.364161080998709030e-01,-4.016585135368765935e-01,-5.443893406704199966e-01,4.258357375076929543e+02
8.602045292499850504e+00,4.548791210160781162e+01,3.431777703153345271e+01,0.000000000000000000e+00,1.466999104715206899e-02,9.998913897831612774e-01,4.274867217177410339e+02
9.268510732941370733e+00,4.656700889537499677e+01,3.494721678892256733e+01,0.000000000000000000e+00,-9.950534475071132201e-01,-9.933094484754502462e-02,4.291377059277891135e+02
9.974290320234150187e+00,4.770490633619608190e+01,3.559272212056742291e+01,5.752485914334493078e-01,-0.000000000000000000e+00,-8.179774190368865883e-01,4.309456491506165889e+02
1.065197778076656476e+01,4.879612615154296407e+01,3.619163695957609406e+01,0.000000000000000000e+00,1.466999104714414130e-02,9.998913897826209318e-01,4.327535923734440644e+02
1.130004230760396844e+01,4.984167534504462083e+01,3.674516648142357411e+01,9.999988887661791499e-07,-4.977924468355826582e-01,-8.672950362313520678e-01,4.345615355962715398e+02
1.181960002361029538e+01,5.068331797906323288e+01,3.717617253420706191e+01,0.000000000000000000e+00,2.016697227946783605e-02,9.997956257299105420e-01,4.360720957677014553e+02
1.232049211410675049e+01,5.149908071455651992e+01,3.758193352817602317e+01,-0.000000000000000000e+00,5.892782266476944697e-01,-8.079289396965984027e-01,4.375826559391313708e+02
1.280229622542761447e+01,5.228945085934061865e+01,3.796301270126288330e+01,-0.000000000000000000e+00,1.466999104714523244e-02,9.998913897826952057e-01,4.390932161105612863e+02
1.326467176090255329e+01,5.305491326692444432e+01,3.831996511147123385e+01,8.847879010088414153e-01,3.147796090136326802e-02,-4.649274225156942442e-01,4.406037762819912018e+02
1.390509663359616788e+01,5.413933554899167433e+01,3.879624835341089550e+01,2.505768424027184360e-01,-9.347684120886862180e-01,2.518278416159175914e-01,4.428572311856444799e+02
1.447577752727488765e+01,5.514679799085509160e+01,3.919699280106503636e+01,1.270998420255752036e-03,1.158168560493787747e-01,9.932687654503782326e-01,4.451106860892977579e+02
1.488528969864102081e+01,5.590133185415297135e+01,3.946877624913354765e+01,0.000000000000000000e+00,8.052988517046494668e-03,-9.999665741231776872e-01,4.469081891462044496e+02
1.525900940263528405e+01,5.661857987987608709e+01,3.970450958358142657e+01,3.588155418935968788e-01,-5.920762440853672981e-01,-7.215920787301187689e-01,4.487056922031111412e+02
1.559672031708734430e+01,5.729947736086179333e+01,3.990518616205891789e+01,0.000000000000000000e+00,-2.786296520868896537e-02,9.996107518281590609e-01,4.505031952600178329e+02
1.589840454130697900e+01,5.794495272446243916e+01,4.007178033289913799e+01,8.849408409610501902e-01,2.539496673929576148e-02,-4.650083909617319100e-01,4.523006983169245245e+02
1.615737653437752996e+01,5.853994733005482232e+01,4.020240325644511614e+01,9.968779763702703134e-01,0.000000000000000000e+00,-7.894491893655197767e-02,4.540486153051133442e+02
1.638276002948058263e+01,5.910399458836123188e+01,4.030336285612955294e+01,0.000000000000000000e+00,-9.968312352734686188e-01,-7.953293898571152376e-02,4.557965322933021639e+02
1.657499548496479846e+01,5.963790724768891494e+01,4.037547927800711989e+01,6.355972790766281078e-01,2.092487626605265549e-01,7.431211571181500775e-01,4.575444492814909836e+02
1.673444958259955229e+01,6.014248929513625797e+01,4.041955356055371595e+01,0.000000000000000000e+00,-7.950793855535677468e-02,9.968332296358920486e-01,4.592923662696798033e+02
1.686072303934212613e+01,6.061853154032462498e+01,4.043634827666901543e+01,-9.986869598540499826e-01,-5.120894666519076877e-02,0.000000000000000000e+00,4.610402832578686230e+02
1.696434604016965508e+01,6.116703241941627311e+01,4.041544382998002760e+01,-0.000000000000000000e+00,-9.978448059155601291e-01,-6.560292149537952366e-02,4.632146124760731709e+02
1.700342870170740284e+01,6.166416808510744119e+01,4.034530945097716170e+01,-0.000000000000000000e+00,-9.967539354395255069e-01,8.049591402816143326e-02,4.653889416942777189e+02
1.699769903075358002e+01,6.198352125041525795e+01,4.027200672060027387e+01,5.328913625204565463e-01,-5.120993873931786212e-03,8.461669877596392775e-01,4.668978939869770670e+02
1.697022666005893754e+01,6.228675021019574132e+01,4.018317573258703845e+01,0.000000000000000000e+00,1.466699169440114671e-02,9.998914337831972254e-01,4.684068462796764152e+02
1.692032357486270300e+01,6.257427844934874628e+01,4.007918841472783100e+01,-9.359985444585987085e-04,-1.157798199545048701e-01,9.932734553922166754e-01,4.699157985723757633e+02
1.684757202459454106e+01,6.284653142548939542e+01,3.996041679010561865e+01,5.328913625200071280e-01,-5.120993873927469353e-03,8.461669877589258482e-01,4.714247508650751115e+02
1.675182452535771560e+01,6.310393560420318693e+01,3.982723297474814217e+01,0.000000000000000000e+00,-0.000000000000000000e+00,-9.999989999991235612e-01,4.729337031577744597e+02
1.663320386069447920e+01,6.334691749429529750e+01,3.968000917527969307e+01,8.220322628904865869e-01,6.371394286823577058e-02,-5.658634925948985428e-01,4.744426554504738078e+02
1.649210308063371855e+01,6.357590268304028314e+01,3.951911768657235768e+01,-6.476833636047824028e-01,2.256807782524979378e-01,-7.277172849657317366e-01,4.759516077431731560e+02
1.632201611231329252e+01,6.379908544245259350e+01,3.933766965640872115e+01,7.342455860432333115e-01,2.131448798320793869e-01,6.445546366096597257e-01,4.775188745708272791e+02
