8.364257345070175376e+00,-7.261878981106005604e+00,1.831774872151290756e+00,1.016999272028910883e-02,-9.999472842347740809e-01,-0.000000000000000000e+00,9.558130081828336699e+01
8.558197543192875401e+00,-7.509288593137958046e+00,1.679330661597729923e+00,1.014498516991973152e-02,-0.000000000000000000e+00,-9.999475382627959208e-01,9.763512648375228764e+01
8.754623751327800463e+00,-7.739949749493172604e+00,1.537468310239283431e+00,0.000000000000000000e+00,-2.291096583236740605e-02,-9.997365090707226454e-01,9.949857698293118347e+01
8.966731975744881566e+00,-7.976518555739391836e+00,1.392304500441411852e+00,2.883107282156645579e-01,-5.998124345696917992e-01,-7.463912963929447697e-01,1.013620274821100793e+02
9.154987631104331669e+00,-8.180976703330516742e+00,1.267153943372162361e+00,-5.163343074812003497e-01,-6.993530620124676078e-01,-4.942693370752184179e-01,1.029371329879297292e+02
9.347978894143858852e+00,-8.389378167575221923e+00,1.139911307433115084e+00,5.646663325349856599e-01,-6.706362072730744917e-01,-4.810374313887023634e-01,1.045122384937493791e+02
9.575594963708740082e+00,-8.639472836611403750e+00,9.876347663941537069e-01,-5.939584362336467471e-01,-8.044922364016965366e-01,-1.901998194684138615e-03,1.063603139060494271e+02
9.798251886884449036e+00,-8.896107779196452015e+00,8.318320779408622245e-01,-2.327097549702372981e-01,-7.626911969307731409e-01,-6.034453646073216770e-01,1.082083893183494752e+02
9.987339870311746637e+00,-9.131252077873169171e+00,6.894602610783652219e-01,-0.000000000000000000e+00,2.371197228180181582e-02,-9.997178313761230228e-01,1.098626880608249223e+02
1.016042589356251646e+01,-9.371335079640202181e+00,5.444430851790105219e-01,-6.696665005624379274e-01,1.278249046681314838e-01,7.315774543892220594e-01,1.115169868033003695e+02
1.031820697239057694e+01,-9.625663498477219804e+00,3.911435807456745128e-01,-0.000000000000000000e+00,2.371197228179645206e-02,-9.997178313758969814e-01,1.132325929909867881e+02
1.045505707509600590e+01,-9.889783478485654200e+00,2.322225244248537490e-01,4.817995167997387966e-03,-1.888798105710556841e-02,-9.998089972842398865e-01,1.149755390244822024e+02
1.056906424260674271e+01,-1.015976421672341168e+01,6.999929850924699326e-02,-9.089308576325504374e-01,-4.169444759735643213e-01,-0.000000000000000000e+00,1.167184850579776167e+02
1.066022503273560140e+01,-1.043564178356685446e+01,-9.560215592330859047e-02,-9.089331001746141503e-01,-0.000000000000000000e+00,-4.169395872382412604e-01,1.184614310914730311e+02
1.072194923619615281e+01,-1.068615570434055684e+01,-2.458859873777634042e-01,-9.295603682605710905e-01,6.319165995819095438e-02,-3.632111450254327800e-01,1.200141501763386742e+02
1.076479081127068760e+01,-1.094090085583555627e+01,-3.986632050293413831e-01,-9.433967956429811785e-01,1.259216637198804500e-01,-3.068293020173408214e-01,1.215668692612043174e+02
1.078783053449688012e+01,-1.119988471604687064e+01,-5.539826127450175886e-01,-9.503413061345873381e-01,1.877317465091598303e-01,-2.482059491773345172e-01,1.231195883460699605e+02
1.079007688327213188e+01,-1.146311125589477342e+01,-7.118929973920178345e-01,-9.503431700856794784e-01,2.481703643318426966e-01,-1.877693514366483019e-01,1.246723074309356036e+02
1.077024129099086736e+01,-1.173057850595847285e+01,-8.724421742956832704e-01,-9.434023747779656244e-01,3.067959922427553332e-01,-1.259610193952204193e-01,1.262250265158012468e+02
1.072651573423229010e+01,-1.200227502597284612e+01,-1.035676032703799487e+00,-9.295696244586820756e-01,3.631803494281109490e-01,-6.323248431713435203e-02,1.277777456006668899e+02
1.068542862387239900e+01,-1.218119594797731864e+01,-1.143268777375603396e+00,-9.089459700185427149e-01,4.169115275724224468e-01,-4.199995240732275518e-05,1.287891956471853803e+02
1.051413666893655119e+01,-1.267240608484777553e+01,-1.439250424659047400e+00,-7.889513900587044049e-01,3.600694855089319191e-01,4.978992566082660609e-01,1.314930740415271373e+02
1.035900486893710770e+01,-1.298184007924086458e+01,-1.626249242013018126e+00,-4.594304735311066090e-01,2.076017292327108632e-01,8.636105383863172946e-01,1.331447388182745044e+02
1.016079875900588725e+01,-1.329615549016869736e+01,-1.816697402186681964e+00,-7.895990730979509861e-03,0.000000000000000000e+00,9.999678261482837227e-01,1.347964035950218715e+02
9.917728005362373978e+00,-1.361524679061488818e+01,-2.010640146336589940e+00,-0.000000000000000000e+00,5.332983833114216532e-01,8.459260217991800834e-01,1.364480683717692386e+02
9.634244684677739201e+00,-1.393901261080155685e+01,-2.208125676516278002e+00,-2.327326561484830414e-01,6.034521084279863556e-01,7.626788731779553521e-01,1.380997331485166058e+02
9.327370482072625535e+00,-1.425747320175574728e+01,-2.403131716013102714e+00,-2.327328258587249010e-01,7.626824293263519960e-01,6.034475484731250949e-01,1.397023360546264996e+02
8.995502735746661926e+00,-1.458004880002128267e+01,-2.601473987885532413e+00,-4.039896372705728544e-02,7.947932863804244574e-01,6.055324563116953884e-01,1.413049389607363935e+02
8.644647068411106972e+00,-1.490671209142862708e+01,-2.803202741335247605e+00,-0.000000000000000000e+00,6.060361314456015336e-01,7.954358600030937421e-01,1.429075418668462873e+02
8.280371614457347818e+00,-1.523745442738224298e+01,-3.008367108897771924e+00,2.586230808267313969e-02,9.220612313601330712e-01,3.861764190686929332e-01,1.445101447729561812e+02
7.907426072414574847e+00,-1.557227969261911227e+01,-3.217014013574469367e+00,4.479263348638520825e-02,9.909420186640462980e-01,-1.265920046131911447e-01,1.461127476790660751e+02
7.483693864396652629e+00,-1.595363366996792287e+01,-3.455825108468806750e+00,5.171696928925255399e-02,7.942155283762206697e-01,-6.054296404817018917e-01,1.479125925835833755e+02
7.060619855293862379e+00,-1.634107045679561310e+01,-3.699705241691019886e+00,-1.208822337337677605e-01,7.457748848799907737e-01,-6.551376242050676035e-01,1.497124374881006759e+02
6.623286445247990706e+00,-1.675497924073046718e+01,-3.961614752299466247e+00,-2.892978381581096659e-01,6.715245736696950907e-01,-6.821726378231309784e-01,1.516033948563057550e+02
6.198859933786373233e+00,-1.717623510615854698e+01,-4.229568934865116425e+00,-4.477014130561331462e-01,5.740342474317232657e-01,-6.855991011683773007e-01,1.534943522245108340e+02
5.947166250317556191e+00,-1.743650843490931024e+01,-4.395785375066346035e+00,-0.000000000000000000e+00,3.410856895397668120e-01,-9.400311443725219984e-01,1.546492817387693890e+02
5.410090998886120772e+00,-1.803186010158604446e+01,-4.777919601345428369e+00,-1.555181076627191981e-05,3.608102400089716610e-01,-9.326381776771240917e-01,1.572381599301258746e+02
5.017635343834573547e+00,-1.851346336052358765e+01,-5.088913886340289849e+00,-3.109672225713962289e-05,3.803746951957106548e-01,-9.248313847863155468e-01,1.592757807236200449e+02
4.653472693424649975e+00,-1.900489154183432916e+01,-5.407864205535459767e+00,-4.662783708040404236e-05,3.997703741666962518e-01,-9.166142295220925940e-01,1.613134015171142153e+02
4.361815257850701677e+00,-1.943707531789782905e+01,-5.689633653950333603e+00,-6.213826395956941915e-05,4.189886708650314429e-01,-9.079903577810740645e-01,1.630746862746346437e+02
4.091619234846645803e+00,-1.987554432864379095e+01,-5.976656060527021808e+00,-7.762112079094013776e-05,4.380210579280242600e-01,-8.989635959171418111e-01,1.648359710321550722e+02
3.843093383230850257e+00,-2.032033623222310936e+01,-6.268976224907476968e+00,-9.306953769667377925e-05,4.568590904703004330e-01,-8.895379490445002313e-01,1.665972557896755006e+02
3.551105479137220300e+00,-2.091504330359553521e+01,-6.661743434576531619e+00,-1.084766600724405361e-04,4.754944098303784950e-01,-8.797175992614533202e-01,1.689064121708143489e+02
3.373394327779347446e+00,-2.132848713432005994e+01,-6.936015261719263414e+00,-1.238356516283364774e-04,4.939187472790425582e-01,-8.695069037956870694e-01,1.704833263511160624e+02
3.212237815955566234e+00,-2.174643849271298635e+01,-7.214163311831709002e+00,-1.391396974217065240e-04,5.121239276878745139e-01,-8.589103930718741120e-01,1.720602405314177759e+02
3.067506561667904030e+00,-2.216889191425400085e+01,-7.496200441540492143e+00,-1.543820068805316806e-04,5.301018731563151842e-01,-8.479327687024542648e-01,1.736371547117194893e+02
2.918057244662706662e+00,-2.267485911441671576e+01,-7.835240314411620943e+00,-1.695558168160420218e-04,5.478446065956498190e-01,-8.365789014024802572e-01,1.755018574284269164e+02
2.792611708932446923e+00,-2.318831975506922305e+01,-8.180744465516170294e+00,-1.846543944232208342e-04,5.653442552683275446e-01,-8.248538288294460230e-01,1.773665601451343434e+02
2.691167176026322938e+00,-2.370921210006410362e+01,-8.532726357363424441e+00,-1.996710402678691237e-04,5.825930542810451307e-01,-8.127627533490568990e-01,1.792312628618417705e+02
2.622519287519468278e+00,-2.416485193125849662e+01,-8.841765149546469971e+00,-2.145990912589083584e-04,5.995833500300469243e-01,-8.003110397279239452e-01,1.808425461474889175e+02
2.571254796037413026e+00,-2.462515164312205229e+01,-9.154987765921507759e+00,-2.294319236046028657e-04,6.163076035971121192e-01,-7.875042127542051240e-01,1.824538294331360646e+02
2.537694382144425997e+00,-2.509006766326467286e+01,-9.472395060130629929e+00,-2.441629557513912488e-04,6.327583940947211216e-01,-7.743479547872439417e-01,1.840651127187832117e+02
2.522086081727606288e+00,-2.555955171002462833e+01,-9.793985557403861009e+00,-2.587856513040265902e-04,6.489284219589229741e-01,-7.608481032372857999e-01,1.856763960044303587e+02
2.524436710821999608e+00,-2.603354417350952232e+01,-1.011975315639816486e+01,-2.732935219257242926e-04,6.648105121884311242e-01,-7.470106479763919394e-01,1.872876792900775058e+02
2.549557185914445689e+00,-2.658026842327638661e+01,-1.049698590776556451e+01,-2.876801302170408823e-04,6.803976175285236794e-01,-7.328417286816888421e-01,1.891264312842747870e+02
2.597532301725862247e+00,-2.712137002046742396e+01,-1.087198272225909790e+01,-3.019390925721958233e-04,6.956828215983196229e-01,-7.183476321121329278e-01,1.909254521062549657e+02
2.668018368755308511e+00,-2.766838674609322979e+01,-1.125273870046122582e+01,-3.160640820115798882e-04,7.106593419600573114e-01,-7.035347893199904723e-01,1.927244729282351443e+02
2.760230381061243854e+00,-2.822115738232443505e+01,-1.163921832538956025e+01,-3.300488309891850104e-04,7.253205331289993563e-01,-6.884097727982695369e-01,1.945234937502153230e+02
2.877704563620832268e+00,-2.879910387310850695e+01,-1.204522110988003902e+01,-3.438871341737142627e-04,7.396598895226335069e-01,-6.729792935653646779e-01,1.963850754527980484e+02
2.892394595316795325e+00,-2.886547202088716446e+01,-1.209195783753507847e+01,-3.575728512021373240e-04,7.536710483478589184e-01,-6.572501981881990751e-01,1.965977098893566506e+02
3.058636364783429595e+00,-2.955499105311260521e+01,-1.257933485685840758e+01,-3.710999094044661797e-04,7.673477924248699455e-01,-6.412294657451924618e-01,1.987919218826332894e+02
3.252441141437307781e+00,-3.025336331343988405e+01,-1.307670556714849219e+01,-3.844623064985457474e-04,7.806840529464885714e-01,-6.249242047303850134e-01,2.009861338759099283e+02
3.485649123973942221e+00,-3.100636420556158157e+01,-1.361752172379354064e+01,-3.976541132536574267e-04,7.936739121717116818e-01,-6.083416499001005340e-01,2.033230477967875345e+02
3.651850905808964765e+00,-3.150667176418299675e+01,-1.397915472806896275e+01,-4.106694761217597020e-04,8.063116060522830253e-01,-5.914891590635318330e-01,2.048620966673256021e+02
3.825458857036392768e+00,-3.200950865504568554e+01,-1.434399301487192169e+01,-4.235026198351880843e-04,8.185915267911121340e-01,-5.743742098186827016e-01,2.064011455378636697e+02
4.004932315687486977e+00,-3.251466845114666171e+01,-1.471196163760549425e+01,-4.361478499696684976e-04,8.305082253314104435e-01,-5.570043962351000078e-01,2.079401944084017373e+02
4.188756145791025176e+00,-3.302193472116114492e+01,-1.508298125316331628e+01,-4.485995554714998436e-04,8.420564137754301681e-01,-5.393874254848731731e-01,2.094792432789398049e+02
4.375259850500078151e+00,-3.353107611884053085e+01,-1.545696374665236661e+01,-4.608522111477858724e-04,8.532309677317359009e-01,-5.215311144233876206e-01,2.110182921494778725e+02
4.570411571971931153e+00,-3.406256824700546559e+01,-1.584918850765247811e+01,-4.729003801186054310e-04,8.640269285899541130e-01,-5.034433861213535311e-01,2.126196247326285231e+02
4.765152173276267611e+00,-3.459557985614770814e+01,-1.624453957052535458e+01,-4.847387162300359118e-04,8.744395057219974676e-01,-4.851322663496406840e-01,2.142209573157791738e+02
4.958154839779301604e+00,-3.512981530336202241e+01,-1.664290854982437651e+01,-4.963619664269533971e-04,8.844640786087778483e-01,-4.666058800184778588e-01,2.158222898989298244e+02
5.148182912867357075e+00,-3.566496908280805656e+01,-1.704418043460537646e+01,-5.077649730845541906e-04,8.940961988914596370e-01,-4.478724475726024723e-01,2.174236224820804750e+02
5.333913962095182981e+00,-3.620072058998979969e+01,-1.744822698540603056e+01,-5.189426762975628661e-04,9.033315923463421937e-01,-4.289402813439476270e-01,2.190249550652311257e+02
5.536520688055949435e+00,-3.680498665899438038e+01,-1.790712573588416845e+01,-5.298901161261065440e-04,9.121661607824887996e-01,-4.098177818634931024e-01,2.208303364716693977e+02
5.730605400607290179e+00,-3.740898599700998517e+01,-1.836959707844110312e+01,-5.406024347972567369e-04,9.205959838612564061e-01,-3.905134341339101534e-01,2.226357178781076698e+02
5.915308184267594527e+00,-3.801217630526587499e+01,-1.883542348138427158e+01,-5.510748788612583214e-04,9.286173208369139509e-01,-3.710358038646589529e-01,2.244410992845459418e+02
6.089958381703463708e+00,-3.861400439841182219e+01,-1.930437566242059688e+01,-5.613028013014873625e-04,9.362266122175739724e-01,-3.513935336712022406e-01,2.262464806909842139e+02
6.229388685510548029e+00,-3.912149973180967066e+01,-1.970294845549690876e+01,-5.712816635971971384e-04,9.434204813456942285e-01,-3.315953392400282640e-01,2.277728269828524503e+02
6.361063569459221689e+00,-3.962760416762419169e+01,-2.010311412991232061e+01,-5.810070377381351290e-04,9.501957358974457701e-01,-3.116500054611798798e-01,2.292991732747206868e+02
6.484892389222171261e+00,-4.013201590886336589e+01,-2.050473720994042992e+01,-5.904746081901318406e-04,9.565493693002754538e-01,-2.915663825300117695e-01,2.308255195665889232e+02
6.600774082410490351e+00,-4.063442922079025976e+01,-2.090767607802862571e+01,-5.996801738107888999e-04,9.624785620680316178e-01,-2.713533820199011126e-01,2.323518658584571597e+02
6.708340499037902305e+00,-4.113453002145984527e+01,-2.131177684350730672e+01,-6.086196497144105494e-04,9.679806830530558459e-01,-2.510199729276584302e-01,2.338782121503253961e+02
6.826243269212736386e+00,-4.173408749840331211e+01,-2.180095349620667733e+01,-6.172890690853519461e-04,9.730532906146807104e-01,-2.305751776933922526e-01,2.357203943000762081e+02
6.930722444758829148e+00,-4.232823838551744444e+01,-2.229157136379001258e+01,-6.256845849389686218e-04,9.776941337036106905e-01,-2.100280681966026908e-01,2.375625764498270200e+02
7.022238856588687739e+00,-4.291631298776119507e+01,-2.278329171918612772e+01,-6.338024718293920048e-04,9.819011528617020979e-01,-1.893877617302699989e-01,2.394047585995778320e+02
7.101329467832393938e+00,-4.349763674406709413e+01,-2.327576150078719053e+01,-6.416391275033643668e-04,9.856724811366945893e-01,-1.686634169547378270e-01,2.412469407493286440e+02
7.166447399710990318e+00,-4.405585961895683766e+01,-2.375496145065248754e+01,-6.491910744993950686e-04,9.890064449114832623e-01,-1.478642298331852567e-01,2.430381597588659872e+02
7.220151459629247981e+00,-4.460662919562488327e+01,-2.423414251938625341e+01,-6.564549616915312056e-04,9.919015646475617398e-01,-1.269994295504892345e-01,2.448293787684033305e+02
7.263172847837286561e+00,-4.514932486527060718e+01,-2.471295057278379304e+01,-6.634275657770490877e-04,9.943565555423029556e-01,-1.060782744172978909e-01,2.466205977779406737e+02
7.296422541461639710e+00,-4.568332355546459667e+01,-2.519101816728117882e+01,-6.701057927074060595e-04,9.963703280997796563e-01,-8.511004776113584303e-02,2.484118167874780170e+02
7.320205216559772410e+00,-4.619682761838304685e+01,-2.565764293533407070e+01,-6.764866790618154734e-04,9.979419886148748198e-01,-6.410405380635379735e-02,2.501642124378294341e+02
7.336214989074341553e+00,-4.670101568961641192e+01,-2.612282961894030464e+01,-6.825673933628292065e-04,9.990708395704569478e-01,-4.306961354477741033e-02,2.519166080881808512e+02
7.345621237498574985e+00,-4.719530342482842400e+01,-2.658619256370293371e+01,-6.883452373333466979e-04,9.997563799474472601e-01,-2.201606059887198721e-02,2.536690037385322682e+02
7.349659768594653642e+00,-4.766616204567696968e+01,-2.703478262728810222e+01,-6.938176470944850934e-04,9.999983054476366817e-01,-9.527370792660091710e-04,2.553735019126669386e+02
7.350164150616492975e+00,-4.812683488451436631e+01,-2.748093494922719415e+01,-6.989821943037798904e-04,9.997965086291511483e-01,2.011101056151382016e-02,2.570780000868015804e+02
7.349098913323016902e+00,-4.857679830779774477e+01,-2.792427100748970403e+01,-7.038365872332073749e-04,9.991510789545050564e-01,4.116583567726762177e-02,2.587824982609362223e+02
7.348537488961428998e+00,-4.901553101968963944e+01,-2.836440031878325740e+01,-7.083786717865483322e-04,9.980623027512186551e-01,6.220239557644743206e-02,2.604869964350708642e+02
7.350539635250392223e+00,-4.946431417735145430e+01,-2.882368823860381113e+01,-7.126064324556411356e-04,9.965306630850158109e-01,8.321135566875610678e-02,2.622813080703589890e+02
7.357496089869171918e+00,-4.989874119759601001e+01,-2.927823663232540596e+01,-7.165179932150959538e-04,9.945568395456581001e-01,1.041833936081530548e-01,2.640756197056471137e+02
7.372360334995635256e+00,-5.031817929654852861e+01,-2.972752222716928117e+01,-7.201116183550742341e-04,9.921417079455093768e-01,1.251092034304435996e-01,2.658699313409352385e+02
7.398033496488129579e+00,-5.072200074232762290e+01,-3.017100618359226161e+01,-7.233857132517585451e-04,9.892863399309623773e-01,1.459794996836046299e-01,2.676642429762233633e+02
7.437235123442205165e+00,-5.111381176999919518e+01,-3.061304140893529180e+01,-7.263388250751751573e-04,9.859920025069038862e-01,1.667850215490019883e-01,2.694790839320903615e+02
7.491983870449608673e+00,-5.148814660767391871e+01,-3.104787310534600664e+01,-7.289696434340488728e-04,9.822601574744231900e-01,1.875165369516828551e-01,2.712939248879573597e+02
7.577221113518166185e+00,-5.189402500976980548e+01,-3.153706324990078969e+01,-7.312770009574065836e-04,9.780924607820206118e-01,2.081648466578996381e-01,2.733795550726703141e+02
7.688501145123675329e+00,-5.227115172074585558e+01,-3.201324762354639120e+01,-7.332598738126696767e-04,9.734907617905989019e-01,2.287207883580523737e-01,2.754651852573832684e+02
7.797715424908796322e+00,-5.255601147584890498e+01,-3.238859979653832966e+01,-7.349173821600048923e-04,9.684571024525689964e-01,2.491752407332262220e-01,2.771503241305571805e+02
7.923721104666039849e+00,-5.282461558007739910e+01,-3.275587339168036749e+01,-7.362487905427315396e-04,9.629937164054312992e-01,2.695191275035248024e-01,2.788354630037310926e+02
8.066018578397960326e+00,-5.307642964085964365e+01,-3.311449818706702786e+01,-7.372535082136138758e-04,9.571030279802408280e-01,2.897434214563918142e-01,2.805206018769050047e+02
8.225195045660205651e+00,-5.331274447204294376e+01,-3.346677305682214865e+01,-7.379310893968906533e-04,9.507876511253939844e-01,3.098391484531277107e-01,2.822201010611022980e+02
8.399402721333384392e+00,-5.353068422231958579e+01,-3.380893774997277745e+01,-7.382812334859286448e-04,9.440503882462175644e-01,3.297973914118311756e-01,2.839196002452995913e+02
8.588104136172782788e+00,-5.372965726101207196e+01,-3.414035085422719362e+01,-7.383037851764117851e-04,9.368942289608799268e-01,3.496092942649786095e-01,2.856190994294968846e+02
8.817633682085016744e+00,-5.392882618477296575e+01,-3.449939448723971225e+01,-7.379987345350081393e-04,9.293223487731719912e-01,3.692660658898986314e-01,2.875356173344138142e+02
9.064562921384341720e+00,-5.409879564455588508e+01,-3.484100428838435448e+01,-7.373662170034849927e-04,9.213381076627596977e-01,3.887589840103738981e-01,2.894521352393307438e+02
9.299454439623406898e+00,-5.422645754183695743e+01,-3.513128966687748544e+01,-7.364065133382716264e-04,9.129450485935250992e-01,4.080793990676599425e-01,2.911639216021561083e+02
9.547429570751095440e+00,-5.433201034251534622e+01,-3.540759752055181764e+01,-7.351200494854967776e-04,9.041468959406701034e-01,4.272187380591808137e-01,2.928757079649814727e+02
9.633186743710240307e+00,-5.436328195471783431e+01,-3.549765494892206874e+01,-7.335073963915604133e-04,8.949475538372797523e-01,4.461685083432009868e-01,2.934503363860486616e+02
9.882799670505537648e+00,-5.444088872237350074e+01,-3.574605833573961178e+01,-7.315692697493218939e-04,8.853511044410817821e-01,4.649203014077886720e-01,2.950832174921559385e+02
1.014125051068684868e+01,-5.449792582829654464e+01,-3.598072648682905594e+01,-7.293065296800228109e-04,8.753618061221766222e-01,4.834657966023890308e-01,2.967160985982632155e+02
1.040614505480603214e+01,-5.453375848980910234e+01,-3.620093949252574106e+01,-7.267201803510846877e-04,8.649840915725481860e-01,5.017967648303475192e-01,2.983489797043704925e+02
1.075103993043201456e+01,-5.454214169814199664e+01,-3.645756323578235936e+01,-7.238113695299558826e-04,8.542225658381892295e-01,5.199050722007549918e-01,3.004448179621692248e+02
1.109674807149553288e+01,-5.450201279492338102e+01,-3.668014320897428604e+01,-7.205813880742044765e-04,8.430820042747313448e-01,5.377826836379745457e-01,3.025406562199679570e+02
1.139661257433638930e+01,-5.442797249903811974e+01,-3.684740977691985364e+01,-7.170316693580908998e-04,8.315673504274796457e-01,5.554216664472639842e-01,3.043780171839029549e+02
1.168927164701785948e+01,-5.431896663755507859e+01,-3.698905446368625149e+01,-7.131637886358717241e-04,8.196837138368030518e-01,5.728141938348979556e-01,3.062153781478379528e+02
1.196995385001494583e+01,-5.417379881692131249e+01,-3.710379371149811334e+01,-7.089794623421244273e-04,8.074363677698552788e-01,5.899525483812374516e-01,3.080527391117729508e+02
1.223326399984413726e+01,-5.399100852066770528e+01,-3.719036544534004918e+01,-7.044805473294039715e-04,7.948307468796400599e-01,6.068291254651935196e-01,3.098919162615485448e+02
1.247341304865392608e+01,-5.376941982302952994e+01,-3.724728784575986396e+01,-6.996690400435739109e-04,7.818724447924633170e-01,6.234364366385750644e-01,3.117310934113241387e+02
1.268606417647983164e+01,-5.350772853598518708e+01,-3.727321954937275450e+01,-6.945470756371779474e-04,7.685672116248415398e-01,6.397671129488189390e-01,3.135702705610997327e+02
1.285425098665038668e+01,-5.323349416436330728e+01,-3.726982329199219635e+01,-6.891169270212516799e-04,7.549209514309805913e-01,6.558139082086296145e-01,3.152534647345256644e+02
1.299588566293359015e+01,-5.292661946496050263e+01,-3.724067525734389505e+01,-6.833810038559987943e-04,7.409397195819588111e-01,6.715697022110741488e-01,3.169366589079515961e+02
1.310949848115575911e+01,-5.258615034991166937e+01,-3.718482113694192037e+01,-6.773418514807789297e-04,7.266297200777787069e-01,6.870275038887116992e-01,3.186198530813775278e+02
1.319297320086058889e+01,-5.221110930232816827e+01,-3.710128012944120002e+01,-6.710021497838865442e-04,7.119973027934868304e-01,7.021804544153560368e-01,3.203030472548034595e+02
1.324158486951748515e+01,-5.183976196779222079e+01,-3.700128193451876513e+01,-6.643647120126303573e-04,6.970489606605893007e-01,7.170218302490924955e-01,3.218368154976241158e+02
1.326354407943906466e+01,-5.144082284683833706e+01,-3.687887579886466227e+01,-6.574324835242362783e-04,6.817913267850155279e-01,7.315450461152015471e-01,3.233705837404447720e+02
1.325849892598720281e+01,-5.101359443861769449e+01,-3.673337641474129356e+01,-6.502085404781383655e-04,6.662311715029129999e-01,7.457436579276720545e-01,3.249043519832654283e+02
1.322602796253920587e+01,-5.055737323393093163e+01,-3.656408960683944542e+01,-6.426960884702362375e-04,6.503753993755829743e-01,7.596113656480036891e-01,3.264381202260860846e+02
1.316502543887207821e+01,-5.007144298953522821e+01,-3.637030331898890267e+01,-6.348984611097324877e-04,6.342310461248976683e-01,7.731420160800354102e-01,3.279718884689067409e+02
1.307433132086303296e+01,-4.955507799552240300e+01,-3.615129663662416704e+01,-6.268191185391816479e-04,6.178052755105590821e-01,7.863296055995596667e-01,3.295056567117273971e+02
1.291365730519300747e+01,-4.884828605279255243e+01,-3.583034157015164567e+01,-6.184616458984103313e-04,6.011053761505875670e-01,7.991682828175192821e-01,3.314514830423502190e+02
1.269922778086118420e+01,-4.807621039340143909e+01,-3.545466407384031982e+01,-6.098297517329953968e-04,5.841387582864561168e-01,8.116523511756038589e-01,3.333973093729730408e+02
1.242904568896085316e+01,-4.723696309815463934e+01,-3.502233269844717256e+01,-6.009272663480076833e-04,5.669129504943131170e-01,8.237762714730942903e-01,3.353431357035958627e+02
1.212818045169890269e+01,-4.640042806281667964e+01,-3.457165455841963109e+01,-5.917581401077547792e-04,5.494355963437439483e-01,8.355346643238467097e-01,3.371450062663768108e+02
1.177823724466113653e+01,-4.550751260226387274e+01,-3.407294683935533897e+01,-5.823264416822792732e-04,5.317144510055699103e-01,8.469223125423193110e-01,3.389468768291577589e+02
1.137809632624624001e+01,-4.455677238788229744e+01,-3.352472653481608234e+01,-5.726363562413954974e-04,5.137573778101826028e-01,8.579341634575937681e-01,3.407487473919387071e+02
1.100478384200679116e+01,-4.371780454024362683e+01,-3.302905611432864674e+01,-5.626921835970659889e-04,4.955723447579489793e-01,8.685653311543635180e-01,3.422586678572885148e+02
1.059797933663475433e+01,-4.284299828811627719e+01,-3.250257434623389940e+01,-5.524983362949451330e-04,4.771674209832326152e-01,8.788110986399025881e-01,3.437685883226383226e+02
1.015751651361559738e+01,-4.193161129603301873e+01,-3.194451969075827691e+01,-5.420593376559390249e-04,4.585507731736056525e-01,8.886669199360548443e-01,3.452785087879881303e+02
9.633658286990957720e+00,-4.088423338861446865e+01,-3.129159879064080130e+01,-5.313798197686547689e-04,4.397306619458410393e-01,8.981284220953182906e-01,3.469386984345326255e+02
9.068203885079498150e+00,-3.978636025663143272e+01,-3.059458804422665423e+01,-5.204645214336254405e-04,4.207154381802901133e-01,9.071914071401400159e-01,3.485988880810771207e+02
8.462090753876562843e+00,-3.863690029310494367e+01,-2.985233353451218363e+01,-5.093182860602345598e-04,4.015135393152823307e-01,9.158518539245561474e-01,3.502590777276216158e+02
7.780561690279501619e+00,-3.736684005817554777e+01,-2.901835844650387486e+01,-4.979460595172641429e-04,3.821334856031792793e-01,9.241059199173652372e-01,3.520088635867855942e+02
7.057286685954423433e+00,-3.603392137231936942e+01,-2.812862789239609640e+01,-4.863528879380293185e-04,3.625838763297568046e-01,9.319499429060397189e-01,3.537586494459495725e+02
6.295225331286780523e+00,-3.463680603431076577e+01,-2.718167436231276213e+01,-4.745439154810714979e-04,3.428733859985846899e-01,9.393804426206295854e-01,3.555084353051135508e+02
5.465301325466636939e+00,-3.311279676439484376e+01,-2.613318694907837880e+01,-4.625243820474031183e-04,3.230107604820997014e-01,9.463941222769383099e-01,3.573283425339731707e+02
4.602175425057541958e+00,-3.151367263835022214e+01,-2.501693960766770175e+01,-4.502996209553221342e-04,3.030048131410806866e-01,9.529878700382932166e-01,3.591482497628327906e+02
3.857385268306770421e+00,-3.011760446537304148e+01,-2.403118155421570279e+01,-4.378750565738231048e-04,2.828644209142433530e-01,9.591587603952643759e-01,3.606746455612080240e+02
3.098187486582495431e+00,-2.867511361591392571e+01,-2.300347262836580597e+01,-4.252562019156606193e-04,2.625985203796931122e-01,9.649040554627240640e-01,3.622010413595832574e+02
2.328307845868026860e+00,-2.718545223329330796e+01,-2.193292681391458032e+01,-4.124486561911282819e-04,2.422161037899777936e-01,9.702212061936769105e-01,3.637274371579584908e+02
8.025071230142430956e-01,-2.403689293935661198e+01,-1.962192443648215701e+01,-3.994581023236433155e-04,2.217262150825023703e-01,9.751078535093247179e-01,3.667233625326052788e+02
5.445510232539557682e-01,-2.347504078490529977e+01,-1.920326397753419556e+01,-3.862903044282351870e-04,2.011379458670708442e-01,9.795618293448687952e-01,3.672284575757428229e+02
-5.629468624610050043e-01,-2.096841261756715724e+01,-1.732093320783706503e+01,-3.729511052540582369e-04,1.804604313923346970e-01,9.835811576105900622e-01,3.694131690822193832e+02
-1.647629310459634233e+00,-1.831612220857585882e+01,-1.530092619301405321e+01,-3.594464235920637966e-04,1.597028464929375058e-01,9.871640550677840409e-01,3.715978805886959435e+02
-2.664409564236994932e+00,-1.559421265357017639e+01,-1.320110124944854668e+01,-3.457822516489780134e-04,1.388744015191473724e-01,9.903089321191653749e-01,3.737239837334024060e+02
-3.623855490290476933e+00,-1.273270331685452916e+01,-1.096737990637390503e+01,-3.319646523887523088e-04,1.179843382507843874e-01,9.930143935133944888e-01,3.758500868781088684e+02
-4.572772018884996292e+00,-9.465870795949635763e+00,-8.385862777811706081e+00,-3.179997568426643482e-04,9.704192579725104406e-02,9.952792389634183001e-01,3.781531696799910947e+02
-5.420232791284726126e+00,-5.903021445936836642e+00,-5.533783967710979468e+00,-1.405218985059226156e-01,4.256286925832063472e-01,8.939193543531570585e-01,3.805275593676896619e+02
-5.983471882410213993e+00,-2.719136517654941798e+00,-2.897041244375730518e+00,-0.000000000000000000e+00,9.419726912952701703e-01,-3.356865336228339602e-01,3.825859711819858262e+02
-6.287828673878697039e+00,-2.012251619212332421e-02,-5.646974813700034179e-01,9.334680231831153918e-01,2.330827560932287046e-01,2.725947147463936293e-01,3.843477663807043427e+02
-6.427533216733668731e+00,2.614253925836066195e+00,1.737935411894614202e+00,-9.494871526010041363e-01,0.000000000000000000e+00,-3.138027199371165032e-01,3.861095615794228593e+02
-6.420285391006166797e+00,5.184371345425200950e+00,3.964225382987813351e+00,9.360262369431200380e-01,-2.510647953297547863e-01,2.466157989566160613e-01,3.878713567781413758e+02
-6.163376157829953961e+00,8.921568968557657797e+00,7.153448166441132017e+00,4.606684729585791560e-01,4.802354505723984701e-01,7.464291460256111677e-01,3.905416662036265052e+02
-5.885558013576838832e+00,1.106626464006823340e+01,8.956525803355047444e+00,0.000000000000000000e+00,1.466799147869734220e-02,9.998914191176465627e-01,3.921377518445078181e+02
-5.532378597328807324e+00,1.316437641954988180e+01,1.070655200916916350e+01,-2.031297923577711842e-02,9.495260293806794261e-01,-3.130266800195738441e-01,3.937338374853891310e+02
-5.005124347665081075e+00,1.567766386041176041e+01,1.278182335842388717e+01,0.000000000000000000e+00,-9.950534475056657113e-01,-9.933094484740054297e-02,3.956998775320587924e+02
-4.388427712146120818e+00,1.810634090411867447e+01,1.476217060167582318e+01,9.421051217399307731e-01,-0.000000000000000000e+00,-3.353146874090865426e-01,3.976659175787284539e+02
-3.642367095956536183e+00,2.062233647390563007e+01,1.678508993421645101e+01,2.505768424027162156e-01,-9.347684120886778913e-01,2.518278416159153710e-01,3.997808184345842051e+02
-2.826851697350167392e+00,2.303643349343044378e+01,1.869563529421713355e+01,4.606684729586435489e-01,4.802354505724656386e-01,7.464291460257155286e-01,4.018957192904399562e+02
-2.113771338204963879e+00,2.495614133220243858e+01,2.019405434020076839e+01,-5.300915303212460072e-01,-8.479392486975795284e-01,0.000000000000000000e+00,4.036386057486217851e+02
-1.372550223643234313e+00,2.682004910088613059e+01,2.163241534191368132e+01,4.157246280579249276e-01,9.043401909015138518e-01,9.664291353515434835e-02,4.053814922068036140e+02
-6.097082898446616328e-01,2.862897797392524524e+01,2.301201807085770312e+01,-8.479704324504611090e-01,5.300416452412962665e-01,0.000000000000000000e+00,4.071243786649854428e+02
3.714515838953895699e-01,3.081712916519033030e+01,2.465434970171595452e+01,8.649910223439722934e-01,4.315195122751088602e-02,4.999264349581904465e-01,4.093164075096505599e+02
1.368156229996718043e+00,3.290111503327528908e+01,2.618576816187143308e+01,7.364161080999079845e-01,-4.016585135368967996e-01,-5.443893406704475302e-01,4.115084363543156769e+02
2.664503541110945228e+00,3.541915941157208891e+01,2.797953855815107715e+01,0.000000000000000000e+00,5.892782266480659503e-01,-8.079289396971077730e-01,4.143394460944676894e+02
3.525188008671283679e+00,3.698972511948951336e+01,2.906342712518466698e+01,-0.000000000000000000e+00,-5.697617808904898995e-01,-8.218086839624835216e-01,4.162202302066826292e+02
4.243529002307390385e+00,3.826309889236291184e+01,2.992706984333876363e+01,4.608364502591916212e-01,4.800774273062540787e-01,-7.464271095725123484e-01,4.177986149269111706e+02
4.955705458107961370e+00,3.949995511980356611e+01,3.075357058033701207e+01,-6.799996278742653625e-05,-9.702994690094113306e-02,9.952804553387157860e-01,4.193769996471397121e+02
5.659472249991454262e+00,4.070088097011894490e+01,3.154369900008924787e+01,-4.525244665823581758e-01,-6.821651958911021385e-01,5.743433229871894863e-01,4.209553843673682536e+02
6.352798192364284446e+00,4.186646701432911044e+01,3.229821685921017149e+01,8.849408409608355841e-01,2.539496673928960668e-02,-4.650083909616191669e-01,4.225337690875967951e+02
7.064347712900397092e+00,4.304769436957409567e+01,3.304929081484637976e+01,0.000000000000000000e+00,8.584009604378071145e-01,5.129773787613093328e-01,4.241847532976448747e+02
7.759604261483741716e+00,4.418999385592628215e+01,3.376136313633528374e+01,5.752485914333926864e-01,0.000000000000000000e+00,-8.179774190368060971e-01,4.258357375076929543e+02
8.436946475715734195e+00,4.529408150278757716e+01,3.443531719329802598e+01,8.847879010079059414e-01,3.147796090132998909e-02,-4.649274225152026374e-01,4.274867217177410339e+02
9.094969471198458777e+00,4.636067365787150152e+01,3.507202618348000556e+01,1.270998420255606970e-03,1.158168560493655769e-01,9.932687654502649899e-01,4.291377059277891135e+02
9.791031841964780824e+00,4.748458115177487571e+01,3.572553966747371135e+01,0.000000000000000000e+00,1.466699169428380307e-02,9.998914337751974024e-01,4.309456491506165889e+02
1.045931559486057338e+01,4.856150147235308623e+01,3.633251732855330829e+01,3.421418352598072921e-01,-8.417995946762039591e-03,9.396095475810263276e-01,4.327535923734440644e+02
1.109828774939884966e+01,4.959245139054749529e+01,3.689415419017886677e+01,-4.348255654857678398e-01,8.976721029706266064e-01,7.148092857025148406e-02,4.345615355962715398e+02
1.160920157971036382e+01,5.042168733697119620e+01,3.733194668529753102e+01,-0.000000000000000000e+00,1.173078338873058957e-01,9.930945937374086041e-01,4.360720957677014553e+02
1.209907210199317440e+01,5.122488067941375789e+01,3.774448439606184991e+01,-8.471320701136201281e-01,-2.337197434487327530e-01,4.772214761598969623e-01,4.375826559391313708e+02
1.256744924605861335e+01,5.200253252223667033e+01,3.813232668685800064e+01,9.421051217375840947e-01,-0.000000000000000000e+00,-3.353146874082512663e-01,4.390932161105612863e+02
1.301397814167843059e+01,5.275514145415954204e+01,3.849602490058504145e+01,-6.700796228892773321e-02,-0.000000000000000000e+00,-9.977514384805130643e-01,4.406037762819912018e+02
1.363524131718137866e+01,5.382010303786665162e+01,3.898242983075909507e+01,6.355972790762637326e-01,2.092487626604065953e-01,7.431211571177241959e-01,4.428572311856444799e+02
1.419941247993382660e+01,5.480768833449765509e+01,3.939342924934188517e+01,9.999988887667324742e-07,-4.977924468358581045e-01,-8.672950362318321282e-01,4.451106860892977579e+02
1.460893949671913994e+01,5.554605601488069766e+01,3.967343226797373745e+01,4.034587101636269435e-01,-5.855715793375171341e-01,-7.030824949201115448e-01,4.469081891462044496e+02
1.498295891643203248e+01,5.624687906108998448e+01,3.991736426276582961e+01,-9.789433609090931743e-01,-2.146098598946420688e-02,-2.029958674766914883e-01,4.487056922031111412e+02
1.532130018880691047e+01,5.691109997694356792e+01,4.012621246305458556e+01,-4.499992964605873877e-04,3.515004504559842702e-01,9.361865363440986521e-01,4.505031952600178329e+02
1.562400119990148362e+01,5.753965398357708239e+01,4.030094546257485177e+01,-0.000000000000000000e+00,-9.967539354453290867e-01,8.049591402863011391e-02,4.523006983169245245e+02
1.588401567912634071e+01,5.811796739774481324e+01,4.043944429365875948e+01,8.084710213412101831e-01,5.885342875758828862e-01,0.000000000000000000e+00,4.540486153051133442e+02
1.611018173075815696e+01,5.866511964141794522e+01,4.054823550280728739e+01,9.334680231819927343e-01,2.330827560929483733e-01,2.725947147460657805e-01,4.557965322933021639e+02
1.630302366239734724e+01,5.918193138758169169e+01,4.062813524088872441e+01,0.000000000000000000e+00,1.466999104715437444e-02,9.998913897833184850e-01,4.575444492814909836e+02
1.646297852547609608e+01,5.966921402685737519e+01,4.067994091997505279e+01,-0.000000000000000000e+00,1.466999103679639260e-02,9.998913890773289959e-01,4.592923662696798033e+02
1.658964306751778039e+01,6.012776531137220104e+01,4.070441222375274748e+01,7.364161080998113951e-01,-4.016585135368440640e-01,-5.443893406703760318e-01,4.610402832578686230e+02
1.669879366613267280e+01,6.065422911015104290e+01,4.069300890436880991e+01,5.328913625204568794e-01,-5.120993873931789682e-03,8.461669877596397216e-01,4.632146124760731709e+02
1.675359087183636930e+01,6.112897550417783776e+01,4.063234445841655429e+01,0.000000000000000000e+00,1.466999104714212555e-02,9.998913897824834862e-01,4.653889416942777189e+02
1.676120630201773309e+01,6.143257861792827157e+01,4.056557434058392175e+01,9.703928888894782778e-01,2.415277234481024160e-01,0.000000000000000000e+00,4.668978939869770670e+02
1.674484825941675226e+01,6.171990353097851312e+01,4.048322183085733883e+01,0.000000000000000000e+00,8.052988517103475130e-03,-9.999665741302532496e-01,4.684068462796764152e+02
1.670369230712279318e+01,6.199138522106670735e+01,4.038565850500177845e+01,-7.142513392296411245e-01,-6.601633892676489479e-01,-2.324377849664534534e-01,4.699157985723757633e+02
1.663723147293201166e+01,6.224746103998969460e+01,4.027325603441587276e+01,-3.571165318401633426e-01,-5.924852232849486811e-01,-7.220990533684533697e-01,4.714247508650751115e+02
1.654527625239403221e+01,6.248856958108726189e+01,4.014638618378618418e+01,-0.000000000000000000e+00,2.016697227948014218e-02,9.997956257305206096e-01,4.729337031577744597e+02
1.642795460984272182e+01,6.271514954671913245e+01,4.000542080874117090e+01,-0.000000000000000000e+00,-9.695091807942790574e-02,9.952881590118278776e-01,4.744426554504738078e+02
1.628571197741113608e+01,6.292763861574184148e+01,3.985073185350457692e+01,-9.359985444165458673e-04,-1.157798199493030727e-01,9.932734553475903727e-01,4.759516077431731560e+02
1.611220679128033595e+01,6.313359922173780348e+01,3.967566670937867457e+01,9.968779763717972031e-01,-0.000000000000000000e+00,-7.894491893667289484e-02,4.775188745708272791e+02
1.591345146245532582e+01,6.332473857893626956e+01,3.948608258136532356e+01,8.965938298718453270e-01,2.929696176507280703e-02,-4.418814233086630350e-01,4.790861413984814021e+02
1.569105676252236137e+01,6.350155220978691517e+01,3.928241252113281945e+01,0.000000000000000000e+00,2.192496970816493890e-02,-9.997586187199533070e-01,4.806534082261355252e+02
1.544700879165840135e+01,6.366452897163671309e+01,3.906508967583305747e+01,7.342455860439353055e-01,2.131448798322831684e-01,6.445546366102758995e-01,4.822206750537896482e+02
1.518366896480761596e+01,6.381414966595971094e+01,3.883454728515368970e+01,8.849807075427933434e-01,-1.526297770940612808e-02,-4.653753203493799506e-01,4.837879418814437713e+02
1.490316899679858587e+01,6.395088083901259068e+01,3.859120865789304133e+01,0.000000000000000000e+00,1.080298527117679042e-01,9.941466445774197469e-01,4.853552087090978944e+02
1.460679902369099992e+01,6.407517158022442061e+01,3.833547714860281985e+01,-0.000000000000000000e+00,-9.978448059155462513e-01,-6.560292149537862161e-02,4.869224755367520174e+02
1.429560229421267437e+01,6.418746147060626583e+01,3.806774617532038718e+01,-0.000000000000000000e+00,-9.705539409139188889e-01,-2.408797371476575633e-01,4.884897423644061405e+02
1.397097672824232539e+01,6.428818556746800539e+01,3.778840923736878210e+01,8.088332836539259274e-01,-2.128178115171484031e-01,-5.481745145072917103e-01,4.900570091920602636e+02
1.363467490705050089e+01,6.437777309018726157e+01,3.749785991267965102e+01,0.000000000000000000e+00,-7.950793855537832688e-02,9.968332296361624989e-01,4.916242760197143866e+02
1.328880406111058399e+01,6.445664610601888000e+01,3.719649185511575951e+01,8.370268619317310366e-01,-1.940497361591874970e-01,5.115943044079336310e-01,4.931915428473685097e+02
1.278378604997086754e+01,6.454657092009870212e+01,3.674451080771091682e+01,3.588155418937523655e-01,-5.920762440856238706e-01,-7.215920787304312967e-01,4.954266676423670219e+02
1.227066352315830855e+01,6.460715237344221862e+01,3.626407820647997937e+01,-9.796745246596161305e-01,-0.000000000000000000e+00,2.005886979235458889e-01,4.976617924373655342e+02
1.175561013843499225e+01,6.463991405169349491e+01,3.575682936136313828e+01,4.789225235544407600e-01,-2.317097694886223191e-01,8.467241576550589288e-01,4.998965018445167061e+02
1.124337244367740674e+01,6.464631272135562767e+01,3.522416116055208590e+01,-7.270129289260947036e-01,2.249116686482320882e-01,6.487410442403757083e-01,5.021312112516678781e+02
1.068502338544340446e+01,6.462276291351312807e+01,3.460768781427083240e+01,5.328913625204511062e-01,-5.120993873931734171e-03,8.461669877596306177e-01,5.045951062264240363e+02
1.034086591981553838e+01,6.459427609647009660e+01,3.421047058561995158e+01,4.595995113955925193e-01,-5.348094314392446424e-01,-7.090452462075701456e-01,5.061295306835615975e+02
9.999445146983982013e+00,6.455878325917088034e+01,3.380618344791443519e+01,-9.986869598539414028e-01,-5.120894666518521071e-02,-0.000000000000000000e+00,5.076639551406991586e+02
9.661203539853689293e+00,6.451655302165153216e+01,3.339511584654783150e+01,-0.000000000000000000e+00,-0.000000000000000000e+00,-9.999989999999999712e-01,5.091983795978367198e+02
9.326542779777291514e+00,6.446784645908498135e+01,3.297755121743072237e+01,-8.368809030201572741e-01,4.998393448127638056e-02,-5.450962854901632015e-01,5.107328040549742809e+02
8.995519271872305822e+00,6.441291214406280119e+01,3.255376093175431151e+01,9.999988887671225328e-07,-4.977924468360522270e-01,-8.672950362321703022e-01,5.122672285121118421e+02
8.668130762625633423e+00,6.435199289471198369e+01,3.212401034761351326e+01,8.220322628905581963e-01,6.371394286824133557e-02,-5.658634925949479477e-01,5.138016529692494032e+02
8.308256500048720739e+00,6.427693951307206532e+01,3.163839898246322946e+01,-4.199765354729858013e-01,-5.494543922603128960e-01,-7.223002010792807237e-01,5.155103037859190636e+02
7.954082449598136151e+00,6.419416583580454017e+01,3.114535140037382277e+01,-0.000000000000000000e+00,-2.786296520868886128e-02,9.996107518281552862e-01,5.172189546025887239e+02
7.606674072494726602e+00,6.410404021273880915e+01,3.064527531168099372e+01,0.000000000000000000e+00,-9.968312352734672865e-01,-7.953293898571139886e-02,5.189276054192583842e+02
7.267142655725176148e+00,6.400691825783962940e+01,3.013856851213789056e+01,-6.476833636047767406e-01,2.256807782524959671e-01,-7.277172849657254083e-01,5.206362562359280446e+02
6.936304471607812161e+00,6.390313545349469138e+01,2.962560890873162833e+01,-9.546707119064788971e-01,0.000000000000000000e+00,-2.976605983801707822e-01,5.223449070525977049e+02
6.614995725166886054e+00,6.379301604716262375e+01,2.910676448760359847e+01,-9.626109735573772364e-01,2.303340575287815550e-02,-2.699029007031327754e-01,5.240535578692673653e+02
6.269630817866452155e+00,6.366263133351154124e+01,2.852129958839093860e+01,-9.692381588146331550e-01,4.603539253230042733e-02,-2.417770339251082146e-01,5.259590404929377883e+02
5.939947170441722157e+00,6.352420434065388122e+01,2.792875968121346020e+01,-9.745432276172977248e-01,6.897458384705278112e-02,-2.133213638855089023e-01,5.278645231166082112e+02
5.627837852477330038e+00,6.337818634394958650e+01,2.732966890339026378e+01,-9.785189433687380145e-01,9.181968885867251851e-02,-1.845747063061307369e-01,5.297700057402786342e+02
5.543109657176222171e+00,6.333610098545585032e+01,2.716046565725556050e+01,-9.811598828094907354e-01,1.145395450643799107e-01,-1.555762738442512394e-01,5.303051421552729607e+02
5.289575421867967364e+00,6.320376267111939939e+01,2.663555429270158470e+01,-9.824624434158871766e-01,1.371031608050166106e-01,-1.263656226039711616e-01,5.319586480055789934e+02
5.050577125744603713e+00,6.306716516597685995e+01,2.610701051469027689e+01,-9.824248483150977984e-01,1.594797575400080103e-01,-9.698259817899264335e-02,5.336121538558850261e+02
4.825989352929226150e+00,6.292650236528072583e+01,2.557506822447845707e+01,-9.810471487098837429e-01,1.816388118316852873e-01,-6.746728130043137817e-02,5.352656597061910588e+02
4.592695343942723163e+00,6.276480885675782417e+01,2.497812448273837305e+01,-9.783312238097306990e-01,2.035500969816961270e-01,-3.785993316379736295e-02,5.371089915179090895e+02
4.377383149567473097e+00,6.259791474419503032e+01,2.437713829420504297e+01,-9.742807782684530515e-01,2.251837242627095503e-01,-8.200940509722611654e-03,5.389523233296271201e+02
4.179270190855356226e+00,6.242609245319292910e+01,2.377241990502237456e+01,-9.689013371317460876e-01,2.465101836891694376e-01,2.146923946665536820e-02,5.407956551413451507e+02
4.001767049951662436e+00,6.225409900062741997e+01,2.317941716638357619e+01,-9.622002383015714200e-01,2.675003842714804292e-01,5.111013430250422457e-02,5.425932934815199360e+02
3.839219093035837638e+00,6.207804419652498495e+01,2.258349480589210501e+01,-9.541866225276360858e-01,2.881256936987116601e-01,8.068131147502366485e-02,5.443909318216947213e+02
3.691111820834247048e+00,6.189816409829828103e+01,2.198490989808016494e+01,-9.448714209396131825e-01,3.083579773956877101e-01,1.101424335547800254e-01,5.461885701618695066e+02
3.556554940855482627e+00,6.171468030823761808e+01,2.138389528085617641e+01,-9.342673401370940045e-01,3.281696369011810610e-01,1.394533132294110134e-01,5.479862085020442919e+02
3.440997388114660716e+00,6.153842846275743028e+01,2.081447749671625047e+01,-9.223888448576038623e-01,3.475336475148529392e-01,1.685739681226412767e-01,5.496834087643603652e+02
3.335886148392652739e+00,6.135952645478994327e+01,2.024337082944789401e+01,-9.092521382463096824e-01,3.664235951615821274e-01,1.974646753338277771e-01,5.513806090266764386e+02
3.240854356885914278e+00,6.117814973800145140e+01,1.967075088153008977e+01,-8.948751397543274200e-01,3.848137124228902528e-01,2.260860256236315036e-01,5.530778092889925119e+02
3.155597931329698014e+00,6.099446753967815482e+01,1.909678446758976378e+01,-8.792774606957679540e-01,4.026789136863057061e-01,2.543989771718963011e-01,5.547750095513085853e+02
3.079722188988732956e+00,6.080863553004412836e+01,1.852162081346228106e+01,-8.624803774968560210e-01,4.199948293647147723e-01,2.823649088343995195e-01,5.564722098136246586e+02
3.012871447277294834e+00,6.062080350164597320e+01,1.794540035462493677e+01,-8.445068026736073374e-01,4.367378391390121517e-01,3.099456728258163096e-01,5.581694100759407320e+02
2.954255782257562135e+00,6.042886485867911261e+01,1.736145289547850012e+01,-8.253812535776474668e-01,4.528851041786998710e-01,3.371036467570296402e-01,5.598866112920228488e+02
2.904593828884213025e+00,6.023515830979936680e+01,1.677669415422731802e+01,-8.051298189528024452e-01,4.684145982964734167e-01,3.638017849557905747e-01,5.616038125081049657e+02
2.889540480978509684e+00,6.016947278957452028e+01,1.657920227900405408e+01,-7.837801233480771179e-01,4.833051379942920889e-01,3.900036690007163132e-01,5.621833500229890888e+02
2.853931669324589304e+00,5.999838526245685699e+01,1.606627968323342870e+01,-7.613612894355659133e-01,4.975364113599390348e-01,4.156735573996824806e-01,5.636877504491147874e+02
