7.413616785741178106e+00,-8.789781296161692126e+00,3.288297474481559846e+00,2.269036524734745486e-01,-2.792672503946826423e-01,-9.330179716127081635e-01,2.852491108113862595e+01
7.487805129950178440e+00,-8.821038096585798627e+00,3.265125440874192098e+00,1.176628244147602809e-01,-1.513962407275424582e-01,-9.814441594126656065e-01,2.913362935672616416e+01
7.692468399964498715e+00,-8.908249822591191247e+00,3.196383936015916305e+00,4.817995168104184482e-03,-1.888798105752424739e-02,-9.998089973064018254e-01,3.090782960766502896e+01
7.884830106214884005e+00,-8.991698358818894121e+00,3.126577770231565800e+00,0.000000000000000000e+00,-2.291096582971970108e-02,-9.997365089551880635e-01,3.268202985860389020e+01
8.137812722148353828e+00,-9.104156775647991751e+00,3.026985992789118729e+00,-0.000000000000000000e+00,-7.370517615494355176e-03,-9.999718373191328613e-01,3.518645707134481881e+01
8.348429879191142433e+00,-9.200778472116869722e+00,2.936739421472248868e+00,-0.000000000000000000e+00,8.171710922508092917e-03,-9.999656109595502773e-01,3.744802111816400725e+01
8.479213409201548757e+00,-9.262911969627516839e+00,2.875503617225374509e+00,-0.000000000000000000e+00,2.371197228132256377e-02,-9.997178313559172969e-01,3.898881665366430127e+01
8.596863542033387873e+00,-9.321089610891194255e+00,2.814898754482903165e+00,-5.163343074812843936e-01,-6.993530620125811836e-01,-4.942693370752987980e-01,4.052961218916459529e+01
8.701010460088145493e+00,-9.375127606764266375e+00,2.755269340204481665e+00,-5.740807793329563147e-01,-7.775685158683450782e-01,-2.565471924041664575e-01,4.207040772466488932e+01
8.801076327226445173e+00,-9.429950782881778792e+00,2.690743526962259491e+00,-5.939584362330480038e-01,-8.044922364008854077e-01,-1.901998194682220878e-03,4.377617604217215330e+01
8.885798034219936525e+00,-9.479060616511567616e+00,2.628155778483159288e+00,-0.000000000000000000e+00,2.371197228180734265e-02,-9.997178313763561697e-01,4.548194435967941729e+01
8.955169372902169300e+00,-9.521607488865276636e+00,2.567952164905784151e+00,-1.306949235529933362e-01,-4.150270061758885021e-01,-9.003718238057435430e-01,4.718771267718668128e+01
9.009237939014152374e+00,-9.556742669856761907e+00,2.510532275578894357e+00,-2.327097549703039392e-01,-7.626911969309915218e-01,-6.034453646074944277e-01,4.889348099469394526e+01
9.053213969345280887e+00,-9.587151482250980905e+00,2.449118180017002100e+00,-5.385901626591342861e-01,-5.714192456215766436e-01,-6.191919592672092687e-01,5.082457685872098807e+01
9.080056691812824710e+00,-9.607177865650472270e+00,2.391690856183195546e+00,-7.742405491202537515e-01,-3.056365398362070884e-01,-5.541984099724194257e-01,5.275567272274803088e+01
9.087844022867232141e+00,-9.614070094225018792e+00,2.349453806830856806e+00,-9.089331001752019024e-01,-0.000000000000000000e+00,-4.169395872385109336e-01,5.428935416995535945e+01
9.082155242029131159e+00,-9.611319207872952575e+00,2.310683661625360763e+00,-0.000000000000000000e+00,5.332983833118515316e-01,8.459260217998620934e-01,5.582303561716268803e+01
9.077570817903394484e+00,-9.608259835843975694e+00,2.302246618798925226e+00,-9.089459700192238367e-01,4.169115275727349190e-01,-4.199995240735423092e-05,5.618967786719811386e+01
9.037649736195081829e+00,-9.579998051728882302e+00,2.263165210108587289e+00,-9.089308576322600031e-01,-4.169444759734310946e-01,-0.000000000000000000e+00,5.806687395902331161e+01
8.980112521467839670e+00,-9.537925582406074909e+00,2.226988626643513047e+00,-2.327326561491635248e-01,6.034521084297507221e-01,7.626788731801853460e-01,5.998797066354698160e+01
8.905947805384755611e+00,-9.482586362349055165e+00,2.194052133587352849e+00,-2.327328258587249010e-01,7.626824293263519960e-01,6.034475484731250949e-01,6.190906736807065158e+01
8.828195001120935359e+00,-9.423854856231868027e+00,2.168097152313234410e+00,-0.000000000000000000e+00,6.060361314460513960e-01,7.954358600036840476e-01,6.355435669480449690e+01
8.736353582336224832e+00,-9.353687243959340591e+00,2.143913981552483250e+00,-7.895990730974376814e-03,0.000000000000000000e+00,9.999678261476336871e-01,6.519964602153834221e+01
8.630937455299763528e+00,-9.271614778003158364e+00,2.121052429304703058e+00,-4.039896372721465262e-02,7.947932863835205364e-01,6.055324563140540572e-01,6.684493534827218753e+01
8.472933326394370468e+00,-9.144945845250921579e+00,2.091567325227523977e+00,-7.930838411491103468e-02,7.825388216834451294e-01,6.175282768975292047e-01,6.904568304185370664e+01
8.299304551865354540e+00,-9.000357369513940498e+00,2.062377209778683440e+00,-1.180744126887797729e-01,7.688695128307685422e-01,6.284075948842915427e-01,7.124643073543522576e+01
8.159577005260386429e+00,-8.879042668465615407e+00,2.040323885877512566e+00,-1.566269599095340970e-01,7.538100742178017732e-01,6.381507403724834271e-01,7.288157932499296976e+01
8.009940137303900087e+00,-8.743419061404216208e+00,2.017415169505987649e+00,-1.948963222240092108e-01,7.373877335928744614e-01,6.467400976675488078e-01,7.451672791455071376e+01
7.851281965549651964e+00,-8.593082258897174697e+00,1.993240304101791205e+00,-2.328133080870259941e-01,7.196321828324302450e-01,6.541601371301427603e-01,7.615187650410845777e+01
7.695121067338168253e+00,-8.438265904289321995e+00,1.969104331452170786e+00,-2.703093630574599504e-01,7.005755242582040188e-01,6.603974432525746563e-01,7.768280078376331232e+01
7.532164120404773122e+00,-8.269147357652025576e+00,1.943190601797976091e+00,-3.073166937424076650e-01,6.802522125966758981e-01,6.654407389131561379e-01,7.921372506341816688e+01
7.342145095874260896e+00,-8.062443513636875281e+00,1.911765477059244489e+00,-3.437683903654139006e-01,6.586989926857216293e-01,6.692809057646200710e-01,8.093663741242184528e+01
7.146606063020520594e+00,-7.839171176919593975e+00,1.877907527744464566e+00,-3.795985477372136874e-01,6.359548330410609296e-01,6.719110007197605094e-01,8.265954976142552368e+01
6.946644087675790225e+00,-7.599230517798622131e+00,1.841490902489201886e+00,-4.147423844103265700e-01,6.120608554025916970e-01,6.733262685044965057e-01,8.438246211042920208e+01
6.743356816021058187e+00,-7.342530346864127644e+00,1.802389770974754057e+00,-4.491363598021233527e-01,5.870602603879515602e-01,6.735241502556670312e-01,8.610537445943288049e+01
6.537797531150965291e+00,-7.069033728015216234e+00,1.760503334609321957e+00,-4.827182890746551935e-01,5.609982493876881637e-01,6.725042881480082224e-01,8.782828680843655889e+01
6.330929715863371499e+00,-6.778803104523056788e+00,1.715780837003782366e+00,-5.154274555635842692e-01,5.339219428432090409e-01,6.702685260419388724e-01,8.955119915744023729e+01
6.091920082311472306e+00,-6.424648522498430658e+00,1.660869651132387714e+00,-5.472047205529847469e-01,5.058802950552175881e-01,6.668209061509713376e-01,9.153933715512734182e+01
5.853909533990494296e+00,-6.051333349359744318e+00,1.602620703336799401e+00,-5.779926301975706338e-01,4.769240056766110292e-01,6.621676617347521665e-01,9.352747515281444635e+01
5.610280221628886288e+00,-5.646143346491482973e+00,1.539012031403453884e+00,-6.077355193990655602e-01,4.471054280498134026e-01,6.563172058309223456e-01,9.558130081828336699e+01
5.369949272417454900e+00,-5.221856642625819056e+00,1.472077607312104464e+00,-6.363796124489218275e-01,4.164784745542132738e-01,6.492801160461411092e-01,9.763512648375228764e+01
5.155584728809008865e+00,-4.820181464434634577e+00,1.408499726535223928e+00,-6.638731202554402078e-01,3.850985191347905956e-01,6.410691154337386788e-01,9.949857698293118347e+01
4.945475390713799158e+00,-4.402507797108613730e+00,1.342295817037654659e+00,-6.901663339795102159e-01,3.530222971881052385e-01,6.316990494925390776e-01,1.013620274821100793e+02
4.771810917013293185e+00,-4.036626324845661529e+00,1.284329533024200387e+00,-7.152117149096740567e-01,3.203078029866064935e-01,6.211868593283969009e-01,1.029371329879297292e+02
4.602336394113015317e+00,-3.658618621387646375e+00,1.224576750566093830e+00,-7.389639804140089030e-01,2.870141848266724582e-01,6.095515510269370330e-01,1.045122384937493791e+02
4.408949760483629632e+00,-3.201677854971310744e+00,1.152638549339475071e+00,-7.613801858134116030e-01,2.532016380899074215e-01,5.968141612928258288e-01,1.063603139060494271e+02
4.221539998747310563e+00,-2.732294853737704976e+00,1.079145469031608240e+00,-7.824198020282349120e-01,2.189312964110009252e-01,5.829977194176571009e-01,1.082083893183494752e+02
4.059312175309980120e+00,-2.302048340955752614e+00,1.012193518776525414e+00,-8.020447888578563500e-01,1.842651211488852137e-01,5.681272056451723840e-01,1.098626880608249223e+02
3.902722229812069177e+00,-1.862792299461044410e+00,9.442554394442698174e-01,-8.202196637606563590e-01,1.492657893609935782e-01,5.522295060090494090e-01,1.115169868033003695e+02
3.746354867079311646e+00,-1.399013140070693550e+00,8.729147547918275629e-01,-8.369115660100081566e-01,1.139965804831404583e-01,5.353333637248710586e-01,1.132325929909867881e+02
3.593726332880731178e+00,-9.206730648206952194e-01,7.995985900904640786e-01,-8.520903161102360013e-01,7.852126191988602344e-02,5.174693272241174258e-01,1.149755390244822024e+02
3.447315762920713844e+00,-4.364690957122820403e-01,7.254126581891046088e-01,-8.657284703650679480e-01,4.290397375222832627e-02,4.986696949241026244e-01,1.167184850579776167e+02
3.307054998922810185e+00,5.225711073155653308e-02,6.502716195598122750e-01,-9.836444877472605430e-01,5.192164433401299378e-02,1.724693148749705529e-01,1.184614310914730311e+02
3.187405774438767381e+00,4.904774886761182340e-01,5.823732455386970708e-01,-9.831371308718876989e-01,5.468834158792724998e-02,-1.744951781415302605e-01,1.200141501763386742e+02
3.072876652173264223e+00,9.304022798103048775e-01,5.133985936996610100e-01,-8.642674592817782830e-01,5.087097339077421843e-02,-5.004516988607715655e-01,1.215668692612043174e+02
2.963378950834521852e+00,1.370962383731066936e+00,4.432330742456402350e-01,-6.413466654208499484e-01,4.092913125590690038e-02,-7.661574648652120789e-01,1.231195883460699605e+02
2.858816324831256583e+00,1.811089380996768083e+00,3.717621053462563663e-01,-3.412129125625557036e-01,2.605974910947239306e-02,-9.396236681662176737e-01,1.246723074309356036e+02
2.759084766195100791e+00,2.249715575066396411e+00,2.988711139051484222e-01,-0.000000000000000000e+00,8.052988517102241742e-03,-9.999665741300999278e-01,1.262250265158012468e+02
2.664072606592264858e+00,2.685774034230516527e+00,2.244455363273649973e-01,8.847879010088409713e-01,3.147796090136325414e-02,-4.649274225156940221e-01,1.277777456006668899e+02
2.605003692007994420e+00,2.967485188057165324e+00,1.749059199293534761e-01,-3.000046021567255930e-03,6.115345609718580294e-02,-9.981228654481614226e-01,1.287891956471853803e+02
2.455496843899334980e+00,3.712768013605917350e+00,3.963354485274303562e-02,-8.875683493731851836e-01,2.518998153463058304e-02,-4.599846628109189872e-01,1.314930740415271373e+02
2.369528722403746457e+00,4.162001547352087272e+00,-4.464894984001146344e-02,-8.919444568366668991e-01,3.059098137115009997e-02,-4.511067252916023396e-01,1.331447388182745044e+02
2.288222483461030521e+00,4.603856422544293281e+00,-1.304872541253596363e-01,-8.930750614822379196e-01,3.037901411103972188e-02,-4.488786582868976582e-01,1.347964035950218715e+02
2.211467332963269694e+00,5.037278037209678594e+00,-2.177676803936564320e-01,-8.942000504666580696e-01,3.016685593199477239e-02,-4.466477698972693422e-01,1.364480683717692386e+02
2.139163253039114032e+00,5.461251698025042955e+00,-3.063138313342396724e-01,-8.953194169931668611e-01,2.995450811475827008e-02,-4.444140735893276073e-01,1.380997331485166058e+02
2.073207216732891212e+00,5.862502417957840883e+00,-3.932578199234946781e-01,-8.964331543043122519e-01,2.974197194140211151e-02,-4.421775828493478278e-01,1.397023360546264996e+02
2.011327419962763763e+00,6.252677535342833437e+00,-4.810327889020877823e-01,-9.281949366872864760e-01,2.073466047577261426e-02,-3.715134363163425379e-01,1.413049389607363935e+02
1.953413534104675220e+00,6.630882342335820745e+00,-5.694027314192553479e-01,-9.543101625766606810e-01,1.160121122747137523e-02,-2.985892253605182955e-01,1.429075418668462873e+02
1.899341134030975375e+00,6.996303175896630755e+00,-6.580508245830802849e-01,-9.746199611080970104e-01,2.397186508452895607e-03,-2.238485758427647410e-01,1.445101447729561812e+02
1.848976092458642251e+00,7.348167335163456215e+00,-7.466198376203261322e-01,-9.890007781471136239e-01,-6.821421981014469567e-03,-1.477461641695761996e-01,1.461127476790660751e+02
1.796505803965029902e+00,7.727231552386919056e+00,-8.455870306381125800e-01,-9.973651281164400695e-01,-1.599853377879860081e-02,-7.074495129980189201e-02,1.479125925835833755e+02
1.747988745665934873e+00,8.089289730543429258e+00,-9.435949461052244303e-01,-9.996621262976596034e-01,-2.507832083259363756e-02,6.686633714196183083e-03,1.497124374881006759e+02
1.700839896357197123e+00,8.450889459943335069e+00,-1.045018297680230024e+00,-9.958777984513093040e-01,-3.400554713774012194e-02,8.407754346903924259e-02,1.516033948563057550e+02
1.657068650728482195e+00,8.792814703261507603e+00,-1.144327008107808297e+00,-9.860351658681105746e-01,-4.272590477421138455e-02,1.609569778941847551e-01,1.534943522245108340e+02
1.631886055540931579e+00,8.989130538526380221e+00,-1.203384964450857852e+00,-9.701941053317140184e-01,-5.118634429766225069e-02,2.368572484371517795e-01,1.546492817387693890e+02
1.578337211322138334e+00,9.400093405819228920e+00,-1.331623503075558546e+00,-9.484509848443186675e-01,-5.933539747378656359e-02,3.113166233189266774e-01,1.572381599301258746e+02
1.537847522922892063e+00,9.699619488454230165e+00,-1.428830479729074954e+00,-9.209380773323698754e-01,-6.712349039185749877e-02,3.838821365435837740e-01,1.592757807236200449e+02
1.497737637424529034e+00,9.974073869569357598e+00,-1.521874121647086353e+00,-8.878227559018110338e-01,-7.450324505194674818e-02,4.541123435671188258e-01,1.613134015171142153e+02
1.462430383292120162e+00,1.018875987478956979e+01,-1.598398900705961356e+00,-8.493064755427869317e-01,-8.142976759057055092e-02,5.215800068558155145e-01,1.630746862746346437e+02
1.425628683097973859e+00,1.038008538831156358e+01,-1.670803633580366432e+00,-8.056235474840588440e-01,-8.786092139095949549e-02,5.858746949921306291e-01,1.648359710321550722e+02
1.386916160032742873e+00,1.054735630740011132e+01,-1.739056257629002511e+00,-7.570397136597416532e-01,-9.375758341628957770e-02,6.466052795134193953e-01,1.665972557896755006e+02
1.333890611536862725e+00,1.073440623632066604e+01,-1.823385649252281970e+00,-7.038505299675555937e-01,-9.908388220647457167e-02,7.034023142925597272e-01,1.689064121708143489e+02
1.296370238072961589e+00,1.083965412421667551e+01,-1.877734740550192516e+00,-6.463795681611977928e-01,-1.038074160908680488e-01,7.559202829857525341e-01,1.704833263511160624e+02
1.257673712262501242e+00,1.092199729066914671e+01,-1.929058269914239121e+00,-5.849764473225549377e-01,-1.078994502897725055e-01,8.038397008770860053e-01,1.720602405314177759e+02
1.218012675393349342e+00,1.098110037674299022e+01,-1.977524047032952481e+00,-5.200147068956227914e-01,-1.113350917062517625e-01,8.468690583368070346e-01,1.736371547117194893e+02
1.170253245119972751e+00,1.102310729112423537e+01,-2.031662360215845897e+00,-4.518895342269060866e-01,-1.140934403456062424e-01,8.847465940752032854e-01,1.755018574284269164e+02
1.121940951546454901e+00,1.103682247655899751e+01,-2.082858498695510985e+00,-3.810153604409006189e-01,-1.161577164421581793e-01,9.172418874105855435e-01,1.773665601451343434e+02
1.073415027716807524e+00,1.102193552758876116e+01,-2.131354472805842448e+00,-3.078233392787472211e-01,-1.175153625208415764e-01,9.441572598717250520e-01,1.792312628618417705e+02
1.031628979342463337e+00,1.098422969180600539e+01,-2.171118779791112452e+00,-2.327587242384741295e-01,-1.181581197735866728e-01,9.653289776154818647e-01,1.808425461474889175e+02
9.903129939762029821e-01,1.092161935411160201e+01,-2.208913744389537026e+00,-1.562781599721929371e-01,-1.180820782867133822e-01,9.806282473521640286e-01,1.824538294331360646e+02
9.497718514302980752e-01,1.083405367287386412e+01,-2.244903870224999487e+00,-7.884690441554223495e-02,-1.172877008145449540e-01,9.899619997270423521e-01,1.840651127187832117e+02
9.102777078389032717e-01,1.072153608278729209e+01,-2.279252449165817040e+00,-9.359985444647362686e-04,-1.157798199552640683e-01,9.932734553987296877e-01,1.856763960044303587e+02
8.720384047305312913e-01,1.058418157132385673e+01,-2.312120335356729228e+00,-4.948260043475500658e-04,-6.956037561248978873e-02,9.975766182541984106e-01,1.872876792900775058e+02
8.299977763993464652e-01,1.039930565935604712e+01,-2.348126468385114407e+00,-5.258718699530737787e-05,-2.319103712358124708e-02,9.997300500772001719e-01,1.891264312842747870e+02
7.905614533363098939e-01,1.019119329828595966e+01,-2.382068077610902002e+00,3.897649738495142851e-04,2.322827911525024436e-02,9.997291108736025000e-01,1.909254521062549657e+02
7.529320651951412202e-01,9.956281150940718305e+00,-2.414910543769889895e+00,8.312772998646413133e-04,6.959754899756527557e-02,9.975738018546864705e-01,1.927244729282351443e+02
7.171933919329510632e-01,9.695124674330722669e+00,-2.446872784536453072e+00,1.270998420251511071e-03,1.158168560489923615e-01,9.932687654470641059e-01,1.945234937502153230e+02
6.822291031324816402e-01,9.398422758674657373e+00,-2.479280207634023458e+00,0.000000000000000000e+00,1.466999104702475069e-02,9.998913897744834411e-01,1.963850754527980484e+02
6.785366094486287025e-01,9.361570786743447670e+00,-2.482927736588682155e+00,-0.000000000000000000e+00,1.173078338862832276e-01,9.930945937287509739e-01,1.965977098893566506e+02
6.433545073870652331e-01,8.951446618642961539e+00,-2.520125703151590457e+00,-0.000000000000000000e+00,-7.950793855506620156e-02,9.968332296322490738e-01,1.987919218826332894e+02
6.101182265853010156e-01,8.512864602115424617e+00,-2.556982914555561592e+00,-0.000000000000000000e+00,1.466999104701379592e-02,9.998913897737367051e-01,2.009861338759099283e+02
5.765939262578948510e-01,8.017349349038546791e+00,-2.595991337101760443e+00,-0.000000000000000000e+00,1.466999103679639260e-02,9.998913890773289959e-01,2.033230477967875345e+02
5.558416947002827735e-01,7.673552237909293083e+00,-2.621551264669547354e+00,-0.000000000000000000e+00,1.466976031730999296e-02,9.998913924623920035e-01,2.048620966673256021e+02
5.365084549183279927e-01,7.313397674111141278e+00,-2.646972423334442492e+00,-0.000000000000000000e+00,1.466952959785109388e-02,9.998913958473880648e-01,2.064011455378636697e+02
5.183653692199646779e-01,6.937906287834264774e+00,-2.672233073153822414e+00,-0.000000000000000000e+00,1.466929887841424834e-02,9.998913992323187339e-01,2.079401944084017373e+02
5.011671426645494254e-01,6.548097592093138353e+00,-2.697271855498658777e+00,-0.000000000000000000e+00,1.466906815899399891e-02,9.998914026171838998e-01,2.094792432789398049e+02
4.846280887809731319e-01,6.144987626485549193e+00,-2.721948173684086481e+00,-0.000000000000000000e+00,1.466883743958488466e-02,9.998914060019838956e-01,2.110182921494778725e+02
4.677570584659916375e-01,5.712793172125284258e+00,-2.747056391532705977e+00,-0.000000000000000000e+00,1.466860672018144643e-02,9.998914093867188324e-01,2.126196247326285231e+02
4.508762781327748104e-01,5.268919897909696282e+00,-2.771404498305741981e+00,-0.000000000000000000e+00,1.466837600077821983e-02,9.998914127713883770e-01,2.142209573157791738e+02
4.336750999131164797e-01,4.814471724352237025e+00,-2.794797404531992324e+00,-0.000000000000000000e+00,1.466814528136974917e-02,9.998914161559930847e-01,2.158222898989298244e+02
4.158512167136561577e-01,4.350554732415565340e+00,-2.817040027535013813e+00,-0.000000000000000000e+00,1.466791456195056832e-02,9.998914195405328442e-01,2.174236224820804750e+02
3.971106679880161971e-01,3.878277116299541749e+00,-2.837937292817520163e+00,-0.000000000000000000e+00,1.466768384251521812e-02,9.998914229250078778e-01,2.190249550652311257e+02
3.744883976659368341e-01,3.337690887720741184e+00,-2.859752938024006319e+00,-0.000000000000000000e+00,1.466745312305824112e-02,9.998914263094179633e-01,2.208303364716693977e+02
3.499019947825669496e-01,2.790356017903369512e+00,-2.879582483200824772e+00,-0.000000000000000000e+00,1.466722240357417294e-02,9.998914296937634338e-01,2.226357178781076698e+02
3.230023748395470795e-01,2.237802867129611073e+00,-2.897043547569580824e+00,-0.000000000000000000e+00,1.466699168405755267e-02,9.998914330780442894e-01,2.244410992845459418e+02
2.934350212073464359e-01,1.681789618728845914e+00,-2.911802796717028574e+00,9.999988887661791499e-07,-4.977924468355826582e-01,-8.672950362313521788e-01,2.262464806909842139e+02
2.660525917165001419e-01,1.210301082437135411e+00,-2.922123776462054234e+00,3.244448717455262754e-01,-5.379876109939510931e-01,-7.780121179105404794e-01,2.277728269828524503e+02
2.361896069801959208e-01,7.387938858273411791e-01,-2.930651817414853699e+00,6.116259718382536237e-01,-5.163942622422466044e-01,-5.993735367001721270e-01,2.292991732747206868e+02
2.036138034904328431e-01,2.685835796882937720e-01,-2.937669925664106341e+00,8.285611161590273888e-01,-4.354923732465538766e-01,-3.518961063063235639e-01,2.308255195665889232e+02
1.680961570767803837e-01,-1.990648383280979872e-01,-2.943332221799819681e+00,9.503349541578963722e-01,-3.045736295474487654e-01,-6.400296157447907253e-02,2.323518658584571597e+02
1.294135571615060432e-01,-6.629108233123452987e-01,-2.947728387733185240e+00,9.629616193361364429e-01,-1.386742592781193273e-01,2.312409338759621180e-01,2.338782121503253961e+02
7.842807751008461226e-02,-1.216552860495836663e+00,-2.951618759830397565e+00,8.649910223442305313e-01,4.315195122752376461e-02,4.999264349583396605e-01,2.357203943000762081e+02
2.265298863191427675e-02,-1.762256388445704536e+00,-2.954217540522719343e+00,9.781778258698922146e-01,-1.355455212484773519e-01,1.574596857844253461e-01,2.375625764498270200e+02
-3.822621558568878308e-02,-2.298265198352166916e+00,-2.955574477382806098e+00,9.328726139843532827e-01,-2.922808213636175489e-01,-2.105198507088520965e-01,2.394047585995778320e+02
-1.045735612732009157e-01,-2.822940511291930576e+00,-2.955577484387272857e+00,7.364161080999079845e-01,-4.016585135368967996e-01,-5.443893406704475302e-01,2.412469407493286440e+02
-1.747412446423107779e-01,-3.320557413738270292e+00,-2.954077762452457900e+00,-9.789433609088759036e-01,-2.146098598945944333e-02,-2.029958674766464410e-01,2.430381597588659872e+02
-2.508861085337033003e-01,-3.804125543690009881e+00,-2.950891832759606537e+00,-9.494871525968816561e-01,-0.000000000000000000e+00,-3.138027199357540376e-01,2.448293787684033305e+02
-3.333695019859556075e-01,-4.272232368752370668e+00,-2.945758325569452385e+00,-4.121217380057424773e-01,-0.000000000000000000e+00,-9.111276930593075196e-01,2.466205977779406737e+02
-4.223417976129036910e-01,-4.723698241189338454e+00,-2.938255856883071893e+00,3.912944783761527212e-01,-0.000000000000000000e+00,-9.202644354688924722e-01,2.484118167874780170e+02
-5.153918058902869914e-01,-5.148152799181186623e+00,-2.928107520558049348e+00,9.421051217393391353e-01,-0.000000000000000000e+00,-3.353146874088759888e-01,2.501642124378294341e+02
-6.138609837297501759e-01,-5.554621846049363043e+00,-2.914597185406038182e+00,-9.494871526034883713e-01,-0.000000000000000000e+00,-3.138027199379375687e-01,2.519166080881808512e+02
-7.171794684518475460e-01,-5.942585260269962255e+00,-2.897042030745105468e+00,-9.046969735369371213e-01,3.706155304741220458e-01,-2.101559293605895495e-01,2.536690037385322682e+02
-8.218155754136762248e-01,-6.301565468220814203e+00,-2.875788196113353568e+00,-7.241073156651529619e-01,6.855997642587435825e-01,-7.496371555340225479e-02,2.553735019126669386e+02
-9.300232081087119740e-01,-6.641824777154438308e+00,-2.851068699815512364e+00,-4.348255654857320907e-01,8.976721029705528876e-01,7.148092857024561375e-02,2.570780000868015804e+02
-1.041218178033777697e+00,-6.963160146855059907e+00,-2.824007037756300686e+00,-3.001165563029274397e-01,9.514085803291120191e-01,-6.891854546606453191e-02,2.587824982609362223e+02
-1.154742629530491227e+00,-7.265564642440595300e+00,-2.795612539760964133e+00,-1.531790029005946352e-01,9.663787566381508709e-01,-2.065097861828788794e-01,2.604869964350708642e+02
-1.275994452339697549e+00,-7.564047676598899983e+00,-2.765339808692388601e+00,-0.000000000000000000e+00,9.419726912945645125e-01,-3.356865336225824947e-01,2.622813080703589890e+02
-1.398265979547133719e+00,-7.842755448538496488e+00,-2.735732570739942471e+00,-0.000000000000000000e+00,1.466799147870415446e-02,9.998914191181110800e-01,2.640756197056471137e+02
-1.520795614188259703e+00,-8.101857530088095061e+00,-2.707790469594191229e+00,-6.696665005624301559e-01,1.278249046681300127e-01,7.315774543892136217e-01,2.658699313409352385e+02
-1.642834748893244656e+00,-8.341667757960809837e+00,-2.682390124750922755e+00,-2.031297923577800660e-02,9.495260293807207264e-01,-3.130266800195874999e-01,2.676642429762233633e+02
-1.765029194385617561e+00,-8.565100660010267930e+00,-2.660096710255270391e+00,-1.701496840571736432e-02,9.890717577495256041e-01,-1.464429884737697418e-01,2.694790839320903615e+02
-1.885294238552025936e+00,-8.769871866639695313e+00,-2.641969289950827804e+00,-1.321799594187797466e-02,9.996130306686950018e-01,2.443508750856386927e-02,2.712939248879573597e+02
-2.020676286198775262e+00,-8.984410323380917163e+00,-2.626689803517517685e+00,-9.033407574588134259e-03,9.808407454872315467e-01,1.945965815235526086e-01,2.733795550726703141e+02
-2.152739499929500422e+00,-9.178993542720265353e+00,-2.617628195723155748e+00,-4.583915492154807397e-03,9.333054024639588775e-01,3.590515470671399312e-01,2.754651852573832684e+02
-2.256381258962438796e+00,-9.320898316808786888e+00,-2.615747227701314515e+00,0.000000000000000000e+00,8.584009604375509861e-01,5.129773787611562330e-01,2.771503241305571805e+02
-2.356729945687304539e+00,-9.448254247348179646e+00,-2.619571951609780847e+00,-4.525244665824728063e-01,-6.821651958912748892e-01,5.743433229873349255e-01,2.788354630037310926e+02
-2.453730179373924347e+00,-9.561737832520885050e+00,-2.629241622807640510e+00,2.131895102082013160e-01,-3.939234023943793961e-01,8.940763869942801589e-01,2.805206018769050047e+02
-2.548174981006605222e+00,-9.662880143394900756e+00,-2.644975144111051168e+00,7.449168157997577699e-01,1.418958315944783000e-01,6.518914867617585651e-01,2.822201010611022980e+02
-2.639248503374933996e+00,-9.751401818639491736e+00,-2.666737978213910676e+00,8.084710213409476154e-01,5.885342875756918168e-01,0.000000000000000000e+00,2.839196002452995913e+02
-2.726978595778973169e+00,-9.827996531150994031e+00,-2.694490596469894861e+00,-6.700796228893025897e-02,0.000000000000000000e+00,-9.977514384805505898e-01,2.856190994294968846e+02
-2.822197737741122037e+00,-9.901701514902315537e+00,-2.732427434763185836e+00,-0.000000000000000000e+00,3.410856895394125399e-01,-9.400311443715456683e-01,2.875356173344138142e+02
-2.913758836710161670e+00,-9.963562043819061742e+00,-2.776872063825201131e+00,-4.477014130561516314e-01,5.740342474317470245e-01,-6.855991011684057224e-01,2.894521352393307438e+02
-2.992265956295829810e+00,-1.000899366161569937e+01,-2.822265342544147959e+00,4.034587101641544660e-01,-5.855715793382828549e-01,-7.030824949210309205e-01,2.911639216021561083e+02
-3.067444350463647940e+00,-1.004527781576158141e+01,-2.873247532655414549e+00,5.111382492514607856e-01,-6.238836980216683897e-02,-8.572300633240627077e-01,2.928757079649814727e+02
-3.091524684851658655e+00,-1.005458851795811448e+01,-2.892208548028337933e+00,4.608364502591712486e-01,4.800774273062328734e-01,-7.464271095724793748e-01,2.934503363860486616e+02
-3.156593676937929693e+00,-1.007321073330067840e+01,-2.951236444847905371e+00,-1.405218985061423009e-01,4.256286925838717594e-01,8.939193543545544962e-01,2.950832174921559385e+02
-3.218242298095723264e+00,-1.008420820217077107e+01,-3.015244233468268309e+00,8.849807075426796565e-01,-1.526297770940416784e-02,-4.653753203493201651e-01,2.967160985982632155e+02
-3.276350775764222067e+00,-1.008791962568725431e+01,-3.084029578558605600e+00,9.749222939673823918e-01,2.201008603730866542e-01,-3.286536155594085157e-02,2.983489797043704925e+02
-3.346236969081993973e+00,-1.008375842713118153e+01,-3.178168907396542231e+00,8.205960710383516377e-01,4.003182415011931616e-01,4.078791410691464114e-01,3.004448179621692248e+02
-3.411264790775599298e+00,-1.007111858546305072e+01,-3.277857661336637918e+00,4.606684729586478788e-01,4.802354505724701350e-01,7.464291460257225230e-01,3.025406562199679570e+02
-3.463885458520866045e+00,-1.005298657178677679e+01,-3.369871879579993124e+00,4.606684726334412394e-01,4.802354502334502673e-01,7.464291454987845853e-01,3.043780171839029549e+02
-3.512034043051615040e+00,-1.002808397875611135e+01,-3.466326479280026795e+00,4.606684726334780988e-01,4.802354502334886810e-01,7.464291454988443153e-01,3.062153781478379528e+02
-3.555675404154504449e+00,-9.996580720635984463e+00,-3.567123503847309696e+00,4.606684726334781543e-01,4.802354502334886810e-01,7.464291454988444263e-01,3.080527391117729508e+02
-3.594836850748699408e+00,-9.958567121021680180e+00,-3.672306462407779026e+00,4.606684726334412394e-01,4.802354502334502118e-01,7.464291454987844743e-01,3.098919162615485448e+02
-3.629507218562900039e+00,-9.914162978959325301e+00,-3.781710667246156898e+00,4.606684726333674651e-01,4.802354502333733843e-01,7.464291454986650143e-01,3.117310934113241387e+02
-3.659803895094281945e+00,-9.863377808788056811e+00,-3.895261893099419837e+00,5.508819878695868644e-01,4.679574830596354151e-01,6.910447376911441619e-01,3.135702705610997327e+02
-3.683678203422265263e+00,-9.811036951872413425e+00,-4.002908100669507974e+00,6.348393095684422560e-01,4.503650715413078376e-01,6.278123552173440203e-01,3.152534647345256644e+02
-3.703843307745847913e+00,-9.752809957749674297e+00,-4.114212875972330430e+00,7.115869627918464113e-01,4.276580074205471593e-01,5.574501081487521770e-01,3.169366589079515961e+02
-3.720448007912028121e+00,-9.688611993869320926e+00,-4.229082499316002774e+00,7.802533498734560702e-01,4.000941673069340898e-01,4.807570772224795674e-01,3.186198530813775278e+02
-3.733715353925206148e+00,-9.618224040282733256e+00,-4.347341445236994950e+00,8.400586490554704522e-01,3.679865844364375027e-01,3.986042395950620820e-01,3.203030472548034595e+02
-3.743061386471401963e+00,-9.548163674230377040e+00,-4.457963421029168316e+00,8.903236705815471552e-01,3.316998937214247767e-01,3.119245775962755651e-01,3.218368154976241158e+02
-3.749984446747483879e+00,-9.471894399806934928e+00,-4.571207304164665253e+00,9.304775700053253829e-01,2.916461907960860578e-01,2.217024833245914428e-01,3.233705837404447720e+02
-3.754785311486019239e+00,-9.389131182291796662e+00,-4.686838516500765550e+00,9.600643311207360808e-01,2.482803520756282911e-01,1.289625793942377474e-01,3.249043519832654283e+02
-3.757762623463879237e+00,-9.299586737391116742e+00,-4.804622464304018514e+00,9.787479448866448495e-01,2.020948689676493326e-01,3.475808277478756314e-02,3.264381202260860846e+02
-3.759237616486421185e+00,-9.203008138114519454e+00,-4.924298818788391152e+00,9.863162255211782581e-01,1.536142548917009965e-01,-5.984115614461157223e-02,3.279718884689067409e+02
-3.759579193002443365e+00,-9.099213182936740196e+00,-5.045555796824663375e+00,9.826832204128918002e-01,1.033890886155618832e-01,-1.537608034420047121e-01,3.295056567117273971e+02
-3.759046597678648016e+00,-8.958176706686039381e+00,-5.200934849188103115e+00,9.678901864615589989e-01,5.198976154892924473e-02,-2.459342425250613529e-01,3.314514830423502190e+02
-3.758083473128644325e+00,-8.807552956026825086e+00,-5.357341958642180657e+00,9.421051217399151190e-01,0.000000000000000000e+00,-3.353146874090809360e-01,3.333973093729730408e+02
-3.757306532839382207e+00,-8.647151037014756625e+00,-5.514197972149935900e+00,8.235319588271781122e-01,5.484877832202453840e-01,-1.447558788075984371e-01,3.353431357035958627e+02
-3.757323343526894455e+00,-8.489488133780833223e+00,-5.659275453810527878e+00,4.157246280600859212e-01,9.043401909062148691e-01,9.664291353565672427e-02,3.371450062663768108e+02
-3.758610632783659700e+00,-8.322674635857945091e+00,-5.803579634080924698e+00,3.924833669591956675e-01,9.197576801769090649e-01,7.851220633490225021e-04,3.389468768291577589e+02
-3.761632758824223544e+00,-8.146709769918521360e+00,-5.946474477087305921e+00,3.653303888230131635e-01,9.260083203014869424e-01,-9.508048030843338494e-02,3.407487473919387071e+02
-3.765984602169615059e+00,-7.991625488168780045e+00,-6.064451228561049234e+00,3.345363177933524113e-01,9.230298177661016013e-01,-1.899984410276085167e-01,3.422586678572885148e+02
-3.772468632115279163e+00,-7.828963666305799762e+00,-6.180091271725771662e+00,3.004080668295337486e-01,9.108518619318618503e-01,-2.830227535024576468e-01,3.437685883226383226e+02
-3.781292655165177763e+00,-7.658778496711878603e+00,-6.292813156452599976e+00,2.632857787357265611e-01,8.895958287901806205e-01,-3.732262854031825339e-01,3.452785087879881303e+02
-3.793669813792590606e+00,-7.463457970526753193e+00,-6.412809080823068442e+00,2.235394360498373645e-01,8.594735709637746357e-01,-4.597100187581473762e-01,3.469386984345326255e+02
-3.808779687258567748e+00,-7.260023739610200977e+00,-6.528049459986795533e+00,1.815651735859873384e-01,8.207853060390498667e-01,-5.416120097749500539e-01,3.485988880810771207e+02
-3.826679540036281413e+00,-7.048562307969419294e+00,-6.637681909312838080e+00,1.377813303813694712e-01,7.739166242955579644e-01,-6.181159791161658923e-01,3.502590777276216158e+02
-3.848449122036406322e+00,-6.817315339332029822e+00,-6.746358892961149323e+00,9.262428039076162078e-02,7.193346456663953781e-01,-6.884594470464737714e-01,3.520088635867855942e+02
-3.873047398469431801e+00,-6.577782784109092340e+00,-6.847151505650479919e+00,4.654408347282868591e-02,6.575833642332811202e-01,-7.519413324048220826e-01,3.537586494459495725e+02
-3.900422394291021000e+00,-6.330056240666352529e+00,-6.939035094866070175e+00,0.000000000000000000e+00,5.892782266480061093e-01,-8.079289396970256165e-01,3.555084353051135508e+02
-3.931708284904502193e+00,-6.063974011314867241e+00,-7.024257878235905750e+00,-8.479704324504232504e-01,5.300416452412727297e-01,-0.000000000000000000e+00,3.573283425339731707e+02
-3.965710019175659351e+00,-5.789552882721160643e+00,-7.098035852374497523e+00,-4.499992964605882551e-04,3.515004504559849918e-01,9.361865363441005394e-01,3.591482497628327906e+02
-3.996476808417909865e+00,-5.552474316418657629e+00,-7.149430250043510071e+00,5.706325199951468585e-01,3.575303836994133122e-01,7.392892207096464219e-01,3.606746455612080240e+02
-4.029441714476142522e+00,-5.308557132192161632e+00,-7.189552327473723636e+00,9.334680231830649877e-01,2.330827560932161313e-01,2.725947147463789189e-01,3.622010413595832574e+02
-4.064475538645617725e+00,-5.057870604423510663e+00,-7.217663030458925100e+00,9.334680225239950779e-01,2.330827559286493267e-01,2.725947145539149297e-01,3.637274371579584908e+02
-4.136196598227707355e+00,-4.552607927114245001e+00,-7.247553096513223991e+00,-3.179997568430700024e-04,9.704192579737484781e-02,9.952792389646879512e-01,3.667233625326052788e+02
-4.148845808192312745e+00,-4.465241201827898188e+00,-7.248055314489564971e+00,1.737924780706121830e-01,4.505881557915750180e-02,9.837499060746081048e-01,3.672284575757428229e+02
-4.206190935234192629e+00,-4.078036680810268599e+00,-7.229796692729832941e+00,3.421418352598457613e-01,-8.417995946762986750e-03,9.396095475811320208e-01,3.694131690822193832e+02
-4.265356901225504593e+00,-3.681447095995778351e+00,-7.190311362193438249e+00,7.364161080999315212e-01,-4.016585135369096782e-01,-5.443893406704649607e-01,3.715978805886959435e+02
-4.324515735544142814e+00,-3.286362142726370283e+00,-7.130383141915283218e+00,-6.799996278745866929e-05,-9.702994690098697139e-02,9.952804553391859654e-01,3.737239837334024060e+02
-4.384782797812880162e+00,-2.882062881224720208e+00,-7.048168390538040562e+00,-0.000000000000000000e+00,-9.695091801188839009e-02,9.952881583184741698e-01,3.758500868781088684e+02
-4.450425867528529977e+00,-2.433985425767697386e+00,-6.934132217296870238e+00,-5.300915303214127627e-01,-8.479392486978463150e-01,0.000000000000000000e+00,3.781531696799910947e+02
-4.517481271421364575e+00,-1.961523125046024330e+00,-6.789892287703797713e+00,3.390549912470548488e-01,-9.179379227104570438e-01,2.059846668096706745e-01,3.805275593676896619e+02
-4.574439730245621227e+00,-1.542948259301235581e+00,-6.640846917312545727e+00,9.360262369457714726e-01,-2.510647953304659397e-01,2.466157989573146414e-01,3.825859711819858262e+02
-4.621926620185355716e+00,-1.177213865724140884e+00,-6.492580718059707046e+00,8.334940336916326631e-01,-4.795566941214228218e-01,2.744286299281255004e-01,3.843477663807043427e+02
-4.667971505840432300e+00,-8.040904606994111470e-01,-6.324691700908717351e+00,6.780390738811036266e-01,-6.775990870894794682e-01,2.848165926809557158e-01,3.861095615794228593e+02
-4.712397555486463219e+00,-4.234429485324723297e-01,-6.138870998648996213e+00,4.795319516408828586e-01,-8.326172922495296280e-01,2.771201039310906555e-01,3.878713567781413758e+02
-4.776422063029891696e+00,1.653074365943880408e-01,-5.832813148133820569e+00,2.505768424026739716e-01,-9.347684120885201287e-01,2.518278416158728494e-01,3.905416662036265052e+02
-4.812613482249542329e+00,5.244478801404403034e-01,-5.636991194444826547e+00,0.000000000000000000e+00,-9.950534475057741801e-01,-9.933094484741135377e-02,3.921377518445078181e+02
-4.847005568744835458e+00,8.909075632976530823e-01,-5.429671007221452683e+00,2.321987652429432054e-07,-9.583729148012702925e-01,-2.855159473222663169e-01,3.937338374853891310e+02
-4.886758932379890119e+00,1.351417194744402028e+00,-5.161512424331005100e+00,4.560358772066878697e-07,-8.871810355276744664e-01,-4.614193431145535151e-01,3.956998775320587924e+02
-4.923474573140185662e+00,1.821045798620349210e+00,-4.881963348367998279e+00,6.634509110828614192e-07,-7.840414845551121337e-01,-6.207068152492484225e-01,3.976659175787284539e+02
-4.959357655398955345e+00,2.335934823407762817e+00,-4.570557038411298123e+00,8.469748214387955035e-07,-6.526683622098380377e-01,-7.576424017769965991e-01,3.997808184345842051e+02
-4.991292271955662940e+00,2.860279769911234116e+00,-4.250076483273838690e+00,9.999988887670117833e-07,-4.977924468359971044e-01,-8.672950362320742679e-01,4.018957192904399562e+02
-5.014331746121880151e+00,3.299884287753741319e+00,-3.979794316620097749e+00,2.228023521830259368e-01,-4.288839450128295039e-01,-8.754516968818008005e-01,4.036386057486217851e+02
-5.034058340267070442e+00,3.746634962872556152e+00,-3.704532572035714733e+00,4.334708562453316594e-01,-3.366203906175920246e-01,-8.359352423530578280e-01,4.053814922068036140e+02
-5.050227637513536649e+00,4.200145163317330343e+00,-3.425408868811831375e+00,6.205344886260227844e-01,-2.260260414806637697e-01,-7.508975808988789247e-01,4.071243786649854428e+02
-5.065419458217560233e+00,4.778443829778183272e+00,-3.070932457254008874e+00,7.738066451482856767e-01,-1.031233541012471777e-01,-6.249694790666368016e-01,4.093164075096505599e+02
-5.074727603094735251e+00,5.363963487062510360e+00,-2.714612465391363916e+00,8.849408409610889370e-01,2.539496673929687171e-02,-4.650083909617522826e-01,4.115084363543156769e+02
-5.077903643680609314e+00,6.128349683167143347e+00,-2.254237577256221314e+00,7.866714129145110368e-01,2.421398304954397104e-02,-6.168952675531892416e-01,4.143394460944676894e+02
-5.073774881970006589e+00,6.640640930734993397e+00,-1.949588024517840523e+00,6.626558551257186735e-01,2.224052540972573308e-02,-7.485923969015521040e-01,4.162202302066826292e+02
-5.065251531537692031e+00,7.073455820533856908e+00,-1.695672763306358632e+00,5.169529465304776306e-01,1.953918127465011090e-02,-8.557896186974734976e-01,4.177986149269111706e+02
-5.051433837153722628e+00,7.508319960122601167e+00,-1.443952114428320943e+00,3.543312384796823977e-01,1.619836006684717902e-02,-9.349786021992166907e-01,4.193769996471397121e+02
-5.031949487014475864e+00,7.944382411694530077e+00,-1.194801377609588711e+00,1.801129927578620227e-01,1.232739974839881791e-02,-9.835676616567774477e-01,4.209553843673682536e+02
-5.006432325953884543e+00,8.380789509741930488e+00,-9.485958348179367450e-01,0.000000000000000000e+00,8.052988517102432561e-03,-9.999665741301235755e-01,4.225337690875967951e+02
-4.973012612265769405e+00,8.836721517568337347e+00,-6.945434270812601563e-01,8.965938298732633038e-01,2.929696176511913802e-02,-4.418814233093619204e-01,4.241847532976448747e+02
-4.932433016704780293e+00,9.291152249714206945e+00,-4.443379969176762256e-01,9.498937998041210307e-01,-1.397806889475467218e-01,2.795731176139459873e-01,4.258357375076929543e+02
-4.884281945337320074e+00,9.743076438404818518e+00,-1.982801842553356952e-01,4.789225235544631865e-01,-2.317097694886331716e-01,8.467241576550987858e-01,4.274867217177410339e+02
-4.828144779178610513e+00,1.019146493537787634e+01,4.336604378693376810e-02,9.038102623225684473e-01,-2.478333434142906411e-01,3.488604930521583269e-01,4.291377059277891135e+02
-4.757472379228367743e+00,1.067743523560387509e+01,3.028520400664023726e-01,9.412718042646517347e-01,-1.577209262945140078e-01,-2.985456412424588035e-01,4.309456491506165889e+02
-4.677614411444405818e+00,1.115720572590637083e+01,5.569412403625220165e-01,5.752485914333934636e-01,-0.000000000000000000e+00,-8.179774190368073183e-01,4.327535923734440644e+02
-4.589351656674513613e+00,1.162978370235703629e+01,8.054895321907409311e-01,9.703928888892788818e-01,2.415277234480527890e-01,0.000000000000000000e+00,4.345615355962715398e+02
-4.509586317641415043e+00,1.201792785622295767e+01,1.008463331821895403e+00,9.434547525921302968e-01,-7.095031974503408778e-02,-3.238165868834815830e-01,4.360720957677014553e+02
-4.424731596735441030e+00,1.239874868999555879e+01,1.206689033796835453e+00,7.247823443951237898e-01,-3.690093797294705658e-01,-5.818252580684044606e-01,4.375826559391313708e+02
-4.335522233564706340e+00,1.277164512123855289e+01,1.400128923997033814e+00,3.588155418937449270e-01,-5.920762440856115472e-01,-7.215920787304164197e-01,4.390932161105612863e+02
-4.242634951830671852e+00,1.313604579490825586e+01,1.588778079107986629e+00,6.742278902933931395e-01,-5.647980535194079277e-01,-4.758339108261752659e-01,4.406037762819912018e+02
-4.099211146724872634e+00,1.366593389208918197e+01,1.863075555646396708e+00,8.813414670223306269e-01,-4.467982912291586506e-01,-1.536440869743027626e-01,4.428572311856444799e+02
-3.951709061305223702e+00,1.418090908280449369e+01,2.130306522667756663e+00,9.468881739279743082e-01,-2.570307883640577384e-01,1.932251534058399833e-01,4.451106860892977579e+02
-3.831880108531960261e+00,1.457906964602418576e+01,2.337944347267335132e+00,8.603393970712993610e-01,-2.597729820944194926e-02,5.090572677266864687e-01,4.469081891462044496e+02
-3.710795264219389100e+00,1.496402579931456245e+01,2.540190845759192850e+00,6.355972790765830327e-01,2.092487626605116779e-01,7.431211571180973419e-01,4.487056922031111412e+02
-3.589043233416992607e+00,1.533522199365555316e+01,2.737174607065069765e+00,7.342455860396148726e-01,2.131448798310290049e-01,6.445546366064833776e-01,4.505031952600178329e+02
-3.467055248373946075e+00,1.569220841919897147e+01,2.929035772741296118e+00,0.000000000000000000e+00,-9.967539354453558431e-01,8.049591402863227885e-02,4.523006983169245245e+02
-3.348564084259530560e+00,1.602515370752275103e+01,3.110764070148538618e+00,7.071496252785545167e-01,-7.070616641984891482e-01,1.100222864366724122e-03,4.540486153051133442e+02
-3.230563802102396576e+00,1.634353821543421503e+01,3.287791413531060858e+00,9.968779763718003117e-01,-0.000000000000000000e+00,-7.894491893667313076e-02,4.557965322933021639e+02
-3.113317503409687159e+00,1.664707230254233750e+01,3.460230489379291008e+00,9.830942051930524617e-01,1.332842997926784491e-02,-1.826092458487580950e-01,4.575444492814909836e+02
-2.996935004187510021e+00,1.693562714332949071e+01,3.628143189693980197e+00,9.583843751103273689e-01,2.650872615791098619e-02,-2.842440447595928066e-01,4.592923662696798033e+02
-2.881449266047595881e+00,1.720915390852061577e+01,3.791566028164182978e+00,9.230231094043584994e-01,3.939440539440305228e-02,-3.827197673605292616e-01,4.610402832578686230e+02
-2.738787853273561446e+00,1.753057788874027167e+01,3.989317203202104256e+00,8.774034044478297156e-01,5.184225875668312111e-02,-4.769419734826513269e-01,4.632146124760731709e+02
-2.596971814369850584e+00,1.783313547637629526e+01,4.181459856881681425e+00,8.220322628898500961e-01,6.371394286818644892e-02,-5.658634925944604488e-01,4.653889416942777189e+02
-2.499248439006867439e+00,1.803024489860482049e+01,4.310725953072650718e+00,7.872757535745330548e-01,-2.524580782218628361e-01,-5.625476038301168158e-01,4.668978939869770670e+02
-2.402306326195704056e+00,1.821476285063943479e+01,4.435689973652999107e+00,6.728595804798876978e-01,-5.430853664567104611e-01,-5.023109293037358869e-01,4.684068462796764152e+02
-2.306084699735601262e+00,1.838686258481869729e+01,4.556147581707663541e+00,4.903608595357333844e-01,-7.787611031028754960e-01,-3.912484782469194955e-01,4.699157985723757633e+02
-2.210524731506089413e+00,1.854676559559725035e+01,4.671843117326933914e+00,2.582455564346532451e-01,-9.356387290172188953e-01,-2.405980077767101988e-01,4.714247508650751115e+02
-2.115587034628130247e+00,1.869479767454943442e+01,4.782404782003676580e+00,0.000000000000000000e+00,-9.978448059155610173e-01,-6.560292149537959305e-02,4.729337031577744597e+02
-2.021262559493004041e+00,1.883134745347562244e+01,4.887382526618856637e+00,2.745131956031369724e-01,-8.841973309811895776e-01,3.779359540012555696e-01,4.744426554504738078e+02
-1.927554307347947304e+00,1.895681058375167538e+01,4.986312871494229526e+00,4.707899837478531357e-01,-5.185531209752474169e-01,7.137628821470551888e-01,4.759516077431731560e+02
-1.830856546194078449e+00,1.907601532593653459e+01,5.082299025438116402e+00,5.328913625204573234e-01,-5.120993873931794886e-03,8.461669877596406097e-01,4.775188745708272791e+02
-1.734779797649425248e+00,1.918452892733421322e+01,5.171022169522844436e+00,9.344835956930463983e-01,-8.980225812254809953e-03,3.558901023088524851e-01,4.790861413984814021e+02
-1.639318117223383053e+00,1.928277768598901787e+01,5.251982432094593811e+00,9.607273360909555082e-01,-9.232423620774532491e-03,-2.773368854581112486e-01,4.806534082261355252e+02
-1.544462438979592012e+00,1.937118770834164749e+01,5.324679994331432908e+00,6.010793394847367965e-01,-5.776268545036024327e-03,-7.991672305356558592e-01,4.822206750537896482e+02
-1.450200576335781255e+00,1.945018489197193645e+01,5.388615093646025755e+00,0.000000000000000000e+00,-0.000000000000000000e+00,-9.999989999991235612e-01,4.837879418814437713e+02
-1.356517222900381014e+00,1.952019490834522486e+01,5.443288027088178715e+00,0.000000000000000000e+00,-9.968312352734655102e-01,-7.953293898571126008e-02,4.853552087090978944e+02
-1.263404207262272427e+00,1.958157477457831064e+01,5.488250902867494396e+00,2.695649826358635370e-01,-9.296386372063286663e-01,-2.512065372364797877e-01,4.869224755367520174e+02
-1.170871421188905082e+00,1.963454452716659659e+01,5.523159391523297046e+00,5.103802405310049473e-01,-7.632981031439456387e-01,-3.960883939389738817e-01,4.884897423644061405e+02
-1.078937576357253736e+00,1.967925577311473262e+01,5.547720980148739045e+00,6.967623481974604127e-01,-5.155502242704175231e-01,-4.987265747780926239e-01,4.900570091920602636e+02
-9.876202873451720432e-01,1.971586014449696123e+01,5.561643226262166451e+00,8.088332836539489090e-01,-2.128178115171544260e-01,-5.481745145073072534e-01,4.916242760197143866e+02
-8.969360717694441210e-01,1.974450929240179775e+01,5.564633759798517154e+00,4.595995113951369393e-01,-5.348094314387145110e-01,-7.090452462068673745e-01,4.931915428473685097e+02
-7.685093419848506580e-01,1.977415932501558160e+01,5.552841609325197325e+00,3.557102075596545454e-01,-5.632185734645729358e-01,-7.458237638632615463e-01,4.954266676423670219e+02
