2.780810040996462451e+00,2.280990399759910137e+00,5.064640558175259599e-01,-9.540481232078892315e-01,2.703298957122939744e-02,-2.984282092536306163e-01,1.262250265158012468e+02
2.677553500671665976e+00,2.778253567565214244e+00,4.376117951052623800e-01,-9.350414520757649450e-01,2.650806282967038338e-02,-3.535432158946367753e-01,1.277777456006668899e+02
2.614732475909428810e+00,3.099623688621453876e+00,3.920133744227770611e-01,-9.128563900326716052e-01,2.589302993635543559e-02,-4.074564543326962829e-01,1.287891956471853803e+02
2.459512693310926146e+00,3.950045799851972017e+00,2.680938720083774762e-01,-8.875683493732705598e-01,2.518998153463300818e-02,-4.599846628109631741e-01,1.314930740415271373e+02
2.372633225316246541e+00,4.462744687348902950e+00,1.912825320353198078e-01,-8.919444568366668991e-01,3.059098137115009997e-02,-4.511067252916023396e-01,1.331447388182745044e+02
2.292813031806451463e+00,4.967094869935365864e+00,1.134959889415650819e-01,-8.934506821095727913e-01,3.030831586803401159e-02,-4.481353416464883832e-01,1.347964035950218715e+02
2.219857790307494749e+00,5.461869492253585534e+00,3.490246516719646558e-02,-8.949469199529483943e-01,3.002531171229425380e-02,-4.451589501840503837e-01,1.364480683717692386e+02
2.153594725578826807e+00,5.945896250552571871e+00,-4.423408869194955795e-02,-8.964331543043122519e-01,2.974197194140211151e-02,-4.421775828493478278e-01,1.380997331485166058e+02
2.095606087374391358e+00,6.404010778466147080e+00,-1.212465272125601012e-01,-8.988268889657906602e-01,2.872457957636830386e-02,-4.373592598660414610e-01,1.397023360546264996e+02
2.043730800360454403e+00,6.849502812994100687e+00,-1.981897573378105237e-01,-9.011936752862613753e-01,2.770632610015566141e-02,-4.325278246639099322e-01,1.413049389607363935e+02
1.997789676725600261e+00,7.281354589072937422e+00,-2.747077771300320270e-01,-9.035334424073349080e-01,2.668724203961717056e-02,-4.276834221177814865e-01,1.429075418668462873e+02
1.957582703200689167e+00,7.698664401238649369e+00,-3.503197017803685864e-01,-9.058461201974132848e-01,2.566735794372030505e-02,-4.228261974500501785e-01,1.445101447729561812e+02
1.922896653921393861e+00,8.100589315733525808e+00,-4.244822099891186196e-01,-9.081316393366195561e-01,2.464670438538112476e-02,-4.179562962671873882e-01,1.461127476790660751e+02
1.889992660733690988e+00,8.533737453218849467e+00,-5.055154783450592770e-01,-9.103899313188706932e-01,2.362531196054949711e-02,-4.130738645553851396e-01,1.479125925835833755e+02
1.862878698983306380e+00,8.947659178515852574e+00,-5.836014449918187630e-01,-9.126209284539243960e-01,2.260321128729356199e-02,-4.081790486761866510e-01,1.497124374881006759e+02
1.839930662830789210e+00,9.361343339936487595e+00,-6.617383522401473206e-01,-9.148245638694040283e-01,2.158043300488362431e-02,-4.032719953621069497e-01,1.516033948563057550e+02
1.821783295966223681e+00,9.752875956413676661e+00,-7.351342243771880058e-01,-9.170007715127975745e-01,2.055700777287536307e-02,-3.983528517122418844e-01,1.534943522245108340e+02
1.812887510289207249e+00,9.977936602759518436e+00,-7.766292940268100242e-01,-9.191494861534322824e-01,1.953296627019243670e-02,-3.934217651878657018e-01,1.546492817387693890e+02
1.796814819257869011e+00,1.044957046992738725e+01,-8.614659799772961257e-01,-9.212706433844256582e-01,1.850833919420858190e-02,-3.884788836080190766e-01,1.572381599301258746e+02
1.786516208825049690e+00,1.079364395186678394e+01,-9.214891532031016519e-01,-9.233641796246109257e-01,1.748315725982908450e-02,-3.835243551450857047e-01,1.592757807236200449e+02
1.777850701622647911e+00,1.110947197046616353e+01,-9.748084335802734701e-01,-9.254300321204388391e-01,1.645745119857176461e-02,-3.785583283203584060e-01,1.613134015171142153e+02
1.771644277523161559e+00,1.135730631229063015e+01,-1.015314857201848886e+00,-9.274681389478536264e-01,1.543125175764752458e-02,-3.735809519995950678e-01,1.630746862746346437e+02
1.766608183524541964e+00,1.157925685154559936e+01,-1.050464428214484602e+00,-9.294784390141457298e-01,1.440458969904032105e-02,-3.685923753885642640e-01,1.648359710321550722e+02
1.762716805373922835e+00,1.177461460473897148e+01,-1.080439140039644474e+00,-9.314608720597780112e-01,1.337749579858679184e-02,-3.635927480285808255e-01,1.665972557896755006e+02
1.759231940099168057e+00,1.199487183721618599e+01,-1.113066851077701758e+00,-9.334153786601887548e-01,1.235000084505545256e-02,-3.585822197920310872e-01,1.689064121708143489e+02
1.757896021272205900e+00,1.212006315110535049e+01,-1.130811160826420414e+00,-9.353419002275692451e-01,1.132213563922545609e-02,-3.535609408778888074e-01,1.704833263511160624e+02
1.757445194364789742e+00,1.221938149305662513e+01,-1.143997905389537939e+00,-9.372403790126151435e-01,1.029393099296508490e-02,-3.485290618072209301e-01,1.720602405314177759e+02
1.757839858540889866e+00,1.229223987102113114e+01,-1.152584521995254629e+00,-9.391107581062555498e-01,9.265417728309841006e-03,-3.434867334186844090e-01,1.736371547117194893e+02
1.759279335356911167e+00,1.234637987634017087e+01,-1.157245533957441008e+00,-9.409529814413544191e-01,8.236626676540265146e-03,-3.384341068640122074e-01,1.755018574284269164e+02
1.761656704074231472e+00,1.236773984018793016e+01,-1.156382802596237935e+00,-9.427669937943882195e-01,7.207588677259481151e-03,-3.333713336034918040e-01,1.773665601451343434e+02
1.764938521761045598e+00,1.235566873173184987e+01,-1.150019956977296198e+00,-9.445527407870981662e-01,6.178334577470478289e-03,-3.282985654014325960e-01,1.792312628618417705e+02
1.768568177515245976e+00,1.231598512075422747e+01,-1.139817214854496052e+00,-9.463101688881182527e-01,5.148895230653204556e-03,-3.232159543216264197e-01,1.808425461474889175e+02
1.773020604155892022e+00,1.224678519292453771e+01,-1.124957365045101021e+00,-9.480392254145748598e-01,4.119301495841407555e-03,-3.181236527227966904e-01,1.824538294331360646e+02
1.778314509889401540e+00,1.214781402386025633e+01,-1.105485852038498917e+00,-9.497398585336660481e-01,3.089584236699373463e-03,-3.130218132540408260e-01,1.840651127187832117e+02
1.784401101331026140e+00,1.201889044675050755e+01,-1.081463136061521446e+00,-9.514120172642108741e-01,2.059774320598503367e-03,-3.079105888502629562e-01,1.856763960044303587e+02
1.791099234359435188e+00,1.185998204649543908e+01,-1.052979675188951969e+00,-9.530556514781759470e-01,1.029902617693748438e-03,-3.027901327275983046e-01,1.872876792900775058e+02
1.799099237528252848e+00,1.164447117454067993e+01,-1.015508965664364771e+00,-9.546707119021762278e-01,0.000000000000000000e+00,-2.976605983788292442e-01,1.891264312842747870e+02
1.806831994175980283e+00,1.140034126836153661e+01,-9.741222992629199329e-01,-9.987421919058823150e-01,-0.000000000000000000e+00,-5.012019659993331017e-02,1.909254521062549657e+02
1.813878013994870919e+00,1.112330004779282433e+01,-9.281541858088645514e-01,-9.796745246587165168e-01,-0.000000000000000000e+00,2.005886979233616751e-01,1.927244729282351443e+02
1.819493572685514371e+00,1.081388645572121199e+01,-8.777718249036997600e-01,-9.766469516045874766e-01,-2.024901932016721917e-01,-7.180845062134155743e-02,1.945234937502153230e+02
1.822930000646203696e+00,1.046092766768269122e+01,-8.212857416286294399e-01,-8.610980435139656830e-01,-3.816511123333345967e-01,-3.359324156926402627e-01,1.963850754527980484e+02
1.823044657539632629e+00,1.041693975944364325e+01,-8.143582910829560984e-01,-6.463403735424584351e-01,-5.168413016604888055e-01,-5.613529998393678166e-01,1.965977098893566506e+02
1.820819979013232004e+00,9.926119010973090795e+00,-7.382909802762470663e-01,-3.571165318404133648e-01,-5.924852232853634604e-01,-7.220990533689588542e-01,1.987919218826332894e+02
1.814427165159674393e+00,9.400439066880782235e+00,-6.584402322347103764e-01,-3.377594976200421484e-01,-5.597766291392317628e-01,-7.566813379738130951e-01,2.009861338759099283e+02
1.803964015234591489e+00,8.806366906225342461e+00,-5.706697084674311471e-01,-3.175106161928679671e-01,-5.255899560525534309e-01,-7.892656122639996052e-01,2.033230477967875345e+02
1.795472605810496391e+00,8.394489659262941217e+00,-5.119571695652502807e-01,-2.964233544739535153e-01,-4.900154734944130452e-01,-8.197658389195725537e-01,2.048620966673256021e+02
1.785969498180291604e+00,7.963624850682459844e+00,-4.531022733971207250e-01,-2.745533930220199204e-01,-4.531471152785822021e-01,-8.481014834888140896e-01,2.064011455378636697e+02
1.775567812507632404e+00,7.515261547727485336e+00,-3.947995751631592221e-01,-2.519584790196180979e-01,-4.150822315393631889e-01,-8.741977270112389897e-01,2.079401944084017373e+02
1.764391445318554075e+00,7.050887728354464201e+00,-3.377436264872651361e-01,-2.286982737986422987e-01,-3.759213316904130298e-01,-8.979856635508546292e-01,2.094792432789398049e+02
1.752575065999079751e+00,6.571990222652058122e+00,-2.826289708437910719e-01,-2.048341953134939497e-01,-3.357678190447571653e-01,-9.194024821183996998e-01,2.110182921494778725e+02
1.739731028149224645e+00,6.060163117606355065e+00,-2.280336671065764098e-01,-1.804292559776413674e-01,-2.947277177963844030e-01,-9.383916325027522598e-01,2.126196247326285231e+02
1.726407837190730543e+00,5.536387758761552647e+00,-1.768979939231463128e-01,-1.555478962915282926e-01,-2.529093930839210191e-01,-9.549029745741157704e-01,2.142209573157791738e+02
1.712605090749213632e+00,5.002295759594868052e+00,-1.298697163817527922e-01,-1.302558147008563427e-01,-2.104232648750841428e-01,-9.688929106651591461e-01,2.158222898989298244e+02
1.698274067491205130e+00,4.459527135135278542e+00,-8.756187671906372205e-02,-1.046197941341941162e-01,-1.673815164268850630e-01,-9.803245006808730677e-01,2.174236224820804750e+02
1.683378418924526665e+00,3.909722097276767450e+00,-5.058748360985050596e-02,-7.870752567761087060e-02,-1.238977980908412407e-01,-9.891675596334283949e-01,2.190249550652311257e+02
1.665772539467568869e+00,3.283838035681473588e+00,-1.562778940167116465e-02,-5.258742985157865979e-02,-8.008692724472192548e-02,-9.953987373446113729e-01,2.208303364716693977e+02
1.647192986558521532e+00,2.653964879212833861e+00,1.184869597821557215e-02,-2.632847596171163443e-02,-3.606458514257170067e-02,-9.990015801054052957e-01,2.226357178781076698e+02
1.627603498865147769e+00,2.022184717871670312e+00,3.115721462838764305e-02,-0.000000000000000000e+00,8.052988517099970989e-03,-9.999665741298180421e-01,2.244410992845459418e+02
1.606904983313607094e+00,1.390571511596114140e+00,4.180163219751862475e-02,9.999988887662600415e-07,-4.977924468356228482e-01,-8.672950362314221229e-01,2.262464806909842139e+02
1.588542327053485081e+00,8.583968216648780736e-01,4.314932828470719600e-02,8.847879010088804952e-01,3.147796090136466968e-02,-4.649274225157148388e-01,2.277728269828524503e+02
1.569410711975188555e+00,3.295814519771732010e-01,3.654523837868847713e-02,6.257747867328482538e-01,7.713438809052254319e-01,1.158988069359501161e-01,2.292991732747206868e+02
1.549422486110458186e+00,-1.944321276743479487e-01,2.176881458169555028e-02,-2.290408208157609371e-01,7.769284106451358474e-01,5.864473948184129037e-01,2.308255195665889232e+02
1.528454552087288754e+00,-7.122757775016806958e-01,-1.267385871890257254e-03,-8.657284703556705763e-01,4.290397375176260852e-02,4.986696949186896211e-01,2.323518658584571597e+02
1.506370688807027403e+00,-1.222617893733440653e+00,-3.258422620231427036e-02,-9.272187685313375560e-01,3.712681243678669224e-02,3.726727184559578965e-01,2.338782121503253961e+02
1.477984227679873142e+00,-1.827805569654853857e+00,-8.040172303842348100e-02,-9.704523892051253320e-01,3.061863677775827908e-02,2.393379605662437071e-01,2.357203943000762081e+02
1.447479005480454939e+00,-2.420365876727225363e+00,-1.382685905912659774e-01,-9.945780913251712763e-01,2.350759078953929340e-02,1.012907371454820210e-01,2.375625764498270200e+02
1.414621893983784906e+00,-2.998438744010051948e+00,-2.061364307580824118e-01,-9.991208579615935559e-01,1.593368839876698612e-02,-3.875085496323720652e-02,2.394047585995778320e+02
1.379033922351658115e+00,-3.560334259228610243e+00,-2.837997605270228818e-01,-9.839912472140299737e-01,8.046056728045892018e-03,-1.780294536798548988e-01,2.412469407493286440e+02
1.341377105319486063e+00,-4.089405495185195250e+00,-3.685647887722164895e-01,-9.494871526037625964e-01,0.000000000000000000e+00,-3.138027199380282184e-01,2.430381597588659872e+02
1.300287508759809363e+00,-4.599665131942304086e+00,-4.623094992917846646e-01,-9.789433609016954252e-01,-2.146098598930203105e-02,-2.029958674751574932e-01,2.448293787684033305e+02
1.255294230089859076e+00,-5.089719970338562050e+00,-5.646810722926167703e-01,-9.705885089380992259e-01,-1.432539119000260201e-02,-2.403138145640092982e-01,2.466205977779406737e+02
1.205786835438517945e+00,-5.558439868643270998e+00,-6.749942559419136456e-01,-9.607648184864618912e-01,-7.168119757647713371e-03,-2.772680681284995785e-01,2.484118167874780170e+02
1.152298057646831575e+00,-5.995155402443709924e+00,-7.896187339557552143e-01,-9.494871525968816561e-01,-0.000000000000000000e+00,-3.138027199357540376e-01,2.501642124378294341e+02
1.093102054890257469e+00,-6.409236077993999636e+00,-9.096599867937282813e-01,-8.202441188815067230e-01,-5.027818501922053374e-01,-2.727782919484099677e-01,2.519166080881808512e+02
1.027476525643449712e+00,-6.800245239883218495e+00,-1.033697208664949851e+00,-4.685697646755085377e-01,-8.692209179255310225e-01,-1.577826716504279470e-01,2.536690037385322682e+02
9.566884058720614981e-01,-7.157873933035178382e+00,-1.156789864021454228e+00,1.016999272028911057e-02,-9.999472842347744139e-01,-0.000000000000000000e+00,2.553735019126669386e+02
8.782742392954450139e-01,-7.492554965007906631e+00,-1.280917726028041548e+00,2.897307639009964741e-02,-5.951327151925763781e-01,-8.031037368451870995e-01,2.570780000868015804e+02
7.916231231508622512e-01,-7.804147011273119716e+00,-1.404642538012196962e+00,2.433085535902761512e-02,2.912734049309533835e-01,-9.563293433976330915e-01,2.587824982609362223e+02
6.962054989769097535e-01,-8.092745062009200296e+00,-1.526418623352642001e+00,0.000000000000000000e+00,9.419726912934119900e-01,-3.356865336221717122e-01,2.604869964350708642e+02
5.861150048737017171e-01,-8.372560004042458814e+00,-1.650980913724692467e+00,-2.031297923515115039e-02,9.495260293514184990e-01,-3.130266800099275049e-01,2.622813080703589890e+02
4.662450882751489334e-01,-8.628606009776270014e+00,-1.770554526693738806e+00,-6.696665005627426837e-01,1.278249046681896595e-01,7.315774543895549042e-01,2.640756197056471137e+02
3.367543814928591894e-01,-8.861220196547220596e+00,-1.883995833592927216e+00,-0.000000000000000000e+00,1.466799147869806905e-02,9.998914191176963007e-01,2.658699313409352385e+02
1.983089845658846939e-01,-9.070946613526615465e+00,-1.990666414791043559e+00,-4.348255654857680619e-01,8.976721029706270505e-01,7.148092857025152569e-02,2.676642429762233633e+02
5.055131645560593384e-02,-9.260585172289728106e+00,-2.091772458614256092e+00,-2.110747249914043944e-01,9.321498722060358455e-01,-2.941803464142982438e-01,2.694790839320903615e+02
-1.034618137719610920e-01,-9.428498832768395843e+00,-2.186369883868056530e+00,5.171696928923642106e-02,7.942155283759729789e-01,-6.054296404815130428e-01,2.712939248879573597e+02
-2.860168962535856729e-01,-9.597580348837194464e+00,-2.288187657158005539e+00,3.970756729807328050e-02,9.670885405839482196e-01,-2.513186498672735913e-01,2.733795550726703141e+02
-4.722870675294142950e-01,-9.744116202866317522e+00,-2.384428338824423843e+00,2.152666004601217972e-02,9.896526144603347008e-01,1.418531127618732068e-01,2.754651852573832684e+02
-6.243565130693893295e-01,-9.845573331522640359e+00,-2.458887061802648599e+00,0.000000000000000000e+00,8.584009604377620395e-01,5.129773787612823543e-01,2.771503241305571805e+02
-7.769513342591811700e-01,-9.931285257207465023e+00,-2.530955735266155582e+00,0.000000000000000000e+00,3.410856895400485311e-01,-9.400311443732983774e-01,2.788354630037310926e+02
-9.293460515661103871e-01,-1.000230232916974060e+01,-2.601317878236482528e+00,-6.700796228880416538e-02,0.000000000000000000e+00,-9.977514384786732027e-01,2.805206018769050047e+02
-1.082212853354536763e+00,-1.006016011901645513e+01,-2.671162962098343474e+00,-4.477014130563379823e-01,5.740342474319859445e-01,-6.855991011686910497e-01,2.822201010611022980e+02
-1.233675789597346029e+00,-1.010531620253351370e+01,-2.740433385104946495e+00,-4.525244665823889845e-01,-6.821651958911484348e-01,5.743433229872285661e-01,2.839196002452995913e+02
-1.383258042715754144e+00,-1.013882851345844749e+01,-2.809526008254167984e+00,5.217969639828635708e-01,-1.372574330860478475e-01,8.419538736996626804e-01,2.856190994294968846e+02
-1.549359665367491035e+00,-1.016465641062388769e+01,-2.887587304707044833e+00,8.084710213409476154e-01,5.885342875756918168e-01,0.000000000000000000e+00,2.875356173344138142e+02
-1.712412471583074414e+00,-1.017975464442565681e+01,-2.966142446743285976e+00,7.037638879319243479e-01,6.630184287017544253e-01,2.551880742631946197e-01,2.894521352393307438e+02
-1.854879302437114630e+00,-1.018479783249443393e+01,-3.037058451556124083e+00,5.416066648164379327e-01,6.833786589616640539e-01,4.895445118713314114e-01,2.911639216021561083e+02
-1.993716130671155939e+00,-1.018240190463207995e+01,-3.109018503999489091e+00,3.352366237020508732e-01,6.479528924921031940e-01,6.839381954832290944e-01,2.928757079649814727e+02
-2.038972612285131714e+00,-1.017940855007295653e+01,-3.133602295591383591e+00,1.015002609490599367e-01,5.596329845325823671e-01,8.225002247118472498e-01,2.934503363860486616e+02
-2.163451809133439152e+00,-1.016513566517928169e+01,-3.204783057159812376e+00,-1.405218985061658377e-01,4.256286925839431468e-01,8.939193543547043763e-01,2.950832174921559385e+02
-2.283465937570080762e+00,-1.014533002680174611e+01,-3.277333497052508982e+00,4.608364502591391076e-01,4.800774273061993447e-01,-7.464271095724273053e-01,2.967160985982632155e+02
-2.398620803632955933e+00,-1.012044061506592030e+01,-3.351302385431037756e+00,5.111382492514607856e-01,-6.238836980216683897e-02,-8.572300633240627077e-01,2.983489797043704925e+02
-2.539636870432663951e+00,-1.008251150224328008e+01,-3.448128416471119895e+00,4.034587101641113893e-01,-5.855715793382202383e-01,-7.030824949209558694e-01,3.004448179621692248e+02
-2.673286518828391856e+00,-1.003915662294846634e+01,-3.546930902653679940e+00,8.849807075425089042e-01,-1.526297770940122228e-02,-4.653753203492303481e-01,3.025406562199679570e+02
-2.783564490816645698e+00,-9.996883274390786056e+00,-3.635394536103679908e+00,9.272698417872482501e-01,3.204065839845117170e-01,1.936704971152797827e-01,3.043780171839029549e+02
-2.886636768837386402e+00,-9.950680798997384002e+00,-3.725882411529711113e+00,4.606684729586478788e-01,4.802354505724701350e-01,7.464291460257225230e-01,3.062153781478379528e+02
-2.982292821153931239e+00,-9.900704435738370890e+00,-3.818681059754751139e+00,4.606684726334178692e-01,4.802354502334258979e-01,7.464291454987467267e-01,3.080527391117729508e+02
-3.070460470617723647e+00,-9.846989439153201573e+00,-3.914228360313417365e+00,4.606684726334540070e-01,4.802354502334635344e-01,7.464291454988051244e-01,3.098919162615485448e+02
-3.150966307351400708e+00,-9.789612186217205192e+00,-4.012764368078873822e+00,4.606684726334755453e-01,4.802354502334859609e-01,7.464291454988400965e-01,3.117310934113241387e+02
-3.223891637302475299e+00,-9.728474711435319833e+00,-4.114596479177217603e+00,4.606684726334827618e-01,4.802354502334935105e-01,7.464291454988517538e-01,3.135702705610997327e+02
-3.283846697179955587e+00,-9.668948048358121383e+00,-4.211073767105646404e+00,4.606684726334755453e-01,4.802354502334859609e-01,7.464291454988400965e-01,3.152534647345256644e+02
-3.337161162112743718e+00,-9.605718649359531014e+00,-4.311086424031099540e+00,4.606684726334540070e-01,4.802354502334635344e-01,7.464291454988051244e-01,3.169366589079515961e+02
-3.383998528563981978e+00,-9.538558160627905735e+00,-4.414832794424508933e+00,4.606684726334178692e-01,4.802354502334258979e-01,7.464291454987467267e-01,3.186198530813775278e+02
-3.424584204417627564e+00,-9.467055687563421529e+00,-4.522413524487828518e+00,4.606684726333674651e-01,4.802354502333733843e-01,7.464291454986650143e-01,3.203030472548034595e+02
-3.456170048576852505e+00,-9.397477470410512623e+00,-4.623944429714644144e+00,6.041506632090486439e-01,4.575736241909001412e-01,6.524004556943233668e-01,3.218368154976241158e+02
-3.482772414778748882e+00,-9.322977538183698343e+00,-4.728900346244559572e+00,7.295432804412341765e-01,4.212110597067881823e-01,5.388374941900556658e-01,3.233705837404447720e+02
-3.504848971902754240e+00,-9.243034222393630372e+00,-4.837163677188782707e+00,8.330918042481386676e-01,3.722365293785711571e-01,4.091405771761535415e-01,3.249043519832654283e+02
-3.522853462969912197e+00,-9.157122492432119287e+00,-4.948616804063354024e+00,9.116957700735475179e-01,3.121164333817185721e-01,2.671931040357766740e-01,3.264381202260860846e+02
-3.537279651527716062e+00,-9.064776230865403406e+00,-5.063097733946582579e+00,9.630016031253502140e-01,2.426508935137643153e-01,1.172452824470547050e-01,3.279718884689067409e+02
-3.548705867925400881e+00,-8.965650084485531579e+00,-5.180355746929028449e+00,9.854730899458079563e-01,1.659198547551929970e-01,-3.621313010073159977e-02,3.295056567117273971e+02
-3.560178310945960600e+00,-8.830895584485093153e+00,-5.332236739723520635e+00,9.784373774512843402e-01,8.422080822917440979e-02,-1.885872579693407547e-01,3.314514830423502190e+02
-3.569510070127722923e+00,-8.686691574359814538e+00,-5.486785625206113792e+00,9.421051217399151190e-01,0.000000000000000000e+00,-3.353146874090809360e-01,3.333973093729730408e+02
-3.577677126623223458e+00,-8.532657765462358768e+00,-5.643465506901023332e+00,4.157246280600859212e-01,9.043401909062148691e-01,9.664291353565672427e-02,3.353431357035958627e+02
-3.585044548846043178e+00,-8.380743649974377263e+00,-5.789929140812300368e+00,3.924833669591956675e-01,9.197576801769090649e-01,7.851220633490225021e-04,3.371450062663768108e+02
-3.593054726461403003e+00,-8.219467719359467850e+00,-5.937137470186957700e+00,3.653303888230131635e-01,9.260083203014869424e-01,-9.508048030843338494e-02,3.389468768291577589e+02
-3.602450361515769472e+00,-8.048782373646224286e+00,-6.084390440263234723e+00,3.345363177933524113e-01,9.230298177661016013e-01,-1.899984410276085167e-01,3.407487473919387071e+02
-3.612041007481261445e+00,-7.897897955493192512e+00,-6.207133665720382609e+00,3.004080668295337486e-01,9.108518619318618503e-01,-2.830227535024576468e-01,3.422586678572885148e+02
-3.623820995545369072e+00,-7.739217681543137495e+00,-6.328533936472942933e+00,2.632857787357265611e-01,8.895958287901806205e-01,-3.732262854031825339e-01,3.437685883226383226e+02
-3.638124494893284044e+00,-7.572804306118786855e+00,-6.447870097974903736e+00,2.235394360498373645e-01,8.594735709637746357e-01,-4.597100187581473762e-01,3.452785087879881303e+02
-3.656810293425002190e+00,-7.381421116337322452e+00,-6.575864253619498001e+00,1.815651735859873384e-01,8.207853060390498667e-01,-5.416120097749500539e-01,3.469386984345326255e+02
-3.678567971799642233e+00,-7.181742339125444907e+00,-6.699576593806356506e+00,1.377813303813694712e-01,7.739166242955579644e-01,-6.181159791161658923e-01,3.485988880810771207e+02
-3.703490043668295151e+00,-6.973884120390613894e+00,-6.817879073211094543e+00,9.262428039076162078e-02,7.193346456663953781e-01,-6.884594470464737714e-01,3.502590777276216158e+02
-3.733048665050910486e+00,-6.746305754934042831e+00,-6.935569797733154296e+00,4.654408347282868591e-02,6.575833642332811202e-01,-7.519413324048220826e-01,3.520088635867855942e+02
-3.765794482627745854e+00,-6.510345471676086682e+00,-7.044890796408378897e+00,0.000000000000000000e+00,5.892782266480061093e-01,-8.079289396970256165e-01,3.537586494459495725e+02
-3.801645729457537204e+00,-6.266129088921128520e+00,-7.144451590986540701e+00,-5.234099258235341834e-01,6.909006576672126476e-01,-4.986946267863027193e-01,3.555084353051135508e+02
-3.842058725485844928e+00,-6.003668556321826166e+00,-7.236389638459679752e+00,-8.479704324504232504e-01,5.300416452412727297e-01,-0.000000000000000000e+00,3.573283425339731707e+02
-3.885454169136196345e+00,-5.732872998077711557e+00,-7.315214957613390467e+00,-4.499992964605882551e-04,3.515004504559849918e-01,9.361865363441005394e-01,3.591482497628327906e+02
-3.924261573394254299e+00,-5.498867227286583059e+00,-7.369115375001950241e+00,9.334680231830649877e-01,2.330827560932161313e-01,2.725947147463789189e-01,3.606746455612080240e+02
-3.965355459700838026e+00,-5.258086660662124601e+00,-7.409721513327856890e+00,9.334680225239950779e-01,2.330827559286493267e-01,2.725947145539149297e-01,3.622010413595832574e+02
-4.008533960859558931e+00,-5.010632971877457820e+00,-7.436019138265635320e+00,-3.179997568430700024e-04,9.704192579737484781e-02,9.952792389646879512e-01,3.637274371579584908e+02
-4.096130131348784786e+00,-4.511963248727558273e+00,-7.457233039140331421e+00,1.161128686852824082e-01,6.263915901542163600e-02,9.912578562012398509e-01,3.667233625326052788e+02
-4.111413843168074678e+00,-4.425769041358468492e+00,-7.455314521332043753e+00,2.308303846089443112e-01,2.731209604363546775e-02,9.726095737488709148e-01,3.672284575757428229e+02
-4.179919297228227748e+00,-4.043949722844434547e+00,-7.422183935692752144e+00,3.421418352598457613e-01,-8.417995946762986750e-03,9.396095475811320208e-01,3.694131690822193832e+02
-4.249995774738441590e+00,-3.653049457709590886e+00,-7.363215197141479429e+00,-6.799996278734420465e-05,-9.702994690082364371e-02,9.952804553375105279e-01,3.715978805886959435e+02
-4.319467638306347723e+00,-3.263786772901093425e+00,-7.279638874322756692e+00,-0.000000000000000000e+00,-9.695091801188839009e-02,9.952881583184741698e-01,3.737239837334024060e+02
-4.389580351523995283e+00,-2.865548442411892438e+00,-7.168923992768013065e+00,7.364161080998413711e-01,-4.016585135368604398e-01,-5.443893406703982363e-01,3.758500868781088684e+02
-4.465116063493316467e+00,-2.424224035585095027e+00,-7.018589335255906114e+00,-5.300915303214138730e-01,-8.479392486978480914e-01,-0.000000000000000000e+00,3.781531696799910947e+02
-4.541255413765526328e+00,-1.958894029317624685e+00,-6.831123170914645826e+00,3.390549912470548488e-01,-9.179379227104570438e-01,2.059846668096706745e-01,3.805275593676896619e+02
-4.604838838075230534e+00,-1.546735149278298360e+00,-6.639328403587207994e+00,9.360262369457714726e-01,-2.510647953304659397e-01,2.466157989573146414e-01,3.825859711819858262e+02
-4.656740133909037738e+00,-1.186835218488446309e+00,-6.449939301793818025e+00,9.421051217393062727e-01,-0.000000000000000000e+00,-3.353146874088642204e-01,3.843477663807043427e+02
-4.705879855690136004e+00,-8.199012877415313705e-01,-6.236821890107957955e+00,8.883637457846496055e-01,-4.307057441053028790e-01,-1.590610485661269613e-01,3.861095615794228593e+02
-4.752130898440707796e+00,-4.455201664518510518e-01,-6.002325956459946710e+00,6.396607972993639812e-01,-7.668882673582636533e-01,5.210038183252444638e-02,3.878713567781413758e+02
-4.817155720503957461e+00,1.343104680990341859e-01,-5.618325136218385474e+00,2.505768424027162156e-01,-9.347684120886778913e-01,2.518278416159153710e-01,3.905416662036265052e+02
-4.852981988080625975e+00,4.888958920653045936e-01,-5.374050042831147955e+00,0.000000000000000000e+00,-9.950534475057741801e-01,-9.933094484741135377e-02,3.921377518445078181e+02
-4.886108548577439592e+00,8.519314077503861160e-01,-5.116900566600175893e+00,7.364161080998669062e-01,-4.016585135368744286e-01,-5.443893406704171101e-01,3.937338374853891310e+02
-4.923248476684352504e+00,1.309968214547526211e+00,-4.786128996429475535e+00,9.754864388704420630e-01,-2.183818854147351052e-01,-2.708430733903490276e-02,3.956998775320587924e+02
-4.956344570722391651e+00,1.779205465485070192e+00,-4.443174003501566105e+00,8.649910223442792701e-01,4.315195122752620016e-02,4.999264349583678047e-01,3.976659175787284539e+02
-4.987308328885022846e+00,2.296235638160577075e+00,-4.063204949097672269e+00,8.285611161590273888e-01,-4.354923732465538766e-01,-3.518961063063235639e-01,3.997808184345842051e+02
-5.013363182788474148e+00,2.825536447211744573e+00,-3.674340862240980332e+00,9.999988887671178742e-07,-4.977924468360499510e-01,-8.672950362321663054e-01,4.018957192904399562e+02
-5.030811340817496813e+00,3.271697058094130028e+00,-3.348301610310033816e+00,2.228023521830259368e-01,-4.288839450128295039e-01,-8.754516968818008005e-01,4.036386057486217851e+02
-5.044218918339104185e+00,3.727568702362148212e+00,-3.018317477817067385e+00,4.334708562453316594e-01,-3.366203906175920246e-01,-8.359352423530578280e-01,4.053814922068036140e+02
-5.053330050884848212e+00,4.192808907763192927e+00,-2.685934953501157629e+00,6.205344886260227844e-01,-2.260260414806637697e-01,-7.508975808988789247e-01,4.071243786649854428e+02
-5.058654950922662152e+00,4.789150259812052113e+00,-2.266884913044981520e+00,7.738066451482856767e-01,-1.031233541012471777e-01,-6.249694790666368016e-01,4.093164075096505599e+02
-5.057020678302187378e+00,5.395988455380161142e+00,-1.849036733716602043e+00,8.849408409610889370e-01,2.539496673929687171e-02,-4.650083909617522826e-01,4.115084363543156769e+02
-5.044507036082123363e+00,6.192042874575299116e+00,-1.314026853046855736e+00,7.638094789136786744e-01,2.388098515492967366e-02,-6.449982778823807328e-01,4.143394460944676894e+02
-5.028781618134900988e+00,6.727948343509383200e+00,-9.635572042259973324e-01,6.067244531869325774e-01,2.124288915185405802e-02,-7.946270682321684431e-01,4.162202302066826292e+02
-5.009432222429057724e+00,7.182511211501378945e+00,-6.746741728104429514e-01,4.210799984041523336e-01,1.760485821972416001e-02,-9.068515335559788060e-01,4.177986149269111706e+02
-4.983569000981666441e+00,7.640761021027612898e+00,-3.916845805770831079e-01,2.156146665406933616e-01,1.313813978829996183e-02,-9.763891154950471440e-01,4.193769996471397121e+02
-4.950688168058018590e+00,8.101534175545328509e+00,-1.151535644264901626e-01,0.000000000000000000e+00,8.052988517102432561e-03,-9.999665741301235755e-01,4.209553843673682536e+02
-4.910294376729376964e+00,8.563663400699223160e+00,1.543537833498961620e-01,8.965938298732633038e-01,2.929696176511913802e-02,-4.418814233093619204e-01,4.225337690875967951e+02
-4.859612375809339468e+00,9.047194649983740788e+00,4.283599464166349957e-01,0.000000000000000000e+00,1.466999104715329023e-02,9.998913897832444331e-01,4.241847532976448747e+02
-4.799893203485233073e+00,9.529506979406548339e+00,6.939985659285745623e-01,4.789225235540516823e-01,-2.317097694884340808e-01,8.467241576543712567e-01,4.258357375076929543e+02
-4.730558097420826336e+00,1.000919129163196608e+01,9.508399497114213839e-01,7.615522386263113841e-01,-7.713885395508118803e-02,6.434949767130212495e-01,4.274867217177410339e+02
-4.651089868635493119e+00,1.048483319004338910e+01,1.198467795630380861e+00,9.337004112386365628e-01,8.862287241148469885e-02,3.469114131008130819e-01,4.291377059277891135e+02
-4.552941723423252540e+00,1.099980039776627905e+01,1.459275256550195854e+00,9.703928888893853522e-01,2.415277234480792956e-01,0.000000000000000000e+00,4.309456491506165889e+02
-4.444678193758681672e+00,1.150761076106083713e+01,1.709818318104929125e+00,5.752485914333331785e-01,0.000000000000000000e+00,-8.179774190367213871e-01,4.327535923734440644e+02
-4.327829228483918378e+00,1.200712390051468148e+01,1.950445820483015069e+00,3.588155418935178864e-01,-5.920762440852369579e-01,-7.215920787299597849e-01,4.345615355962715398e+02
-4.224365149266359865e+00,1.241666847306900934e+01,2.143527511409586417e+00,5.879682034277938785e-01,-5.648748445441406085e-01,-5.789713306895168943e-01,4.360720957677014553e+02
-4.116306504388339782e+00,1.281762281714893703e+01,2.328935191930761928e+00,7.738513388181609276e-01,-4.961033301218132907e-01,-3.937430523225627366e-01,4.375826559391313708e+02
-4.004660550396057062e+00,1.320922755268421156e+01,2.506958671639594183e+00,9.027854608084157073e-01,-3.908226661363660703e-01,-1.795384509999207179e-01,4.390932161105612863e+02
-3.890345483716882935e+00,1.359075994221234751e+01,2.677912384685265490e+00,9.652820017495117311e-01,-2.567806010723597265e-01,4.787880545105249741e-02,4.406037762819912018e+02
-3.716817437979036853e+00,1.414357944211459817e+01,2.922938834458042034e+00,9.567416410377336256e-01,-1.038415239723626121e-01,2.717726443248533741e-01,4.428572311856444799e+02
-3.541457259409892533e+00,1.467856181558589057e+01,3.158664687546254513e+00,8.777928328012434278e-01,5.673946912907703449e-02,4.756662436262502625e-01,4.451106860892977579e+02
-3.401461921122752141e+00,1.509017397213325395e+01,3.339913527613799449e+00,7.342455860441133852e-01,2.131448798323348770e-01,6.445546366104323299e-01,4.469081891462044496e+02
-3.262461099680836529e+00,1.548593857110626004e+01,3.514977767532803110e+00,0.000000000000000000e+00,-9.967539354453558431e-01,8.049591402863227885e-02,4.487056922031111412e+02
-3.125176472148345486e+00,1.586518662801315571e+01,3.684408512232305366e+00,9.968779763718003117e-01,-0.000000000000000000e+00,-7.894491893667313076e-02,4.505031952600178329e+02
-2.990084850638128788e+00,1.622740217083523717e+01,3.848739682891541225e+00,8.995877910866412197e-01,-0.000000000000000000e+00,-4.367376857210154006e-01,4.523006983169245245e+02
-2.861215727219356797e+00,1.656264682495247342e+01,4.004086270222350308e+00,6.786210963136768415e-01,-0.000000000000000000e+00,-7.344871732298102751e-01,4.540486153051133442e+02
-2.735204290936572580e+00,1.688050507384753374e+01,4.155482102459784777e+00,3.643566758920477877e-01,-0.000000000000000000e+00,-9.312584027722659030e-01,4.557965322933021639e+02
-2.612274683125121566e+00,1.718068896183739369e+01,4.303366893677616822e+00,0.000000000000000000e+00,-0.000000000000000000e+00,-9.999989999999968626e-01,4.575444492814909836e+02
-2.492414307364537951e+00,1.746315526589833667e+01,4.448066104830252776e+00,-0.000000000000000000e+00,-9.978448059155592409e-01,-6.560292149537946815e-02,4.592923662696798033e+02
-2.375491278711333809e+00,1.772798178829959426e+01,4.589848082402895990e+00,8.220322628906612250e-01,6.371394286824931530e-02,-5.658634925950188910e-01,4.610402832578686230e+02
-2.233366421482040565e+00,1.803549888851843264e+01,4.762940738206283164e+00,9.430833160339000543e-01,6.076357136863558273e-02,-3.269551152892976598e-01,4.632146124760731709e+02
-2.094156986656556363e+00,1.832130445396984086e+01,4.932928159842313143e+00,9.964781195981674555e-01,5.345405712196359821e-02,-6.459118314602098343e-02,4.653889416942777189e+02
-1.999476904479962958e+00,1.850503999301316327e+01,5.048601296310716080e+00,9.783861770492832122e-01,4.230978192287296324e-02,2.024064497825505404e-01,4.668978939869770670e+02
-1.906631906407062926e+00,1.867465566223088302e+01,5.161735204952154099e+00,8.901054234433246615e-01,2.813023107989034988e-02,4.548835293318273520e-01,4.684068462796764152e+02
-1.815405172929447142e+00,1.883052332224119141e+01,5.272107412621188871e+00,7.379690936824138126e-01,1.193263763223667215e-02,6.747275219894532938e-01,4.699157985723757633e+02
-1.725588930656848818e+00,1.897308783246492325e+01,5.379401429991280459e+00,5.328913625204576565e-01,-5.120993873931796621e-03,8.461669877596408318e-01,4.714247508650751115e+02
-1.637026144741632105e+00,1.910294817333355155e+01,5.483081259194261037e+00,0.000000000000000000e+00,2.192496970814825433e-02,-9.997586187191926932e-01,4.729337031577744597e+02
-1.549628544455785795e+00,1.922078947123799963e+01,5.582453970011111544e+00,0.000000000000000000e+00,-1.930119815991957477e-01,-9.811953806255225841e-01,4.744426554504738078e+02
-1.463333787483340087e+00,1.932730243953211158e+01,5.676795198602059500e+00,0.000000000000000000e+00,-3.989656774560061958e-01,-9.169647693415652334e-01,4.759516077431731560e+02
-1.374771983245515194e+00,1.942688311958527336e+01,5.768796430342147730e+00,0.000000000000000000e+00,-5.863505115774806375e-01,-8.100562187738313824e-01,4.775188745708272791e+02
-1.287194069231208937e+00,1.951614596282987080e+01,5.854037320666849453e+00,0.000000000000000000e+00,-7.464451001263963104e-01,-6.654454992697456106e-01,4.790861413984814021e+02
-1.200516749115465354e+00,1.959583398001244703e+01,5.931736544993263749e+00,0.000000000000000000e+00,-8.717981977967003138e-01,-4.898631465207826663e-01,4.806534082261355252e+02
-1.114651278399328094e+00,1.966668941977281548e+01,6.001112830051208213e+00,0.000000000000000000e+00,-9.565755070029565710e-01,-2.914812162089742142e-01,4.822206750537896482e+02
-1.029503466786443777e+00,1.972945373851474926e+01,6.061384959203319767e+00,0.000000000000000000e+00,-9.968312352734670645e-01,-7.953293898571138498e-02,4.837879418814437713e+02
-9.449736806243761444e-01,1.978486757028707288e+01,6.111771777765110158e+00,5.103802405310049473e-01,-7.632981031439456387e-01,-3.960883939389738817e-01,4.853552087090978944e+02
-8.609795704086181667e-01,1.983355418382382140e+01,6.151568079236386488e+00,8.088332836539489090e-01,-2.128178115171544260e-01,-5.481745145073072534e-01,4.869224755367520174e+02
-7.774799452186050841e-01,1.987590316502449994e+01,6.180220491015348649e+00,7.115755468205620105e-01,-3.305943517338192361e-01,-6.199722701604446495e-01,4.884897423644061405e+02
-6.944537698649261293e-01,1.991218724544657093e+01,6.197251597255629463e+00,5.940483692814620964e-01,-4.389537605231376149e-01,-6.741098805654283099e-01,4.900570091920602636e+02
-6.118780143437410057e-01,1.994267891454716590e+01,6.202184061205940679e+00,4.595995113951369393e-01,-5.348094314387145110e-01,-7.090452462068673745e-01,4.916242760197143866e+02
-5.297276546648170825e-01,1.996765040865563989e+01,6.194540628460574183e+00,3.845584351357655417e-01,-5.561803198153102423e-01,-7.367335080046183426e-01,4.931915428473685097e+02
-4.131100367332936618e-01,1.999572761590275860e+01,6.164945864095292549e+00,3.068814001456507401e-01,-5.737388508226776151e-01,-7.593718043897508263e-01,4.954266676423670219e+02
-2.969537640583170268e-01,2.001668855411447367e+01,6.115752715467587919e+00,2.271008451828668562e-01,-5.873646705737758378e-01,-7.768049625741975106e-01,4.976617924373655342e+02
-1.812202590397591351e-01,2.003084087954993109e+01,6.046221971749647928e+00,1.457636269985858046e-01,-5.969643818197494234e-01,-7.889134882125896642e-01,4.998965018445167061e+02
-6.583606110674652956e-02,2.003801571110026458e+01,5.956028323015889470e+00,6.342727202475940962e-02,-6.024721840547249130e-01,-7.956143843626992673e-01,5.021312112516678781e+02
6.103605727563090472e-02,2.003750898531258784e+01,5.833882380369087350e+00,-1.934384504179268230e-02,-6.038503244804865888e-01,-7.968617203033593333e-01,5.045951062264240363e+02
1.398339768425709284e-01,2.003129383183175705e+01,5.743984354459509944e+00,-1.019823695749965953e-01,-6.010893567444458574e-01,-7.926469463168442919e-01,5.061295306835615975e+02
2.183947904784803717e-01,2.001839268523415072e+01,5.640715634045674776e+00,-1.839218557710545210e-01,-5.942082056798374534e-01,-7.829989522811867664e-01,5.076639551406991586e+02
2.966770544767486362e-01,1.999793043913150115e+01,5.524545373025174122e+00,-2.646006491727836973e-01,-5.832540376050046049e-01,-7.679838696715501900e-01,5.091983795978367198e+02
3.746329929943719161e-01,1.996903221359379543e+01,5.395942809477854318e+00,-3.434657363661973717e-01,-5.683019370695646666e-01,-7.477046183261145673e-01,5.107328040549742809e+02
4.522084985290203418e-01,1.993082338947568388e+01,5.255377262603824207e+00,-4.199765354728743905e-01,-5.494543922601671238e-01,-7.223002010790892102e-01,5.122672285121118421e+02
5.293339313627577480e-01,1.988240657829868141e+01,5.103319734447471667e+00,-5.409863147914625303e-01,-5.141787396527170984e-01,-6.655464152849054349e-01,5.138016529692494032e+02
6.145949822797424078e-01,1.981602695378353829e+01,4.921742119607222854e+00,-6.516585012145803546e-01,-4.690777693809972670e-01,-5.960748644830524690e-01,5.155103037859190636e+02
6.990875372525096054e-01,1.973599784099936372e+01,4.728483964496311920e+00,-7.498782926623106526e-01,-4.150133059930215529e-01,-5.152130647060679802e-01,5.172189546025887239e+02
7.826641678941791413e-01,1.964112301805976912e+01,4.524135627055166253e+00,-8.337688361538987403e-01,-3.530184534048174672e-01,-4.245061830120550606e-01,5.189276054192583842e+02
8.651677901214022137e-01,1.953020725213768571e+01,4.309287554947508703e+00,-9.017270908751719993e-01,-2.842778539134225291e-01,-3.256875118228472754e-01,5.206362562359280446e+02
9.464441166332037136e-01,1.940214572945009408e+01,4.084528681944715522e+00,-9.524544594233051997e-01,-2.101050517854398669e-01,-2.206453487839619698e-01,5.223449070525977049e+02
1.026355068575470542e+00,1.925601335003355175e+01,3.850444824321277881e+00,-9.849816020584438725e-01,-1.319173938632259568e-01,-1.113869148675054321e-01,5.240535578692673653e+02
1.113757598802997073e+00,1.907191601004279491e+01,3.579665343963949642e+00,-9.986869598539318549e-01,-5.120894666518471111e-02,-0.000000000000000000e+00,5.259590404929377883e+02
1.199236050360382499e+00,1.886565716142118276e+01,3.299863164128320037e+00,8.370268619312297709e-01,-1.940497361590713121e-01,5.115943044076273205e-01,5.278645231166082112e+02
1.282534270924948538e+00,1.863632565798479845e+01,3.011782997854946409e+00,-8.368809030154822359e-01,4.998393448099715947e-02,-5.450962854871180818e-01,5.297700057402786342e+02
1.305330670823786843e+00,1.856531931874647512e+01,2.928734042009751182e+00,-8.785241553155784811e-01,2.322171206900842597e-02,4.771310727835704757e-01,5.303051421552729607e+02
1.373652092903956623e+00,1.832535775629087738e+01,2.665935876899123258e+00,-0.000000000000000000e+00,-2.786296520869498139e-02,9.996107518283747773e-01,5.319586480055789934e+02
1.439069885048355202e+00,1.806469617716301812e+01,2.397499148593506657e+00,-6.476833636044805331e-01,2.256807782523927441e-01,-7.277172849653924525e-01,5.336121538558850261e+02
1.500908076153926851e+00,1.778339910591549611e+01,2.124072836835182887e+00,5.328913625190374592e-01,-5.120993873918150419e-03,8.461669877573859688e-01,5.352656597061910588e+02
1.564850648654333654e+00,1.744705996811405768e+01,1.814385493611034406e+00,2.828357223028888923e-01,5.870932422825320129e-02,9.573688784578184841e-01,5.371089915179090895e+02
1.622803629110215695e+00,1.708832352133545029e+01,1.500601011640875893e+00,1.044511496831625197e-02,1.179034661547457008e-01,9.929691194814129762e-01,5.389523233296271201e+02
1.674361492544537366e+00,1.670756438181026837e+01,1.183669694469857703e+00,-2.627702773851565698e-01,1.677869848964496924e-01,9.501564655487745314e-01,5.407956551413451507e+02
1.718673345669082808e+00,1.631518977483714039e+01,8.725464611494408995e-01,-5.152351719983111478e-01,2.044206811274724700e-01,8.323117821256568183e-01,5.425932934815199360e+02
1.757536629048643162e+00,1.590221513141829845e+01,5.603985341128363551e-01,-7.270129289260933714e-01,2.249116686482316441e-01,6.487410442403744870e-01,5.443909318216947213e+02
1.791450721735767804e+00,1.546908436117053220e+01,2.482428713439458756e-01,6.355972790766506453e-01,2.092487626605339657e-01,7.431211571181765008e-01,5.461885701618695066e+02
1.820881407812443342e+00,1.501627936429832921e+01,-6.296833289470317452e-02,0.000000000000000000e+00,2.016697227947948992e-02,9.997956257304881911e-01,5.479862085020442919e+02
1.844854091814284613e+00,1.457072516906242754e+01,-3.551330941230046445e-01,-0.000000000000000000e+00,-9.513533606972826018e-01,3.080986580368961780e-01,5.496834087643603652e+02
1.865392732459159930e+00,1.410766974517713734e+01,-6.449539991273410822e-01,-0.000000000000000000e+00,-5.697617808900627967e-01,-8.218086839618676809e-01,5.513806090266764386e+02
1.882825026111755395e+00,1.362764638069179668e+01,-9.317555796577383642e-01,-0.000000000000000000e+00,1.080298527116637236e-01,9.941466445764608473e-01,5.530778092889925119e+02
1.897482818793821746e+00,1.313118545744579890e+01,-1.214862391578655165e+00,-0.000000000000000000e+00,-9.705539409183779886e-01,-2.408797371487642613e-01,5.547750095513085853e+02
1.909702096895034451e+00,1.261881442627012540e+01,-1.493599020259288368e+00,-7.142513392293788899e-01,-6.601633892674065862e-01,-2.324377849663681050e-01,5.564722098136246586e+02
1.919822977831004529e+00,1.209105778223173999e+01,-1.767290085963731938e+00,-8.058673496010037018e-01,-5.899814413828323723e-01,-4.997713148510951608e-02,5.581694100759407320e+02
1.928276780545170821e+00,1.154204376655304287e+01,-2.038416134412597280e+00,-8.599210812242992219e-01,-4.922999105083636917e-01,1.348129525686546093e-01,5.598866112920228488e+02
1.935248704149747923e+00,1.097854159382743156e+01,-2.303164036818440952e+00,-8.738930699932416779e-01,-3.716718228638305477e-01,3.133192593947033977e-01,5.616038125081049657e+02
1.937422179391941279e+00,1.078364278966873790e+01,-2.390258715561381031e+00,-8.471320701134541498e-01,-2.337197434486869563e-01,4.772214761598034816e-01,5.621833500229890888e+02
1.942775254548125163e+00,1.026577987200472819e+01,-2.610464426576609931e+00,-9.359985444646975626e-04,-1.157798199552592666e-01,9.932734553986886095e-01,5.636877504491147874e+02
1.947316688992024813e+00,9.736349004688406694e+00,-2.824854921318286305e+00,-0.000000000000000000e+00,-7.950793855329252313e-02,9.968332296100117507e-01,5.651921508752404861e+02
1.951086181613681969e+00,9.195787754532759095e+00,-3.033509759322764232e+00,-0.000000000000000000e+00,1.899219785646769423e-02,9.998186317598084516e-01,5.666965513013661848e+02
1.954126523697094608e+00,8.644533256545196664e+00,-3.236508536107539857e+00,-0.000000000000000000e+00,1.173078338868262377e-01,9.930945937333480744e-01,5.682009517274918835e+02
1.956455501206553427e+00,8.083042057232626476e+00,-3.433992869485371635e+00,1.270998419732385096e-03,1.158168560016881454e-01,9.932687650413736247e-01,5.697053521536175822e+02
1.958037984525822006e+00,7.511810223075416459e+00,-3.626228385488641681e+00,0.000000000000000000e+00,1.466999104702475069e-02,9.998913897744834411e-01,5.712097525797432809e+02
1.958814305390994548e+00,6.931353860898776809e+00,-3.813542729885075033e+00,-0.000000000000000000e+00,1.466999103679639260e-02,9.998913890773289959e-01,5.727141530058689796e+02
1.958728447279114881e+00,6.342189371644590068e+00,-3.996263579303979796e+00,-0.000000000000000000e+00,1.466956255777231675e-02,9.998913953638213226e-01,5.742185534319946782e+02
1.957728045962913610e+00,5.744833430951104880e+00,-4.174718639176885127e+00,-0.000000000000000000e+00,1.466913407882698174e-02,9.998914016500862756e-01,5.757229538581203769e+02
1.955738312828973591e+00,5.134610062384493467e+00,-4.350734485385340022e+00,-0.000000000000000000e+00,1.466870559992543288e-02,9.998914079361260754e-01,5.772402692419877894e+02
1.952712961130859348e+00,4.517172485546025129e+00,-4.523111757190169335e+00,-0.000000000000000000e+00,1.466827712103269642e-02,9.998914142219412771e-01,5.787575846258552019e+02
1.948609920503667770e+00,3.893047072969954225e+00,-4.692183881513422250e+00,-0.000000000000000000e+00,1.466784864211378644e-02,9.998914205075324357e-01,5.802749000097226144e+02
1.943390869681919542e+00,3.262760398944670293e+00,-4.858284306353594317e+00,-0.000000000000000000e+00,1.466742016313373267e-02,9.998914267928998845e-01,5.817922153935900269e+02
1.937021236867032314e+00,2.626839219399917269e+00,-5.021746498659027225e+00,-0.000000000000000000e+00,1.466699168405755267e-02,9.998914330780442894e-01,5.833095307774574394e+02
1.929443520277376978e+00,1.985807637289114469e+00,-5.182877651718475143e+00,-0.000000000000000000e+00,7.245632776025759392e-02,9.973705833673458532e-01,5.848268461613248519e+02
1.920550581705387394e+00,1.340184522231433695e+00,-5.341932392718885758e+00,-0.000000000000000000e+00,1.300032131467107610e-01,9.915125640004709417e-01,5.863441615451922644e+02
1.910212286969779516e+00,6.904866864700077711e-01,-5.499139071595954498e+00,-0.000000000000000000e+00,1.871150992784559597e-01,9.823369786491213951e-01,5.878614769290596769e+02
1.898302174223243100e+00,3.723180677280951006e-02,-5.654726050052450326e+00,-0.000000000000000000e+00,2.436008934219212330e-01,9.698745304026193947e-01,5.893787923129270894e+02
