1.495910158544627278e+00,3.699339139389449915e+00,-1.266627315275790089e+00,-4.044843290503921662e-01,-8.809117148264894448e-01,-2.457335512772477748e-01,2.140452653255603650e+02
2.625264550300667299e+00,3.346019343665538326e+00,-1.158850564829287055e+00,-5.738016244876523730e-01,-7.886226429387707126e-01,-2.209615866622240965e-01,2.227219294093454209e+02
4.239420384958236809e+00,3.207314029239920483e+00,-9.857549788027238913e-01,-7.214295765960114792e-01,-6.665241693348582519e-01,-1.878374236028887978e-01,2.313985934931304769e+02
6.049516712369720217e+00,3.035574561988598763e+00,-7.203938308063462248e-01,-8.417879623285383639e-01,-5.192315371135983737e-01,-1.476131340574219075e-01,2.400752575769155328e+02
7.760496146779644278e+00,2.607785515474162708e+00,-3.358396441359979279e-01,-9.303273268169499621e-01,-3.523123023801869591e-01,-1.018091674163516952e-01,2.487519216607005887e+02
9.071548559953617641e+00,1.725778410049790601e+00,1.948101843052283400e-01,-9.837009447384125194e-01,-1.720758880246263112e-01,-5.215687952715698794e-02,2.574285857444856447e+02
9.692982171033532879e+00,4.841639953119217799e-01,7.877539680667383637e-01,-9.998913223194905164e-01,1.466490250964457183e-02,-5.330901795535267305e-04,2.649877709955470095e+02
9.673411835369948975e+00,-7.399677121838689198e-01,1.119148192843534062e+00,-9.998923327173209197e-01,1.458639278340492090e-02,7.477125799214372464e-04,2.713461404703121502e+02
8.628197055058263842e+00,-2.124793569494555445e+00,4.335928887484363781e-01,-9.986367437903747035e-01,3.768338252999869908e-02,-3.609178051404639959e-02,2.800228045540972062e+02
7.261215433775237926e+00,-3.455638333262859518e+00,-1.194845623853331151e+00,-9.954915353040384440e-01,6.070906284812166431e-02,-7.286297285949749902e-02,2.886994686378822621e+02
6.805071441948006061e+00,-4.249872595582569801e+00,-2.005204410919667168e+00,-9.904626577088554429e-01,8.361987475594254149e-02,-1.094963023004675434e-01,2.929048761537363816e+02
6.450476638443930710e+00,-6.160517387206615680e+00,-3.391021699437103187e+00,-9.922310103246954061e-01,1.056210843698788815e-01,6.572525151688446421e-02,3.015815402375214376e+02
6.693612091353832838e+00,-8.109866121114633231e+00,-4.363626802820983919e+00,-9.630518494240015714e-01,1.243279864723192268e-01,2.388968126645399648e-01,3.102582043213064935e+02
6.995330229061889504e+00,-9.442316391604752113e+00,-5.000619012303385347e+00,-9.038352764938818451e-01,1.391571197015870343e-01,4.046172129335578460e-01,3.189348684050915494e+02
6.907121079079296955e+00,-9.732952791568200368e+00,-5.472435499905969003e+00,-8.164282387979890920e-01,1.496459680191803976e-01,5.577176840922533074e-01,3.276115324888766054e+02
6.873096205932850644e+00,-9.707729596268791283e+00,-5.513704676291535378e+00,-7.035569262852460204e-01,1.554673857301466788e-01,6.934230623872149613e-01,3.283969988504130129e+02
6.084046550002610410e+00,-9.054722260871336914e+00,-6.198358717392816963e+00,-6.636874108446543241e-01,1.100567871555586941e-01,7.398679100200242775e-01,3.370736629341980688e+02
5.175689068874414822e+00,-8.326052336761259554e+00,-6.898554891322996596e+00,-6.199626437383635169e-01,6.400688652538921719e-02,7.820149863243333055e-01,3.426735174398660888e+02
3.167865539941637110e+00,-6.987255902337071056e+00,-8.507781176105261522e+00,-5.033527281916319041e-01,6.215970810041325512e-02,8.618411696543727407e-01,3.513501815236511447e+02
6.850132367828069002e-01,-5.595367990240744938e+00,-1.055505050095460540e+01,-3.766890986275377440e-01,5.907098068473521507e-02,9.244533207342398029e-01,3.600268456074362007e+02
-1.667888872779414999e+00,-4.499661549379755598e+00,-1.250858350629282612e+01,-2.425016689718362262e-01,5.480239734233586374e-02,9.686008660908300705e-01,3.687035096912212566e+02
-3.295878181165852183e+00,-4.100484059126331182e+00,-1.383662029499686597e+01,-1.034706251601639204e-01,4.943921655650676539e-02,9.934020301950780008e-01,3.773801737750063126e+02
-3.614925271423443220e+00,-4.848888136786722036e+00,-1.400753141866211315e+01,3.762710470022069542e-02,4.308855938457575169e-02,9.983614460917292766e-01,3.860568378587913685e+02
-3.538018971049269989e+00,-5.075059616083986924e+00,-1.392095300769921273e+01,1.779733120801770818e-01,3.587727001903417284e-02,9.833800494637419121e-01,3.873951322043604932e+02
-1.887789432780468291e+00,-7.556266372863516878e+00,-1.232081220937010890e+01,-1.409288432624820897e-01,4.844074144431663176e-01,8.634156113771688235e-01,3.960717962881455492e+02
5.476958830121834154e-01,-1.095241707430294831e+01,-9.587333506622165658e+00,-4.151185237453586807e-01,7.792496431161561876e-01,4.695152872350931150e-01,4.047484603719306051e+02
1.310676340801572470e+00,-1.304979468414340182e+01,-7.623838271950504009e+00,-5.576035366390378334e-01,8.268593292244662551e-01,-7.334811246981072508e-02,4.124121790381846040e+02
1.613539573826894002e-01,-1.367716748809763416e+01,-6.573838114142394495e+00,-3.526804676648070958e-01,9.343931476438536166e-01,5.023876356234129037e-02,4.210888431219696599e+02
-1.725672051911361748e+00,-1.314914935003391783e+01,-6.348639997028032056e+00,-1.234821444934440932e-01,9.776118993397565626e-01,1.703676444073741747e-01,4.297655072057547159e+02
-2.754424790853627680e+00,-1.260037560429198500e+01,-6.403563505760312857e+00,1.142156053775970070e-01,9.535408126835512865e-01,2.787700020356184138e-01,4.350274833273855393e+02
-4.081192839939186356e+00,-1.161492624991346112e+01,-6.532932871413802189e+00,3.346421601546468727e-01,8.270925773010548987e-01,4.515866397728457993e-01,4.437041474111705952e+02
-5.169572639172378636e+00,-1.055863085757875375e+01,-6.535063310165758033e+00,5.234641495170397896e-01,6.225314336938950754e-01,5.817541561813722728e-01,4.523808114949556511e+02
-6.434374409397649153e+00,-9.459071966398637343e+00,-6.153158550925637016e+00,6.628487305147471309e-01,3.591766950983361628e-01,6.569791946127655491e-01,4.610574755787407071e+02
-7.110633344311102277e+00,-8.952769260809049001e+00,-5.839581935176155092e+00,7.396320431754777047e-01,6.190027529310863919e-02,6.701572924525578401e-01,4.649508163910221015e+02
-8.806364146643948843e+00,-7.790419603269293169e+00,-4.846842828930222780e+00,8.600645463501171983e-01,7.760889089591983120e-03,5.101242443884443922e-01,4.736274804748071574e+02
-1.061259993189407069e+01,-6.584088684903131039e+00,-3.479718604570073648e+00,9.434749418403411969e-01,-4.671256426054158639e-02,3.281325501385590759e-01,4.823041445585922133e+02
-1.219771236344858778e+01,-5.363604819119559330e+00,-1.922173067936856272e+00,9.862727833933683241e-01,-9.917523874142440687e-02,1.320161685513494831e-01,4.909808086423772693e+02
-1.323109322486156358e+01,-4.186758975348416456e+00,-3.582097412497649014e-01,9.866158141380670932e-01,-1.473688445760255317e-01,-6.978294162529731504e-02,4.996574727261623252e+02
-1.351132120500748890e+01,-3.112274181685278585e+00,1.087224340010150225e+00,9.444892649551236419e-01,-1.892188561840270067e-01,-2.685782062076717547e-01,5.083341368099473812e+02
-1.311477049535676009e+01,-2.177876952852941805e+00,2.379201938120014237e+00,8.617064913943609517e-01,-2.229238102557268841e-01,-4.558123490105958076e-01,5.168135734390102698e+02
-1.220311614376178255e+01,-1.323391039513676759e+00,3.629508429832602801e+00,7.614601319904481525e-01,-2.256275388331528964e-01,-6.076748152669069203e-01,5.254902375227953826e+02
-1.095248528235877750e+01,-5.413246236278376200e-01,4.857859739864302639e+00,6.359950626982261435e-01,-2.208587291192437574e-01,-7.394117269802581438e-01,5.341669016065804954e+02
-9.542773558837563286e+00,2.151627083647535688e-01,6.116552476366306834e+00,4.894665435682312160e-01,-2.087753211169962875e-01,-8.466601254461453285e-01,5.428435656903656081e+02
-8.142545057320701218e+00,9.891807242857513227e-01,7.398664418170701751e+00,3.267274201479618556e-01,-1.897775025859051723e-01,-9.258680750712861007e-01,5.515202297741507209e+02
-6.912383167027400965e+00,1.788994346054839646e+00,8.566650148860395220e+00,1.531674102457075970e-01,-1.644944558820384262e-01,-9.744122938586905480e-01,5.600851580535378389e+02
-5.957070801691162210e+00,2.648054245064067835e+00,9.467629123081904297e+00,2.498441312144035753e-01,-1.589876277576652286e-01,-9.551433632269915597e-01,5.687618221373229517e+02
-5.432609659155883008e+00,3.580873067161272072e+00,9.900023113723538160e+00,3.440853455286573270e-01,-1.519309859836173449e-01,-9.265636785939052045e-01,5.774384862211080645e+02
-5.475998907935649029e+00,4.623495772418851679e+00,9.679444989325503457e+00,4.349724030609931069e-01,-1.433933184378338443e-01,-8.889518349166725120e-01,5.861151503048931772e+02
-6.121721919297036685e+00,5.791421956444097852e+00,8.721148168290943303e+00,5.216193485795387330e-01,-1.334578491342344742e-01,-8.426744672118331447e-01,5.947918143886782900e+02
-6.140607189318131098e+00,5.816383000945138271e+00,8.694261920170992752e+00,6.031815563387179502e-01,-1.222214271199235508e-01,-7.881826773306354061e-01,5.949680667067356126e+02
-7.216793737704916722e+00,7.060196181328728393e+00,7.114560285391982042e+00,7.531729551072890994e-01,-1.378762375711745647e-01,-6.432096414147879804e-01,6.036447307905207253e+02
-8.452492382692883055e+00,8.280227161626212862e+00,5.129954189363446382e+00,8.702056809300642293e-01,-1.474976164884622964e-01,-4.700899126848747667e-01,6.123213948743058381e+02
-9.582297357777537883e+00,9.355502077021006002e+00,2.954579353232424044e+00,9.491584150134461106e-01,-1.506645354302879602e-01,-2.763991696325639458e-01,6.209980589580909509e+02
-1.034429404948034126e+01,1.014258066561123250e+01,8.026112701966022778e-01,9.865762090759061520e-01,-1.472384113183265730e-01,-7.061327013182260026e-02,6.296747230418760637e+02
-1.056909715985293730e+01,1.053858823670506872e+01,-1.165268735973528091e+00,9.808216712974120455e-01,-1.373691705925460804e-01,1.382626489146574489e-01,6.383513871256611765e+02
-1.026659406436433741e+01,1.055423350015951733e+01,-2.895396285297122230e+00,9.321466174444853481e-01,-1.214886884420700308e-01,3.410882322335865302e-01,6.470280512094462892e+02
-9.863798732149424708e+00,1.041343863615234966e+01,-3.902722666821567543e+00,8.426810520230614276e-01,-1.002918902186864802e-01,5.289878839051361803e-01,6.526254349302826085e+02
-8.994614569250696690e+00,1.003128972538426034e+01,-5.295509682638658511e+00,7.673766500476886243e-01,-6.412321647666066604e-02,6.379806345578054039e-01,6.613020990140677213e+02
-7.848709635518855698e+00,9.489457045395051082e+00,-6.450312778961182048e+00,6.776007789664832970e-01,-2.674528798432693200e-02,7.349420888173942013e-01,6.699787630978528341e+02
-6.516436507883248908e+00,8.884516711936301547e+00,-7.367132076084882186e+00,5.750464660280611984e-01,1.113700986381822161e-02,8.180437206657199534e-01,6.786554271816379469e+02
-5.085297056317749309e+00,8.320492901291526522e+00,-8.046017307986849332e+00,4.616477147730286279e-01,4.880928076311211866e-02,8.857183759846622984e-01,6.873320912654230597e+02
-3.647230706463693295e+00,7.836680835933176326e+00,-8.500887027655501527e+00,3.395430340286497706e-01,8.556108929992831125e-02,9.366898248839055086e-01,6.960087553492081724e+02
-2.308492316115706711e+00,7.336297281351344068e+00,-8.773344918900571443e+00,2.110351108512328322e-01,1.206993580370429586e-01,9.699968283236504174e-01,7.046854194329932852e+02
-2.278436175103621952e+00,7.323182454322394896e+00,-8.777998253395647765e+00,7.854738761691656967e-02,1.535614373350147888e-01,9.850112653480042058e-01,7.048924042306986166e+02
-1.157715665415867123e+00,6.644128881889713512e+00,-8.924073375847406453e+00,6.204492731714355419e-02,1.639106634306518595e-01,9.845210619308151223e-01,7.135690683144837294e+02
-3.772876319343766993e-01,5.635691876172224113e+00,-9.000008491306539682e+00,4.551891402477982462e-02,1.741976535634688072e-01,9.836570570765800214e-01,7.222457323982688422e+02
-6.261470703551776096e-02,4.158399174397780840e+00,-9.061305656675887832e+00,2.897561819528191376e-02,1.844185045735705353e-01,9.824195787434701899e-01,7.309223964820539550e+02
-1.645473514597448339e-01,2.677543209557784021e+00,-9.118909409530525423e+00,1.242131682951199897e-02,1.945693383484577987e-01,9.808090963280974295e-01,7.379002473021155311e+02
-6.585439452889783052e-01,9.343105256668396974e-01,-9.167721114655167369e+00,2.942417029164083597e-02,1.349476731844483079e-01,9.904147331786108399e-01,7.465769113859006438e+02
-1.442316437361191861e+00,-4.665189048562286278e-02,-9.127303792676327632e+00,4.631120314281337441e-02,7.479485144800665508e-02,9.961219818138941084e-01,7.552535754696857566e+02
-1.943589245772488150e+00,-1.609245413936410685e-01,-9.062727961808773713e+00,6.301595350276878449e-02,1.434761511580505758e-02,9.979083803319255264e-01,7.600325983300808730e+02
-3.108763944800274182e+00,1.861471036818153901e-01,-8.982191592731805230e+00,4.724969028334818216e-02,7.999069222081744632e-03,9.988500796534663939e-01,7.687092624138659858e+02
-4.895174395122108280e+00,8.631321082257079613e-01,-9.128622998698903146e+00,3.146973920611143699e-02,1.648206881701876373e-03,9.995023456162588360e-01,7.773859264976510985e+02
-5.020429443962919791e+00,9.009696891532779084e-01,-9.147146501692141385e+00,1.568066576180618052e-02,-4.703134459484527991e-03,9.998649894916352698e-01,7.778831474013238676e+02
-7.412429804484038876e+00,1.451280168655709968e+00,-9.560052332947124754e+00,2.277379500565527293e-01,-2.959315171476399886e-01,9.276626344008573888e-01,7.865598114851089804e+02
-9.708068706727379649e+00,1.913880988477376421e+00,-9.882132784090195798e+00,4.090515801380370520e-01,-5.472104035391239796e-01,7.302298124877913965e-01,7.952364755688940932e+02
-1.088871547282949948e+01,2.506104167909165348e+00,-9.576075741205404057e+00,5.351450054116972943e-01,-7.246182378838912364e-01,4.342191065692159180e-01,8.039131396526792059e+02
-1.090561372168766852e+01,2.940288984883969281e+00,-9.020562381178887534e+00,5.889961569055911506e-01,-8.042057273621014968e-01,7.959067300373480480e-02,8.090429698217538999e+02
-9.956185184774300367e+00,3.724278064919134490e+00,-7.517462956771532312e+00,5.375613511262061772e-01,-8.431155134502329451e-01,-1.349165501593828018e-02,8.177196339055390126e+02
-8.123662317662937227e+00,4.442759633709018274e+00,-5.445052224606808267e+00,4.792329464250323912e-01,-8.712133036349084536e-01,-1.064009522073120079e-01,8.263962979893241254e+02
-6.201300461680521181e+00,4.955264270238420643e+00,-3.178057929277018356e+00,4.147589367130269378e-01,-8.881387823485867861e-01,-1.979457696072721706e-01,8.350729620731092382e+02
-4.985176539473748392e+00,5.188162720487278001e+00,-1.091248381913020982e+00,3.449661238623248360e-01,-8.936749034353139720e-01,-2.869521569141024187e-01,8.437496261568943510e+02
-4.563072899671674065e+00,5.260353736375826372e+00,5.663133014867229864e-01,2.707495155023874056e-01,-8.877506730434392423e-01,-3.722787159729215034e-01,8.524262902406794637e+02
-4.099487639297733743e+00,5.446862814387745111e+00,1.790835876213622280e+00,1.930608483772539019e-01,-8.704420599601839781e-01,-4.528312368601543070e-01,8.611029543244645765e+02
-3.982459781112222430e+00,5.495436477501974615e+00,1.951076130850479817e+00,1.128963843437356396e-01,-8.419710217231424210e-01,-5.275767289983293029e-01,8.624486719149061855e+02
-2.979806852210448387e+00,5.945478546465335690e+00,2.872625811036612742e+00,-3.761095268526157970e-02,-7.872405468843804988e-01,-6.154963343349750815e-01,8.711253359986912983e+02
-1.578432363737036992e+00,6.660616223745580378e+00,3.660666057711336574e+00,-1.868628906118413591e-01,-7.062337266691078863e-01,-6.828720110151591527e-01,8.798020000824764111e+02
5.468510264730730430e-02,7.644698935553524421e+00,4.479603187785963669e+00,-3.298777474241592067e-01,-6.016543905858268149e-01,-7.274549237195424567e-01,8.884786641662615239e+02
1.748949688548854908e+00,8.848059172227628721e+00,5.419959867940108644e+00,-4.618820211518067653e-01,-4.769931533502449472e-01,-7.477569994284495314e-01,8.971553282500466366e+02
2.667238208143322353e+00,9.556255085241083691e+00,5.978995221977576158e+00,-5.784697111755277010e-01,-3.364109112656686329e-01,-7.431005934826054871e-01,9.019605574474145442e+02
4.142870133113357944e+00,1.073338535908051838e+01,6.955628552936353515e+00,-5.533992760783357223e-01,-3.091196153997171625e-01,-7.734289266673387564e-01,9.106372215311996570e+02
5.201753327993585252e+00,1.161840123627395904e+01,7.792650204822872517e+00,-5.270598172014071547e-01,-2.811194669202902174e-01,-8.019836621807826527e-01,9.193138856149847697e+02
5.644949655250019127e+00,1.201330496615124765e+01,8.358946524798490429e+00,-4.995117313329541786e-01,-2.524746703316642638e-01,-8.286993249040837117e-01,9.279905496987698825e+02
5.267930541671496769e+00,1.173650007439982801e+01,8.523460294315682972e+00,-4.708181860317388057e-01,-2.232509079723236645e-01,-8.535146558706263598e-01,9.366672137825549953e+02
4.817916327837135526e+00,1.138414363983005195e+01,8.464361948257476342e+00,-4.410449749032519517e-01,-1.935151895296663704e-01,-8.763727526162562453e-01,9.407814125213211582e+02
3.431402225733644507e+00,1.026823816545932466e+01,8.104792955174135116e+00,-3.341413228128367607e-01,-1.962112110435546009e-01,-9.218724082266296360e-01,9.494580766051062710e+02
1.576486066939333019e+00,8.714089158123764278e+00,7.475663417303134217e+00,-2.227248108226335122e-01,-1.962572228125750995e-01,-9.549213376702366807e-01,9.581347406888913838e+02
-3.616751657387620167e-01,6.960120340318409760e+00,6.755585966288552235e+00,-1.083002104143363925e-01,-1.936526045143329988e-01,-9.750731937598660082e-01,9.668114047726764966e+02
-1.991993708586512923e+00,5.211697854172785860e+00,6.123192144711868679e+00,7.587082393788057919e-03,-1.884325339350064743e-01,-9.820558112121554606e-01,9.754880688564616094e+02
-3.065232768117196915e+00,3.581416212170530411e+00,5.703421905824791693e+00,1.233719170829801481e-01,-1.806675118667079583e-01,-9.757748819430592802e-01,9.841647329402467221e+02
-3.566255665406444564e+00,2.359125500037519085e+00,5.522895318970712175e+00,2.374905254087168738e-01,-1.704624100727678282e-01,-9.563152289349261537e-01,9.910435143258105199e+02
-3.927611202130495194e+00,8.387132745399388245e-01,5.454824617222420180e+00,2.528656293623205986e-01,-9.261253378406832104e-02,-9.630575746402263437e-01,9.997201784095956327e+02
-4.116908789244095423e+00,-7.082845043143763952e-01,5.552053145224133068e+00,2.666369380190652394e-01,-1.417528291569251052e-02,-9.636917581036339442e-01,1.008396842493380746e+03
-4.327073049794937454e+00,-2.327858395187918372e+00,5.778345011707656020e+00,2.787171095723545156e-01,6.435186474316831329e-02,-9.582137602511106023e-01,1.017073506577165858e+03
-4.752055311563632145e+00,-4.049771167652735926e+00,6.097437333414231553e+00,2.890295275809084963e-01,1.424708618104253144e-01,-9.466583257544283203e-01,1.025750170660950971e+03
-5.475372664172618364e+00,-5.819937805111321971e+00,6.468980751816259200e+00,2.975087867813814846e-01,2.196862494791316234e-01,-9.290987426406008831e-01,1.034426834744735970e+03
-5.978315828696216805e+00,-6.799786741639262999e+00,6.687879854606907593e+00,3.041011078412018120e-01,2.955082992745595161e-01,-9.056463776044423319e-01,1.039362803459668157e+03
-6.823373104057564476e+00,-8.278533273288914529e+00,7.044688677177449954e+00,4.312079707206873391e-01,2.511874855799751671e-01,-8.665809443291010439e-01,1.048039467543453156e+03
-7.420127206535743980e+00,-9.237009486828133831e+00,7.322993391879387914e+00,5.498430221367363036e-01,2.019316940744032840e-01,-8.104901245143272259e-01,1.056716131627238155e+03
-7.501214428164237447e+00,-9.463465000770993285e+00,7.470252051650378533e+00,6.576755132930360848e-01,1.487086252336470293e-01,-7.384759061710827188e-01,1.065392795711023155e+03
-7.337118623837711517e+00,-9.318968497145695196e+00,7.492238867254084944e+00,7.525869192383485284e-01,9.256391961693138937e-02,-6.519531039695058983e-01,1.069527337095564462e+03
-6.453080657649045371e+00,-8.552195971334420221e+00,7.445870995060177577e+00,5.546947141236571177e-01,2.045932029000409602e-01,-8.065069097355047623e-01,1.078204001179349461e+03
-4.719502153211462492e+00,-7.405954360742369680e+00,7.327899781346909336e+00,3.148682311388259492e-01,3.011554481729323829e-01,-9.000896583430390008e-01,1.086880665263134460e+03
-2.215791542686877058e+00,-6.507857744755912499e+00,7.275309975255781936e+00,5.123805921705361366e-02,3.749506754422324839e-01,-9.256266268176503997e-01,1.095557329346919460e+03
-1.144283873854850420e+00,-6.304801400054180327e+00,7.285635848125625813e+00,-2.162656948527534317e-01,4.204000521933517476e-01,-8.811872362592384489e-01,1.098758131633647281e+03
1.830297745211718619e+00,-6.158423244807287311e+00,7.424710389705063918e+00,-2.904639376907433568e-01,3.733123461944210519e-01,-8.810599259291975738e-01,1.107434795717432280e+03
4.509673725725978244e+00,-6.552557273496701029e+00,7.754340258581541079e+00,-3.624190090245524298e-01,3.233416866873545792e-01,-8.741284891515399558e-01,1.116111459801217279e+03
6.188503042832621759e+00,-7.185523449394303874e+00,8.265860704632407518e+00,-4.315752363343522968e-01,2.708739738136282660e-01,-8.604464571906156323e-01,1.124788123885002278e+03
6.451560128710839948e+00,-7.776184776501033014e+00,8.923704496170458356e+00,-4.973985603105530173e-01,2.163143898025016165e-01,-8.401194896940141765e-01,1.133464787968787277e+03
5.645349699260466814e+00,-8.151903932718711943e+00,9.564017241340415865e+00,-5.593806581514422227e-01,1.600842706867047771e-01,-8.133045589217098303e-01,1.141209167397182000e+03
3.990797790559067248e+00,-8.357148989931246774e+00,1.023100513374581766e+01,-4.181671207398247048e-01,1.241778339962976707e-01,-8.998411663602108312e-01,1.149885831480966999e+03
1.906079863378270289e+00,-8.311715419279840589e+00,1.073507858384523850e+01,-2.649441974519963772e-01,8.470511979921820089e-02,-9.605350669896427496e-01,1.158562495564751998e+03
-1.699841957347463794e-01,-8.036407131750259225e+00,1.096007818748580576e+01,-1.041123078535102081e-01,4.279974783896357826e-02,-9.936432000163903933e-01,1.167239159648536997e+03
-1.948992726424324529e+00,-7.624788041598255184e+00,1.084518893848464494e+01,5.970961168064276708e-02,-3.348001221171164471e-04,-9.982147314992723119e-01,1.175915823732321996e+03
-1.964953724445850369e+00,-7.620363084722627356e+00,1.084232646657173049e+01,2.218167522423263316e-01,-4.345974128129949376e-02,-9.741183600120242314e-01,1.176002597172595415e+03
-3.460904810279355370e+00,-7.258672137302276894e+00,1.043786222645035267e+01,2.363756248936144666e-01,-1.299040990901547954e-01,-9.629379465952433437e-01,1.184679261256380414e+03
-4.842500827591458723e+00,-7.164301260702738539e+00,9.849564274312083256e+00,2.490884944720460625e-01,-2.153339369952771420e-01,-9.442373734910181060e-01,1.193355925340165413e+03
-6.283075228481120433e+00,-7.539189173402669475e+00,9.182646111705430769e+00,2.598560822589941477e-01,-2.990821030554829396e-01,-9.181626828303592891e-01,1.202032589423950412e+03
-7.344549850630798460e+00,-8.072610172557316943e+00,8.721537503576435313e+00,2.685942995284820722e-01,-3.804945768664511618e-01,-8.849174985460422915e-01,1.207929869767793889e+03
-8.993109939703366251e+00,-9.117655832223963586e+00,8.023627958530614279e+00,4.316117756866831856e-01,-3.458075643052371806e-01,-8.331424869483466944e-01,1.216606533851578888e+03
-1.065290291747013995e+01,-1.026843085898103070e+01,7.254736024382533621e+00,5.814829403251591255e-01,-3.005877453523710385e-01,-7.559911358313097240e-01,1.225283197935363887e+03
-1.218029779363769016e+01,-1.120963083795707149e+01,6.356776073155548268e+00,7.136429444084391172e-01,-2.462124523877539939e-01,-6.558133699354065094e-01,1.233959862019148886e+03
-1.342321779595079079e+01,-1.163818860582906645e+01,5.271689348293262967e+00,8.240663938428902657e-01,-1.843378768560300640e-01,-5.356604574688366149e-01,1.242636526102933885e+03
-1.425072081131350821e+01,-1.148319044599870153e+01,3.984928138268643227e+00,9.093899526590363269e-01,-1.168486253436803318e-01,-3.991920750199255963e-01,1.251313190186718884e+03
-1.439630217717539473e+01,-1.137898983652939400e+01,3.635488644804442782e+00,9.670147828084670882e-01,-4.580031916646788021e-02,-2.505648430937489346e-01,1.253503822420338793e+03
-1.469947264292761702e+01,-1.108234446272677509e+01,2.226705604134157301e+00,9.908703280115273015e-01,-2.888816032966033676e-02,-1.316794109066082019e-01,1.262180486504123792e+03
-1.447886275393906352e+01,-1.133258204882149833e+01,8.338941951761521532e-01,9.998738323785242299e-01,-1.154300384562208237e-02,-1.082027654502664554e-02,1.270857150587908791e+03
-1.410905675155848726e+01,-1.189672751631041692e+01,-1.039690115193198788e-02,9.938903469808102464e-01,5.975173209269694745e-03,1.102010684188519107e-01,1.276364922682093948e+03
-1.324942476088395082e+01,-1.332689472862505298e+01,-1.256571756985334520e+00,9.539259745728264628e-01,1.756044883781706645e-01,2.432823435794380651e-01,1.285041586765878947e+03
-1.210587657247479143e+01,-1.519126153291551340e+01,-2.393465273605936083e+00,8.680949648004889774e-01,3.367903781701975241e-01,3.646661120269731327e-01,1.293718250849663946e+03
-1.082147554159196190e+01,-1.703774594712561097e+01,-3.434947503171931427e+00,7.405242480964879803e-01,4.817827161892400678e-01,4.685160107865433132e-01,1.302394914933448945e+03
-9.526817829412934202e+00,-1.840266959918522005e+01,-4.394908389936000859e+00,5.773476726459905173e-01,6.036099945716727477e-01,5.498387393993908745e-01,1.311071579017233944e+03
-8.303308847460252551e+00,-1.897939085396002667e+01,-5.282544827767349460e+00,3.864110790662214634e-01,6.964145229249094626e-01,6.047241439160097043e-01,1.319748243101018943e+03
-7.357843421106674775e+00,-1.890985141713049345e+01,-5.957690736469920978e+00,1.768950624522365178e-01,7.557340746543068644e-01,6.305332229844189396e-01,1.326825654046477666e+03
-6.235002962175448360e+00,-1.833617080076003347e+01,-6.721017703146666911e+00,1.157672581972656045e-01,6.792006417825148246e-01,7.247637064116602135e-01,1.335502318130262665e+03
-5.131183473579102206e+00,-1.734595682255731219e+01,-7.402919936882711660e+00,5.250085287052904531e-02,5.901200863867428481e-01,8.056053277447773331e-01,1.344178982214047664e+03
-4.023083447572725291e+00,-1.613340570404042751e+01,-7.998523210358420954e+00,-1.173541664959627459e-02,4.901380208514645731e-01,8.715646852138208001e-01,1.352855646297832664e+03
-2.909626923189429171e+00,-1.484526289199774141e+01,-8.469268770197730944e+00,-7.575489806926423431e-02,3.811014382022758773e-01,9.214232953526423353e-01,1.361532310381617663e+03
-2.898419259889303490e+00,-1.483214433312765834e+01,-8.473202926098570842e+00,-1.383749429968640643e-01,2.650245952795817761e-01,9.542601003117966441e-01,1.361619784419703819e+03
-1.816007227935922730e+00,-1.351692950796199000e+01,-8.712416836390275421e+00,-1.274810046650229622e-01,1.683978270156352430e-01,9.774399036789805928e-01,1.370296448503488818e+03
-8.193624124650344953e-01,-1.217015351986445815e+01,-8.579836053733355783e+00,-1.153131855847816939e-01,7.008832704573170203e-02,9.908524086059934399e-01,1.378973112587273818e+03
3.742790971525967320e-02,-1.078291257495017952e+01,-7.935946430825485010e+00,-1.019930729806570319e-01,-2.892154746112981026e-02,9.943635940411155172e-01,1.387649776671058817e+03
6.570831763522309021e-01,-9.547267503362659724e+00,-6.926824637728022260e+00,-8.765376754216584743e-02,-1.276424412739832204e-01,9.879383706582426372e-01,1.395205345963566742e+03
1.252584369231402261e+00,-8.140163976768468146e+00,-5.312197072674520903e+00,-2.333938217213730459e-01,-3.195749376207684955e-01,9.183665843362056602e-01,1.403882010047351741e+03
1.769429765450703851e+00,-6.810988302657050575e+00,-3.303586032797721117e+00,-3.644491911157413111e-01,-4.914003932182095524e-01,7.910122885501124079e-01,1.412558674131136740e+03
2.266445055328453861e+00,-5.636556717481059131e+00,-1.038351892973726098e+00,-4.725739856512139458e-01,-6.323076967424648975e-01,6.138882672946920360e-01,1.421235338214921740e+03
2.800293003877402764e+00,-4.698751326324562605e+00,1.346091420583197529e+00,-5.509650113373568692e-01,-7.334309809761178078e-01,3.981388607279872094e-01,1.429912002298706739e+03
3.425382201993836695e+00,-4.084440523095532072e+00,3.712305104724225480e+00,-5.946898805341275240e-01,-7.884075343953088622e-01,1.573388244970415073e-01,1.438588666382491738e+03
4.193776777312243631e+00,-3.885397162343125377e+00,5.922854154475880151e+00,-6.009974167325133898e-01,-7.937782207217924935e-01,-9.336081289289550889e-02,1.447265330466276737e+03
5.116827979490699008e+00,-4.154151067767830163e+00,7.873751382337068172e+00,-5.694907883045139396e-01,-7.492051661309490074e-01,-3.381861337714299753e-01,1.455941994550061736e+03
6.128404646912259501e+00,-4.855530034529907724e+00,9.527894455290260467e+00,-5.021524599074741468e-01,-6.574929944001091098e-01,-5.617329163588752339e-01,1.464618658633846735e+03
7.125582897229715051e+00,-5.904237540637536696e+00,1.088165826463994179e+01,-4.032194007272378866e-01,-5.244122866420880547e-01,-7.499359095912948581e-01,1.473295322717631734e+03
7.352625375989395806e+00,-6.190574934938416263e+00,1.116447837432197865e+01,-2.789164325110121689e-01,-3.583364149808123678e-01,-8.909537795943409666e-01,1.475350588592802978e+03
8.212411585585781992e+00,-7.499244541101202977e+00,1.219650239017718008e+01,-1.968584567405526342e-01,-2.948943831730050369e-01,-9.350305079424772181e-01,1.484027252676587977e+03
8.837300021018027252e+00,-8.935466481212680279e+00,1.292025959473400754e+01,-1.123001562909275441e-01,-2.277068519418035952e-01,-9.672312363009802905e-01,1.492703916760372977e+03
9.132666364407826975e+00,-1.038789911998477855e+01,1.333232445610800099e+01,-2.631551851949436374e-02,-1.576271805354102495e-01,-9.871469826941204895e-01,1.501380580844157976e+03
9.006752624918712868e+00,-1.173734724765479953e+01,1.342933637539012359e+01,6.000335414752657609e-02,-8.554546059003111103e-02,-9.945247969075970973e-01,1.510057244927942975e+03
8.370807548530390108e+00,-1.285686166231206329e+01,1.320800038324175674e+01,1.455601145404835928e-01,-1.237721142049196844e-02,-9.892709728345346898e-01,1.518733909011727974e+03
7.211253106358514131e+00,-1.366575698448326825e+01,1.269656178145910275e+01,2.292680949350414110e-01,6.094824756638241720e-02,-9.714522385397694748e-01,1.527410573095512973e+03
5.659885656854677372e+00,-1.419173977370390993e+01,1.198627420404662658e+01,3.100641083342030591e-01,1.334995997204778129e-01,-9.412949089407319780e-01,1.536087237179297972e+03
5.521720794091313778e+00,-1.422461274608125947e+01,1.192282447846648985e+01,3.869219516309054807e-01,2.043553594199386259e-01,-8.991820118433541120e-01,1.536793681076719395e+03
3.786981247766578740e+00,-1.456281273334743176e+01,1.114088814500547997e+01,3.368382786469558132e-01,2.427994421870593722e-01,-9.097177611267547315e-01,1.545470345160504394e+03
2.077655850381933345e+00,-1.483360889284684880e+01,1.041565295381933787e+01,2.853744788359155460e-01,2.802486869289165239e-01,-9.165260936283162740e-01,1.554147009244289393e+03
5.894895872078353971e-01,-1.516605461275490363e+01,9.869891294085807232e+00,2.327414115904712366e-01,3.165496562061386743e-01,-9.195791159462810560e-01,1.562823673328074392e+03
-4.853050878432916271e-01,-1.570568820250409736e+01,9.626337982062397103e+00,1.791547264625235336e-01,3.515536171072977112e-01,-9.188643198442081328e-01,1.571500337411859391e+03
-1.016492880134848731e+00,-1.649720927714180263e+01,9.650105907208299527e+00,1.248339798687703311e-01,3.851171504411402546e-01,-9.143846334578842328e-01,1.580177001495644390e+03
-1.085160853240132006e+00,-1.716056639585139365e+01,9.675148334403811390e+00,7.000173580630439374e-02,4.171027381795615607e-01,-9.061584093218173486e-01,1.586639509500936583e+03
-7.723936438499949819e-01,-1.788913018926034937e+01,9.275775787963247865e+00,3.505078077603761971e-02,3.796759922761273609e-01,-9.244542085149285437e-01,1.595316173584721582e+03
-4.845664261259259864e-01,-1.813100710912272362e+01,8.870528235970303044e+00,-3.822253914057179940e-06,3.411265165204012684e-01,-9.400163294838950190e-01,1.599338965808190324e+03
4.011635338213444535e-01,-1.832151588829198374e+01,7.391867130370416206e+00,-2.943795989694556470e-01,3.656334430669960223e-01,-8.829783898953006416e-01,1.608015629891975323e+03
1.660272956227851759e+00,-1.800958356237799052e+01,5.168128299506175694e+00,-5.621107587237570424e-01,3.570464464687370665e-01,-7.460209983582801740e-01,1.616692293975760322e+03
3.183049648088709382e+00,-1.727765653022984438e+01,2.657986861409582069e+00,-7.789646011251698532e-01,3.161427371670701425e-01,-5.415403216112618656e-01,1.625368958059545321e+03
4.857888722292611483e+00,-1.619826462574154391e+01,3.201776709809872612e-01,-9.253133966807506328e-01,2.466245613958258920e-01,-2.880441695989081619e-01,1.634045622143330320e+03
6.591251144394010275e+00,-1.485237015441513009e+01,-1.511066594192706392e+00,-9.879109396567298251e-01,1.547841041909792104e-01,-8.476815260531149129e-03,1.642722286227115319e+03
8.185151054479790744e+00,-1.348090577004398938e+01,-2.688222339746505263e+00,-9.610914799295988686e-01,4.893396668060286114e-02,2.718577460959950010e-01,1.650675198696688540e+03
9.891804426957090612e+00,-1.195311782402458256e+01,-3.463291580448179641e+00,-9.751444248028349193e-01,1.053583197030973431e-02,2.213150402020366836e-01,1.659351862780473539e+03
1.152202097390476077e+01,-1.050309563522916179e+01,-3.722200413413012221e+00,-9.850759442847492053e-01,-2.790682585411120159e-02,1.698369602335778050e-01,1.668028526864258538e+03
1.302999681982924685e+01,-9.247762170464826070e+00,-3.504553160285993396e+00,-9.908440653157019051e-01,-6.623153207131639297e-02,1.176410744057639068e-01,1.676705190948043537e+03
1.436672347018221352e+01,-8.300262255129098321e+00,-2.850053590842210216e+00,-9.924244104084076756e-01,-1.042763106092945841e-01,6.494798434487031313e-02,1.685381855031828536e+03
1.548005548843301504e+01,-7.769845768624743521e+00,-1.798496633079613050e+00,-9.898103006219634015e-01,-1.418803685089338462e-01,1.198039288219101758e-02,1.694058519115613535e+03
1.631477964128454161e+01,-7.761752540234990505e+00,-3.897600726906985669e-01,-9.830127837755545661e-01,-1.788847753871920798e-01,-4.103783702383322074e-02,1.702735183199398534e+03
1.681268550544237073e+01,-8.377098976454366408e+00,1.336203760491743608e+00,-9.720605877822200425e-01,-2.151331350330464853e-01,-9.388262826672960637e-02,1.711411847283183533e+03
1.694351069644483232e+01,-9.472268119716135359e+00,3.067497395961209072e+00,-9.569999992988671433e-01,-2.504722463024131041e-01,-1.463306364809283944e-01,1.719019715874761914e+03
1.668569785112272896e+01,-1.144297134438596508e+01,5.252968376279865126e+00,-9.627432485881265434e-01,8.440823179582524274e-03,-2.702816860292294177e-01,1.727696379958546913e+03
1.597467544952906771e+01,-1.406297964605248829e+01,7.386616971567613987e+00,-8.891247104630511933e-01,2.666580518478955386e-01,-3.719525945998173877e-01,1.736373044042331912e+03
1.494685192277958663e+01,-1.669796855722271545e+01,8.667002707522899030e+00,-7.422129874220060319e-01,5.028938653760930411e-01,-4.429623476888032707e-01,1.745049708126116911e+03
1.407655025897620504e+01,-1.833766926483485804e+01,8.747337792933629785e+00,-5.341184145303558006e-01,6.976746712319049637e-01,-4.774574037352536382e-01,1.751545912523394691e+03
1.284924700309295176e+01,-1.994001812339010371e+01,7.736633349902545476e+00,-4.347584450349143981e-01,8.283731777655839457e-01,-3.532435035923110478e-01,1.760222576607179690e+03
1.156373056041709013e+01,-2.089392817522911017e+01,5.710714513264163017e+00,-3.169718180552338893e-01,9.239621763706888924e-01,-2.140578501151937929e-01,1.768899240690964689e+03
1.024126173213317159e+01,-2.131611290951821758e+01,3.180617354802119046e+00,-1.857507641857798486e-01,9.803902593561778511e-01,-6.579964258859401227e-02,1.777575904774749688e+03
8.899915878429149885e+00,-2.132427703859022827e+01,6.574831358299063622e-01,-4.665691210164191194e-02,9.952658008848493942e-01,8.524739376099338406e-02,1.786252568858534687e+03
7.550661890154148459e+00,-2.102614914692039960e+01,-1.484103071432210319e+00,9.441443263104297434e-02,9.679583213262097363e-01,2.326813337746439503e-01,1.794929232942319686e+03
6.193834137844481447e+00,-2.050807384038746761e+01,-3.142745256050614611e+00,2.314841507179064839e-01,8.996252090747506314e-01,3.702533877825098241e-01,1.803605897026104685e+03
5.691477270737789418e+00,-2.027856459908738884e+01,-3.657934220236281231e+00,3.587427247465856950e-01,7.931626673503365810e-01,4.921327468923910597e-01,1.806808658367369162e+03
4.320896768203582816e+00,-1.960426368050327639e+01,-4.814908698634601691e+00,4.208794499341365070e-01,7.520518401164995037e-01,5.072243274918714073e-01,1.815485322451154161e+03
2.925221741598743375e+00,-1.888674149158475046e+01,-5.572610738584925727e+00,4.805839690302010636e-01,7.065950345569818047e-01,5.193847377905950191e-01,1.824161986534939160e+03
1.493862055499758368e+00,-1.819917528436996790e+01,-5.966498494371058392e+00,5.375112648518791669e-01,6.570549367857253520e-01,5.285437069932117371e-01,1.832838650618724159e+03
1.423467273600126544e-02,-1.761383192208576887e+01,-6.032106011091600273e+00,5.913323688576445081e-01,6.037178280949163645e-01,5.346483083119699664e-01,1.841515314702509158e+03
-1.517496075014461487e+00,-1.717048308943285306e+01,-5.808820019392110012e+00,6.417362618435370480e-01,5.468919308153924463e-01,5.376632647329616654e-01,1.850191978786294158e+03
-3.084548286720378840e+00,-1.684602563596405389e+01,-5.343655929419265149e+00,6.884316709622479991e-01,4.869056274564431130e-01,5.375711528406584838e-01,1.858868642870079157e+03
-4.276814159602760235e+00,-1.664366200908029469e+01,-4.872665586287220130e+00,7.311487526966810035e-01,4.241055633991309137e-01,5.343725035243022115e-01,1.865431305243040697e+03
-5.836167183096719668e+00,-1.638872867345708073e+01,-4.137093894827978069e+00,7.894284756604712516e-01,3.502967372100279086e-01,5.040762618066919609e-01,1.874107969326825696e+03
-7.349091167004757175e+00,-1.611373169872505073e+01,-3.299890635012357354e+00,8.400016747288099328e-01,2.730682684637739110e-01,4.688591549833349137e-01,1.882784633410610695e+03
-8.783539407738960136e+00,-1.577319448409034663e+01,-2.411986676887972081e+00,8.823746495490344399e-01,1.931740724388692210e-01,4.290649782624542663e-01,1.891461297494395694e+03
-1.010621694897634981e+01,-1.532434187608878595e+01,-1.524323442889398361e+00,9.161337512754116341e-01,1.113940869537663331e-01,3.850822083225608483e-01,1.900137961578180693e+03
-1.128262916156780094e+01,-1.472714566929269786e+01,-6.878422821067176063e-01,9.409494204303697762e-01,2.852665865676628013e-02,3.373402109717318909e-01,1.908814625661965692e+03
-1.227713090029529752e+01,-1.394436888110969086e+01,4.652615564857492253e-02,9.565794039252586423e-01,-5.461925034688962927e-02,2.863050496906377473e-01,1.917491289745750692e+03
-1.305297622586708073e+01,-1.294160877420370603e+01,6.278725441997385914e-01,9.628711198528401294e-01,-1.372319594688073963e-01,2.324749359704850193e-01,1.926167953829535691e+03
-1.357236867679534242e+01,-1.168733864866957362e+01,1.005319501431641616e+00,9.597631469765306456e-01,-2.185049931416908897e-01,1.763753658496551580e-01,1.934844617913320690e+03
-1.379651208407323004e+01,-1.015294839834649743e+01,1.128032204236454783e+00,9.472858243792019461e-01,-2.976449535253273826e-01,1.185539901133545182e-01,1.943521281997105689e+03
-1.368566192352103172e+01,-8.312783795379701246e+00,9.452289966553898415e-01,9.255609554137408379e-01,-3.738792655802595788e-01,5.957526821894619518e-02,1.952197946080890688e+03
-1.347117750397793756e+01,-7.093024934902488532e+00,7.001943356276728592e-01,8.948006188345037915e-01,-4.464637189180489796e-01,1.495812060990404556e-05,1.957337763481349839e+03
-1.286962417458388330e+01,-4.838539904832988903e+00,5.735708709354934293e-02,9.125662173450488357e-01,-4.086910040688314649e-01,1.387667654662236294e-02,1.966014427565134838e+03
-1.200083695633460579e+01,-2.385528766413206547e+00,-8.543302911478896089e-01,9.285664126625252646e-01,-3.701276636363977079e-01,2.771154785393662931e-02,1.974691091648919837e+03
-1.099892762924238987e+01,1.314504495777338300e-01,-1.917415588083482447e+00,9.427702529723828162e-01,-3.308482990149843594e-01,4.149280838560445717e-02,1.983367755732704836e+03
-1.000139413687840317e+01,2.589404328431789359e+00,-3.014414977532673401e+00,9.551502613522784291e-01,-2.909288965978867325e-01,5.519379821600761682e-02,1.992044419816489835e+03
-9.148911741774465867e+00,4.877021598479954534e+00,-4.027837531842627605e+00,9.656824889040951376e-01,-2.504466808117014609e-01,6.878801271231556325e-02,2.000721083900274834e+03
-8.585122741116748557e+00,6.894785469246816234e+00,-4.840209736951578634e+00,9.743465610669844734e-01,-2.094799647588464486e-01,8.224915379544915639e-02,2.009397747984059833e+03
-8.393574860676906724e+00,8.594952725374046310e+00,-5.376228108151111407e+00,9.811257170210493372e-01,-1.681079987560986921e-01,9.555118080162564032e-02,2.018074412067844833e+03
-8.533247470124992518e+00,1.001445860128982446e+01,-5.644903004983605754e+00,9.860068421056532584e-01,-1.264108170614565985e-01,1.086683608463286377e-01,2.026751076151629832e+03
-8.899236526149238102e+00,1.122448015856192782e+01,-5.697428642266257448e+00,9.889804931897526741e-01,-8.446908308512503238e-02,1.215753185935030817e-01,2.035427740235414831e+03
-8.951631582801805820e+00,1.135428626272113206e+01,-5.692351913541933150e+00,9.900409169451883651e-01,-4.236393338333278857e-02,1.342470853339145787e-01,2.036431931246835802e+03
-9.430514865535171154e+00,1.241860417028617825e+01,-5.580691444904655185e+00,9.847780619237999078e-01,-1.285685996669697073e-01,1.169627459198305797e-01,2.045108595330620801e+03
-9.908330436999731816e+00,1.339335330510790456e+01,-5.361328738683280193e+00,9.718755909561734851e-01,-2.137758545292163248e-01,9.877104699182491510e-02,2.053785259414406028e+03
-1.027569171496305067e+01,1.432087039703251463e+01,-5.085561427947915547e+00,9.514336001441742185e-01,-2.973246901657211061e-01,7.981311380100326869e-02,2.062461923498191027e+03
-1.042211772891634247e+01,1.523414335769400552e+01,-4.804698863581014834e+00,9.236106732433151389e-01,-3.785669646269085864e-01,6.023601550809537519e-02,2.071138587581976026e+03
-1.023620156447020157e+01,1.615677245476481971e+01,-4.570051406080630763e+00,8.886226513903608959e-01,-4.568724294240327777e-01,4.019162435405413542e-02,2.079815251665761025e+03
-9.605779297861898769e+00,1.710293567631677902e+01,-4.432919717171833973e+00,8.467409587761405287e-01,-5.316336183375093283e-01,1.983543758585084790e-02,2.088491915749546024e+03
-8.418099386523692829e+00,1.807735829730495425e+01,-4.444584053055476325e+00,7.982904972457139925e-01,-6.022705595354365116e-01,-6.746287308462836987e-04,2.097168579833331023e+03
-7.399158822688641557e+00,1.869340453691442505e+01,-4.532385712440987646e+00,7.436471261426653712e-01,-6.682352744775028608e-01,-2.117946466304159239e-02,2.102574989166561409e+03
-5.224498120041943139e+00,1.968966077552155980e+01,-4.844113004884386342e+00,5.366310715437717649e-01,-8.437389706712289383e-01,-1.138606274433313220e-02,2.111251653250346408e+03
-2.602992096661615129e+00,2.058365992741856942e+01,-5.348313363338791149e+00,2.900367764030714612e-01,-9.570141594930963169e-01,-7.529035863630039122e-04,2.119928317334131407e+03
-6.953102517260054682e-01,2.108664008696634085e+01,-5.797417915280283829e+00,2.205128152635877498e-02,-9.997064674829199138e-01,9.935786625913047357e-03,2.127724495732276409e+03
-5.195673647888746638e-01,2.103500993023036969e+01,-5.997148403397518202e+00,1.537480198827234357e-01,-9.880214757327272501e-01,1.315712248942580917e-02,2.136401159816061408e+03
-2.723464200631076526e+00,2.038651168026970950e+01,-5.627721618900061173e+00,2.827555248857799297e-01,-9.590550269357438484e-01,1.614832669660571166e-02,2.145077823899846408e+03
-5.262874105866433894e+00,1.963549647043565471e+01,-4.529629384303786033e+00,4.068173604636022289e-01,-9.133137717798657240e-01,1.885708094585162448e-02,2.153754487983631407e+03
-5.400610216950416209e+00,1.958860659969309026e+01,-4.420808073646092851e+00,5.237635905484284704e-01,-8.515977531800554834e-01,2.123600699965015950e-02,2.154387382205320137e+03
-6.295531991339102795e+00,1.903496717519597681e+01,-2.726917904752422128e+00,5.795105772084885309e-01,-8.117487271022247874e-01,-7.231524700033212238e-02,2.163064046289105136e+03
-6.397931968619398724e+00,1.838853296569584117e+01,-1.079508687982413839e+00,6.274645653848146543e-01,-7.609836933646797474e-01,-1.648940193482275052e-01,2.171740710372890135e+03
-6.437012057755430838e+00,1.828508669524905272e+01,-9.040104586328839842e-01,6.669807128220819337e-01,-6.999852946410709542e-01,-2.552553936873557250e-01,2.172833140906843255e+03
-7.198779836686052924e+00,1.737750323231924909e+01,1.277340472401236882e-01,6.475593569017309425e-01,-7.494403182025708432e-01,-1.378553181460454857e-01,2.181509804990628254e+03
-8.279350723882549445e+00,1.657969481507898735e+01,6.323674220858968020e-01,6.173847677497713571e-01,-7.864502796974279786e-01,-1.816607041281157256e-02,2.190186469074413253e+03
-8.553685902933214180e+00,1.638265106694480622e+01,9.752048097874409516e-01,5.769580186080071060e-01,-8.104006099468853419e-01,1.018248307707039363e-01,2.198863133158198252e+03
-6.884167075266080182e+00,1.718264648792324678e+01,1.521595124017239176e+00,5.269504217423320869e-01,-8.208935981718670227e-01,2.201248588999452360e-01,2.207539797241983251e+03
-4.201596181623971304e+00,1.840406682953951645e+01,2.164820578104245108e+00,4.681923820241764567e-01,-8.177549955668712567e-01,3.347695634901255990e-01,2.213652121309497488e+03
-5.670068112661559301e-01,2.003338637157060731e+01,4.400171049464420392e+00,3.248352814123029453e-01,-9.222647199547410191e-01,2.095419439549931484e-01,2.222328785393282487e+03
-1.407985783837037985e-01,2.004175521556232553e+01,7.720248968363934594e+00,1.661604139034239258e-01,-9.832844979960345677e-01,7.443327785322842449e-02,2.231005449477067486e+03
-2.722132309712075315e-01,1.995428617362980006e+01,7.965917863347666383e+00,-3.498761166962394728e-04,-9.979369304919045724e-01,-6.418535928508545263e-02,2.231662615805189489e+03
-1.956280877376922023e+00,1.823251769486938301e+01,9.346886390838195169e+00,1.117130058333569986e-01,-9.629823561088106665e-01,-2.453226164697721867e-01,2.240339279888974488e+03
-3.518578467808007648e+00,1.575771282262091866e+01,7.941909916557038152e+00,2.185710964078503293e-01,-8.831617521428488660e-01,-4.150301138084416253e-01,2.249015943972759487e+03
-4.904840698233085661e+00,1.327545795532260797e+01,5.579974380847282589e+00,3.152458022770401880e-01,-7.621940206537205498e-01,-5.654010603343890828e-01,2.257692608056544486e+03
-6.040620699005176064e+00,1.152586848001677744e+01,4.090265413424011953e+00,3.972329821987684029e-01,-6.057151357130683422e-01,-6.894295701682803257e-01,2.266369272140329485e+03
-6.872501883005282863e+00,1.093598291602144279e+01,4.584569227372977451e+00,4.607127974091456135e-01,-4.210155586791369808e-01,-7.813370704467990091e-01,2.275045936224114485e+03
-7.420336391378662633e+00,1.131676719049835889e+01,6.739823262960742412e+00,5.027276797806576880e-01,-2.167005707606352860e-01,-8.368415277788360251e-01,2.283722600307899484e+03
-7.542199622308498164e+00,1.154325697828606856e+01,7.556222406018671123e+00,5.213201264253668477e-01,-2.289348084579224778e-03,-8.533569503261886346e-01,2.286302034248829841e+03
-7.866309134735132602e+00,1.237129414403039718e+01,1.021831986101751077e+01,6.498508281070916048e-01,-4.114495575030081148e-02,-7.589459755639402783e-01,2.294978698332614840e+03
-8.084859329004828510e+00,1.305197180725307504e+01,1.215060081100384970e+01,7.608723275625136617e-01,-7.889197143523757338e-02,-6.440864522660199043e-01,2.303655362416399839e+03
-8.296071131280397637e+00,1.311039952531889874e+01,1.231247484028075156e+01,8.513933603991762356e-01,-1.145133718169735748e-01,-5.118730638968393976e-01,2.312332026500184838e+03
-8.390506109195428053e+00,1.293325261323293418e+01,1.184921243922724265e+01,9.189749955534773918e-01,-1.470494027984247942e-01,-3.658680509194534580e-01,2.315663338849083175e+03
