5.175278818380984802e+00,-8.323439023628006694e+00,-6.913266020841136950e+00,-6.190533581722557077e-01,6.359211311825063717e-02,7.827687927319409988e-01,3.426735174398660888e+02
2.858354442525494754e+00,-7.075757005186547488e+00,-8.538046709555253244e+00,-5.013453793200505215e-01,6.422977823387306107e-02,8.628588217215954481e-01,3.513501815236511447e+02
2.438796505082287958e-01,-5.699138162741175684e+00,-1.052835952233561123e+01,-3.734751393601679070e-01,6.356550417119197216e-02,9.254586684232980476e-01,3.600268456074362007e+02
-2.058734297591496176e+00,-4.603660542621523355e+00,-1.239680365440419152e+01,-2.380345639422226933e-01,6.161275626281482315e-02,9.692994452877012890e-01,3.687035096912212566e+02
-3.518312610191331125e+00,-4.212469693634128376e+00,-1.365600362968294945e+01,-9.776902465233577866e-02,5.841111676143254106e-02,9.934925058890392569e-01,3.773801737750063126e+02
-3.682056133028205558e+00,-4.960007340789914565e+00,-1.381871102257966122e+01,4.447830670844531847e-02,5.402548251801110590e-02,9.975474562502698594e-01,3.860568378587913685e+02
-3.579274248308935036e+00,-5.183908736444952758e+00,-1.373736702113042440e+01,1.858240858862580114e-01,4.854474962346400774e-02,9.813820950010554434e-01,3.873951322043604932e+02
-1.885390386209433000e+00,-7.591918580486177071e+00,-1.223890412275767225e+01,-1.388296176948639049e-01,4.848685358765669751e-01,8.634968674918656051e-01,3.960717962881455492e+02
5.457022061942465863e-01,-1.091590258057150997e+01,-9.669484311013405886e+00,-4.204911304157325502e-01,7.710401734564890086e-01,4.782073401345415253e-01,4.047484603719306051e+02
1.571013849672845852e+00,-1.313075894088010642e+01,-7.795852153511451554e+00,-5.719366043414164658e-01,8.184391397928731937e-01,-5.517150596369817250e-02,4.124121790381846040e+02
9.687292799030456925e-01,-1.407656568970533861e+01,-6.730301477103397545e+00,-4.048703336524529517e-01,9.128825331672673071e-01,5.218710153079003655e-02,4.210888431219696599e+02
-6.090899411775276828e-01,-1.374035888982869302e+01,-6.390423930955327236e+00,-2.182259203237932599e-01,9.631819707699089683e-01,1.570220967970058501e-01,4.297655072057547159e+02
-1.725772271905872568e+00,-1.315057643187859249e+01,-6.337154359455290376e+00,-2.102879061450062953e-02,9.669051569748490227e-01,2.542640505070002943e-01,4.350274833273855393e+02
-3.439182709708850982e+00,-1.191764070659034758e+01,-6.245460822309923721e+00,2.236401111484591919e-01,8.626883816800812177e-01,4.535987839495814189e-01,4.437041474111705952e+02
-4.968508278916627496e+00,-1.057706037108723152e+01,-6.158757096128428365e+00,4.436060269899030351e-01,6.631803105003960530e-01,6.028296347922196263e-01,4.523808114949556511e+02
-6.434332429530419617e+00,-9.463086594859863254e+00,-6.158508217032132137e+00,6.145718670807740480e-01,3.904183102512439607e-01,6.854728026802048291e-01,4.610574755787407071e+02
-7.107220857802357017e+00,-9.074882348108708641e+00,-6.193076014945349428e+00,7.176530012820591109e-01,7.453124207196662465e-02,6.923996416136923848e-01,4.649508163910221015e+02
-8.660230031147104768e+00,-8.450399530587636932e+00,-6.293902632281417553e+00,7.843550041961285801e-01,9.718158854010805481e-02,6.126507702116812393e-01,4.736274804748071574e+02
-1.022420927113658706e+01,-8.107111919667890021e+00,-6.337064873049584435e+00,8.421764503086796028e-01,1.187316311228005239e-01,5.259654231184760498e-01,4.823041445585922133e+02
-1.169260499170515466e+01,-7.856190716701208387e+00,-6.166871350282994158e+00,8.904626893364769868e-01,1.389373807772910363e-01,4.333250548055740947e-01,4.909808086423772693e+02
-1.292270683405326892e+01,-7.511665202490481974e+00,-5.627675149095028750e+00,9.286670263190475172e-01,1.575700683610703479e-01,3.357785397910869052e-01,4.996574727261623252e+02
-1.373568468123803044e+01,-6.891240336879525863e+00,-4.563906320251571280e+00,9.563569104865879966e-01,1.744187344581455412e-01,2.344302984561243419e-01,5.083341368099473812e+02
-1.391792620377495915e+01,-5.853314944558181132e+00,-2.876647236112126471e+00,9.732188322324768492e-01,1.892926176328039722e-01,1.304277941897095672e-01,5.168135734390102698e+02
-1.323045608609951884e+01,-4.179007729752155065e+00,-3.338508753566284959e-01,9.750540460104154539e-01,1.092482375244065163e-01,-1.932160188939511525e-01,5.254902375227953826e+02
-1.161930669316007148e+01,-1.965360326218659193e+00,2.900162932069215493e+00,8.685061338980490930e-01,1.706025446757155825e-02,-4.953827238606862693e-01,5.341669016065804954e+02
-9.543430581078828467e+00,2.069853539529571684e-01,6.093130211886847114e+00,6.654185330964075273e-01,-7.702407936247851472e-02,-7.424846577612699283e-01,5.428435656903656081e+02
-7.625957234451180788e+00,1.785216490115410615e+00,8.501282027883066306e+00,3.883656652105185181e-01,-1.625467199896814541e-01,-9.070549453626965963e-01,5.515202297741507209e+02
-6.197877210836703732e+00,2.749638105928698728e+00,9.941548220845229267e+00,6.814363890580864280e-02,-2.300013112569211926e-01,-9.708006187150785005e-01,5.600851580535378389e+02
-5.323997096244246663e+00,3.381188391335771204e+00,1.056012699065253990e+01,1.946156627394658445e-01,-2.110830562718160885e-01,-9.578970128208857959e-01,5.687618221373229517e+02
-5.080325153567972762e+00,3.920288039779629141e+00,1.043618505214925918e+01,3.178726879730163213e-01,-1.886777964206515223e-01,-9.291693297663955464e-01,5.774384862211080645e+02
-5.476110699453498931e+00,4.626897515206507272e+00,9.679376013387473776e+00,4.358785763524341550e-01,-1.631556558097290166e-01,-8.850921413356522827e-01,5.861151503048931772e+02
-6.409930297311166925e+00,5.649340900272346033e+00,8.406142819535677546e+00,5.466839342858782480e-01,-1.349382462006782080e-01,-8.263935779673592386e-01,5.947918143886782900e+02
-6.433399362973728053e+00,5.673519142829036355e+00,8.375657866642676197e+00,6.484583124803288134e-01,-1.044917029573184941e-01,-7.540433017988041886e-01,5.949680667067356126e+02
-7.654854446065384010e+00,6.932930277046939871e+00,6.717071010519220842e+00,7.885554806465496780e-01,-1.116312588396930067e-01,-6.047451661592047056e-01,6.036447307905207253e+02
-8.873627885239148583e+00,8.231962302545765553e+00,4.811303304121497426e+00,8.955583847262691410e-01,-1.140858509371512203e-01,-4.300669693934140447e-01,6.123213948743058381e+02
-9.840505236931658573e+00,9.369687261755528240e+00,2.795010080339420444e+00,9.649763110582769698e-01,-1.117524650677096248e-01,-2.373396419658766465e-01,6.209980589580909509e+02
-1.034409474757649150e+01,1.013989764277268613e+01,8.048696934201228226e-01,9.938959185769573601e-01,-1.047290295593841097e-01,-3.465160031602054769e-02,6.296747230418760637e+02
-1.029459354809065808e+01,1.042058433780066196e+01,-1.053308928951036005e+00,9.811035046738023624e-01,-9.331030526338809916e-02,1.694907078552206903e-01,6.383513871256611765e+02
-9.785151669474535296e+00,1.026579492601451271e+01,-2.735472289681814217e+00,9.271359415546965854e-01,-7.797551502907390519e-02,3.665198015581527247e-01,6.470280512094462892e+02
-9.274337013710189481e+00,1.001282693244281674e+01,-3.735216744643583109e+00,8.342581455944235724e-01,-5.936823178737314632e-02,5.481667260647387074e-01,6.526254349302826085e+02
-8.309912778593037785e+00,9.505246542347400407e+00,-5.141739545708827741e+00,7.646289199254963087e-01,-5.600451753113371012e-02,6.420312366465407150e-01,6.613020990140677213e+02
-7.240962847421637427e+00,8.952615547946273011e+00,-6.337537655474049458e+00,6.845471411517032312e-01,-5.187521568693757856e-02,7.271190917166255874e-01,6.699787630978528341e+02
-6.148797768014172327e+00,8.507417141843481190e+00,-7.309564103667666402e+00,5.951075352623724779e-01,-4.703677431751465687e-02,8.022671396337773819e-01,6.786554271816379469e+02
-5.085381487348788809e+00,8.323665770090791227e+00,-8.044818565529702425e+00,4.975327473258022160e-01,-4.155533526367682223e-02,8.664481054569729279e-01,6.873320912654230597e+02
-4.059790077247152240e+00,8.452080590788598968e+00,-8.545881377875588214e+00,3.931566286355840933e-01,-3.550583001841686043e-02,9.187846327594675344e-01,6.960087553492081724e+02
-3.051140532009786188e+00,8.735052836636439721e+00,-8.846444304935680236e+00,2.834060040038119954e-01,-2.897095547188793807e-02,9.585612764105624350e-01,7.046854194329932852e+02
-3.027148740267836313e+00,8.742077986640730103e+00,-8.851515178000234130e+00,1.697811682943485279e-01,-2.204004352050943291e-02,9.852342824801806342e-01,7.048924042306986166e+02
-2.038340081846957030e+00,8.913963247341584406e+00,-9.001320654457558135e+00,1.272819712255022218e-01,-8.837673110001362242e-02,9.879204690650453813e-01,7.135690683144837294e+02
-1.123068061461588441e+00,8.710855518209953630e+00,-9.050363328565460108e+00,8.399185902969785733e-02,-1.541642326390376405e-01,9.844677531480392485e-01,7.222457323982688422e+02
-3.849286115061460456e-01,7.873212048753302383e+00,-9.047960721771181269e+00,4.017982459926070643e-02,-2.189937632808742485e-01,9.748975912042907588e-01,7.309223964820539550e+02
-3.022786007763604219e-02,6.624964609793408954e+00,-9.039868318721854479e+00,-3.881896478863183179e-03,-2.824624900368154501e-01,9.592694473390890320e-01,7.379002473021155311e+02
-6.252641113578612242e-02,4.129927490424975645e+00,-9.066646068746651466e+00,-2.625676292103625107e-03,-1.916358484578864763e-01,9.814615669529832553e-01,7.465769113859006438e+02
-7.633461128437034615e-01,1.219077014167895490e+00,-9.112839216764738737e+00,-1.346498611767370929e-03,-9.913364646937673774e-02,9.950722119902354335e-01,7.552535754696857566e+02
-1.442063309960901707e+00,-7.914222202110142044e-04,-9.115132027726469133e+00,-5.554745240293212124e-05,-5.764642689041318303e-03,9.999823827471544524e-01,7.600325983300808730e+02
-2.982235234055842454e+00,-3.323455585027839110e-01,-9.060495980953444217e+00,5.140976615328117678e-03,-5.969055842180721883e-03,9.999679697906906917e-01,7.687092624138659858e+02
-4.895949270057843528e+00,8.402807270522992811e-01,-9.147120462395736951e+00,1.033736048343106978e-02,-6.173307511655535922e-03,9.999265118638093197e-01,7.773859264976510985e+02
-5.019478272441846300e+00,9.144923478061109945e-01,-9.161859825327924867e+00,1.553346592035421622e-02,-6.377392263720006726e-03,9.998580100091684075e-01,7.778831474013238676e+02
-7.336817136131741357e+00,1.829537262271887954e+00,-9.533093098161923962e+00,2.318362598862140356e-01,-2.939347654282574163e-01,9.272822128540001430e-01,7.865598114851089804e+02
-9.573235085705869452e+00,2.214135824633789884e+00,-9.851365283992768340e+00,4.169005809062263923e-01,-5.418862833339700424e-01,7.297610304581747531e-01,7.952364755688940932e+02
-1.088787313359395803e+01,2.510411112551814039e+00,-9.558137884639101856e+00,5.457901978819541533e-01,-7.168220680175712012e-01,4.339091871576310488e-01,8.039131396526792059e+02
-1.092231762670557593e+01,2.754351517793927950e+00,-9.009449170994294320e+00,6.011380549697296072e-01,-7.951706357024286298e-01,7.959082223819147206e-02,8.090429698217538999e+02
-9.857110628142851994e+00,3.310680296797250399e+00,-7.512290991409537710e+00,5.481012286020269242e-01,-8.363570384175691430e-01,-9.484065291765354788e-03,8.177196339055390126e+02
-8.039405019680964770e+00,3.978990787165260112e+00,-5.444122417960193694e+00,4.882440688509842031e-01,-8.671361566522393094e-01,-9.844092166613936656e-02,8.263962979893241254e+02
-6.173895138515828940e+00,4.638902007517645920e+00,-3.181489878425144191e+00,4.223114121252424247e-01,-8.871249943907170143e-01,-1.861728108945849280e-01,8.350729620731092382e+02
-4.986494767599206845e+00,5.186404172650783906e+00,-1.100980338086672061e+00,3.511236934007045951e-01,-8.960748228083342815e-01,-2.715880407197699964e-01,8.437496261568943510e+02
-4.582546289518174554e+00,5.588722600230951798e+00,5.477347043225975209e-01,2.755667376520846701e-01,-8.938742748532819693e-01,-3.536237461703964913e-01,8.524262902406794637e+02
-4.162601405652461395e+00,5.919574531231870829e+00,1.768154365152051266e+00,1.965807378142485351e-01,-8.805507309277734729e-01,-4.312591144348324468e-01,8.611029543244645765e+02
-4.049286606326617743e+00,5.969648711727733037e+00,1.928695418930346461e+00,1.151485563355373332e-01,-8.562699784394937064e-01,-5.035280866019529178e-01,8.624486719149061855e+02
-3.012563945482193972e+00,6.343726982009608051e+00,2.859179480342707969e+00,-3.482346475556091087e-02,-7.991885665828561969e-01,-6.000691304726530895e-01,8.711253359986912983e+02
-1.561664865608188180e+00,6.868655439220473724e+00,3.661729824617638851e+00,-1.835741951000966210e-01,-7.140795195575626586e-01,-6.755656553159504751e-01,8.798020000824764111e+02
5.450335044568534182e-02,7.647215799406087200e+00,4.484627795513080883e+00,-3.258869460731226853e-01,-6.039276227735903557e-01,-7.273700054517348024e-01,8.884786641662615239e+02
1.650356233377534565e+00,8.704629403744160498e+00,5.410118454992177028e+00,-4.567708097520389310e-01,-4.725959035406386288e-01,-7.536654027588356453e-01,8.971553282500466366e+02
2.484823040836238839e+00,9.365315732218512323e+00,5.955072940819239768e+00,-5.716356828412553215e-01,-3.246901601360712708e-01,-7.535296583504598189e-01,9.019605574474145442e+02
3.839423883881585731e+00,1.052424427955247488e+01,6.907579952800898759e+00,-5.543011957932593159e-01,-3.062018467406499300e-01,-7.739435466399050556e-01,9.106372215311996570e+02
4.914608466102828643e+00,1.148817846441227886e+01,7.732782555025051074e+00,-5.363796906242590534e-01,-2.873892603269792567e-01,-7.935378003129139879e-01,9.193138856149847697e+02
5.554943986118750843e+00,1.204378575356550662e+01,8.314828534737253918e+00,-5.178901441618620760e-01,-2.682723211499185023e-01,-8.122916719231764171e-01,9.279905496987698825e+02
5.562875029946522609e+00,1.198175299851657805e+01,8.537916356313395738e+00,-4.988521344369568067e-01,-2.488712715793644226e-01,-8.301853034960922084e-01,9.366672137825549953e+02
5.267587539931537499e+00,1.173261899388264062e+01,8.517306459942307839e+00,-4.792858199878413106e-01,-2.292066547033131396e-01,-8.471997475145418566e-01,9.407814125213211582e+02
3.978304656645062387e+00,1.072123686965539235e+01,8.202138288297675217e+00,-3.589953017917107969e-01,-2.230084421329597000e-01,-9.063043683162407271e-01,9.494580766051062710e+02
2.059196565449506799e+00,9.100012940673229522e+00,7.562261080736165653e+00,-2.322423094915470609e-01,-2.127957187103804437e-01,-9.490940373750578196e-01,9.581347406888913838e+02
-8.430824728034207183e-02,7.168020644321513757e+00,6.802562533697648739e+00,-1.013085924113762554e-01,-1.987523305618762448e-01,-9.747984818413544250e-01,9.668114047726764966e+02
-1.991561572580269557e+00,5.214405925133279496e+00,6.127955276314794197e+00,3.144884361201698286e-02,-1.811310803958228466e-01,-9.829549847019511954e-01,9.754880688564616094e+02
-3.327534103398840593e+00,3.429672634699306943e+00,5.681693568293263219e+00,1.636401633526171628e-01,-1.602491768838416875e-01,-9.734167135642041169e-01,9.841647329402467221e+02
-3.944599883033677479e+00,2.139127075768200825e+00,5.493047114352974880e+00,2.928857202125888515e-01,-1.364825248639529587e-01,-9.463553641747061151e-01,9.910435143258105199e+02
-4.322465875164172466e+00,5.984224113880333151e-01,5.425968791473042785e+00,2.938063389708522877e-01,-6.515552815754757643e-02,-9.536407040018988202e-01,9.997201784095956327e+02
-4.448297414432821562e+00,-9.013416595802222764e-01,5.532256112254918534e+00,2.932163602450160722e-01,6.506447884856351657e-03,-9.560229245258410335e-01,1.008396842493380746e+03
-4.521030748608179550e+00,-2.429859407937410509e+00,5.770074711776557841e+00,2.911188181155797139e-01,7.813496256236901472e-02,-9.534897804186409642e-01,1.017073506577165858e+03
-4.752226834740375772e+00,-4.052129372171597410e+00,6.097562710113078488e+00,2.875244971158003038e-01,1.493617475993555543e-01,-9.460542964918852160e-01,1.025750170660950971e+03
-5.270811538247714978e+00,-5.751295896314353229e+00,6.471061944257678000e+00,2.824518767838685163e-01,2.198206000767155277e-01,-9.337547007011105515e-01,1.034426834744735970e+03
-5.685529715556453922e+00,-6.708548917634897357e+00,6.688686105784388047e+00,2.759270366845296696e-01,2.891492647506845870e-01,-9.166542276772746689e-01,1.039362803459668157e+03
-6.476214531541415909e+00,-8.180437974684471314e+00,7.041851025570743161e+00,4.111549027523603850e-01,2.467453776030831825e-01,-8.775342526498434159e-01,1.048039467543453156e+03
-7.150699228041140110e+00,-9.170783291319402508e+00,7.316932405737207823e+00,5.374955955889310077e-01,1.990080801504890695e-01,-8.194463184107514397e-01,1.056716131627238155e+03
-7.435258746260879903e+00,-9.441051226203018842e+00,7.464950624734417950e+00,6.522182835857178729e-01,1.469692083410215899e-01,-7.436459926306381307e-01,1.065392795711023155e+03
-7.336982666502837702e+00,-9.312219431102569445e+00,7.488894550049424836e+00,7.528432484519208545e-01,9.175357315720623907e-02,-6.517716817048683220e-01,1.069527337095564462e+03
-6.467650131605257258e+00,-8.554372864735956483e+00,7.449094631058107652e+00,5.546492827076054954e-01,2.047380756948261604e-01,-8.065013909184890473e-01,1.078204001179349461e+03
-4.727705285371678556e+00,-7.401015008851437038e+00,7.336430404184893561e+00,3.143087896354888611e-01,3.021649723353090344e-01,-8.999468396812666526e-01,1.086880665263134460e+03
-2.215597648165581024e+00,-6.515103415966803979e+00,7.277384856707950433e+00,5.008467697453189427e-02,3.766310305304717554e-01,-9.250073469841482154e-01,1.095557329346919460e+03
-1.128822381669326358e+00,-6.325250434075787354e+00,7.281863960898920851e+00,-2.179452995053970665e-01,4.224777464430228280e-01,-8.797786086194886446e-01,1.098758131633647281e+03
1.887412675482855962e+00,-6.213603247082091663e+00,7.403763014714066060e+00,-2.925431250483737644e-01,3.710870022839788951e-01,-8.813120654576969137e-01,1.107434795717432280e+03
4.535183634068700620e+00,-6.607697558005478200e+00,7.727644744638009655e+00,-3.647396781334426574e-01,3.166503102828068794e-01,-8.756115281285204999e-01,1.116111459801217279e+03
6.188059518399558812e+00,-7.183057603358178334e+00,8.269452793609406882e+00,-4.339423664769463951e-01,2.596144913339814564e-01,-8.627237903665566643e-01,1.124788123885002278e+03
6.505739365727260193e+00,-7.684392199967664538e+00,8.999394229235370801e+00,-4.995831706677667516e-01,2.004476985988210003e-01,-8.427546355318857874e-01,1.133464787968787277e+03
5.749192577678964078e+00,-7.994509969944519234e+00,9.715263680470894059e+00,-5.611233054639902518e-01,1.396355757279741372e-01,-8.158679685184916375e-01,1.141209167397182000e+03
4.102250574297802821e+00,-8.181009151771997168e+00,1.043146702275126536e+01,-4.136499314622220091e-01,1.109930052150897711e-01,-9.036438939067883425e-01,1.149885831480966999e+03
2.002038295523609790e+00,-8.191445805741164321e+00,1.089870191622201112e+01,-2.536539703003139468e-01,7.899029779279281849e-02,-9.640633776915383812e-01,1.158562495564751998e+03
-1.698716981303760309e-01,-8.035449078867953787e+00,1.095011766906577400e+01,-8.597903696064226886e-02,4.459628318328136970e-02,-9.952973308163117760e-01,1.167239159648536997e+03
-2.126471786798407759e+00,-7.762342241870190840e+00,1.054452558316361888e+01,8.429879097680788302e-02,8.852182516747693353e-03,-9.964001970618628912e-01,1.175915823732321996e+03
-2.144477417949120834e+00,-7.759240584786375017e+00,1.053839511113088534e+01,2.520246353736816380e-01,-2.715991130883628132e-02,-9.673385769122355704e-01,1.176002597172595415e+03
-3.792976763209771285e+00,-7.486470524943324101e+00,9.887494634925930725e+00,2.419079935296007677e-01,-1.173436827588062725e-01,-9.631765065555569771e-01,1.184679261256380414e+03
-5.155921663442259550e+00,-7.364383563605643168e+00,9.328684367671106870e+00,2.297949369855500634e-01,-2.065590187733888361e-01,-9.510655385917365923e-01,1.193355925340165413e+03
-6.282930768718979486e+00,-7.541429306100152274e+00,9.197628835927293522e+00,2.157854301211440673e-01,-2.940696654386891207e-01,-9.311056223725101555e-01,1.202032589423950412e+03
-6.946096275027699996e+00,-7.852529221439056073e+00,9.410716748596055226e+00,1.999950864995492517e-01,-3.791534356660026250e-01,-9.034614754353584853e-01,1.207929869767793889e+03
-7.852047105445252306e+00,-8.536712644853995613e+00,1.001072302941438252e+01,2.842837725680338878e-01,-3.243319653201081620e-01,-9.022136736525143696e-01,1.216606533851578888e+03
-8.756259139655517387e+00,-9.407820493071087142e+00,1.068498328878250447e+01,3.656978917729466483e-01,-2.662310071550176294e-01,-8.918430931400920247e-01,1.225283197935363887e+03
-9.719123223145590629e+00,-1.030892683688950129e+01,1.102320968816761138e+01,4.434142306575070136e-01,-2.054380476328998284e-01,-8.724545997557059396e-01,1.233959862019148886e+03
-1.077121642793350098e+01,-1.108206703856388664e+01,1.061518442342030610e+01,5.166469653396521533e-01,-1.425677918742095929e-01,-8.442442406822142642e-01,1.242636526102933885e+03
-1.191329402947173755e+01,-1.156891229298834389e+01,9.050845356063286218e+00,5.846556063155212701e-01,-7.825594880871139525e-02,-8.074972622116921572e-01,1.251313190186718884e+03
-1.221371415805354133e+01,-1.164101328836212801e+01,8.470567354885206512e+00,6.467524850429142713e-01,-1.315280403224021975e-02,-7.625852259493103302e-01,1.253503822420338793e+03
-1.342386208466995967e+01,-1.162686390316605411e+01,5.181595778955283116e+00,8.833905541664704986e-01,-3.757200005257002595e-02,-4.671268281980210380e-01,1.262180486504123792e+03
-1.447833020167121632e+01,-1.134384859237236398e+01,9.228108797132589247e-01,9.929177054741376018e-01,-5.658496552214447445e-02,-1.044536827194982864e-01,1.270857150587908791e+03
-1.490619600834104119e+01,-1.125972073275485208e+01,-1.561213682798186841e+00,9.595741242258803982e-01,-6.745593315053974304e-02,2.732493315627694264e-01,1.276364922682093948e+03
-1.513786439060907441e+01,-1.153274792944527327e+01,-4.320008010880433069e+00,9.483746379065985943e-01,3.367440120758814770e-02,3.153562761046511120e-01,1.285041586765878947e+03
-1.497084230920354031e+01,-1.227220690142411996e+01,-5.700981397725845667e+00,9.256753634863403857e-01,1.343963872128860482e-01,3.536392689428862757e-01,1.293718250849663946e+03
-1.450680972192402507e+01,-1.333504159855125337e+01,-6.053603414391994342e+00,8.917515504178930019e-01,2.334887014421527518e-01,3.876341040544481475e-01,1.302394914933448945e+03
-1.381872787739739294e+01,-1.457621354513281453e+01,-5.727558243634760515e+00,8.470145498333548906e-01,3.297497819639202965e-01,4.169285714187123126e-01,1.311071579017233944e+03
-1.295082119162668199e+01,-1.584935182713996404e+01,-5.072671677768350484e+00,7.920068269394927585e-01,4.220123966411555294e-01,4.411674547857949436e-01,1.319748243101018943e+03
-1.211533318573461493e+01,-1.682307298075360436e+01,-4.520661153968009494e+00,7.273953840715547958e-01,5.091577952949469799e-01,4.600568385768158963e-01,1.326825654046477666e+03
-1.092558017517281144e+01,-1.780387638052668109e+01,-4.139702965912622545e+00,6.460941756326951113e-01,5.465616395252582693e-01,5.327576282066329716e-01,1.335502318130262665e+03
-9.526603510412792630e+00,-1.840326194865444620e+01,-4.415037310886936517e+00,5.562035754633993800e-01,5.766992878515543319e-01,5.983757298159524396e-01,1.344178982214047664e+03
-7.894733120320410080e+00,-1.845874307947834225e+01,-5.448839043503686419e+00,4.589186121244246408e-01,5.991700870791192290e-01,6.560388054032496585e-01,1.352855646297832664e+03
-6.056915153541014618e+00,-1.777439759414291487e+01,-6.848079129691956979e+00,3.555326123813723482e-01,6.136753056016405194e-01,7.049802698142617619e-01,1.361532310381617663e+03
-6.037457103197670705e+00,-1.776323628246451847e+01,-6.862412773174661140e+00,2.474200097218978434e-01,6.200221042852173126e-01,7.445494805491674750e-01,1.361619784419703819e+03
-4.022854489810162804e+00,-1.612480688378708038e+01,-7.983197438919407141e+00,1.499074147731335183e-01,4.315994040627832984e-01,8.895210629374398215e-01,1.370296448503488818e+03
-1.905997795647489612e+00,-1.359485076602156717e+01,-8.368045784752911942e+00,4.249664472118353659e-02,2.146787890103111773e-01,9.757587062062311745e-01,1.378973112587273818e+03
3.681435259024255086e-02,-1.079007787799907980e+01,-7.935386815009707995e+00,-6.772012391783882590e-02,-1.641678696534350571e-02,9.975682803311958224e-01,1.387649776671058817e+03
1.323030991435456549e+00,-8.623262124160710584e+00,-7.009729359694740758e+00,-1.734654396418937594e-01,-2.464284243967049537e-01,9.535097130599142767e-01,1.395205345963566742e+03
2.293973362303200592e+00,-6.640911154927088056e+00,-5.444512806727917820e+00,-3.142950039333656242e-01,-4.143807903046141106e-01,8.541107721648851792e-01,1.403882010047351741e+03
2.871936690897030520e+00,-5.186694756145144858e+00,-3.444881780888748857e+00,-4.369202993463234264e-01,-5.583318092038184188e-01,7.052405567241264439e-01,1.412558674131136740e+03
3.199109474333092340e+00,-4.219781972093788802e+00,-1.159690725140454015e+00,-5.342386610217774168e-01,-6.699435881785709146e-01,5.155217179960382978e-01,1.421235338214921740e+03
3.424114565459337012e+00,-3.702693618976143686e+00,1.262146339260975081e+00,-6.006131995673802404e-01,-7.427513252827003809e-01,2.959429899376328499e-01,1.429912002298706739e+03
3.701969262494233082e+00,-3.601447339652553481e+00,3.671686876909883601e+00,-6.321993374903291940e-01,-7.725378091963425176e-01,5.922272398111197433e-02,1.438588666382491738e+03
4.194043817190811652e+00,-3.885701785908823425e+00,5.919990906848316747e+00,-6.271675302913313210e-01,-7.575777309894348166e-01,-1.809278045360452059e-01,1.447265330466276737e+03
4.981124904163467981e+00,-4.517697770758220877e+00,7.895273069598038873e+00,-5.858092528408520572e-01,-6.987376344318159127e-01,-4.105986331105971332e-01,1.455941994550061736e+03
5.979179433956481660e+00,-5.438568181304638927e+00,9.560046938986399567e+00,-5.105201037807681752e-01,-5.994257065097522430e-01,-6.164868579372457802e-01,1.464618658633846735e+03
7.030289083390145244e+00,-6.575815267212986370e+00,1.091401182564361605e+01,-4.056610130777064116e-01,-4.653943254313373523e-01,-7.866671877765416543e-01,1.473295322717631734e+03
7.273837821712553442e+00,-6.867785273208001584e+00,1.119573764127151527e+01,-2.773056099133036079e-01,-3.044068254992148836e-01,-9.112826582899067329e-01,1.475350588592802978e+03
8.196430231507488173e+00,-8.147929289601460567e+00,1.222037892058564701e+01,-1.938353052932309528e-01,-2.489519594322672780e-01,-9.489198049977912719e-01,1.484027252676587977e+03
8.871374323082511282e+00,-9.470379013911925270e+00,1.293376671681901335e+01,-1.081438320942954973e-01,-1.906443332050492545e-01,-9.756831708076187937e-01,1.492703916760372977e+03
9.187452007310103141e+00,-1.075269299832424430e+01,1.333580435428764055e+01,-2.121313487555668426e-02,-1.301520984234343092e-01,-9.912660763817350285e-01,1.501380580844157976e+03
9.047939401240235213e+00,-1.191004796058907900e+01,1.342646001410992085e+01,6.596064243687066453e-02,-6.816843938971801908e-02,-9.954899585234455728e-01,1.510057244927942975e+03
8.370632138096299357e+00,-1.285556684583295173e+01,1.320576673634459830e+01,1.523785708407953410e-01,-5.403630240724240433e-03,-9.883064160113631536e-01,1.518733909011727974e+03
7.161364323016320199e+00,-1.354401444896205220e+01,1.270309653651166748e+01,2.370503824214945654e-01,5.742310368817469396e-02,-9.697977641534539783e-01,1.527410573095512973e+03
5.576620826573948086e+00,-1.401765087946737509e+01,1.200642840091643393e+01,3.190058172958583627e-01,1.195918270614057533e-01,-9.401760917146205765e-01,1.536087237179297972e+03
5.436746103895117699e+00,-1.404907943945690008e+01,1.194417276952994911e+01,3.973057413792026593e-01,1.803901439180564392e-01,-8.997808310052127778e-01,1.536793681076719395e+03
3.697331369784537802e+00,-1.439794619718299451e+01,1.117498861460679827e+01,3.467624479293059392e-01,2.227746636932915747e-01,-9.111120973405538725e-01,1.545470345160504394e+03
2.014046923954233570e+00,-1.472406261057311738e+01,1.045596000616142796e+01,2.946658510482729754e-01,2.641612602192054404e-01,-9.183620554135777381e-01,1.554147009244289393e+03
5.662058641216038968e-01,-1.512650196724878704e+01,9.904385376735103108e+00,2.412493114731028565e-01,3.043645480860533437e-01,-9.214982320006038785e-01,1.562823673328074392e+03
-4.851893337571643872e-01,-1.570823675653769769e+01,9.637528089912871465e+00,1.867521017935667438e-01,3.432044421698060566e-01,-9.205065797421881912e-01,1.571500337411859391e+03
-1.046922990138255294e+00,-1.649088782649291929e+01,9.625941636068802154e+00,1.314183349594711947e-01,3.805069640598429670e-01,-9.153915400179041262e-01,1.580177001495644390e+03
-1.128347453313071069e+00,-1.713059612072605375e+01,9.628647487523220860e+00,7.549587112731800942e-02,4.161050211577547175e-01,-9.061760230814327466e-01,1.586639509500936583e+03
-8.050401596829234174e-01,-1.786391136373423549e+01,9.237947185948780060e+00,3.779202419188645162e-02,3.794413424137286217e-01,-9.244425512491341035e-01,1.595316173584721582e+03
-4.843658102029337886e-01,-1.812953070028246927e+01,8.854630929607528955e+00,-2.895857483370166822e-05,3.416015934057054504e-01,-9.398437904933127918e-01,1.599338965808190324e+03
5.452994903779779801e-01,-1.842126276139467933e+01,7.457742429491418967e+00,-3.178380685679500495e-01,3.454604554205797928e-01,-8.829688759576581614e-01,1.608015629891975323e+03
1.894449093005361240e+00,-1.822305951194955043e+01,5.325078862312162542e+00,-6.025118341728920024e-01,3.133041939645787033e-01,-7.340422138582645140e-01,1.616692293975760322e+03
3.387583565071420999e+00,-1.749577576032855220e+01,2.825134081737207925e+00,-8.243722384945342263e-01,2.484851640367158054e-01,-5.085897518169337772e-01,1.625368958059545321e+03
4.857639402154459773e+00,-1.619631883174169928e+01,3.264785566397312988e-01,-9.602897191343724437e-01,1.577609200532828493e-01,-2.301155088839712259e-01,1.634045622143330320e+03
6.217338695274465366e+00,-1.434179639923887173e+01,-1.886980253686452169e+00,-9.960945387371218374e-01,5.058971564098612567e-02,7.234881180668029099e-02,1.642722286227115319e+03
7.403997205527387493e+00,-1.228284300104829008e+01,-3.579377456044560368e+00,-9.280540174711151558e-01,-6.185556543610455649e-02,3.672705129478339714e-01,1.650675198696688540e+03
8.718282812020730077e+00,-9.844647510662364098e+00,-5.030210525030812896e+00,-9.211583940212548782e-01,-1.429651966563134924e-01,3.619753661078534135e-01,1.659351862780473539e+03
1.010156338352844863e+01,-7.396268245740309943e+00,-6.024329433160498404e+00,-9.081330409776799950e-01,-2.231234707670150252e-01,3.542715013621106634e-01,1.668028526864258538e+03
1.156456039847350858e+01,-5.148575382308431259e+00,-6.532131925064346589e+00,-8.890646357650627829e-01,-3.017969895052977636e-01,3.442101836921938607e-01,1.676705190948043537e+03
1.307808187788495680e+01,-3.312236704638387152e+00,-6.524117201867908555e+00,-8.640800671127339960e-01,-3.784622349427869681e-01,3.318583648795567220e-01,1.685381855031828536e+03
1.457302904362050633e+01,-2.096814741333609788e+00,-5.970892073804177969e+00,-8.333455906874891461e-01,-4.526090527672218533e-01,3.172982379951400644e-01,1.694058519115613535e+03
1.594041264455102613e+01,-1.709864146921094008e+00,-4.843177096136947135e+00,-7.970657228571157438e-01,-5.237440466511577020e-01,3.006266905043412652e-01,1.702735183199398534e+03
1.703137894972779165e+01,-2.356029535604839520e+00,-3.111812687336701355e+00,-7.554818799397881035e-01,-5.913938611441890147e-01,2.819546596233750702e-01,1.711411847283183533e+03
1.760280280726543012e+01,-3.875407226953113682e+00,-1.103380349683299455e+00,-7.088707719834177468e-01,-6.551083312646770462e-01,2.614063942117285100e-01,1.719019715874761914e+03
1.760574723105285244e+01,-6.879304650690739820e+00,1.773573184779918321e+00,-9.462199895541660855e-01,-3.229013599755327091e-01,2.001107429441808389e-02,1.727696379958546913e+03
1.668455098207231657e+01,-1.148009071147910376e+01,5.337349290197676233e+00,-9.706997048672516559e-01,8.194828981470199392e-02,-2.258861677200548757e-01,1.736373044042331912e+03
1.494835965784296938e+01,-1.665757929955495342e+01,8.565305700630613472e+00,-7.768026575489993535e-01,4.683621689744119632e-01,-4.209661624153677728e-01,1.745049708126116911e+03
1.353547479090777195e+01,-1.975863847440587051e+01,9.803209657904876195e+00,-4.081496708531621720e-01,7.494093030109977294e-01,-5.213420592506397000e-01,1.751545912523394691e+03
1.195779599998417631e+01,-2.210772968519858495e+01,9.407462203724271887e+00,-3.230049898215359705e-01,8.698137346857863772e-01,-3.729475077047423315e-01,1.760222576607179690e+03
1.073500423784763314e+01,-2.272579518758403694e+01,7.145998784782962687e+00,-2.237230705162011057e-01,9.521482660375132356e-01,-2.082298422450828412e-01,1.768899240690964689e+03
9.783681483986050864e+00,-2.225377995056531333e+01,3.931655257032948825e+00,-1.146492707986125070e-01,9.928092941557933315e-01,-3.439840321998510059e-02,1.777575904774749688e+03
8.899520245184762146e+00,-2.132928276862113393e+01,6.774663178377523520e-01,-5.575169152750167811e-04,9.900171744680199559e-01,1.409385803607465515e-01,1.786252568858534687e+03
7.873108734468961423e+00,-2.042210610427830630e+01,-1.956956122270992360e+00,1.135586401391237843e-01,9.438941111000167528e-01,3.101069852184769049e-01,1.794929232942319686e+03
6.647060599714530227e+00,-1.967366176356584972e+01,-3.818991664187631585e+00,2.227045805916867960e-01,8.564588086545957824e-01,4.657026721656474244e-01,1.803605897026104685e+03
6.149702114983342405e+00,-1.942715369312806217e+01,-4.356120725851700293e+00,3.221032189084034880e-01,7.315381193376986335e-01,6.009155484137997938e-01,1.806808658367369162e+03
4.711360447562246812e+00,-1.882640528970863869e+01,-5.473585783302890917e+00,3.879049251655260488e-01,7.035378588337507511e-01,5.954512996196933416e-01,1.815485322451154161e+03
3.176384584928498178e+00,-1.833612070933990879e+01,-6.058083686187671901e+00,4.517113344207205339e-01,6.719187836802448244e-01,5.869242016585279886e-01,1.824161986534939160e+03
1.593413841121301688e+00,-1.793775703738467442e+01,-6.210868457850763136e+00,5.131942484701802476e-01,6.368435336515194667e-01,5.753781165307214618e-01,1.832838650618724159e+03
1.431579474733776780e-02,-1.761392725010951210e+01,-6.033284179164680516e+00,5.720374202152459508e-01,5.984925249813167758e-01,5.608724341720170425e-01,1.841515314702509158e+03
-1.523391621911883043e+00,-1.734476149484643770e+01,-5.612493108336234826e+00,6.279381800154112403e-01,5.570630224891529592e-01,5.434817669923954764e-01,1.850191978786294158e+03
-3.013204677276258625e+00,-1.710373927023512053e+01,-5.007206764881017236e+00,6.806089922392094538e-01,5.127681250975971716e-01,5.232955661630095401e-01,1.858868642870079157e+03
-4.110477939931503677e+00,-1.692159293471018700e+01,-4.460950260507797083e+00,7.297789340206555231e-01,4.658356699485105001e-01,5.004176616206862382e-01,1.865431305243040697e+03
-5.522412891852128247e+00,-1.665442554383881912e+01,-3.660892408363641604e+00,7.901516167083721953e-01,3.899371584876692998e-01,4.728714783578518155e-01,1.874107969326825696e+03
-6.887429845616074964e+00,-1.633230185560784875e+01,-2.799057116046501203e+00,8.424929908215040841e-01,3.100752324250296565e-01,4.405189106654925912e-01,1.882784633410610695e+03
-8.194760520280702565e+00,-1.592523188913267163e+01,-1.919999313908486771e+00,8.862710480263326085e-01,2.270616283718393247e-01,4.036887988936624372e-01,1.891461297494395694e+03
-9.427707453677189875e+00,-1.540353672647009020e+01,-1.068277498085915100e+00,9.210408194404324789e-01,1.417401166604459195e-01,3.627554937618372444e-01,1.900137961578180693e+03
-1.056364807539536699e+01,-1.473798262229084521e+01,-2.884444379767627242e-01,9.464488981571157478e-01,5.497792520629318780e-02,3.181350513823134052e-01,1.908814625661965692e+03
-1.157404022530635501e+01,-1.389991500962924853e+01,3.749621153997020340e-01,9.622370311650633168e-01,-3.234307500518730782e-02,2.702810044281426793e-01,1.917491289745750692e+03
-1.242442911224069313e+01,-1.286139237019896875e+01,8.774287187598635018e-01,9.682447441729227222e-01,-1.193353332332994232e-01,2.196797524225110598e-01,1.926167953829535691e+03
-1.307445569336693758e+01,-1.159531994170083280e+01,1.174475521976982462e+00,9.644109726710085040e-01,-2.051146400160455963e-01,1.668456179934249273e-01,1.934844617913320690e+03
-1.347786648100245799e+01,-1.007558323217906526e+01,1.221665548076593666e+00,9.507746826553171715e-01,-2.888091142553071422e-01,1.123156193298183309e-01,1.943521281997105689e+03
-1.358252478912943495e+01,-8.277181308959791650e+00,9.746139664830053562e-01,9.274744747002707790e-01,-3.695680650291162106e-01,5.664401195805326278e-02,1.952197946080890688e+03
-1.347110593849467897e+01,-7.091991915356302911e+00,6.971406154848783787e-01,8.947471753923780247e-01,-4.465706380769440265e-01,3.966553021032913199e-04,1.957337763481349839e+03
-1.298032368662500247e+01,-4.904337846137248214e+00,1.207901512146892370e-02,9.101435464565568179e-01,-4.141175723088872385e-01,1.197335149266846692e-02,1.966014427565134838e+03
-1.219211116633652559e+01,-2.514338258480540933e+00,-9.221489675786274098e-01,9.242436231069729446e-01,-3.810746953047465801e-01,2.353299262980040885e-02,1.974691091648919837e+03
-1.121737162728160087e+01,-3.298158734939753145e-02,-1.989866750120216965e+00,9.370273240440508689e-01,-3.474890680899642148e-01,3.505911508482950634e-02,1.983367755732704836e+03
-1.018717371973829344e+01,2.431517830242788669e+00,-3.075369873084836225e+00,9.484764426660239334e-01,-3.134085245839693945e-01,4.653530298039315616e-02,1.992044419816489835e+03
-9.252717411050634055e+00,4.774175534870556348e+00,-4.062950142416680954e+00,9.585746729848281245e-01,-2.788816034928848220e-01,5.794521156279169860e-02,2.000721083900274834e+03
-8.585295014852221129e+00,6.893691942857166133e+00,-4.836919772321326860e+00,9.673076328392097301e-01,-2.439574792006374837e-01,6.927259047301427553e-02,2.009397747984059833e+03
-8.302559017381870632e+00,8.728462895340991068e+00,-5.324506719496552520e+00,9.746628843707055845e-01,-2.086858917558790105e-01,8.050130688340020879e-02,2.018074412067844833e+03
-8.385619712773927148e+00,1.029026906957737530e+01,-5.538741060893979551e+00,9.806299517334355897e-01,-1.731170760541080877e-01,9.161536846709286697e-02,2.026751076151629832e+03
-8.738963669618744490e+00,1.162542345639149843e+01,-5.535581074113436806e+00,9.852003360125544118e-01,-1.373016903155217239e-01,1.025989461676773684e-01,2.035427740235414831e+03
-8.793111476051498343e+00,1.176807519993790763e+01,-5.524124861264214204e+00,9.883675273301412156e-01,-1.012907439601185705e-01,1.134363967366757570e-01,2.036431931246835802e+03
-9.314860674633095527e+00,1.292122813336044018e+01,-5.360563598363228266e+00,9.795479136392487574e-01,-1.766383378593648079e-01,9.634719758645336751e-02,2.045108595330620801e+03
-9.879729256945209315e+00,1.393774861846329927e+01,-5.098134212902679430e+00,9.648048804869752137e-01,-2.509177695555487864e-01,7.867538058006130763e-02,2.053785259414406028e+03
-1.036892325405807114e+01,1.485627030340036470e+01,-4.792895979946957929e+00,9.442275822387661277e-01,-3.236798686569432038e-01,6.052780819992713279e-02,2.062461923498191027e+03
-1.065623788489330792e+01,1.571261804743580015e+01,-4.500917055984592352e+00,9.179404522364349450e-01,-3.944846403794041168e-01,4.201421964605538129e-02,2.071138587581976026e+03
-1.060809049785020974e+01,1.653964059808547660e+01,-4.278262777674839867e+00,8.861024503411897291e-01,-4.629039258934806167e-01,2.324656730545562530e-02,2.079815251665761025e+03
-1.008355530401921207e+01,1.736704399328082005e+01,-4.180983961073395427e+00,8.489061017727139724e-01,-5.285239911111853095e-01,4.338339846592213951e-03,2.088491915749546024e+03
-8.934399896448869782e+00,1.822122572693842812e+01,-4.265105203167528281e+00,8.065763330527326858e-01,-5.909480282763669434e-01,-1.459612397226757279e-02,2.097168579833331023e+03
-7.810785337402481154e+00,1.876993465812249440e+01,-4.414226839920517342e+00,7.593691120831882468e-01,-6.497985552480869398e-01,-3.344232663610581524e-02,2.102574989166561409e+03
-5.222853896252671824e+00,1.969381306279045063e+01,-4.854161301469407164e+00,5.441734219147311702e-01,-8.388960727452892119e-01,-1.125459970993892243e-02,2.111251653250346408e+03
-2.202142806159756105e+00,2.056317085347962248e+01,-5.493532256473407926e+00,2.840510836036031495e-01,-9.587347223285317410e-01,1.186229765812144010e-02,2.119928317334131407e+03
-5.216375758879939761e-01,2.102899973572790771e+01,-5.989226375353642773e+00,4.775787955840540811e-04,-9.994207231506759825e-01,3.399985375844704477e-02,2.127724495732276409e+03
-1.027438905533778479e+00,2.095718999094483337e+01,-6.117769918278455954e+00,1.376973281681038719e-01,-9.899829689909659391e-01,3.116355118513419037e-02,2.136401159816061408e+03
-3.207803871102048898e+00,2.039391592173601708e+01,-5.645190235236477783e+00,2.723109303291074701e-01,-9.618083966727112299e-01,2.773743521943838539e-02,2.145077823899846408e+03
-5.286307212895994923e+00,1.964608141719847723e+01,-4.513761993751985280e+00,4.017706656573490354e-01,-9.154302495558430675e-01,2.378634933419421574e-02,2.153754487983631407e+03
-5.399668145141634845e+00,1.958988794380256238e+01,-4.406008188580864626e+00,5.236263539812185952e-01,-8.517262825501068502e-01,1.938507231451837287e-02,2.154387382205320137e+03
-6.245218256536080759e+00,1.889573749080442866e+01,-2.748448803554905062e+00,5.776516880864590586e-01,-8.130308080653106950e-01,-7.278346230246188209e-02,2.163064046289105136e+03
-6.398427823419774008e+00,1.838960371845109876e+01,-1.098360509272026775e+00,6.242188705281361827e-01,-7.638381898731990693e-01,-1.640122598009505772e-01,2.171740710372890135e+03
-6.419537013239742684e+00,1.834104495439985882e+01,-9.147398508953996643e-01,6.627266859758643713e-01,-7.047835395515767987e-01,-2.531234917374725057e-01,2.172833140906843255e+03
-6.760299976420244938e+00,1.809864042000868523e+01,2.549984373453929587e-01,6.226193314810994917e-01,-7.661418307842633446e-01,-1.592791988554682625e-01,2.181509804990628254e+03
-7.119027032402943433e+00,1.813052923765778601e+01,9.949969319944756974e-01,5.736831098580679189e-01,-8.166360529135998636e-01,-6.317631316319602397e-02,2.190186469074413253e+03
-6.926478949450376454e+00,1.841250664839076734e+01,1.576985361385996764e+00,5.166119439567720129e-01,-8.555501991954829188e-01,3.382241885787759528e-02,2.198863133158198252e+03
-5.617009371059264566e+00,1.890739406776789977e+01,2.272726428813796495e+00,4.522151066478954373e-01,-8.823324645270989031e-01,1.303415488646824660e-01,2.207539797241983251e+03
-3.665840271644233539e+00,1.934487390742538437e+01,2.936375396350671352e+00,3.814057466899984927e-01,-8.966030691146423814e-01,2.250124282017299249e-01,2.213652121309497488e+03
-5.669128818358987187e-01,2.004296918505153613e+01,4.438328377849400930e+00,2.248722327751002670e-01,-9.565245588071853433e-01,1.857181933053050071e-01,2.222328785393282487e+03
6.420973670569372072e-01,2.054030846180495828e+01,6.491343564359250529e+00,6.167412076476943422e-02,-9.880971227945438695e-01,1.409197599776838561e-01,2.231005449477067486e+03
6.211904280341808970e-01,2.055947003665622930e+01,6.655191460754598332e+00,-1.033518857939640101e-01,-9.903850452341911303e-01,9.194481974545434810e-02,2.231662615805189489e+03
-2.737218232730440071e-01,1.993424103050112706e+01,7.905733261737657003e+00,6.301754325891968656e-02,-9.919053804114837947e-01,-1.102293316359485992e-01,2.240339279888974488e+03
-1.987435666002440149e+00,1.761726963979814897e+01,7.264317839630779261e+00,2.250667867825079660e-01,-9.254250107158805694e-01,-3.048466680633679649e-01,2.249015943972759487e+03
-4.030652587951222721e+00,1.435648237244673098e+01,5.468492544289436097e+00,3.716864448933775988e-01,-7.955015208766211821e-01,-4.785650603270903414e-01,2.257692608056544486e+03
-6.040044166834420913e+00,1.154029041756181151e+01,4.135741249926276453e+00,4.928248980606859675e-01,-6.110418989222160535e-01,-6.194751146037981160e-01,2.266369272140329485e+03
-7.589398663711486748e+00,1.007464535149382279e+01,4.282983385145490374e+00,5.801774127587353558e-01,-3.846919104920553667e-01,-7.179166412105387751e-01,2.275045936224114485e+03
-8.511090867050217668e+00,9.913001083136755653e+00,5.725893941514584640e+00,6.277554846023420954e-01,-1.319691475601838804e-01,-7.671409229369277050e-01,2.283722600307899484e+03
-8.668562075659922428e+00,1.003027979948419102e+01,6.294421037493935778e+00,6.322973831780204224e-01,1.298008063979531612e-01,-7.637733759993341476e-01,2.286302034248829841e+03
-8.896148234414807732e+00,1.064641314772851111e+01,8.167057472779269744e+00,7.784309356234835331e-01,1.032565423736484522e-01,-6.191779751588262215e-01,2.294978698332614840e+03
-8.803991000107606268e+00,1.137703909874158725e+01,9.531722206668460373e+00,8.911172168328805876e-01,7.227560594113323356e-02,-4.479780604564741475e-01,2.303655362416399839e+03
-8.684138738623182974e+00,1.171205043572689242e+01,9.603359669862587822e+00,9.655144084626975376e-01,3.818916572666335857e-02,-2.575296384348502721e-01,2.312332026500184838e+03
-8.701423072167674633e+00,1.168574252510224376e+01,9.242252419220610804e+00,9.984258479264095376e-01,2.461823910954522888e-03,-5.601576220585123556e-02,2.315663338849083175e+03
-8.811694038753996594e+00,1.150522886132852207e+01,7.693476171704790367e+00,9.978336451192315604e-01,-5.262142432789058098e-04,-6.577035557346179451e-02,2.324340002932868174e+03
-8.815106153888615736e+00,1.149626426256611644e+01,7.609577215486972968e+00,9.971372372176253718e-01,-3.514197443821453701e-03,-7.551808045394721447e-02,2.324706374150830470e+03
-8.888305873599637863e+00,1.141653387520573482e+01,5.846600728523875468e+00,9.997331442346399921e-01,2.736044274841437779e-03,-2.289441734357430466e-02,2.333027701794162112e+03
-8.864430510076411807e+00,1.146672766253317022e+01,4.388717920931961558e+00,9.988659489283496784e-01,-2.286919787751390265e-03,4.753510327922617906e-02,2.340429736949079143e+03
-8.538297065371445171e+00,1.153542913454940511e+01,2.680338091345590978e+00,9.916696873990518135e-01,1.902248442147598745e-03,-1.287851409992162299e-01,2.349106401032864142e+03
-8.446060673631762938e+00,1.147067554877504314e+01,1.683280411901387774e+00,9.535747574671248339e-01,6.032145983753362667e-03,-3.010926686807863240e-01,2.354278342309909476e+03
-8.757486866147822013e+00,1.137789592461358090e+01,4.494182436088448029e-01,9.718776617803684958e-01,-6.094379479409471785e-03,-2.354032052563152511e-01,2.360360353966545063e+03
-9.139283130883292472e+00,1.228650676384446072e+01,-1.722598804733963096e+00,9.771056938610706011e-01,-1.753287413141513262e-01,-1.205084872284722247e-01,2.369037018050330062e+03
-8.953840512216064695e+00,1.438351764555707035e+01,-4.186381522368791686e+00,9.414238036759413619e-01,-3.372223286325474190e-01,-5.682822428918983581e-04,2.377713682134115061e+03
-8.364189578431236782e+00,1.648152317749729434e+01,-6.293904704120078186e+00,8.663259475023551426e-01,-4.849969252308881096e-01,1.193957084717771067e-01,2.386390346217900060e+03
-7.634535690806480979e+00,1.777703147840200870e+01,-7.653301436276723102e+00,7.549563491436784846e-01,-6.124654526992262538e-01,2.343607905307862893e-01,2.395067010301685059e+03
-6.961746795336856586e+00,1.823077611885912219e+01,-8.354897487782119825e+00,6.119778604745294004e-01,-7.142910049362281022e-01,3.395135616682152246e-01,2.403130164613318811e+03
-6.250910028382262951e+00,1.823841057841193702e+01,-8.868812498284528445e+00,5.597693455814288788e-01,-7.213029534200325887e-01,4.078949976774245978e-01,2.411806828697103811e+03
-5.499509638183696758e+00,1.805482127189239705e+01,-9.481813236997501448e+00,5.033900396892300177e-01,-7.229405227711446225e-01,4.732372221966930081e-01,2.420483492780888810e+03
-4.979620457737442329e+00,1.794323350275874063e+01,-9.994500336349718239e+00,4.432599964480699595e-01,-7.191915121869341121e-01,5.350534032618315949e-01,2.425813156632938899e+03
-4.020163493645998010e+00,1.772166308771639365e+01,-1.101595623488407227e+01,3.736217012147759475e-01,-6.321149130179122277e-01,6.788487026740110952e-01,2.434489820716723898e+03
-2.974488916364922186e+00,1.728094365994069292e+01,-1.213932781672822081e+01,2.916131883810126335e-01,-5.241096550271954202e-01,8.001679935301806434e-01,2.443166484800508897e+03
